ply
format ascii 1.0
element vertex 2936
property float32 x
property float32 y
property float32 z
end_header
-5.72 20.57 2.49
-6.00 20.02 2.44
-6.27 19.49 2.39
-6.66 19.36 2.39
-7.05 19.22 2.39
-7.43 19.08 2.39
-7.81 18.93 2.39
-8.19 18.77 2.39
-8.57 18.60 2.39
-8.49 17.50 2.27
-8.48 16.62 2.18
-9.67 18.05 2.39
-10.79 19.21 2.57
-8.37 14.23 1.93
-8.45 13.72 1.88
-8.73 13.55 1.88
-9.75 14.49 2.04
-9.74 13.87 1.98
-9.74 13.29 1.92
-9.73 12.74 1.87
-9.73 12.22 1.82
-9.73 11.72 1.78
-9.72 11.25 1.74
-9.72 10.80 1.70
-9.72 10.37 1.66
-9.71 9.96 1.62
-9.71 9.57 1.59
-9.71 9.19 1.56
-9.70 8.82 1.53
-9.70 8.47 1.50
-9.63 8.08 1.47
-9.70 7.80 1.45
-9.69 7.48 1.43
-9.69 7.18 1.41
-9.69 6.88 1.39
-9.69 6.59 1.37
-9.68 6.31 1.35
-9.68 6.03 1.33
-9.68 5.76 1.32
-9.68 5.50 1.30
-9.68 5.25 1.29
-9.67 5.00 1.27
-9.67 4.75 1.26
-9.67 4.51 1.25
-9.67 4.28 1.24
-9.60 4.02 1.22
-9.66 3.82 1.22
-9.66 3.60 1.21
-9.66 3.38 1.20
-9.66 3.16 1.19
-9.66 2.95 1.18
-9.66 2.74 1.18
-9.65 2.53 1.17
-9.65 2.32 1.16
-9.65 2.12 1.16
-9.65 1.91 1.15
-9.65 1.71 1.15
-9.65 1.51 1.15
-9.64 1.32 1.14
-9.64 1.12 1.14
-9.64 0.92 1.14
-9.64 0.73 1.14
-9.64 0.53 1.14
-9.64 0.34 1.13
-9.64 0.15 1.13
-9.61 -0.05 1.13
-9.63 -0.24 1.13
-9.63 -0.43 1.14
-9.63 -0.63 1.14
-9.63 -0.82 1.14
-9.63 -1.02 1.14
-9.63 -1.21 1.14
-9.62 -1.41 1.15
-9.62 -1.61 1.15
-9.62 -1.80 1.16
-9.62 -2.01 1.16
-9.62 -2.21 1.17
-9.62 -2.41 1.17
-9.61 -2.62 1.18
-9.61 -2.82 1.18
-9.61 -3.04 1.19
-9.61 -3.25 1.20
-9.61 -3.46 1.21
-9.61 -3.68 1.22
-9.56 -3.89 1.22
-9.60 -4.13 1.24
-9.60 -4.36 1.25
-9.60 -4.59 1.26
-9.60 -4.83 1.27
-9.59 -5.08 1.29
-9.59 -5.32 1.30
-9.59 -5.58 1.32
-9.59 -5.84 1.33
-9.59 -6.10 1.35
-9.58 -6.37 1.37
-9.58 -6.65 1.39
-9.58 -6.94 1.41
-9.58 -7.24 1.43
-9.58 -7.54 1.45
-9.57 -7.86 1.47
-9.57 -8.18 1.50
-9.57 -8.52 1.53
-9.57 -8.87 1.55
-9.56 -9.23 1.58
-9.56 -9.60 1.62
-9.56 -9.99 1.65
-9.55 -10.40 1.69
-9.55 -10.82 1.72
-9.55 -11.27 1.76
-9.54 -11.73 1.81
-9.54 -12.22 1.85
-9.53 -12.74 1.90
-9.53 -13.28 1.95
-9.53 -13.85 2.01
-9.52 -14.46 2.07
-9.49 -15.05 2.13
-9.46 -15.70 2.19
-9.60 -17.49 2.39
-9.25 -17.67 2.39
-8.89 -17.85 2.39
-8.52 -18.02 2.39
-8.16 -18.18 2.39
-7.79 -18.34 2.39
-7.42 -18.49 2.39
-6.24 -16.51 2.12
-6.67 -18.76 2.39
-6.29 -18.88 2.39
-5.90 -19.00 2.39
-5.67 -19.63 2.46
-5.36 -20.04 2.49
-4.95 -20.14 2.49
-4.54 -20.23 2.49
-4.14 -20.31 2.49
-3.73 -20.39 2.49
-3.32 -20.45 2.49
-2.90 -20.51 2.49
-2.49 -20.56 2.49
-2.08 -20.60 2.49
-1.66 -20.64 2.49
-1.25 -20.66 2.49
-0.83 -20.68 2.49
-0.24 -12.06 1.45
-0.00 -10.98 1.58
0.22 -10.98 1.58
0.44 -10.98 1.58
0.66 -10.98 1.58
0.88 -10.98 1.58
1.10 -10.98 1.58
1.33 -10.97 1.59
1.55 -10.97 1.59
2.66 -16.43 2.39
2.99 -16.37 2.39
3.32 -16.31 2.39
3.64 -16.24 2.39
3.97 -16.16 2.39
4.29 -16.08 2.39
4.61 -15.98 2.39
4.93 -15.89 2.39
5.25 -15.78 2.39
5.57 -15.67 2.39
5.88 -15.56 2.39
6.19 -15.44 2.39
6.53 -15.38 2.40
6.79 -15.14 2.38
7.05 -14.91 2.37
7.28 -14.64 2.35
7.06 -13.51 2.19
6.75 -12.30 2.02
6.66 -11.58 1.92
6.69 -11.11 1.86
6.65 -10.56 1.79
6.68 -10.15 1.75
6.67 -9.71 1.69
6.66 -9.29 1.64
6.67 -8.91 1.60
6.63 -8.50 1.55
6.66 -8.20 1.52
6.72 -7.94 1.49
6.88 -7.81 1.50
7.17 -7.80 1.52
7.46 -7.80 1.55
7.76 -7.80 1.58
8.08 -7.80 1.61
8.37 -7.76 1.64
8.75 -7.79 1.68
9.11 -7.79 1.72
9.44 -7.75 1.75
9.88 -7.78 1.81
10.25 -7.75 1.84
10.73 -7.78 1.90
11.14 -7.74 1.95
11.68 -7.77 2.01
12.14 -7.73 2.07
11.62 -7.07 1.95
11.61 -6.76 1.93
11.61 -6.45 1.91
11.61 -6.14 1.88
11.61 -5.85 1.86
11.60 -5.56 1.85
11.60 -5.27 1.83
11.60 -4.99 1.81
11.60 -4.72 1.79
11.60 -4.45 1.78
11.59 -4.18 1.77
11.59 -3.92 1.75
11.59 -3.66 1.74
11.59 -3.41 1.73
11.59 -3.15 1.72
11.58 -2.90 1.71
11.58 -2.66 1.70
11.58 -2.41 1.69
11.58 -2.17 1.69
11.58 -1.93 1.68
11.57 -1.69 1.67
11.57 -1.46 1.67
11.57 -1.22 1.66
11.57 -0.99 1.66
11.57 -0.75 1.66
11.57 -0.52 1.65
11.56 -0.29 1.65
11.60 -0.06 1.66
15.65 0.24 2.23
11.58 0.41 1.65
11.58 0.64 1.65
14.26 1.08 2.04
14.24 1.37 2.04
14.21 1.65 2.04
14.18 1.94 2.04
14.14 2.22 2.04
14.10 2.51 2.04
14.05 2.79 2.04
13.99 3.07 2.04
13.93 3.35 2.04
13.86 3.63 2.04
13.79 3.91 2.04
2.54 0.78 0.38
2.49 0.82 0.37
2.50 0.87 0.38
13.46 5.02 2.04
13.37 5.29 2.04
14.38 6.03 2.21
14.02 6.21 2.18
13.28 6.20 2.08
12.67 6.23 2.00
11.98 6.19 1.91
11.47 6.22 1.85
10.93 6.22 1.78
10.43 6.21 1.72
9.96 6.21 1.66
9.53 6.21 1.61
9.07 6.17 1.55
8.73 6.20 1.52
8.32 6.16 1.46
7.98 6.17 1.43
7.69 6.19 1.40
7.68 6.44 1.42
11.19 9.77 2.10
11.19 10.17 2.14
11.18 10.59 2.18
11.18 11.02 2.22
10.94 11.22 2.21
10.69 11.42 2.21
10.54 11.72 2.22
10.39 12.03 2.24
10.24 12.35 2.26
10.08 12.67 2.28
9.85 12.90 2.29
9.48 12.94 2.26
9.08 12.94 2.23
8.81 13.10 2.22
8.58 13.33 2.23
8.34 13.55 2.24
8.11 13.79 2.25
7.88 14.03 2.26
7.64 14.27 2.28
7.40 14.52 2.29
7.16 14.78 2.31
6.92 15.03 2.33
6.67 15.29 2.34
6.53 15.84 2.41
6.22 15.97 2.41
5.86 15.99 2.39
5.54 16.11 2.39
5.21 16.22 2.39
4.89 16.32 2.39
4.56 16.42 2.39
4.23 16.51 2.39
3.90 16.60 2.39
3.56 16.68 2.39
3.23 16.75 2.39
2.89 16.81 2.39
2.56 16.87 2.39
2.22 16.92 2.39
1.96 17.70 2.49
1.60 17.74 2.49
1.25 17.77 2.49
0.89 17.79 2.49
0.53 17.81 2.49
0.18 17.82 2.49
-0.18 17.82 2.49
-0.54 17.82 2.49
-0.90 17.81 2.49
-1.25 17.79 2.49
-1.61 17.76 2.49
-1.97 17.73 2.49
-2.32 17.69 2.49
-2.68 17.64 2.49
-3.03 17.58 2.49
-3.38 17.52 2.49
-3.74 17.45 2.49
-4.09 17.37 2.49
-4.43 17.29 2.49
-4.78 17.20 2.49
-5.12 17.10 2.49
-5.47 17.00 2.49
-5.81 16.88 2.49
-5.97 16.30 2.42
-6.21 15.95 2.39
-6.53 15.82 2.39
-6.85 15.69 2.39
-7.16 15.55 2.39
-7.47 15.40 2.39
-7.78 15.25 2.39
-8.09 15.09 2.39
-8.39 14.93 2.39
-8.57 14.56 2.36
-8.98 14.58 2.39
-8.75 13.58 2.26
-9.56 14.21 2.39
-8.36 11.90 2.03
-8.35 11.40 1.97
-8.35 10.93 1.92
-8.39 10.54 1.88
-8.68 10.46 1.90
-9.72 11.25 2.08
-9.72 10.80 2.03
-9.72 10.37 1.98
-9.71 9.96 1.94
-9.71 9.57 1.90
-9.71 9.19 1.87
-9.70 8.82 1.83
-9.70 8.47 1.80
-9.63 8.08 1.76
-9.70 7.80 1.74
-9.69 7.48 1.71
-9.69 7.18 1.69
-9.69 6.88 1.66
-9.69 6.59 1.64
-9.68 6.31 1.62
-9.68 6.03 1.60
-9.68 5.76 1.58
-9.68 5.50 1.56
-9.68 5.25 1.54
-9.67 5.00 1.52
-9.67 4.75 1.51
-9.67 4.51 1.49
-9.67 4.28 1.48
-9.60 4.02 1.46
-9.66 3.82 1.46
-9.66 3.60 1.44
-9.66 3.38 1.43
-9.66 3.16 1.42
-9.66 2.95 1.42
-9.66 2.74 1.41
-9.65 2.53 1.40
-9.65 2.32 1.39
-9.65 2.12 1.39
-9.65 1.92 1.38
-9.65 1.71 1.37
-9.65 1.52 1.37
-9.64 1.32 1.37
-9.64 1.12 1.36
-9.64 0.92 1.36
-9.64 0.73 1.36
-9.64 0.53 1.36
-9.64 0.34 1.36
-9.64 0.15 1.35
-9.61 -0.05 1.35
-9.63 -0.24 1.36
-9.63 -0.43 1.36
-9.63 -0.63 1.36
-9.63 -0.82 1.36
-9.63 -1.02 1.36
-9.63 -1.21 1.37
-9.62 -1.41 1.37
-9.62 -1.61 1.37
-9.62 -1.80 1.38
-9.62 -2.00 1.39
-9.62 -2.21 1.39
-9.62 -2.41 1.40
-9.61 -2.62 1.41
-9.61 -2.82 1.41
-9.61 -3.03 1.42
-9.61 -3.25 1.43
-9.61 -3.46 1.44
-9.61 -3.68 1.45
-9.56 -3.89 1.46
-9.60 -4.13 1.48
-9.60 -4.36 1.49
-9.60 -4.59 1.51
-9.60 -4.83 1.52
-9.59 -5.07 1.54
-9.59 -5.32 1.55
-9.59 -5.58 1.57
-9.59 -5.84 1.59
-9.59 -6.10 1.61
-9.58 -6.37 1.63
-9.58 -6.65 1.65
-9.58 -6.94 1.68
-9.58 -7.24 1.70
-9.58 -7.54 1.73
-9.57 -7.86 1.76
-9.57 -8.18 1.79
-9.57 -8.52 1.82
-9.57 -8.87 1.85
-9.56 -9.23 1.89
-9.56 -9.60 1.93
-9.56 -9.99 1.97
-9.55 -10.40 2.01
-9.55 -10.82 2.05
-9.55 -11.27 2.10
-9.49 -11.67 2.14
-9.48 -12.15 2.20
-9.50 -13.82 2.39
-9.22 -14.00 2.39
-8.94 -14.18 2.39
-8.65 -14.35 2.39
-8.36 -14.52 2.39
-8.06 -14.68 2.39
-7.76 -14.84 2.39
-7.46 -14.99 2.39
-7.16 -15.13 2.39
-6.85 -15.27 2.39
-6.54 -15.40 2.39
-6.23 -15.52 2.39
-5.92 -15.65 2.39
-5.70 -16.03 2.43
-5.51 -16.54 2.49
-5.17 -16.65 2.49
-4.84 -16.74 2.49
-4.50 -16.83 2.49
-4.16 -16.92 2.49
-3.82 -16.99 2.49
-3.48 -17.06 2.49
-3.13 -17.13 2.49
-2.79 -17.18 2.49
-2.44 -17.23 2.49
-2.09 -17.27 2.49
-1.75 -17.31 2.49
-1.40 -17.34 2.49
-1.05 -17.36 2.49
-0.44 -10.99 1.58
-0.22 -10.99 1.58
-0.00 -10.98 1.83
0.22 -10.98 1.83
0.44 -10.98 1.83
0.66 -10.98 1.83
0.88 -10.98 1.83
1.10 -10.98 1.84
1.33 -10.97 1.84
1.55 -10.97 1.85
2.32 -14.34 2.42
2.58 -14.11 2.39
2.86 -14.05 2.39
3.14 -13.99 2.39
3.42 -13.92 2.39
3.70 -13.85 2.39
3.97 -13.77 2.39
4.25 -13.69 2.39
4.52 -13.60 2.39
4.80 -13.51 2.39
5.07 -13.41 2.39
5.33 -13.30 2.39
5.60 -13.19 2.39
5.86 -13.08 2.39
6.12 -12.96 2.39
6.43 -12.92 2.41
6.68 -12.78 2.41
6.75 -12.30 2.34
6.66 -11.58 2.23
6.69 -11.11 2.16
6.65 -10.56 2.08
6.68 -10.15 2.03
6.67 -9.71 1.97
6.66 -9.29 1.91
6.67 -8.91 1.86
6.63 -8.50 1.80
6.66 -8.20 1.76
6.72 -7.94 1.73
6.88 -7.81 1.74
7.17 -7.80 1.77
7.46 -7.80 1.80
7.76 -7.80 1.83
8.08 -7.80 1.87
8.37 -7.76 1.90
8.75 -7.79 1.95
9.11 -7.79 2.00
9.44 -7.75 2.04
9.88 -7.78 2.10
10.25 -7.75 2.14
10.62 -7.70 2.19
10.68 -7.42 2.17
10.72 -7.13 2.15
10.77 -6.86 2.13
10.84 -6.60 2.11
11.00 -6.40 2.12
11.20 -6.21 2.13
11.39 -6.02 2.15
11.57 -5.83 2.16
11.60 -5.56 2.14
11.60 -5.27 2.12
11.60 -4.99 2.10
11.60 -4.72 2.08
11.60 -4.45 2.07
11.59 -4.18 2.05
11.59 -3.92 2.04
11.59 -3.66 2.02
11.59 -3.41 2.01
11.59 -3.15 2.00
11.58 -2.90 1.99
11.58 -2.66 1.97
11.58 -2.41 1.97
11.58 -2.17 1.96
11.58 -1.93 1.95
11.57 -1.69 1.94
11.57 -1.46 1.94
11.57 -1.22 1.93
11.57 -0.99 1.93
11.57 -0.75 1.92
11.57 -0.52 1.92
11.56 -0.29 1.92
11.56 -0.05 1.92
11.69 0.18 1.94
12.53 0.44 2.08
11.59 0.64 1.92
12.40 0.94 2.06
12.38 1.19 2.06
12.36 1.44 2.06
12.34 1.69 2.06
12.31 1.94 2.06
12.28 2.18 2.06
12.25 2.43 2.07
12.21 2.68 2.07
12.17 2.93 2.07
12.12 3.18 2.07
12.07 3.42 2.07
2.54 0.78 0.44
2.49 0.82 0.43
2.50 0.87 0.44
11.84 4.41 2.09
11.77 4.65 2.09
11.69 4.90 2.09
11.62 5.14 2.10
12.11 5.66 2.21
12.02 5.91 2.21
11.91 6.16 2.21
11.47 6.22 2.15
10.93 6.22 2.07
10.43 6.21 2.00
9.96 6.21 1.93
9.53 6.21 1.87
9.06 6.17 1.81
8.73 6.20 1.76
8.32 6.16 1.70
7.98 6.17 1.66
7.69 6.19 1.62
7.68 6.44 1.65
10.36 9.05 2.26
10.23 9.30 2.27
10.09 9.56 2.28
9.94 9.80 2.29
9.79 10.05 2.30
9.64 10.29 2.31
9.48 10.55 2.33
9.33 10.80 2.34
9.17 11.07 2.36
9.01 11.33 2.37
8.85 11.59 2.39
8.67 11.84 2.41
8.43 12.02 2.41
8.19 12.19 2.41
7.95 12.35 2.41
7.70 12.51 2.41
7.45 12.67 2.41
7.20 12.82 2.41
6.94 12.96 2.41
6.61 12.96 2.38
6.32 13.03 2.37
6.10 13.25 2.39
5.84 13.40 2.39
5.57 13.52 2.39
5.30 13.63 2.39
5.03 13.74 2.39
4.75 13.84 2.39
4.48 13.93 2.39
4.20 14.02 2.39
3.92 14.11 2.39
3.63 14.18 2.39
3.35 14.26 2.39
3.06 14.32 2.39
2.77 14.38 2.39
2.48 14.44 2.39
2.19 14.49 2.39
1.99 15.16 2.49
1.68 15.20 2.49
1.38 15.23 2.49
1.07 15.26 2.49
0.76 15.28 2.49
0.46 15.29 2.49
0.15 15.30 2.49
-0.16 15.30 2.49
-0.46 15.30 2.49
-0.77 15.29 2.49
-1.08 15.27 2.49
-1.38 15.25 2.49
-1.69 15.22 2.49
-1.99 15.18 2.49
-2.30 15.14 2.49
-2.60 15.10 2.49
-2.91 15.04 2.49
-3.21 14.98 2.49
-3.51 14.92 2.49
-3.81 14.84 2.49
-4.10 14.77 2.49
-4.40 14.68 2.49
-4.69 14.59 2.49
-4.99 14.49 2.49
-5.28 14.39 2.49
-5.56 14.28 2.49
-5.85 14.17 2.49
-5.95 13.64 2.42
-6.16 13.37 2.40
-6.41 13.22 2.39
-6.68 13.09 2.39
-6.94 12.95 2.39
-7.20 12.81 2.39
-7.45 12.67 2.39
-7.71 12.51 2.39
-7.96 12.36 2.39
-8.20 12.19 2.39
-8.45 12.03 2.39
-8.55 11.67 2.35
-8.92 11.68 2.39
-8.51 10.69 2.22
-9.38 11.31 2.39
-9.61 11.12 2.39
-9.83 10.92 2.39
-8.33 8.90 1.98
-8.33 8.54 1.94
-8.33 8.21 1.90
-8.40 7.95 1.88
-8.55 7.78 1.88
-8.78 7.67 1.90
-9.63 8.08 2.05
-9.70 7.80 2.03
-9.69 7.48 1.99
-9.69 7.18 1.96
-9.69 6.88 1.93
-9.69 6.59 1.91
-9.68 6.31 1.88
-9.68 6.03 1.86
-9.68 5.76 1.84
-9.68 5.50 1.81
-9.68 5.25 1.79
-9.67 5.00 1.77
-9.67 4.75 1.76
-9.67 4.51 1.74
-9.67 4.28 1.72
-9.60 4.02 1.70
-9.66 3.82 1.69
-9.66 3.60 1.68
-9.66 3.38 1.67
-9.66 3.16 1.66
-9.66 2.95 1.65
-9.66 2.74 1.64
-9.65 2.53 1.63
-9.65 2.32 1.62
-9.65 2.12 1.61
-9.65 1.92 1.61
-9.65 1.71 1.60
-9.65 1.52 1.60
-9.64 1.32 1.59
-9.64 1.12 1.59
-9.64 0.92 1.58
-9.64 0.73 1.58
-9.64 0.54 1.58
-9.64 0.34 1.58
-9.64 0.15 1.58
-9.61 -0.05 1.57
-9.63 -0.24 1.58
-9.63 -0.43 1.58
-9.63 -0.63 1.58
-9.63 -0.82 1.58
-9.63 -1.02 1.59
-9.63 -1.21 1.59
-9.62 -1.41 1.59
-9.62 -1.61 1.60
-9.62 -1.80 1.61
-9.62 -2.00 1.61
-9.62 -2.21 1.62
-9.62 -2.41 1.63
-9.61 -2.62 1.64
-9.61 -2.82 1.65
-9.61 -3.03 1.66
-9.61 -3.25 1.67
-9.61 -3.46 1.68
-9.61 -3.68 1.69
-9.56 -3.89 1.70
-9.60 -4.13 1.72
-9.60 -4.36 1.73
-9.60 -4.59 1.75
-9.60 -4.83 1.77
-9.59 -5.07 1.79
-9.59 -5.32 1.81
-9.59 -5.58 1.83
-9.59 -5.84 1.85
-9.59 -6.10 1.87
-9.58 -6.37 1.90
-9.58 -6.65 1.92
-9.58 -6.94 1.95
-9.58 -7.24 1.98
-9.58 -7.54 2.01
-9.57 -7.86 2.04
-9.57 -8.18 2.08
-9.57 -8.52 2.12
-9.51 -8.82 2.14
-9.51 -9.17 2.18
-9.56 -10.84 2.39
-9.34 -11.03 2.39
-9.12 -11.21 2.39
-8.89 -11.39 2.39
-8.66 -11.56 2.39
-8.42 -11.73 2.39
-8.18 -11.89 2.39
-7.94 -12.05 2.39
-7.69 -12.21 2.39
-7.45 -12.36 2.39
-7.19 -12.50 2.39
-6.94 -12.64 2.39
-6.68 -12.77 2.39
-6.42 -12.90 2.39
-6.16 -13.03 2.39
-5.90 -13.14 2.39
-5.74 -13.51 2.44
-5.60 -13.94 2.49
-5.31 -14.05 2.49
-5.03 -14.15 2.49
-4.74 -14.25 2.49
-4.46 -14.34 2.49
-4.17 -14.42 2.49
-3.88 -14.50 2.49
-3.58 -14.57 2.49
-3.29 -14.64 2.49
-2.99 -14.70 2.49
-2.70 -14.75 2.49
-2.40 -14.80 2.49
-2.10 -14.84 2.49
-1.80 -14.88 2.49
-1.50 -14.91 2.49
-1.20 -14.94 2.49
-0.90 -14.95 2.49
-0.44 -10.99 1.83
-0.22 -10.98 1.83
-0.00 -10.98 2.08
0.22 -10.98 2.08
0.44 -10.98 2.09
0.66 -10.98 2.09
0.88 -10.98 2.09
1.10 -10.97 2.09
1.33 -10.97 2.10
1.55 -10.97 2.10
2.10 -12.96 2.49
2.30 -12.62 2.44
2.51 -12.33 2.39
2.75 -12.28 2.39
3.00 -12.22 2.39
3.25 -12.16 2.39
3.49 -12.09 2.39
3.73 -12.02 2.39
3.97 -11.94 2.39
4.21 -11.86 2.39
4.41 -11.68 2.37
4.65 -11.59 2.37
4.88 -11.50 2.37
5.11 -11.40 2.37
5.38 -11.37 2.39
5.60 -11.26 2.39
5.83 -11.15 2.39
6.05 -11.03 2.39
6.27 -10.90 2.39
6.53 -10.85 2.41
6.65 -10.56 2.37
6.68 -10.15 2.31
6.67 -9.71 2.24
6.66 -9.29 2.17
6.67 -8.91 2.12
6.63 -8.50 2.05
6.66 -8.20 2.01
6.72 -7.94 1.98
6.88 -7.81 1.98
7.17 -7.80 2.01
7.46 -7.80 2.05
7.76 -7.80 2.09
8.08 -7.80 2.13
8.37 -7.76 2.17
8.75 -7.79 2.23
9.11 -7.79 2.28
9.44 -7.75 2.32
9.53 -7.51 2.30
9.62 -7.27 2.29
9.71 -7.04 2.28
9.80 -6.81 2.27
9.88 -6.57 2.25
9.97 -6.34 2.24
10.05 -6.12 2.23
10.12 -5.89 2.22
10.20 -5.66 2.21
10.27 -5.43 2.20
10.34 -5.21 2.20
10.40 -4.98 2.19
10.46 -4.75 2.18
10.51 -4.52 2.17
10.55 -4.29 2.16
10.60 -4.06 2.15
10.64 -3.83 2.14
10.67 -3.61 2.14
10.71 -3.38 2.13
10.74 -3.16 2.12
10.77 -2.93 2.11
10.79 -2.71 2.11
10.83 -2.49 2.11
10.93 -2.28 2.11
11.02 -2.07 2.12
11.11 -1.85 2.13
11.20 -1.64 2.14
11.27 -1.42 2.15
11.35 -1.20 2.16
11.41 -0.97 2.17
11.48 -0.75 2.18
11.52 -0.52 2.18
11.54 -0.29 2.18
11.54 -0.05 2.18
11.56 0.18 2.18
11.56 0.41 2.19
11.57 0.64 2.19
11.22 0.85 2.13
11.20 1.08 2.13
11.19 1.30 2.13
11.17 1.53 2.13
11.14 1.75 2.13
11.12 1.98 2.13
11.09 2.20 2.13
11.05 2.43 2.13
11.02 2.65 2.14
10.98 2.88 2.14
10.94 3.10 2.14
2.54 0.78 0.50
2.49 0.82 0.49
2.50 0.87 0.50
10.73 4.00 2.16
10.67 4.22 2.16
10.61 4.45 2.17
10.54 4.67 2.17
10.47 4.89 2.18
10.40 5.12 2.18
10.48 5.42 2.22
10.42 5.65 2.23
10.36 5.90 2.24
10.30 6.14 2.25
9.96 6.21 2.21
9.52 6.21 2.14
9.06 6.17 2.06
8.73 6.20 2.01
8.32 6.16 1.94
7.98 6.17 1.89
7.69 6.19 1.85
7.68 6.44 1.88
9.41 8.22 2.34
9.29 8.45 2.36
9.16 8.68 2.37
9.03 8.90 2.38
8.90 9.13 2.39
8.76 9.36 2.40
8.59 9.55 2.41
8.40 9.72 2.41
8.20 9.89 2.41
8.00 10.06 2.41
7.80 10.22 2.41
7.60 10.37 2.41
7.39 10.53 2.41
7.18 10.68 2.41
6.96 10.82 2.41
6.75 10.96 2.41
6.53 11.10 2.41
6.30 11.23 2.41
6.04 11.28 2.39
5.81 11.40 2.39
5.58 11.52 2.39
5.35 11.63 2.39
5.12 11.73 2.39
4.88 11.84 2.39
4.64 11.93 2.39
4.40 12.03 2.39
4.16 12.12 2.39
3.92 12.20 2.39
3.67 12.28 2.39
3.18 11.46 2.22
3.06 11.95 2.30
2.82 12.02 2.30
2.56 11.97 2.28
2.43 12.59 2.39
2.17 12.64 2.39
2.00 13.23 2.49
1.74 13.27 2.49
1.47 13.30 2.49
1.20 13.33 2.49
0.94 13.36 2.49
0.67 13.37 2.49
0.40 13.39 2.49
0.13 13.39 2.49
-0.14 13.40 2.49
-0.41 13.39 2.49
-0.67 13.38 2.49
-0.94 13.37 2.49
-1.21 13.35 2.49
-1.48 13.32 2.49
-1.75 13.29 2.49
-2.01 13.25 2.49
-2.28 13.21 2.49
-2.54 13.16 2.49
-2.81 13.11 2.49
-3.07 13.05 2.49
-3.33 12.99 2.49
-3.59 12.92 2.49
-3.85 12.85 2.49
-4.11 12.77 2.49
-4.36 12.68 2.49
-4.62 12.60 2.49
-4.87 12.50 2.49
-5.12 12.40 2.49
-5.37 12.30 2.49
-5.61 12.19 2.49
-5.86 12.07 2.49
-5.94 11.64 2.43
-6.07 11.34 2.39
-6.30 11.21 2.39
-6.52 11.08 2.39
-6.75 10.95 2.39
-6.96 10.81 2.39
-7.18 10.67 2.39
-7.39 10.53 2.39
-7.60 10.38 2.39
-7.81 10.22 2.39
-8.01 10.06 2.39
-8.21 9.90 2.39
-8.41 9.73 2.39
-8.60 9.56 2.39
-8.42 8.99 2.29
-8.66 8.88 2.31
-9.16 9.02 2.39
-8.41 7.96 2.15
-8.69 7.90 2.18
-9.68 8.46 2.39
-9.64 8.08 2.34
-11.10 8.93 2.65
-8.31 6.42 1.95
-8.31 6.16 1.92
-8.32 5.90 1.90
-8.36 5.69 1.88
-8.47 5.52 1.88
-8.58 5.35 1.88
-8.68 5.17 1.88
-9.68 5.50 2.07
-9.68 5.25 2.05
-9.67 5.00 2.03
-9.67 4.75 2.01
-9.67 4.51 1.99
-9.67 4.28 1.97
-9.60 4.02 1.94
-9.66 3.82 1.94
-9.66 3.60 1.92
-9.66 3.38 1.91
-9.66 3.16 1.89
-9.66 2.95 1.88
-9.66 2.74 1.87
-9.65 2.53 1.86
-9.65 2.32 1.85
-9.65 2.12 1.84
-9.65 1.92 1.84
-9.65 1.72 1.83
-9.65 1.52 1.82
-9.64 1.32 1.82
-9.64 1.12 1.81
-9.64 0.93 1.81
-9.64 0.73 1.81
-9.64 0.54 1.80
-9.64 0.34 1.80
-9.64 0.15 1.80
-9.61 -0.05 1.80
-9.63 -0.24 1.80
-9.63 -0.43 1.80
-9.63 -0.63 1.80
-9.63 -0.82 1.81
-9.63 -1.01 1.81
-9.63 -1.21 1.82
-9.62 -1.41 1.82
-9.62 -1.60 1.83
-9.62 -1.80 1.83
-9.62 -2.00 1.84
-9.62 -2.21 1.85
-9.62 -2.41 1.86
-9.61 -2.62 1.87
-9.61 -2.82 1.88
-9.61 -3.03 1.89
-9.61 -3.25 1.90
-9.61 -3.46 1.92
-9.61 -3.68 1.93
-9.56 -3.89 1.94
-9.60 -4.13 1.96
-9.60 -4.36 1.98
-9.60 -4.59 2.00
-9.60 -4.83 2.02
-9.59 -5.07 2.04
-9.59 -5.32 2.06
-9.59 -5.58 2.08
-9.59 -5.83 2.11
-9.56 -6.08 2.13
-9.53 -6.34 2.15
-9.53 -6.61 2.18
-9.56 -6.93 2.22
-9.65 -8.25 2.39
-9.48 -8.44 2.39
-9.31 -8.63 2.39
-9.13 -8.81 2.39
-8.95 -8.99 2.39
-8.77 -9.16 2.39
-8.58 -9.34 2.39
-8.39 -9.50 2.39
-8.19 -9.67 2.39
-8.00 -9.83 2.39
-7.79 -9.99 2.39
-7.59 -10.14 2.39
-7.38 -10.29 2.39
-7.18 -10.43 2.39
-6.96 -10.57 2.39
-6.75 -10.71 2.39
-6.53 -10.84 2.39
-6.31 -10.96 2.39
-6.09 -11.09 2.39
-5.86 -11.20 2.39
-5.75 -11.55 2.44
-5.64 -11.92 2.49
-5.40 -12.03 2.49
-5.15 -12.13 2.49
-4.91 -12.23 2.49
-4.66 -12.32 2.49
-4.41 -12.41 2.49
-4.16 -12.50 2.49
-3.91 -12.58 2.49
-3.66 -12.65 2.49
-3.40 -12.72 2.49
-3.14 -12.78 2.49
-2.89 -12.84 2.49
-2.63 -12.89 2.49
-2.37 -12.94 2.49
-2.11 -12.99 2.49
-1.85 -13.02 2.49
-1.58 -13.06 2.49
-1.32 -13.08 2.49
-1.06 -13.11 2.49
-0.79 -13.12 2.49
-0.44 -10.99 2.09
-0.22 -10.98 2.08
-0.00 -11.70 2.49
0.23 -11.69 2.49
0.47 -11.69 2.49
0.70 -11.67 2.49
0.94 -11.65 2.49
1.17 -11.63 2.49
1.39 -11.49 2.47
1.64 -11.57 2.49
1.87 -11.54 2.49
2.10 -11.50 2.49
2.29 -11.27 2.45
2.45 -10.93 2.39
2.67 -10.88 2.39
2.89 -10.82 2.39
3.11 -10.76 2.39
3.32 -10.70 2.39
3.35 -10.09 2.27
3.75 -10.55 2.39
3.96 -10.48 2.39
4.17 -10.39 2.39
4.38 -10.31 2.39
4.58 -10.22 2.39
4.79 -10.12 2.39
4.99 -10.03 2.39
5.19 -9.92 2.39
5.39 -9.82 2.39
5.58 -9.71 2.39
5.78 -9.59 2.39
5.97 -9.47 2.39
6.16 -9.35 2.39
6.39 -9.29 2.41
6.57 -9.16 2.41
6.67 -8.91 2.38
6.63 -8.50 2.30
6.66 -8.20 2.26
6.72 -7.94 2.22
6.88 -7.81 2.22
7.17 -7.80 2.26
7.46 -7.80 2.30
7.76 -7.80 2.35
8.08 -7.80 2.40
8.27 -7.67 2.41
8.42 -7.50 2.41
8.57 -7.33 2.41
8.72 -7.16 2.41
8.85 -6.97 2.40
8.94 -6.76 2.39
9.03 -6.54 2.38
9.11 -6.33 2.37
9.19 -6.12 2.36
9.27 -5.90 2.34
9.35 -5.69 2.33
9.42 -5.48 2.32
9.49 -5.27 2.31
9.55 -5.05 2.30
9.62 -4.84 2.30
9.68 -4.63 2.29
9.73 -4.42 2.28
9.77 -4.20 2.27
9.82 -3.99 2.26
9.86 -3.78 2.25
9.90 -3.57 2.24
9.94 -3.36 2.24
9.98 -3.15 2.23
10.02 -2.94 2.22
10.05 -2.74 2.22
10.09 -2.53 2.21
10.13 -2.32 2.21
10.17 -2.12 2.21
10.21 -1.91 2.21
10.24 -1.71 2.21
10.28 -1.50 2.21
10.31 -1.30 2.21
10.33 -1.09 2.21
10.35 -0.88 2.21
10.36 -0.67 2.21
10.40 -0.47 2.21
10.46 -0.26 2.22
10.52 -0.05 2.23
10.57 0.16 2.25
10.62 0.38 2.26
10.33 0.58 2.20
10.31 0.78 2.20
10.30 0.99 2.20
10.28 1.20 2.20
10.26 1.40 2.20
10.24 1.61 2.20
10.22 1.82 2.20
10.19 2.02 2.20
10.16 2.23 2.21
10.12 2.44 2.21
10.09 2.64 2.21
10.05 2.85 2.21
2.54 0.78 0.56
2.49 0.82 0.56
2.50 0.87 0.56
9.86 3.67 2.23
9.80 3.88 2.23
9.75 4.08 2.24
9.68 4.29 2.24
9.62 4.49 2.25
9.55 4.70 2.25
9.48 4.90 2.26
9.41 5.11 2.26
9.54 5.43 2.32
9.47 5.64 2.33
9.41 5.87 2.34
9.34 6.09 2.36
9.06 6.17 2.32
8.73 6.20 2.26
8.32 6.16 2.19
7.98 6.17 2.13
7.69 6.19 2.08
7.68 6.44 2.12
8.59 7.50 2.41
8.44 7.68 2.41
8.28 7.85 2.41
8.13 8.01 2.41
7.97 8.17 2.41
7.80 8.33 2.41
7.63 8.49 2.41
7.46 8.64 2.41
7.29 8.79 2.41
7.11 8.94 2.41
6.93 9.08 2.41
6.75 9.22 2.41
6.57 9.36 2.41
6.38 9.49 2.41
6.15 9.55 2.39
5.95 9.68 2.39
5.76 9.80 2.39
5.56 9.91 2.39
5.36 10.02 2.39
5.16 10.13 2.39
4.96 10.23 2.39
4.75 10.33 2.39
4.55 10.43 2.39
4.34 10.52 2.39
4.13 10.60 2.39
3.91 10.69 2.39
3.70 10.77 2.39
3.23 10.06 2.22
3.14 10.50 2.30
2.93 10.56 2.30
2.62 10.24 2.22
2.60 11.09 2.39
2.38 11.14 2.39
2.16 11.19 2.39
2.02 11.72 2.49
1.78 11.76 2.49
1.54 11.79 2.49
1.31 11.82 2.49
1.07 11.85 2.49
0.83 11.87 2.49
0.59 11.88 2.49
0.36 11.89 2.49
0.12 11.90 2.49
-0.12 11.90 2.49
-0.36 11.90 2.49
-0.60 11.89 2.49
-0.84 11.87 2.49
-1.08 11.86 2.49
-1.31 11.83 2.49
-1.55 11.81 2.49
-1.79 11.77 2.49
-2.02 11.74 2.49
-2.26 11.69 2.49
-2.49 11.65 2.49
-2.73 11.59 2.49
-2.96 11.54 2.49
-3.19 11.48 2.49
-3.42 11.41 2.49
-3.65 11.34 2.49
-3.88 11.27 2.49
-4.10 11.19 2.49
-4.32 11.10 2.49
-4.55 11.01 2.49
-4.77 10.92 2.49
-4.99 10.82 2.49
-5.20 10.72 2.49
-5.42 10.62 2.49
-5.63 10.50 2.49
-5.84 10.39 2.49
-5.92 10.06 2.44
-5.99 9.73 2.39
-6.18 9.60 2.39
-6.38 9.48 2.39
-6.57 9.35 2.39
-6.75 9.22 2.39
-6.93 9.08 2.39
-7.12 8.94 2.39
-7.29 8.79 2.39
-7.47 8.64 2.39
-7.64 8.49 2.39
-7.81 8.34 2.39
-7.97 8.18 2.39
-8.14 8.02 2.39
-8.29 7.85 2.39
-8.45 7.68 2.39
-8.60 7.51 2.39
-8.75 7.34 2.39
-8.89 7.16 2.39
-9.04 6.98 2.39
-9.17 6.79 2.39
-8.59 6.10 2.21
-9.44 6.42 2.39
-9.56 6.23 2.39
-8.31 5.18 2.05
-8.30 4.94 2.02
-12.97 7.38 3.13
-13.21 7.16 3.15
-9.62 4.26 2.21
-9.60 4.02 2.18
-9.61 3.80 2.17
-9.61 3.58 2.15
-9.62 3.36 2.14
-9.63 3.15 2.13
-9.66 2.95 2.12
-9.66 2.74 2.11
-9.65 2.53 2.09
-9.65 2.32 2.08
-9.65 2.12 2.07
-9.65 1.92 2.07
-9.65 1.72 2.06
-9.65 1.52 2.05
-9.64 1.32 2.04
-9.64 1.12 2.04
-9.64 0.93 2.04
-9.64 0.73 2.03
-9.64 0.54 2.03
-9.64 0.34 2.03
-9.64 0.15 2.03
-9.61 -0.04 2.02
-9.63 -0.24 2.03
-9.63 -0.43 2.03
-9.63 -0.63 2.03
-9.63 -0.82 2.03
-9.63 -1.01 2.04
-9.63 -1.21 2.04
-9.62 -1.41 2.05
-9.62 -1.60 2.05
-9.62 -1.80 2.06
-9.62 -2.00 2.07
-9.62 -2.21 2.08
-9.62 -2.41 2.09
-9.61 -2.61 2.10
-9.61 -2.82 2.11
-9.59 -3.03 2.12
-9.58 -3.23 2.13
-9.56 -3.44 2.14
-9.55 -3.66 2.16
-9.56 -3.89 2.18
-9.55 -4.10 2.19
-9.58 -4.35 2.22
-9.78 -5.68 2.39
-9.66 -5.88 2.39
-9.54 -6.07 2.39
-9.41 -6.26 2.39
-9.28 -6.45 2.39
-9.15 -6.63 2.39
-9.01 -6.81 2.39
-8.87 -6.99 2.39
-8.73 -7.16 2.39
-8.58 -7.34 2.39
-8.43 -7.51 2.39
-8.28 -7.67 2.39
-8.12 -7.83 2.39
-7.96 -7.99 2.39
-7.80 -8.15 2.39
-7.63 -8.30 2.39
-7.46 -8.45 2.39
-7.29 -8.60 2.39
-7.11 -8.74 2.39
-6.93 -8.88 2.39
-6.75 -9.02 2.39
-6.57 -9.15 2.39
-6.38 -9.28 2.39
-6.20 -9.40 2.39
-6.00 -9.52 2.39
-5.81 -9.64 2.39
-5.76 -10.01 2.45
-5.65 -10.29 2.49
-5.44 -10.40 2.49
-5.23 -10.50 2.49
-5.02 -10.61 2.49
-4.80 -10.70 2.49
-4.59 -10.79 2.49
-4.37 -10.88 2.49
-4.15 -10.97 2.49
-3.93 -11.05 2.49
-3.70 -11.12 2.49
-3.48 -11.19 2.49
-3.25 -11.26 2.49
-3.03 -11.32 2.49
-2.80 -11.38 2.49
-2.57 -11.43 2.49
-2.34 -11.48 2.49
-2.11 -11.52 2.49
-1.88 -11.56 2.49
-1.64 -11.59 2.49
-1.41 -11.62 2.49
-1.18 -11.64 2.49
-0.94 -11.66 2.49
-0.71 -11.68 2.49
-0.47 -11.69 2.49
-0.23 -11.48 2.45
-0.00 -10.53 2.49
0.21 -10.53 2.49
0.42 -10.52 2.49
0.63 -10.51 2.49
0.84 -10.49 2.49
1.05 -10.47 2.49
1.26 -10.45 2.49
1.47 -10.42 2.49
1.68 -10.39 2.49
1.89 -10.35 2.49
2.10 -10.31 2.49
2.28 -10.18 2.47
2.40 -9.79 2.39
2.60 -9.74 2.39
2.71 -9.38 2.31
2.84 -9.14 2.27
3.13 -9.41 2.35
3.29 -9.27 2.33
3.38 -8.95 2.27
3.75 -9.36 2.39
3.94 -9.28 2.39
4.12 -9.20 2.39
4.31 -9.11 2.39
4.49 -9.02 2.39
4.67 -8.93 2.39
4.85 -8.84 2.39
5.03 -8.74 2.39
5.20 -8.64 2.39
5.37 -8.53 2.39
5.54 -8.42 2.39
5.71 -8.31 2.39
5.88 -8.19 2.39
6.04 -8.07 2.39
6.20 -7.95 2.39
6.40 -7.87 2.41
6.56 -7.74 2.41
6.71 -7.61 2.41
6.86 -7.48 2.41
7.01 -7.34 2.41
7.16 -7.19 2.41
7.30 -7.05 2.41
7.44 -6.90 2.41
7.58 -6.75 2.41
7.72 -6.60 2.41
7.85 -6.44 2.41
7.97 -6.28 2.41
8.10 -6.12 2.41
8.22 -5.96 2.41
8.34 -5.79 2.41
8.46 -5.62 2.41
8.57 -5.45 2.41
8.68 -5.28 2.41
8.78 -5.11 2.41
8.86 -4.92 2.40
8.92 -4.72 2.39
8.98 -4.52 2.38
9.04 -4.33 2.37
9.09 -4.13 2.36
9.14 -3.93 2.36
9.19 -3.74 2.35
9.24 -3.54 2.34
9.28 -3.35 2.33
9.32 -3.15 2.33
9.36 -2.95 2.32
9.40 -2.76 2.32
9.43 -2.57 2.31
9.48 -2.37 2.31
9.51 -2.18 2.31
9.55 -1.99 2.31
9.58 -1.80 2.31
9.61 -1.60 2.30
9.63 -1.41 2.30
9.64 -1.21 2.30
9.66 -1.02 2.30
9.67 -0.82 2.29
9.68 -0.63 2.29
9.73 -0.44 2.30
9.78 -0.24 2.31
9.83 -0.05 2.32
9.88 0.15 2.33
9.93 0.35 2.34
9.56 0.53 2.26
9.55 0.72 2.26
9.54 0.92 2.26
9.52 1.11 2.26
9.51 1.30 2.26
9.49 1.49 2.26
9.46 1.68 2.27
9.44 1.88 2.27
9.41 2.07 2.27
9.37 2.26 2.27
9.34 2.45 2.28
9.30 2.64 2.28
2.54 0.78 0.63
2.49 0.82 0.62
2.50 0.87 0.62
9.12 3.40 2.29
9.07 3.59 2.29
9.01 3.78 2.30
8.95 3.96 2.30
8.88 4.15 2.31
8.82 4.34 2.31
8.75 4.52 2.32
8.68 4.71 2.32
8.60 4.89 2.33
8.78 5.23 2.40
8.69 5.42 2.41
8.58 5.59 2.41
8.47 5.76 2.41
8.35 5.93 2.41
8.23 6.10 2.41
7.98 6.17 2.37
7.69 6.19 2.32
7.68 6.44 2.35
7.72 6.75 2.41
7.59 6.90 2.41
7.45 7.05 2.41
7.31 7.20 2.41
7.16 7.35 2.41
7.01 7.49 2.41
6.86 7.64 2.41
6.71 7.77 2.41
6.55 7.91 2.41
6.40 8.04 2.41
6.23 8.17 2.41
6.03 8.24 2.39
5.86 8.36 2.39
5.70 8.47 2.39
5.53 8.59 2.39
5.35 8.70 2.39
5.18 8.81 2.39
5.00 8.91 2.39
4.82 9.01 2.39
4.64 9.11 2.39
4.46 9.20 2.39
4.27 9.29 2.39
4.09 9.37 2.39
3.90 9.46 2.39
3.71 9.53 2.39
3.26 8.92 2.22
3.17 9.22 2.28
3.01 9.38 2.30
2.82 9.44 2.30
2.58 9.30 2.25
2.54 9.92 2.39
2.34 9.97 2.39
2.14 10.01 2.39
2.02 10.49 2.49
1.81 10.53 2.49
1.60 10.57 2.49
1.39 10.60 2.49
1.17 10.62 2.49
0.96 10.65 2.49
0.75 10.66 2.49
0.53 10.68 2.49
0.32 10.69 2.49
0.10 10.69 2.49
-0.11 10.69 2.49
-0.32 10.69 2.49
-0.54 10.68 2.49
-0.75 10.67 2.49
-0.97 10.65 2.49
-1.18 10.63 2.49
-1.39 10.61 2.49
-1.61 10.58 2.49
-1.82 10.55 2.49
-2.03 10.51 2.49
-2.24 10.47 2.49
-2.45 10.42 2.49
-2.66 10.37 2.49
-2.87 10.31 2.49
-3.07 10.25 2.49
-3.28 10.19 2.49
-3.48 10.12 2.49
-3.69 10.05 2.49
-3.89 9.98 2.49
-4.09 9.90 2.49
-4.28 9.81 2.49
-4.48 9.73 2.49
-4.67 9.63 2.49
-4.87 9.54 2.49
-5.06 9.44 2.49
-5.25 9.34 2.49
-5.43 9.23 2.49
-5.62 9.12 2.49
-5.80 9.00 2.49
-5.91 8.79 2.47
-5.92 8.43 2.40
-6.07 8.28 2.39
-6.23 8.16 2.39
-6.39 8.03 2.39
-6.55 7.90 2.39
-6.71 7.77 2.39
-6.86 7.63 2.39
-7.02 7.49 2.39
-7.16 7.35 2.39
-7.31 7.20 2.39
-7.45 7.05 2.39
-7.59 6.90 2.39
-7.73 6.75 2.39
-7.86 6.59 2.39
-7.99 6.43 2.39
-8.12 6.27 2.39
-8.24 6.11 2.39
-8.36 5.94 2.39
-8.48 5.77 2.39
-8.59 5.60 2.39
-8.39 5.23 2.30
-8.60 5.12 2.33
-8.91 5.07 2.39
-9.01 4.89 2.39
-9.11 4.71 2.39
-9.20 4.52 2.39
-9.29 4.34 2.39
-9.37 4.15 2.39
-9.45 3.96 2.39
-9.53 3.77 2.39
-9.60 3.58 2.39
-9.67 3.38 2.39
-9.73 3.19 2.39
-9.79 2.99 2.39
-9.85 2.79 2.39
-9.61 -0.04 2.25
-9.84 -2.68 2.39
-9.78 -2.87 2.39
-9.72 -3.07 2.39
-9.66 -3.26 2.39
-9.59 -3.45 2.39
-9.51 -3.65 2.39
-9.44 -3.83 2.39
-9.36 -4.02 2.39
-9.27 -4.21 2.39
-9.18 -4.39 2.39
-9.09 -4.58 2.39
-9.00 -4.76 2.39
-8.90 -4.94 2.39
-8.80 -5.11 2.39
-8.69 -5.29 2.39
-8.58 -5.46 2.39
-8.47 -5.63 2.39
-8.35 -5.80 2.39
-8.23 -5.96 2.39
-8.11 -6.12 2.39
-7.98 -6.29 2.39
-7.85 -6.44 2.39
-7.72 -6.60 2.39
-7.59 -6.75 2.39
-7.45 -6.90 2.39
-7.31 -7.05 2.39
-7.16 -7.19 2.39
-7.01 -7.33 2.39
-6.87 -7.47 2.39
-6.71 -7.61 2.39
-6.56 -7.74 2.39
-6.40 -7.87 2.39
-6.24 -7.99 2.39
-6.08 -8.11 2.39
-5.91 -8.23 2.39
-5.79 -8.41 2.41
-5.77 -8.76 2.48
-5.64 -8.94 2.49
-5.45 -9.05 2.49
-5.27 -9.16 2.49
-5.08 -9.26 2.49
-4.90 -9.36 2.49
-4.71 -9.45 2.49
-4.52 -9.54 2.49
-4.32 -9.63 2.49
-4.13 -9.71 2.49
-3.93 -9.79 2.49
-3.73 -9.87 2.49
-3.53 -9.94 2.49
-3.33 -10.01 2.49
-3.13 -10.07 2.49
-2.93 -10.13 2.49
-2.72 -10.19 2.49
-2.52 -10.24 2.49
-2.31 -10.28 2.49
-2.11 -10.33 2.49
-1.90 -10.37 2.49
-1.69 -10.40 2.49
-1.48 -10.43 2.49
-1.27 -10.46 2.49
-1.06 -10.48 2.49
-0.85 -10.50 2.49
-0.64 -10.51 2.49
-0.43 -10.52 2.49
-0.21 -10.53 2.49
-0.00 -9.56 2.49
0.19 -9.56 2.49
0.38 -9.55 2.49
0.57 -9.54 2.49
0.76 -9.53 2.49
0.96 -9.51 2.49
1.15 -9.49 2.49
1.34 -9.46 2.49
1.53 -9.43 2.49
1.72 -9.40 2.49
1.90 -9.36 2.49
2.09 -9.32 2.49
2.28 -9.27 2.49
2.36 -8.85 2.39
2.54 -8.80 2.39
2.70 -8.70 2.38
2.74 -8.25 2.27
3.01 -8.49 2.35
3.18 -8.43 2.35
3.28 -8.19 2.30
3.40 -8.00 2.27
3.75 -8.36 2.39
3.91 -8.28 2.39
4.08 -8.20 2.39
4.24 -8.11 2.39
4.40 -8.03 2.39
4.56 -7.94 2.39
4.72 -7.84 2.39
4.88 -7.75 2.39
5.03 -7.65 2.39
5.19 -7.55 2.39
5.34 -7.44 2.39
5.49 -7.33 2.39
5.63 -7.22 2.39
5.78 -7.11 2.39
5.92 -6.99 2.39
6.06 -6.87 2.39
6.19 -6.75 2.39
6.37 -6.66 2.41
6.50 -6.53 2.41
6.63 -6.40 2.41
6.76 -6.27 2.41
6.89 -6.13 2.41
7.01 -5.99 2.41
7.13 -5.85 2.41
7.24 -5.71 2.41
7.36 -5.56 2.41
7.47 -5.41 2.41
7.58 -5.26 2.41
7.68 -5.11 2.41
7.78 -4.95 2.41
7.88 -4.80 2.41
7.98 -4.64 2.41
8.07 -4.48 2.41
8.16 -4.31 2.41
8.24 -4.15 2.41
8.33 -3.98 2.41
8.40 -3.82 2.41
8.48 -3.65 2.41
8.55 -3.48 2.41
8.62 -3.30 2.41
8.69 -3.13 2.41
8.75 -2.96 2.41
8.80 -2.78 2.41
8.84 -2.60 2.40
8.88 -2.41 2.40
8.91 -2.23 2.39
8.94 -2.05 2.39
8.96 -1.87 2.38
8.99 -1.68 2.38
9.01 -1.50 2.38
9.03 -1.32 2.38
9.05 -1.14 2.37
9.06 -0.95 2.37
9.07 -0.77 2.37
9.09 -0.59 2.37
9.14 -0.41 2.38
9.18 -0.23 2.39
9.19 -0.04 2.39
9.19 0.14 2.39
9.19 0.33 2.39
8.88 0.50 2.31
8.87 0.67 2.31
8.86 0.85 2.31
8.85 1.03 2.31
8.83 1.21 2.32
8.81 1.39 2.32
8.79 1.56 2.32
8.76 1.74 2.32
8.73 1.92 2.32
8.70 2.10 2.32
8.67 2.27 2.33
8.63 2.45 2.33
2.54 0.78 0.69
2.49 0.82 0.68
2.50 0.87 0.69
8.45 3.15 2.34
8.40 3.33 2.34
8.35 3.50 2.35
8.29 3.67 2.35
8.22 3.84 2.35
8.16 4.01 2.36
8.08 4.18 2.36
8.01 4.35 2.36
7.93 4.51 2.36
7.85 4.68 2.37
7.77 4.84 2.37
7.68 5.01 2.37
7.69 5.23 2.41
7.58 5.39 2.41
7.47 5.54 2.41
7.36 5.69 2.41
7.25 5.84 2.41
7.13 5.98 2.41
7.01 6.12 2.41
6.89 6.27 2.41
6.76 6.40 2.41
6.63 6.54 2.41
6.50 6.67 2.41
6.37 6.80 2.41
6.23 6.93 2.41
6.05 7.01 2.39
5.91 7.13 2.39
5.76 7.25 2.39
5.62 7.36 2.39
5.47 7.47 2.39
5.32 7.58 2.39
5.17 7.69 2.39
5.01 7.79 2.39
4.86 7.89 2.39
4.70 7.99 2.39
4.54 8.09 2.39
4.38 8.18 2.39
4.21 8.26 2.39
4.04 8.35 2.39
3.88 8.43 2.39
3.71 8.51 2.39
3.28 7.96 2.22
3.18 8.16 2.26
3.07 8.39 2.30
2.90 8.45 2.30
2.63 8.20 2.22
2.58 8.64 2.32
2.48 8.95 2.39
2.32 9.07 2.41
2.14 9.12 2.41
2.02 9.48 2.49
1.83 9.52 2.49
1.64 9.55 2.49
1.45 9.58 2.49
1.26 9.61 2.49
1.07 9.64 2.49
0.87 9.66 2.49
0.68 9.67 2.49
0.48 9.69 2.49
0.29 9.70 2.49
0.09 9.70 2.49
-0.10 9.70 2.49
-0.29 9.70 2.49
-0.49 9.69 2.49
-0.68 9.68 2.49
-0.88 9.66 2.49
-1.07 9.65 2.49
-1.26 9.62 2.49
-1.46 9.60 2.49
-1.65 9.57 2.49
-1.84 9.53 2.49
-2.03 9.49 2.49
-2.22 9.45 2.49
-2.41 9.40 2.49
-2.60 9.36 2.49
-2.79 9.30 2.49
-2.97 9.24 2.49
-3.16 9.18 2.49
-3.34 9.12 2.49
-3.53 9.05 2.49
-3.71 8.98 2.49
-3.89 8.90 2.49
-4.06 8.82 2.49
-4.24 8.74 2.49
-4.41 8.65 2.49
-4.59 8.56 2.49
-4.76 8.47 2.49
-4.93 8.37 2.49
-5.09 8.27 2.49
-5.26 8.17 2.49
-5.42 8.06 2.49
-5.58 7.95 2.49
-5.74 7.83 2.49
-5.90 7.72 2.49
-5.90 7.41 2.43
-5.94 7.17 2.39
-6.11 7.07 2.40
-6.23 6.92 2.39
-6.36 6.79 2.39
-6.50 6.67 2.39
-6.63 6.53 2.39
-6.76 6.40 2.39
-6.89 6.26 2.39
-7.01 6.12 2.39
-7.13 5.98 2.39
-7.25 5.83 2.39
-7.36 5.69 2.39
-7.48 5.54 2.39
-7.59 5.39 2.39
-7.69 5.23 2.39
-7.80 5.08 2.39
-7.89 4.92 2.39
-7.99 4.76 2.39
-8.08 4.60 2.39
-8.17 4.44 2.39
-8.26 4.27 2.39
-8.34 4.10 2.39
-8.42 3.93 2.39
-8.50 3.76 2.39
-8.57 3.59 2.39
-8.64 3.42 2.39
-8.71 3.24 2.39
-8.77 3.07 2.39
-8.83 2.89 2.39
-8.89 2.71 2.39
-8.94 2.53 2.39
-8.99 2.35 2.39
-9.03 2.17 2.39
-9.07 1.99 2.39
-9.11 1.81 2.39
-9.14 1.63 2.39
-9.17 1.44 2.39
-9.20 1.26 2.39
-9.22 1.07 2.39
-9.24 0.89 2.39
-9.25 0.70 2.39
-9.26 0.52 2.39
-9.27 0.33 2.39
-9.27 0.14 2.39
-9.27 -0.04 2.39
-9.27 -0.23 2.39
-9.26 -0.41 2.39
-9.25 -0.60 2.39
-9.23 -0.79 2.39
-9.22 -0.97 2.39
-9.19 -1.15 2.39
-9.17 -1.34 2.39
-9.14 -1.52 2.39
-9.10 -1.71 2.39
-9.06 -1.89 2.39
-9.02 -2.07 2.39
-8.98 -2.25 2.39
-8.93 -2.43 2.39
-8.88 -2.61 2.39
-8.82 -2.78 2.39
-8.76 -2.96 2.39
-8.70 -3.13 2.39
-8.63 -3.31 2.39
-8.57 -3.48 2.39
-8.49 -3.65 2.39
-8.42 -3.82 2.39
-8.34 -3.99 2.39
-8.25 -4.15 2.39
-8.17 -4.32 2.39
-8.08 -4.48 2.39
-7.98 -4.64 2.39
-7.89 -4.80 2.39
-7.79 -4.95 2.39
-7.69 -5.11 2.39
-7.58 -5.26 2.39
-7.47 -5.41 2.39
-7.36 -5.56 2.39
-7.25 -5.71 2.39
-7.13 -5.85 2.39
-7.01 -5.99 2.39
-6.89 -6.13 2.39
-6.76 -6.26 2.39
-6.63 -6.40 2.39
-6.50 -6.53 2.39
-6.37 -6.66 2.39
-6.23 -6.78 2.39
-6.09 -6.90 2.39
-5.95 -7.02 2.39
-5.81 -7.14 2.39
-5.78 -7.41 2.44
-5.76 -7.68 2.49
-5.60 -7.80 2.49
-5.44 -7.91 2.49
-5.28 -8.01 2.49
-5.12 -8.12 2.49
-4.95 -8.22 2.49
-4.79 -8.31 2.49
-4.62 -8.41 2.49
-4.45 -8.50 2.49
-4.28 -8.58 2.49
-4.10 -8.67 2.49
-3.93 -8.74 2.49
-3.75 -8.82 2.49
-3.57 -8.89 2.49
-3.39 -8.96 2.49
-3.21 -9.03 2.49
-3.03 -9.09 2.49
-2.84 -9.15 2.49
-2.66 -9.20 2.49
-2.47 -9.25 2.49
-2.29 -9.30 2.49
-2.10 -9.34 2.49
-1.91 -9.38 2.49
-1.72 -9.42 2.49
-1.53 -9.45 2.49
-1.34 -9.47 2.49
-1.15 -9.50 2.49
-0.96 -9.52 2.49
-0.77 -9.54 2.49
-0.58 -9.55 2.49
-0.39 -9.56 2.49
-0.19 -9.56 2.49
-0.00 -8.75 2.49
0.17 -8.75 2.49
0.35 -8.74 2.49
0.52 -8.73 2.49
0.70 -8.72 2.49
0.87 -8.70 2.49
1.05 -8.68 2.49
1.22 -8.66 2.49
1.40 -8.63 2.49
1.57 -8.60 2.49
1.74 -8.57 2.49
1.91 -8.53 2.49
2.08 -8.49 2.49
2.25 -8.45 2.49
2.32 -8.05 2.39
2.48 -8.00 2.39
2.64 -7.95 2.39
2.69 -7.58 2.29
2.81 -7.44 2.27
3.07 -7.65 2.35
3.22 -7.59 2.35
3.28 -7.31 2.29
3.40 -7.19 2.27
3.73 -7.50 2.39
3.88 -7.43 2.39
4.03 -7.35 2.39
4.18 -7.26 2.39
4.32 -7.18 2.39
4.47 -7.09 2.39
4.61 -7.00 2.39
4.75 -6.91 2.39
4.88 -6.81 2.39
5.02 -6.71 2.39
5.15 -6.61 2.39
5.29 -6.50 2.39
5.42 -6.40 2.39
5.54 -6.29 2.39
5.67 -6.17 2.39
5.79 -6.06 2.39
5.91 -5.94 2.39
6.03 -5.82 2.39
6.15 -5.70 2.39
6.26 -5.57 2.39
6.41 -5.48 2.41
6.52 -5.35 2.41
6.63 -5.22 2.41
6.73 -5.09 2.41
6.83 -4.95 2.41
6.93 -4.81 2.41
7.03 -4.67 2.41
7.12 -4.53 2.41
7.21 -4.39 2.41
7.30 -4.24 2.41
7.38 -4.10 2.41
7.46 -3.95 2.41
7.54 -3.80 2.41
7.62 -3.65 2.41
7.69 -3.49 2.41
7.76 -3.34 2.41
7.83 -3.18 2.41
7.89 -3.02 2.41
7.95 -2.86 2.41
8.01 -2.71 2.41
8.06 -2.54 2.41
8.11 -2.38 2.41
8.16 -2.22 2.41
8.20 -2.05 2.41
8.24 -1.89 2.41
8.28 -1.72 2.41
8.31 -1.56 2.41
8.34 -1.39 2.41
8.37 -1.22 2.41
8.39 -1.05 2.41
8.41 -0.89 2.41
8.43 -0.72 2.41
8.45 -0.55 2.41
8.46 -0.38 2.41
8.46 -0.21 2.41
8.47 -0.04 2.41
8.47 0.13 2.41
8.46 0.30 2.41
8.27 0.46 2.35
8.26 0.63 2.35
8.25 0.79 2.35
8.23 0.96 2.35
8.22 1.12 2.35
8.19 1.29 2.36
8.17 1.45 2.36
8.14 1.62 2.36
8.12 1.78 2.36
8.08 1.95 2.36
8.05 2.11 2.36
8.01 2.27 2.36
2.54 0.78 0.75
2.49 0.82 0.74
2.50 0.87 0.75
7.83 2.92 2.37
7.78 3.08 2.37
7.72 3.24 2.37
7.66 3.40 2.38
7.60 3.55 2.38
7.53 3.70 2.38
7.46 3.86 2.38
7.38 4.01 2.38
7.30 4.16 2.38
7.22 4.30 2.38
7.14 4.45 2.38
7.04 4.59 2.38
6.95 4.73 2.38
6.85 4.87 2.38
6.83 5.07 2.41
6.73 5.20 2.41
6.63 5.34 2.41
6.52 5.47 2.41
6.41 5.60 2.41
6.30 5.73 2.41
6.14 5.82 2.39
6.02 5.94 2.39
5.90 6.06 2.39
5.78 6.18 2.39
5.66 6.29 2.39
5.53 6.41 2.39
5.40 6.52 2.39
5.27 6.63 2.39
5.14 6.73 2.39
5.00 6.83 2.39
4.86 6.93 2.39
4.73 7.03 2.39
4.58 7.13 2.39
4.44 7.22 2.39
4.30 7.31 2.39
4.15 7.39 2.39
4.00 7.48 2.39
3.85 7.56 2.39
3.70 7.63 2.39
3.29 7.15 2.22
3.18 7.30 2.24
3.11 7.55 2.30
2.96 7.61 2.30
2.71 7.40 2.22
2.59 7.55 2.25
2.60 8.08 2.39
2.43 8.13 2.39
2.27 8.18 2.39
2.14 8.36 2.43
2.02 8.62 2.49
1.85 8.66 2.49
1.68 8.70 2.49
1.50 8.73 2.49
1.33 8.76 2.49
1.15 8.79 2.49
0.97 8.81 2.49
0.80 8.83 2.49
0.62 8.84 2.49
0.44 8.85 2.49
0.26 8.86 2.49
0.09 8.87 2.49
-0.09 8.87 2.49
-0.27 8.86 2.49
-0.45 8.86 2.49
-0.63 8.85 2.49
-0.80 8.83 2.49
-0.98 8.82 2.49
-1.16 8.80 2.49
-1.33 8.77 2.49
-1.51 8.74 2.49
-1.68 8.71 2.49
-1.86 8.68 2.49
-2.03 8.64 2.49
-2.21 8.60 2.49
-2.38 8.55 2.49
-2.55 8.50 2.49
-2.72 8.45 2.49
-2.89 8.39 2.49
-3.06 8.33 2.49
-3.22 8.27 2.49
-3.39 8.21 2.49
-3.55 8.14 2.49
-3.71 8.06 2.49
-3.88 7.99 2.49
-4.03 7.91 2.49
-4.19 7.83 2.49
-4.35 7.74 2.49
-4.50 7.65 2.49
-4.66 7.56 2.49
-4.81 7.46 2.49
-4.96 7.37 2.49
-5.10 7.27 2.49
-5.25 7.16 2.49
-5.39 7.05 2.49
-5.53 6.94 2.49
-5.67 6.83 2.49
-5.80 6.72 2.49
-5.89 6.55 2.48
-5.90 6.30 2.42
-5.94 6.09 2.39
-6.06 5.97 2.39
-6.18 5.85 2.39
-6.29 5.72 2.39
-6.41 5.60 2.39
-6.52 5.47 2.39
-6.63 5.33 2.39
-6.73 5.20 2.39
-6.83 5.06 2.39
-6.93 4.92 2.39
-7.03 4.78 2.39
-7.13 4.64 2.39
-7.22 4.50 2.39
-7.30 4.35 2.39
-7.39 4.20 2.39
-7.47 4.05 2.39
-7.55 3.90 2.39
-7.63 3.75 2.39
-7.70 3.60 2.39
-7.77 3.44 2.39
-7.84 3.28 2.39
-7.90 3.13 2.39
-7.96 2.97 2.39
-8.02 2.81 2.39
-8.07 2.64 2.39
-8.12 2.48 2.39
-8.17 2.32 2.39
-8.21 2.15 2.39
-8.25 1.99 2.39
-8.29 1.82 2.39
-8.33 1.65 2.39
-8.36 1.49 2.39
-8.38 1.32 2.39
-8.41 1.15 2.39
-8.43 0.98 2.39
-8.44 0.81 2.39
-8.46 0.64 2.39
-8.47 0.47 2.39
-8.48 0.30 2.39
-8.48 0.13 2.39
-8.48 -0.04 2.39
-8.47 -0.21 2.39
-8.47 -0.38 2.39
-8.46 -0.55 2.39
-8.44 -0.72 2.39
-8.43 -0.89 2.39
-8.41 -1.06 2.39
-8.38 -1.22 2.39
-8.35 -1.39 2.39
-8.32 -1.56 2.39
-8.29 -1.73 2.39
-8.25 -1.89 2.39
-8.21 -2.06 2.39
-8.17 -2.22 2.39
-8.12 -2.38 2.39
-8.07 -2.55 2.39
-8.01 -2.71 2.39
-7.96 -2.87 2.39
-7.90 -3.02 2.39
-7.83 -3.18 2.39
-7.77 -3.34 2.39
-7.70 -3.49 2.39
-7.62 -3.65 2.39
-7.55 -3.80 2.39
-7.47 -3.95 2.39
-7.39 -4.10 2.39
-7.30 -4.24 2.39
-7.21 -4.39 2.39
-7.12 -4.53 2.39
-7.03 -4.67 2.39
-6.93 -4.81 2.39
-6.84 -4.95 2.39
-6.73 -5.08 2.39
-6.63 -5.22 2.39
-6.52 -5.35 2.39
-6.41 -5.48 2.39
-6.30 -5.61 2.39
-6.19 -5.73 2.39
-6.07 -5.85 2.39
-5.95 -5.97 2.39
-5.83 -6.09 2.39
-5.80 -6.31 2.43
-5.79 -6.56 2.48
-5.68 -6.70 2.49
-5.55 -6.81 2.49
-5.41 -6.92 2.49
-5.27 -7.03 2.49
-5.12 -7.13 2.49
-4.98 -7.23 2.49
-4.83 -7.33 2.49
-4.68 -7.43 2.49
-4.53 -7.52 2.49
-4.38 -7.61 2.49
-4.23 -7.69 2.49
-4.07 -7.77 2.49
-3.91 -7.85 2.49
-3.75 -7.93 2.49
-3.59 -8.00 2.49
-3.43 -8.07 2.49
-3.27 -8.14 2.49
-3.10 -8.20 2.49
-2.94 -8.26 2.49
-2.77 -8.32 2.49
-2.60 -8.37 2.49
-2.43 -8.42 2.49
-2.26 -8.46 2.49
-2.09 -8.51 2.49
-1.92 -8.55 2.49
-1.75 -8.58 2.49
-1.58 -8.61 2.49
-1.40 -8.64 2.49
-1.23 -8.67 2.49
-1.06 -8.69 2.49
-0.88 -8.71 2.49
-0.71 -8.73 2.49
-0.53 -8.74 2.49
-0.35 -8.75 2.49
-0.18 -8.75 2.49
-0.00 -8.06 2.49
0.16 -8.06 2.49
0.32 -8.05 2.49
0.48 -8.04 2.49
0.64 -8.03 2.49
0.80 -8.01 2.49
0.97 -8.00 2.49
1.13 -7.97 2.49
1.29 -7.95 2.49
1.45 -7.92 2.49
1.60 -7.89 2.49
1.76 -7.86 2.49
1.92 -7.82 2.49
2.08 -7.78 2.49
2.23 -7.74 2.49
2.29 -7.37 2.39
2.45 -7.37 2.41
2.58 -7.27 2.39
2.69 -7.11 2.36
2.73 -6.80 2.27
2.97 -6.99 2.35
3.11 -6.93 2.35
3.24 -6.86 2.35
3.27 -6.58 2.28
3.39 -6.49 2.27
3.71 -6.77 2.39
3.85 -6.69 2.39
3.98 -6.61 2.39
4.11 -6.53 2.39
4.24 -6.45 2.39
4.37 -6.36 2.39
4.50 -6.27 2.39
4.62 -6.18 2.39
4.75 -6.08 2.39
4.87 -5.99 2.39
4.99 -5.89 2.39
5.10 -5.79 2.39
5.22 -5.68 2.39
5.33 -5.58 2.39
5.44 -5.47 2.39
5.55 -5.36 2.39
5.66 -5.25 2.39
5.76 -5.13 2.39
5.87 -5.02 2.39
5.97 -4.90 2.39
6.06 -4.78 2.39
6.16 -4.65 2.39
6.25 -4.53 2.39
6.38 -4.43 2.41
6.47 -4.30 2.41
6.56 -4.17 2.41
6.64 -4.04 2.41
6.72 -3.91 2.41
6.80 -3.77 2.41
6.87 -3.64 2.41
6.95 -3.50 2.41
7.02 -3.36 2.41
7.08 -3.22 2.41
7.15 -3.07 2.41
7.21 -2.93 2.41
7.26 -2.78 2.41
7.32 -2.64 2.41
7.37 -2.49 2.41
7.42 -2.34 2.41
7.47 -2.19 2.41
7.51 -2.04 2.41
7.55 -1.89 2.41
7.59 -1.74 2.41
7.62 -1.59 2.41
7.65 -1.43 2.41
7.68 -1.28 2.41
7.71 -1.13 2.41
7.73 -0.97 2.41
7.75 -0.82 2.41
7.76 -0.66 2.41
7.78 -0.50 2.41
7.78 -0.35 2.41
7.79 -0.19 2.41
7.79 -0.03 2.41
7.79 0.12 2.41
7.79 0.28 2.41
7.68 0.43 2.38
7.68 0.58 2.38
7.66 0.74 2.38
7.65 0.89 2.38
7.63 1.04 2.38
7.61 1.20 2.38
7.59 1.35 2.38
7.56 1.50 2.38
7.53 1.66 2.38
7.50 1.81 2.38
7.46 1.96 2.38
7.42 2.11 2.38
2.54 0.78 0.82
2.49 0.82 0.81
2.50 0.87 0.81
7.24 2.70 2.38
7.19 2.85 2.38
7.13 2.99 2.38
7.07 3.13 2.38
7.00 3.27 2.38
6.94 3.41 2.38
6.87 3.55 2.38
6.79 3.69 2.38
6.72 3.82 2.38
6.64 3.96 2.38
6.56 4.09 2.38
6.48 4.22 2.38
6.40 4.35 2.38
6.31 4.48 2.38
6.28 4.66 2.40
6.15 4.76 2.39
6.06 4.88 2.39
5.96 5.00 2.39
5.86 5.12 2.39
5.76 5.24 2.39
5.65 5.35 2.39
5.54 5.47 2.39
5.43 5.58 2.39
5.32 5.69 2.39
5.21 5.79 2.39
5.09 5.90 2.39
4.97 6.00 2.39
4.85 6.10 2.39
4.73 6.20 2.39
4.60 6.29 2.39
4.48 6.38 2.39
4.35 6.47 2.39
4.22 6.56 2.39
4.09 6.64 2.39
3.95 6.72 2.39
3.82 6.80 2.39
3.68 6.88 2.39
3.29 6.45 2.22
3.19 6.58 2.24
3.14 6.83 2.30
3.00 6.89 2.30
2.86 6.95 2.30
2.63 6.75 2.22
2.60 7.10 2.31
2.54 7.39 2.39
2.39 7.44 2.39
2.24 7.48 2.39
2.14 7.73 2.45
2.02 7.89 2.49
1.86 7.93 2.49
1.70 7.97 2.49
1.54 8.00 2.49
1.38 8.03 2.49
1.22 8.06 2.49
1.06 8.08 2.49
0.90 8.11 2.49
0.73 8.12 2.49
0.57 8.14 2.49
0.41 8.15 2.49
0.24 8.15 2.49
0.08 8.16 2.49
-0.08 8.16 2.49
-0.25 8.16 2.49
-0.41 8.15 2.49
-0.58 8.14 2.49
-0.74 8.13 2.49
-0.90 8.11 2.49
-1.06 8.09 2.49
-1.23 8.07 2.49
-1.39 8.04 2.49
-1.55 8.01 2.49
-1.71 7.98 2.49
-1.87 7.95 2.49
-2.03 7.91 2.49
-2.19 7.87 2.49
-2.34 7.82 2.49
-2.50 7.77 2.49
-2.66 7.72 2.49
-2.81 7.67 2.49
-2.96 7.61 2.49
-3.12 7.55 2.49
-3.27 7.48 2.49
-3.42 7.42 2.49
-3.56 7.35 2.49
-3.71 7.27 2.49
-3.86 7.20 2.49
-4.00 7.12 2.49
-4.14 7.04 2.49
-4.28 6.95 2.49
-4.42 6.87 2.49
-4.56 6.78 2.49
-4.69 6.68 2.49
-4.83 6.59 2.49
-4.96 6.49 2.49
-5.09 6.39 2.49
-5.21 6.29 2.49
-5.34 6.18 2.49
-5.46 6.07 2.49
-5.58 5.96 2.49
-5.70 5.85 2.49
-5.82 5.73 2.49
-5.89 5.57 2.48
-5.89 5.35 2.43
-5.90 5.15 2.39
-6.00 5.03 2.39
-6.10 4.91 2.39
-6.19 4.78 2.39
-6.29 4.66 2.39
-6.38 4.53 2.39
-6.47 4.40 2.39
-6.55 4.27 2.39
-6.64 4.14 2.39
-6.72 4.00 2.39
-6.80 3.87 2.39
-6.87 3.73 2.39
-6.95 3.59 2.39
-7.02 3.45 2.39
-7.08 3.31 2.39
-7.15 3.17 2.39
-7.21 3.02 2.39
-7.27 2.88 2.39
-7.32 2.73 2.39
-7.38 2.58 2.39
-7.43 2.43 2.39
-7.47 2.28 2.39
-7.52 2.13 2.39
-7.56 1.98 2.39
-7.59 1.83 2.39
-7.63 1.68 2.39
-7.66 1.52 2.39
-7.69 1.37 2.39
-7.71 1.21 2.39
-7.74 1.06 2.39
-7.75 0.90 2.39
-7.77 0.75 2.39
-7.78 0.59 2.39
-7.79 0.43 2.39
-7.80 0.28 2.39
-7.80 0.12 2.39
-7.80 -0.03 2.39
-7.80 -0.19 2.39
-7.79 -0.35 2.39
-7.78 -0.50 2.39
-7.77 -0.66 2.39
-7.75 -0.82 2.39
-7.73 -0.97 2.39
-7.71 -1.13 2.39
-7.69 -1.28 2.39
-7.66 -1.43 2.39
-7.63 -1.59 2.39
-7.59 -1.74 2.39
-7.56 -1.89 2.39
-7.52 -2.04 2.39
-7.47 -2.19 2.39
-7.42 -2.34 2.39
-7.38 -2.49 2.39
-7.32 -2.64 2.39
-7.27 -2.78 2.39
-7.21 -2.93 2.39
-7.15 -3.07 2.39
-7.08 -3.21 2.39
-7.02 -3.36 2.39
-6.95 -3.49 2.39
-6.87 -3.63 2.39
-6.80 -3.77 2.39
-6.72 -3.90 2.39
-6.64 -4.04 2.39
-6.56 -4.17 2.39
-6.47 -4.30 2.39
-6.38 -4.43 2.39
-6.29 -4.56 2.39
-6.20 -4.68 2.39
-6.10 -4.80 2.39
-6.02 -4.93 2.40
-5.90 -5.04 2.39
-5.81 -5.17 2.40
-5.80 -5.37 2.44
-5.80 -5.59 2.48
-5.71 -5.73 2.49
-5.60 -5.85 2.49
-5.48 -5.96 2.49
-5.35 -6.06 2.49
-5.23 -6.17 2.49
-5.11 -6.27 2.49
-4.98 -6.37 2.49
-4.85 -6.47 2.49
-4.72 -6.57 2.49
-4.58 -6.66 2.49
-4.45 -6.75 2.49
-4.31 -6.84 2.49
-4.17 -6.92 2.49
-4.03 -7.00 2.49
-3.89 -7.08 2.49
-3.75 -7.16 2.49
-3.60 -7.23 2.49
-3.46 -7.30 2.49
-3.31 -7.37 2.49
-3.16 -7.43 2.49
-3.01 -7.49 2.49
-2.86 -7.55 2.49
-2.70 -7.60 2.49
-2.55 -7.66 2.49
-2.40 -7.70 2.49
-2.24 -7.75 2.49
-2.08 -7.79 2.49
-1.93 -7.83 2.49
-1.77 -7.87 2.49
-1.61 -7.90 2.49
-1.45 -7.93 2.49
-1.29 -7.96 2.49
-1.13 -7.98 2.49
-0.97 -8.00 2.49
-0.81 -8.02 2.49
-0.65 -8.03 2.49
-0.49 -8.04 2.49
-0.33 -8.05 2.49
-0.16 -8.06 2.49
-0.00 -7.46 2.49
0.15 -7.46 2.49
0.30 -7.45 2.49
0.45 -7.44 2.49
0.60 -7.43 2.49
0.74 -7.42 2.49
0.89 -7.40 2.49
1.04 -7.38 2.49
1.19 -7.36 2.49
1.34 -7.33 2.49
1.48 -7.31 2.49
1.63 -7.27 2.49
1.78 -7.24 2.49
1.92 -7.20 2.49
2.07 -7.16 2.49
2.21 -7.12 2.49
2.27 -6.81 2.40
2.39 -6.73 2.39
2.52 -6.68 2.39
2.66 -6.63 2.39
2.68 -6.32 2.30
2.77 -6.19 2.27
3.00 -6.35 2.35
3.13 -6.29 2.35
3.26 -6.23 2.35
3.27 -5.96 2.28
3.38 -5.88 2.27
3.68 -6.12 2.39
3.81 -6.04 2.39
3.93 -5.97 2.39
4.05 -5.89 2.39
4.16 -5.80 2.39
4.28 -5.72 2.39
4.39 -5.63 2.39
4.51 -5.54 2.39
4.62 -5.45 2.39
4.73 -5.36 2.39
4.83 -5.26 2.39
4.94 -5.16 2.39
5.04 -5.06 2.39
5.14 -4.96 2.39
5.24 -4.86 2.39
5.34 -4.75 2.39
5.43 -4.64 2.39
5.52 -4.53 2.39
5.61 -4.42 2.39
5.70 -4.31 2.39
5.79 -4.19 2.39
5.87 -4.08 2.39
5.95 -3.96 2.39
6.03 -3.84 2.39
6.11 -3.72 2.39
6.18 -3.59 2.39
6.29 -3.49 2.41
6.36 -3.36 2.41
6.43 -3.24 2.41
6.49 -3.11 2.41
6.56 -2.98 2.41
6.61 -2.84 2.41
6.67 -2.71 2.41
6.72 -2.58 2.41
6.78 -2.44 2.41
6.82 -2.30 2.41
6.87 -2.17 2.41
6.91 -2.03 2.41
6.95 -1.89 2.41
6.99 -1.75 2.41
7.02 -1.61 2.41
7.06 -1.47 2.41
7.08 -1.33 2.41
7.11 -1.18 2.41
7.13 -1.04 2.41
7.15 -0.90 2.41
7.17 -0.75 2.41
7.18 -0.61 2.41
7.20 -0.47 2.41
7.21 -0.32 2.41
7.21 -0.18 2.41
7.21 -0.03 2.41
7.21 0.11 2.41
7.21 0.26 2.41
7.14 0.40 2.39
7.12 0.54 2.38
7.11 0.68 2.38
7.09 0.83 2.38
7.07 0.97 2.38
7.05 1.11 2.38
7.03 1.25 2.38
7.00 1.39 2.38
6.97 1.53 2.38
6.94 1.67 2.38
6.91 1.81 2.38
6.87 1.95 2.38
2.54 0.78 0.88
2.49 0.82 0.87
2.50 0.87 0.88
6.69 2.50 2.38
6.64 2.63 2.38
6.59 2.76 2.38
6.54 2.90 2.38
6.48 3.03 2.38
6.42 3.16 2.38
6.35 3.29 2.38
6.29 3.42 2.38
6.29 3.58 2.41
6.18 3.68 2.39
6.10 3.81 2.39
6.03 3.93 2.39
5.95 4.05 2.39
5.86 4.17 2.39
5.78 4.29 2.39
5.69 4.40 2.39
5.61 4.52 2.39
5.51 4.63 2.39
5.42 4.74 2.39
5.33 4.85 2.39
5.23 4.95 2.39
5.13 5.06 2.39
5.03 5.16 2.39
4.92 5.26 2.39
4.82 5.36 2.39
4.71 5.46 2.39
4.60 5.55 2.39
4.49 5.64 2.39
4.37 5.73 2.39
4.26 5.82 2.39
4.14 5.90 2.39
4.02 5.99 2.39
3.90 6.07 2.39
3.78 6.14 2.39
3.66 6.22 2.39
3.53 6.29 2.39
3.40 6.36 2.39
3.28 6.43 2.39
3.15 6.50 2.39
2.93 6.36 2.32
2.77 6.36 2.30
2.62 6.36 2.28
2.62 6.73 2.39
2.48 6.78 2.39
2.35 6.83 2.39
2.21 6.88 2.39
2.15 7.18 2.48
2.01 7.26 2.49
1.87 7.30 2.49
1.72 7.34 2.49
1.57 7.37 2.49
1.43 7.40 2.49
1.28 7.43 2.49
1.13 7.46 2.49
0.98 7.48 2.49
0.83 7.50 2.49
0.68 7.51 2.49
0.53 7.53 2.49
0.38 7.54 2.49
0.22 7.54 2.49
0.07 7.55 2.49
-0.08 7.55 2.49
-0.23 7.54 2.49
-0.38 7.54 2.49
-0.53 7.53 2.49
-0.68 7.52 2.49
-0.83 7.50 2.49
-0.98 7.48 2.49
-1.13 7.46 2.49
-1.28 7.44 2.49
-1.43 7.41 2.49
-1.58 7.38 2.49
-1.73 7.35 2.49
-1.88 7.31 2.49
-2.02 7.28 2.49
-2.17 7.23 2.49
-2.31 7.19 2.49
-2.46 7.14 2.49
-2.60 7.09 2.49
-2.74 7.04 2.49
-2.88 6.98 2.49
-3.02 6.92 2.49
-3.16 6.86 2.49
-3.30 6.80 2.49
-3.43 6.73 2.49
-3.57 6.66 2.49
-3.70 6.59 2.49
-3.83 6.51 2.49
-3.96 6.43 2.49
-4.09 6.35 2.49
-4.22 6.27 2.49
-4.34 6.18 2.49
-4.46 6.09 2.49
-4.59 6.00 2.49
-4.70 5.91 2.49
-4.82 5.81 2.49
-4.94 5.72 2.49
-5.05 5.61 2.49
-5.16 5.51 2.49
-5.27 5.41 2.49
-5.38 5.30 2.49
-5.48 5.19 2.49
-5.59 5.08 2.49
-5.69 4.97 2.49
-5.79 4.85 2.49
-5.88 4.73 2.49
-5.88 4.54 2.45
-5.88 4.36 2.42
-5.90 4.19 2.39
-5.98 4.07 2.39
-6.08 3.96 2.40
-6.14 3.83 2.39
-6.22 3.70 2.39
-6.29 3.58 2.39
-6.36 3.45 2.39
-6.43 3.32 2.39
-6.49 3.19 2.39
-6.55 3.06 2.39
-6.61 2.93 2.39
-6.67 2.80 2.39
-6.72 2.66 2.39
-6.77 2.52 2.39
-6.82 2.39 2.39
-6.87 2.25 2.39
-6.91 2.11 2.39
-6.95 1.97 2.39
-6.99 1.83 2.39
-7.03 1.69 2.39
-7.06 1.55 2.39
-7.09 1.41 2.39
-7.11 1.27 2.39
-7.14 1.12 2.39
-7.16 0.98 2.39
-7.17 0.84 2.39
-7.19 0.69 2.39
-7.20 0.55 2.39
-7.21 0.40 2.39
-7.21 0.26 2.39
-7.22 0.11 2.39
-7.22 -0.03 2.39
-7.21 -0.18 2.39
-7.21 -0.32 2.39
-7.20 -0.47 2.39
-7.19 -0.61 2.39
-7.17 -0.75 2.39
-7.16 -0.90 2.39
-7.14 -1.04 2.39
-7.11 -1.18 2.39
-7.09 -1.33 2.39
-7.06 -1.47 2.39
-7.03 -1.61 2.39
-6.99 -1.75 2.39
-6.95 -1.89 2.39
-6.91 -2.03 2.39
-6.87 -2.17 2.39
-6.82 -2.30 2.39
-6.78 -2.44 2.39
-6.72 -2.57 2.39
-6.67 -2.71 2.39
-6.61 -2.84 2.39
-6.55 -2.97 2.39
-6.49 -3.10 2.39
-6.43 -3.23 2.39
-6.36 -3.36 2.39
-6.29 -3.49 2.39
-6.22 -3.61 2.39
-6.14 -3.74 2.39
-6.07 -3.86 2.39
-5.99 -3.98 2.39
-5.91 -4.10 2.39
-5.82 -4.22 2.39
-5.81 -4.39 2.42
-5.81 -4.57 2.46
-5.80 -4.75 2.49
-5.70 -4.87 2.49
-5.60 -4.98 2.49
-5.50 -5.09 2.49
-5.39 -5.20 2.49
-5.29 -5.31 2.49
-5.18 -5.41 2.49
-5.07 -5.51 2.49
-4.96 -5.61 2.49
-4.84 -5.71 2.49
-4.72 -5.81 2.49
-4.61 -5.90 2.49
-4.49 -5.99 2.49
-4.37 -6.08 2.49
-4.24 -6.16 2.49
-4.12 -6.25 2.49
-3.99 -6.33 2.49
-3.86 -6.40 2.49
-3.73 -6.48 2.49
-3.60 -6.55 2.49
-3.47 -6.62 2.49
-3.33 -6.69 2.49
-3.20 -6.76 2.49
-3.06 -6.82 2.49
-2.92 -6.88 2.49
-2.78 -6.93 2.49
-2.64 -6.99 2.49
-2.50 -7.04 2.49
-2.36 -7.09 2.49
-2.22 -7.13 2.49
-2.07 -7.17 2.49
-1.93 -7.21 2.49
-1.78 -7.25 2.49
-1.64 -7.28 2.49
-1.49 -7.31 2.49
-1.34 -7.34 2.49
-1.20 -7.37 2.49
-1.05 -7.39 2.49
-0.90 -7.41 2.49
-0.75 -7.42 2.49
-0.60 -7.44 2.49
-0.45 -7.45 2.49
-0.30 -7.45 2.49
-0.15 -7.46 2.49
-0.00 -6.94 2.49
0.14 -6.93 2.49
0.28 -6.93 2.49
0.41 -6.92 2.49
0.55 -6.91 2.49
0.69 -6.90 2.49
0.83 -6.88 2.49
0.97 -6.86 2.49
1.11 -6.84 2.49
1.24 -6.82 2.49
1.38 -6.79 2.49
1.52 -6.76 2.49
1.65 -6.73 2.49
1.79 -6.70 2.49
1.92 -6.66 2.49
2.05 -6.62 2.49
2.19 -6.58 2.49
