ply
format ascii 1.0
element vertex 2965
property float32 x
property float32 y
property float32 z
end_header
4.69 12.04 2.39
4.45 12.13 2.39
4.20 12.22 2.39
3.96 12.30 2.39
3.71 12.37 2.39
3.46 12.45 2.39
3.21 12.51 2.39
2.96 12.57 2.39
2.70 12.63 2.39
2.45 12.68 2.39
2.29 13.27 2.49
2.02 13.31 2.49
1.76 13.35 2.49
1.49 13.38 2.49
1.22 13.40 2.49
0.95 13.42 2.49
0.68 13.44 2.49
0.41 13.45 2.49
0.14 13.45 2.49
-0.13 13.45 2.49
-0.40 13.44 2.49
-0.67 13.43 2.49
-0.94 13.41 2.49
-1.21 13.38 2.49
-1.48 13.35 2.49
-1.74 13.32 2.49
-2.01 13.28 2.49
-2.27 13.23 2.49
-2.54 13.18 2.49
-2.80 13.12 2.49
-3.06 13.06 2.49
-3.33 12.99 2.49
-3.58 12.92 2.49
-3.84 12.84 2.49
-4.10 12.76 2.49
-4.35 12.67 2.49
-4.60 12.58 2.49
-4.85 12.48 2.49
-5.10 12.38 2.49
-5.35 12.27 2.49
-5.59 12.16 2.49
-5.68 11.72 2.43
-5.82 11.42 2.39
-6.05 11.30 2.39
-6.27 11.17 2.39
-6.49 11.04 2.39
-6.71 10.91 2.39
-6.93 10.77 2.39
-7.14 10.62 2.39
-7.35 10.47 2.39
-7.55 10.32 2.39
-7.76 10.16 2.39
-7.96 10.00 2.39
-8.15 9.84 2.39
-8.35 9.67 2.39
-8.54 9.50 2.39
-8.72 9.32 2.39
-8.91 9.14 2.39
-9.08 8.96 2.39
-9.26 8.77 2.39
-9.43 8.58 2.39
-9.60 8.39 2.39
-9.76 8.19 2.39
-12.19 9.82 2.94
-12.31 9.51 2.92
-12.43 9.21 2.91
-12.55 8.92 2.89
-12.60 8.58 2.87
-12.51 8.15 2.81
-12.41 7.74 2.75
-12.39 7.38 2.71
-12.43 7.08 2.69
-12.47 6.77 2.67
-12.50 6.46 2.65
-12.45 6.13 2.61
-12.41 5.80 2.58
-12.37 5.48 2.55
-12.39 5.19 2.53
-12.41 4.91 2.52
-12.43 4.63 2.50
-12.44 4.36 2.49
-12.45 4.08 2.47
-12.45 3.81 2.46
-12.46 3.54 2.45
-12.48 3.27 2.44
-12.50 3.01 2.43
-12.53 2.75 2.43
-12.55 2.49 2.42
-12.58 2.24 2.42
-12.61 1.98 2.42
-12.64 1.73 2.41
-12.67 1.48 2.41
-12.69 1.22 2.41
-12.71 0.97 2.42
-12.73 0.71 2.42
-12.77 0.45 2.42
-12.85 0.20 2.44
-12.93 -0.06 2.45
-13.00 -0.32 2.47
-13.08 -0.59 2.48
-13.06 -0.85 2.49
-13.05 -1.11 2.49
-13.13 -1.38 2.51
-13.32 -1.67 2.55
-13.50 -1.97 2.59
-13.69 -2.28 2.64
-13.78 -2.58 2.67
-13.80 -2.88 2.68
-13.82 -3.17 2.70
-13.84 -3.47 2.71
-13.85 -3.77 2.73
-13.87 -4.07 2.75
-13.88 -4.38 2.77
-13.88 -4.69 2.79
-13.85 -4.99 2.80
-13.82 -5.30 2.82
-13.79 -5.61 2.84
-13.59 -5.85 2.82
-13.38 -6.08 2.80
-13.17 -6.30 2.78
-12.95 -6.52 2.76
-12.73 -6.73 2.75
-12.50 -6.94 2.73
-12.27 -7.14 2.71
-12.04 -7.33 2.69
-11.81 -7.52 2.67
-11.49 -7.65 2.63
-11.18 -7.76 2.60
-10.86 -7.87 2.56
-9.99 -7.55 2.39
-9.84 -7.75 2.39
-9.68 -7.95 2.39
-9.52 -8.14 2.39
-9.35 -8.33 2.39
-9.18 -8.51 2.39
-9.01 -8.69 2.39
-8.83 -8.87 2.39
-8.65 -9.05 2.39
-8.47 -9.22 2.39
-8.28 -9.39 2.39
-8.09 -9.55 2.39
-7.89 -9.71 2.39
-7.70 -9.87 2.39
-7.50 -10.02 2.39
-7.30 -10.17 2.39
-7.09 -10.31 2.39
-6.88 -10.45 2.39
-6.67 -10.59 2.39
-6.46 -10.72 2.39
-6.24 -10.85 2.39
-6.15 -11.21 2.44
-6.05 -11.57 2.49
-5.82 -11.69 2.49
-5.58 -11.80 2.49
-5.34 -11.91 2.49
-5.10 -12.02 2.49
-4.86 -12.12 2.49
-4.62 -12.22 2.49
-4.37 -12.31 2.49
-4.12 -12.39 2.49
-3.87 -12.48 2.49
-3.62 -12.55 2.49
-3.37 -12.62 2.49
-3.11 -12.69 2.49
-2.86 -12.75 2.49
-2.60 -12.81 2.49
-2.35 -12.86 2.49
-2.09 -12.91 2.49
-1.83 -12.95 2.49
-1.57 -12.98 2.49
-1.31 -13.01 2.49
-1.05 -13.04 2.49
-0.78 -13.06 2.49
-0.52 -13.07 2.49
-0.26 -13.08 2.49
0.00 -11.66 2.49
0.24 -11.65 2.49
0.47 -11.65 2.49
0.71 -11.64 2.49
0.94 -11.63 2.49
1.17 -11.61 2.49
1.41 -11.58 2.49
1.64 -11.55 2.49
1.87 -11.52 2.49
2.02 -11.01 2.39
2.24 -10.97 2.39
2.46 -10.92 2.39
2.68 -10.87 2.39
2.89 -10.82 2.39
3.11 -10.76 2.39
3.33 -10.70 2.39
3.54 -10.63 2.39
3.76 -10.56 2.39
3.97 -10.49 2.39
4.18 -10.41 2.39
4.39 -10.32 2.39
4.60 -10.24 2.39
4.80 -10.14 2.39
5.01 -10.05 2.39
5.21 -9.95 2.39
5.41 -9.84 2.39
5.61 -9.74 2.39
5.80 -9.62 2.39
6.04 -9.59 2.41
6.23 -9.46 2.41
6.42 -9.33 2.41
6.61 -9.20 2.41
6.79 -9.07 2.41
5.88 -7.53 2.03
6.08 -7.47 2.05
6.31 -7.44 2.07
6.61 -7.48 2.12
6.88 -7.49 2.16
7.14 -7.46 2.19
7.47 -7.50 2.24
7.68 -7.40 2.26
7.80 -7.22 2.25
7.92 -7.04 2.24
8.03 -6.86 2.24
8.14 -6.68 2.23
8.31 -6.54 2.24
8.42 -6.36 2.23
8.53 -6.18 2.23
8.64 -5.99 2.22
8.74 -5.81 2.22
8.84 -5.62 2.21
8.94 -5.44 2.21
9.03 -5.25 2.21
9.31 -5.16 2.25
9.70 -5.13 2.32
9.78 -4.92 2.31
9.86 -4.71 2.30
9.93 -4.50 2.30
10.00 -4.30 2.29
10.06 -4.09 2.29
10.12 -3.88 2.28
10.18 -3.67 2.28
10.24 -3.46 2.28
10.29 -3.25 2.27
10.34 -3.03 2.27
10.39 -2.82 2.26
10.43 -2.61 2.26
10.47 -2.40 2.26
10.51 -2.19 2.26
10.54 -1.97 2.25
10.57 -1.76 2.25
10.60 -1.55 2.25
10.62 -1.33 2.25
10.64 -1.12 2.25
10.66 -0.91 2.25
10.68 -0.69 2.25
10.69 -0.48 2.24
10.70 -0.26 2.24
10.70 -0.05 2.24
10.70 0.17 2.24
10.70 0.38 2.24
10.70 0.60 2.25
10.69 0.81 2.25
10.68 1.03 2.25
10.67 1.24 2.25
10.65 1.46 2.25
10.63 1.67 2.25
10.61 1.89 2.25
10.58 2.10 2.26
10.55 2.32 2.26
10.52 2.53 2.26
10.49 2.75 2.27
10.45 2.96 2.27
10.40 3.18 2.27
10.36 3.39 2.28
10.31 3.61 2.28
10.26 3.82 2.29
10.20 4.04 2.29
10.14 4.25 2.30
10.08 4.46 2.30
10.02 4.68 2.31
9.95 4.89 2.31
9.87 5.10 2.32
9.52 5.17 2.26
9.15 5.21 2.20
8.70 5.18 2.11
8.38 5.22 2.06
7.98 5.20 1.99
7.70 5.24 1.94
7.34 5.21 1.88
7.09 5.25 1.84
6.81 5.26 1.79
6.50 5.23 1.74
6.28 5.27 1.71
6.15 5.37 1.70
8.54 7.77 2.41
8.39 7.94 2.41
8.23 8.11 2.41
8.06 8.27 2.41
7.90 8.43 2.41
7.73 8.59 2.41
7.55 8.74 2.41
7.38 8.89 2.41
7.20 9.04 2.41
7.01 9.18 2.41
6.83 9.32 2.41
6.64 9.45 2.41
6.45 9.59 2.41
6.21 9.65 2.39
6.02 9.77 2.39
5.82 9.89 2.39
5.62 10.00 2.39
2.40 4.48 1.06
5.22 10.22 2.39
5.01 10.32 2.39
4.80 10.42 2.39
4.59 10.52 2.39
4.38 10.60 2.39
4.16 10.69 2.39
3.95 10.77 2.39
3.73 10.85 2.39
3.51 10.92 2.39
3.29 10.99 2.39
3.07 11.05 2.39
2.85 11.11 2.39
2.63 11.16 2.39
2.40 11.21 2.39
2.27 11.74 2.49
2.03 11.78 2.49
1.80 11.82 2.49
1.56 11.85 2.49
1.32 11.88 2.49
1.08 11.90 2.49
0.84 11.92 2.49
0.60 11.93 2.49
0.36 11.94 2.49
0.12 11.94 2.49
-0.12 11.94 2.49
-0.36 11.93 2.49
-0.59 11.92 2.49
-0.83 11.91 2.49
-1.07 11.88 2.49
-1.31 11.86 2.49
-1.55 11.83 2.49
-1.78 11.79 2.49
-2.02 11.75 2.49
-2.25 11.71 2.49
-2.49 11.66 2.49
-2.72 11.60 2.49
-2.95 11.54 2.49
-3.18 11.48 2.49
-3.41 11.41 2.49
-3.64 11.34 2.49
-3.87 11.26 2.49
-4.09 11.18 2.49
-4.31 11.09 2.49
-4.53 11.00 2.49
-4.75 10.90 2.49
-4.97 10.80 2.49
-5.18 10.70 2.49
-5.39 10.59 2.49
-5.60 10.47 2.49
-5.71 10.17 2.45
-5.77 9.81 2.39
-5.96 9.69 2.39
-6.15 9.57 2.39
-6.34 9.44 2.39
-6.53 9.31 2.39
-6.71 9.17 2.39
-6.89 9.03 2.39
-7.07 8.89 2.39
-7.25 8.74 2.39
-7.42 8.60 2.39
-7.59 8.44 2.39
-7.75 8.29 2.39
-7.92 8.13 2.39
-8.07 7.96 2.39
-8.23 7.80 2.39
-8.38 7.63 2.39
-8.53 7.46 2.39
-8.68 7.28 2.39
-8.82 7.10 2.39
-8.96 6.92 2.39
-9.09 6.74 2.39
-9.22 6.55 2.39
-9.35 6.37 2.39
-9.47 6.18 2.39
-9.59 5.98 2.39
-9.71 5.79 2.39
-9.82 5.59 2.39
-11.88 6.45 2.86
-11.92 6.17 2.84
-11.95 5.88 2.82
-11.91 5.57 2.79
-11.92 5.28 2.76
-11.94 5.01 2.75
-11.97 4.74 2.73
-11.99 4.47 2.71
-12.01 4.20 2.70
-12.02 3.94 2.68
-12.03 3.68 2.67
-12.04 3.42 2.66
-12.07 3.17 2.65
-12.09 2.91 2.64
-12.12 2.66 2.64
-12.14 2.41 2.63
-12.16 2.17 2.63
-12.19 1.92 2.62
-12.22 1.67 2.62
-12.24 1.43 2.62
-12.26 1.18 2.62
-12.29 0.93 2.62
-12.31 0.69 2.62
-12.32 0.44 2.63
-12.34 0.19 2.63
-12.39 -0.06 2.64
-12.46 -0.31 2.66
-12.53 -0.56 2.67
-12.53 -0.81 2.68
-12.52 -1.06 2.68
-12.50 -1.32 2.68
-12.48 -1.57 2.68
-12.46 -1.82 2.69
-12.60 -2.10 2.73
-12.76 -2.39 2.77
-12.86 -2.68 2.81
-12.78 -2.93 2.80
-12.69 -3.18 2.80
-12.60 -3.43 2.79
-12.51 -3.67 2.79
-12.42 -3.92 2.78
-12.39 -4.19 2.80
-12.40 -4.47 2.82
-12.34 -4.73 2.83
-12.17 -4.95 2.81
-11.99 -5.16 2.79
-11.81 -5.36 2.78
-11.54 -5.52 2.74
-9.97 -5.02 2.39
-9.87 -5.22 2.39
-9.76 -5.42 2.39
-9.65 -5.61 2.39
-9.53 -5.80 2.39
-9.41 -5.99 2.39
-9.29 -6.18 2.39
-9.16 -6.36 2.39
-9.03 -6.55 2.39
-8.90 -6.73 2.39
-8.76 -6.90 2.39
-8.62 -7.08 2.39
-8.48 -7.25 2.39
-8.33 -7.42 2.39
-8.18 -7.58 2.39
-8.02 -7.74 2.39
-7.86 -7.90 2.39
-7.70 -8.06 2.39
-7.54 -8.21 2.39
-7.37 -8.36 2.39
-7.20 -8.51 2.39
-7.03 -8.65 2.39
-6.86 -8.79 2.39
-6.68 -8.92 2.39
-6.50 -9.06 2.39
-6.31 -9.19 2.39
-6.13 -9.31 2.39
-6.12 -9.72 2.46
-6.00 -9.96 2.49
-5.80 -10.08 2.49
-5.59 -10.19 2.49
-5.39 -10.30 2.49
-5.18 -10.41 2.49
-4.97 -10.51 2.49
-4.76 -10.61 2.49
-4.54 -10.71 2.49
-4.33 -10.80 2.49
-4.11 -10.88 2.49
-3.89 -10.96 2.49
-3.67 -11.04 2.49
-3.45 -11.11 2.49
-3.22 -11.18 2.49
-3.00 -11.24 2.49
-2.77 -11.30 2.49
-2.55 -11.36 2.49
-2.32 -11.41 2.49
-2.09 -11.45 2.49
-1.86 -11.49 2.49
-1.63 -11.53 2.49
-1.40 -11.56 2.49
-1.16 -11.59 2.49
-0.93 -11.61 2.49
-0.70 -11.63 2.49
-0.46 -11.64 2.49
-0.23 -11.65 2.49
0.00 -10.49 2.49
0.21 -10.49 2.49
0.43 -10.49 2.49
0.64 -10.48 2.49
0.85 -10.47 2.49
1.06 -10.45 2.49
1.27 -10.43 2.49
1.48 -10.40 2.49
1.69 -10.37 2.49
1.89 -10.34 2.49
2.01 -9.87 2.39
2.21 -9.83 2.39
2.41 -9.79 2.39
2.61 -9.74 2.39
2.80 -9.69 2.39
3.00 -9.63 2.39
3.19 -9.57 2.39
3.38 -9.51 2.39
3.57 -9.44 2.39
3.76 -9.37 2.39
3.95 -9.29 2.39
4.14 -9.21 2.39
4.32 -9.13 2.39
4.51 -9.04 2.39
4.69 -8.95 2.39
4.87 -8.86 2.39
5.05 -8.76 2.39
5.22 -8.66 2.39
5.40 -8.56 2.39
5.57 -8.45 2.39
5.74 -8.34 2.39
5.91 -8.22 2.39
6.11 -8.16 2.41
5.88 -7.53 2.25
6.08 -7.47 2.27
6.31 -7.44 2.30
6.57 -7.44 2.34
6.69 -7.28 2.33
6.82 -7.12 2.32
6.93 -6.96 2.32
7.05 -6.80 2.31
7.16 -6.63 2.30
7.27 -6.47 2.29
7.38 -6.30 2.28
7.48 -6.14 2.28
7.58 -5.97 2.27
7.68 -5.80 2.26
7.78 -5.63 2.26
7.87 -5.46 2.25
7.96 -5.29 2.25
8.06 -5.12 2.24
8.45 -5.14 2.32
8.80 -5.11 2.39
8.88 -4.92 2.38
8.95 -4.73 2.38
9.03 -4.54 2.37
9.10 -4.35 2.37
9.17 -4.16 2.36
9.23 -3.97 2.36
9.29 -3.77 2.35
9.35 -3.58 2.35
9.41 -3.39 2.34
9.46 -3.19 2.34
9.51 -3.00 2.34
9.56 -2.80 2.33
9.60 -2.61 2.33
9.64 -2.41 2.33
9.68 -2.22 2.32
9.71 -2.02 2.32
9.75 -1.82 2.32
9.77 -1.63 2.32
9.80 -1.43 2.31
9.82 -1.23 2.31
9.84 -1.04 2.31
9.86 -0.84 2.31
9.87 -0.64 2.31
9.88 -0.44 2.31
9.89 -0.24 2.31
9.90 -0.04 2.31
9.90 0.15 2.31
9.90 0.35 2.31
9.89 0.55 2.31
9.89 0.75 2.31
9.88 0.95 2.31
9.86 1.15 2.31
9.85 1.35 2.32
9.83 1.55 2.32
9.81 1.75 2.32
9.78 1.94 2.32
9.75 2.14 2.32
9.72 2.34 2.33
9.69 2.54 2.33
9.65 2.74 2.33
9.61 2.94 2.34
9.57 3.13 2.34
9.52 3.33 2.35
9.47 3.53 2.35
9.42 3.73 2.35
9.36 3.92 2.36
9.30 4.12 2.36
9.24 4.32 2.37
9.17 4.51 2.38
9.11 4.71 2.38
9.03 4.90 2.39
8.96 5.10 2.39
8.70 5.18 2.35
8.38 5.22 2.29
7.98 5.20 2.21
7.70 5.24 2.16
7.34 5.21 2.09
7.09 5.25 2.05
6.81 5.26 2.00
6.50 5.23 1.93
6.28 5.27 1.90
6.15 5.37 1.89
7.67 6.98 2.41
7.53 7.13 2.41
7.39 7.28 2.41
7.24 7.43 2.41
7.09 7.57 2.41
6.94 7.71 2.41
6.78 7.85 2.41
6.62 7.99 2.41
6.46 8.12 2.41
6.26 8.19 2.39
6.09 8.31 2.39
5.92 8.44 2.39
5.75 8.55 2.39
5.58 8.67 2.39
5.41 8.78 2.39
5.23 8.88 2.39
5.05 8.99 2.39
2.40 4.48 1.18
4.68 9.18 2.39
4.50 9.27 2.39
4.31 9.36 2.39
4.12 9.44 2.39
3.93 9.53 2.39
3.74 9.60 2.39
3.37 9.18 2.27
3.28 9.55 2.34
3.10 9.65 2.35
2.81 9.37 2.27
2.70 9.71 2.34
2.56 9.98 2.39
2.36 10.03 2.39
2.25 10.50 2.49
2.04 10.55 2.49
1.83 10.58 2.49
1.61 10.62 2.49
1.40 10.65 2.49
1.19 10.67 2.49
0.97 10.69 2.49
0.76 10.71 2.49
0.54 10.72 2.49
0.33 10.73 2.49
0.11 10.73 2.49
-0.10 10.73 2.49
-0.32 10.72 2.49
-0.53 10.71 2.49
-0.75 10.70 2.49
-0.96 10.68 2.49
-1.18 10.65 2.49
-1.39 10.63 2.49
-1.60 10.60 2.49
-1.81 10.56 2.49
-2.03 10.52 2.49
-2.24 10.47 2.49
-2.44 10.42 2.49
-2.65 10.37 2.49
-2.86 10.31 2.49
-3.07 10.25 2.49
-3.27 10.19 2.49
-3.47 10.12 2.49
-3.67 10.04 2.49
-3.87 9.97 2.49
-4.07 9.88 2.49
-4.27 9.80 2.49
-4.46 9.71 2.49
-4.66 9.61 2.49
-4.85 9.52 2.49
-5.04 9.41 2.49
-5.22 9.31 2.49
-5.41 9.20 2.49
-5.59 9.09 2.49
-5.73 8.91 2.48
-5.75 8.55 2.41
-5.87 8.37 2.39
-6.03 8.25 2.39
-6.20 8.12 2.39
-6.36 7.99 2.39
-6.51 7.86 2.39
-6.67 7.73 2.39
-6.82 7.59 2.39
-6.97 7.45 2.39
-7.12 7.31 2.39
-7.26 7.16 2.39
-7.40 7.01 2.39
-7.54 6.86 2.39
-7.67 6.71 2.39
-7.80 6.55 2.39
-7.93 6.39 2.39
-8.05 6.23 2.39
-8.18 6.06 2.39
-8.29 5.90 2.39
-8.41 5.73 2.39
-8.52 5.56 2.39
-8.63 5.38 2.39
-8.73 5.21 2.39
-8.83 5.03 2.39
-8.93 4.85 2.39
-9.02 4.67 2.39
-9.11 4.48 2.39
-9.20 4.30 2.39
-9.28 4.11 2.39
-9.36 3.92 2.39
-9.43 3.73 2.39
-9.50 3.54 2.39
-9.57 3.35 2.39
-9.63 3.16 2.39
-9.69 2.96 2.39
-9.75 2.77 2.39
-9.80 2.57 2.39
-9.84 2.37 2.39
-9.89 2.17 2.39
-11.75 2.34 2.83
-11.78 2.10 2.83
-11.80 1.86 2.82
-11.81 1.62 2.82
-11.84 1.38 2.82
-11.86 1.14 2.82
-11.88 0.90 2.82
-11.90 0.66 2.82
-11.92 0.43 2.82
-11.94 0.19 2.83
-11.95 -0.05 2.83
-11.97 -0.29 2.83
-12.03 -0.54 2.85
-12.04 -0.78 2.86
-12.02 -1.02 2.86
-12.01 -1.26 2.86
-11.99 -1.51 2.86
-11.97 -1.75 2.87
-9.94 -1.66 2.39
-9.91 -1.86 2.39
-9.86 -2.05 2.39
-9.82 -2.25 2.39
-9.77 -2.45 2.39
-9.72 -2.64 2.39
-9.66 -2.84 2.39
-9.60 -3.03 2.39
-9.54 -3.22 2.39
-9.47 -3.41 2.39
-9.40 -3.60 2.39
-9.32 -3.79 2.39
-9.24 -3.97 2.39
-9.16 -4.16 2.39
-9.07 -4.34 2.39
-8.98 -4.52 2.39
-8.89 -4.70 2.39
-8.79 -4.88 2.39
-8.69 -5.05 2.39
-8.59 -5.23 2.39
-8.48 -5.40 2.39
-8.37 -5.56 2.39
-8.25 -5.73 2.39
-8.14 -5.90 2.39
-8.01 -6.06 2.39
-7.89 -6.22 2.39
-7.76 -6.37 2.39
-7.63 -6.53 2.39
-7.50 -6.68 2.39
-7.36 -6.83 2.39
-7.21 -6.96 2.39
-7.08 -7.12 2.39
-6.94 -7.26 2.39
-6.79 -7.39 2.39
-6.64 -7.53 2.39
-6.49 -7.66 2.39
-6.33 -7.79 2.39
-6.17 -7.92 2.39
-6.09 -8.14 2.42
-6.10 -8.50 2.49
-5.93 -8.63 2.49
-5.76 -8.75 2.49
-5.58 -8.86 2.49
-5.40 -8.97 2.49
-5.22 -9.08 2.49
-5.04 -9.18 2.49
-4.85 -9.28 2.49
-4.66 -9.38 2.49
-4.48 -9.47 2.49
-4.28 -9.56 2.49
-4.09 -9.64 2.49
-3.90 -9.72 2.49
-3.70 -9.80 2.49
-3.50 -9.87 2.49
-3.31 -9.94 2.49
-3.11 -10.01 2.49
-2.90 -10.07 2.49
-2.70 -10.12 2.49
-2.50 -10.18 2.49
-2.29 -10.23 2.49
-2.09 -10.27 2.49
-1.88 -10.31 2.49
-1.67 -10.35 2.49
-1.47 -10.38 2.49
-1.26 -10.41 2.49
-1.05 -10.43 2.49
-0.84 -10.46 2.49
-0.63 -10.47 2.49
-0.42 -10.48 2.49
-0.21 -10.49 2.49
0.00 -9.53 2.49
0.20 -9.53 2.49
0.39 -9.53 2.49
0.58 -9.52 2.49
0.77 -9.51 2.49
0.96 -9.49 2.49
1.15 -9.47 2.49
1.34 -9.45 2.49
1.53 -9.42 2.49
1.72 -9.39 2.49
1.91 -9.36 2.49
2.01 -8.93 2.39
2.19 -8.89 2.39
2.37 -8.85 2.39
2.55 -8.80 2.39
2.72 -8.75 2.39
2.90 -8.69 2.39
3.07 -8.64 2.39
3.25 -8.57 2.39
3.42 -8.51 2.39
3.59 -8.44 2.39
3.76 -8.37 2.39
3.93 -8.29 2.39
4.09 -8.21 2.39
4.26 -8.13 2.39
4.42 -8.05 2.39
4.58 -7.96 2.39
4.74 -7.87 2.39
4.90 -7.77 2.39
5.06 -7.67 2.39
5.21 -7.57 2.39
5.36 -7.47 2.39
5.51 -7.36 2.39
5.66 -7.25 2.39
5.81 -7.13 2.39
5.95 -7.02 2.39
6.07 -6.87 2.38
6.19 -6.73 2.37
6.30 -6.58 2.36
6.41 -6.43 2.36
6.51 -6.28 2.35
6.62 -6.13 2.34
6.72 -5.98 2.33
6.82 -5.83 2.33
6.92 -5.67 2.32
7.01 -5.52 2.31
7.11 -5.36 2.31
7.20 -5.21 2.30
7.34 -5.09 2.31
7.74 -5.14 2.41
7.85 -4.99 2.41
7.95 -4.83 2.41
8.04 -4.67 2.41
8.14 -4.51 2.41
8.23 -4.35 2.41
8.32 -4.18 2.41
8.40 -4.02 2.41
8.48 -3.85 2.41
8.56 -3.68 2.41
8.63 -3.50 2.41
8.68 -3.32 2.40
8.74 -3.15 2.40
8.79 -2.97 2.39
8.83 -2.79 2.39
8.88 -2.60 2.39
8.92 -2.42 2.38
8.96 -2.24 2.38
8.99 -2.06 2.38
9.03 -1.88 2.38
9.06 -1.69 2.37
9.08 -1.51 2.37
9.11 -1.33 2.37
9.13 -1.15 2.37
9.15 -0.96 2.37
9.16 -0.78 2.37
9.18 -0.59 2.37
9.19 -0.41 2.37
9.19 -0.22 2.37
9.20 -0.04 2.37
9.20 0.14 2.37
9.20 0.33 2.37
9.19 0.51 2.37
9.19 0.70 2.37
9.18 0.88 2.37
9.16 1.07 2.37
9.15 1.25 2.37
9.13 1.44 2.37
9.11 1.62 2.38
9.09 1.81 2.38
9.06 1.99 2.38
9.03 2.17 2.38
9.00 2.36 2.39
8.96 2.54 2.39
8.92 2.73 2.39
8.88 2.91 2.40
8.83 3.09 2.40
8.79 3.28 2.40
8.73 3.45 2.41
8.66 3.63 2.41
8.59 3.80 2.41
8.51 3.98 2.41
8.43 4.15 2.41
8.35 4.31 2.41
8.26 4.48 2.41
8.17 4.65 2.41
8.07 4.81 2.41
7.98 4.97 2.41
7.88 5.13 2.41
7.70 5.24 2.38
7.34 5.21 2.30
7.09 5.25 2.26
6.80 5.26 2.20
6.50 5.23 2.13
6.28 5.27 2.10
6.15 5.37 2.09
6.96 6.33 2.41
6.83 6.47 2.41
6.70 6.60 2.41
6.57 6.74 2.41
6.43 6.87 2.41
6.25 6.95 2.39
6.11 7.07 2.39
5.97 7.19 2.39
5.82 7.31 2.39
5.67 7.43 2.39
5.52 7.54 2.39
5.37 7.65 2.39
5.22 7.75 2.39
5.06 7.86 2.39
4.90 7.96 2.39
4.74 8.05 2.39
2.50 4.45 1.30
2.39 4.46 1.29
4.25 8.32 2.39
4.08 8.41 2.39
3.91 8.49 2.39
3.74 8.56 2.39
3.38 8.20 2.27
3.26 8.37 2.30
3.16 8.63 2.35
2.99 8.69 2.35
2.72 8.44 2.27
2.68 8.95 2.39
2.50 9.00 2.39
2.33 9.08 2.40
2.23 9.48 2.49
2.04 9.53 2.49
1.85 9.56 2.49
1.66 9.60 2.49
1.46 9.63 2.49
1.27 9.65 2.49
1.08 9.68 2.49
0.88 9.70 2.49
0.69 9.71 2.49
0.49 9.72 2.49
0.30 9.73 2.49
0.10 9.73 2.49
-0.09 9.73 2.49
-0.29 9.72 2.49
-0.48 9.71 2.49
-0.68 9.70 2.49
-0.87 9.68 2.49
-1.07 9.66 2.49
-1.26 9.64 2.49
-1.45 9.61 2.49
-1.64 9.58 2.49
-1.84 9.54 2.49
-2.03 9.50 2.49
-2.22 9.46 2.49
-2.41 9.41 2.49
-2.59 9.36 2.49
-2.78 9.30 2.49
-2.97 9.24 2.49
-3.15 9.18 2.49
-3.33 9.11 2.49
-3.51 9.04 2.49
-3.69 8.97 2.49
-3.87 8.89 2.49
-4.05 8.81 2.49
-4.22 8.72 2.49
-4.40 8.63 2.49
-4.57 8.54 2.49
-4.74 8.45 2.49
-4.91 8.35 2.49
-5.07 8.25 2.49
-5.23 8.14 2.49
-5.40 8.03 2.49
-5.55 7.92 2.49
-5.71 7.81 2.49
-5.76 7.55 2.45
-5.78 7.27 2.39
-5.91 7.14 2.39
-6.05 7.01 2.39
-6.19 6.89 2.39
-6.32 6.76 2.39
-6.46 6.63 2.39
-6.59 6.50 2.39
-6.72 6.36 2.39
-6.84 6.23 2.39
-6.96 6.09 2.39
-7.08 5.94 2.39
-7.20 5.80 2.39
-7.31 5.65 2.39
-7.42 5.50 2.39
-7.53 5.35 2.39
-7.63 5.20 2.39
-7.73 5.04 2.39
-7.83 4.89 2.39
-7.92 4.73 2.39
-8.02 4.57 2.39
-8.10 4.40 2.39
-8.19 4.24 2.39
-8.27 4.07 2.39
-8.35 3.90 2.39
-8.42 3.73 2.39
-8.49 3.56 2.39
-8.56 3.39 2.39
-8.63 3.22 2.39
-8.69 3.04 2.39
-8.74 2.87 2.39
-8.80 2.69 2.39
-8.85 2.51 2.39
-8.90 2.33 2.39
-8.94 2.16 2.39
-8.98 1.97 2.39
-9.01 1.79 2.39
-9.05 1.61 2.39
-9.07 1.43 2.39
-9.10 1.25 2.39
-9.12 1.06 2.39
-9.14 0.88 2.39
-9.15 0.70 2.39
-9.16 0.51 2.39
-9.17 0.33 2.39
-9.17 0.14 2.39
-9.17 -0.04 2.39
-9.17 -0.22 2.39
-9.16 -0.41 2.39
-9.15 -0.59 2.39
-9.13 -0.78 2.39
-9.11 -0.96 2.39
-9.09 -1.14 2.39
-9.06 -1.32 2.39
-9.03 -1.50 2.39
-9.00 -1.69 2.39
-8.96 -1.87 2.39
-8.92 -2.04 2.39
-8.88 -2.22 2.39
-8.83 -2.40 2.39
-8.78 -2.58 2.39
-8.72 -2.75 2.39
-8.66 -2.93 2.39
-8.60 -3.10 2.39
-8.54 -3.27 2.39
-8.47 -3.44 2.39
-8.40 -3.61 2.39
-8.32 -3.78 2.39
-8.24 -3.94 2.39
-8.16 -4.11 2.39
-8.08 -4.27 2.39
-7.99 -4.43 2.39
-7.90 -4.59 2.39
-7.80 -4.75 2.39
-7.70 -4.90 2.39
-7.60 -5.06 2.39
-7.50 -5.21 2.39
-7.39 -5.36 2.39
-7.28 -5.50 2.39
-7.17 -5.65 2.39
-7.05 -5.79 2.39
-6.94 -5.93 2.39
-6.82 -6.07 2.39
-6.69 -6.20 2.39
-6.57 -6.34 2.39
-6.44 -6.47 2.39
-6.30 -6.59 2.39
-6.17 -6.72 2.39
-6.07 -6.88 2.40
-6.07 -7.16 2.46
-6.00 -7.38 2.49
-5.85 -7.50 2.49
-5.70 -7.62 2.49
-5.55 -7.73 2.49
-5.39 -7.84 2.49
-5.23 -7.95 2.49
-5.07 -8.05 2.49
-4.91 -8.15 2.49
-4.74 -8.25 2.49
-4.58 -8.34 2.49
-4.41 -8.43 2.49
-4.24 -8.52 2.49
-4.07 -8.60 2.49
-3.89 -8.68 2.49
-3.72 -8.76 2.49
-3.54 -8.83 2.49
-3.36 -8.90 2.49
-3.18 -8.97 2.49
-3.00 -9.03 2.49
-2.82 -9.09 2.49
-2.64 -9.15 2.49
-2.45 -9.20 2.49
-2.27 -9.25 2.49
-2.08 -9.29 2.49
-1.90 -9.33 2.49
-1.71 -9.37 2.49
-1.52 -9.40 2.49
-1.33 -9.43 2.49
-1.14 -9.46 2.49
-0.95 -9.48 2.49
-0.76 -9.50 2.49
-0.57 -9.51 2.49
-0.38 -9.52 2.49
-0.19 -9.53 2.49
0.00 -8.73 2.49
0.18 -8.73 2.49
0.35 -8.72 2.49
0.53 -8.71 2.49
0.70 -8.70 2.49
0.88 -8.69 2.49
1.05 -8.67 2.49
1.23 -8.65 2.49
1.40 -8.62 2.49
1.58 -8.59 2.49
1.75 -8.56 2.49
1.92 -8.53 2.49
2.00 -8.14 2.39
2.17 -8.11 2.40
2.33 -8.05 2.39
2.49 -8.01 2.39
2.65 -7.96 2.39
2.81 -7.90 2.39
2.97 -7.85 2.39
3.13 -7.79 2.39
3.28 -7.72 2.39
3.44 -7.66 2.39
3.59 -7.59 2.39
3.75 -7.51 2.39
3.87 -7.39 2.37
4.02 -7.31 2.37
4.16 -7.23 2.37
4.31 -7.14 2.37
4.45 -7.06 2.37
4.59 -6.97 2.37
4.77 -6.93 2.39
4.91 -6.83 2.39
5.05 -6.73 2.39
5.18 -6.63 2.39
5.31 -6.53 2.39
5.44 -6.42 2.39
5.57 -6.31 2.39
5.70 -6.20 2.39
5.83 -6.08 2.39
5.95 -5.97 2.39
6.06 -5.84 2.39
6.15 -5.70 2.38
6.25 -5.56 2.37
6.34 -5.41 2.36
6.43 -5.27 2.36
6.52 -5.13 2.35
6.71 -5.07 2.38
6.88 -4.98 2.41
6.98 -4.84 2.41
7.08 -4.70 2.41
7.18 -4.56 2.41
7.27 -4.42 2.41
7.36 -4.27 2.41
7.44 -4.12 2.41
7.53 -3.97 2.41
7.61 -3.82 2.41
7.68 -3.67 2.41
7.76 -3.52 2.41
7.83 -3.36 2.41
7.89 -3.20 2.41
7.96 -3.05 2.41
8.02 -2.89 2.41
8.08 -2.73 2.41
8.13 -2.56 2.41
8.18 -2.40 2.41
8.23 -2.24 2.41
8.28 -2.07 2.41
8.32 -1.90 2.41
8.36 -1.74 2.41
8.39 -1.57 2.41
8.42 -1.40 2.41
8.45 -1.23 2.41
8.48 -1.06 2.41
8.50 -0.89 2.41
8.52 -0.72 2.41
8.53 -0.55 2.41
8.54 -0.38 2.41
8.55 -0.21 2.41
8.55 -0.04 2.41
8.55 0.13 2.41
8.55 0.31 2.41
8.55 0.48 2.41
8.54 0.65 2.41
8.52 0.82 2.41
8.51 0.99 2.41
8.49 1.16 2.41
8.46 1.33 2.41
8.43 1.50 2.41
8.40 1.67 2.41
8.37 1.84 2.41
8.33 2.01 2.41
8.29 2.17 2.41
8.25 2.34 2.41
8.20 2.51 2.41
8.15 2.67 2.41
8.10 2.83 2.41
8.04 3.00 2.41
7.98 3.16 2.41
7.91 3.32 2.41
7.85 3.48 2.41
7.78 3.63 2.41
7.70 3.79 2.41
7.63 3.94 2.41
7.55 4.10 2.41
7.46 4.25 2.41
7.38 4.40 2.41
7.29 4.54 2.41
7.20 4.69 2.41
7.10 4.83 2.41
7.00 4.97 2.41
6.90 5.11 2.41
6.80 5.25 2.41
6.50 5.23 2.34
6.28 5.27 2.30
6.15 5.37 2.29
6.36 5.78 2.41
6.20 5.87 2.39
6.08 5.99 2.39
5.96 6.11 2.39
5.84 6.23 2.39
5.71 6.35 2.39
5.58 6.46 2.39
5.45 6.57 2.39
5.32 6.68 2.39
5.18 6.79 2.39
5.05 6.89 2.39
4.91 6.99 2.39
4.77 7.09 2.39
4.62 7.18 2.39
4.48 7.27 2.39
4.33 7.36 2.39
2.50 4.45 1.43
2.39 4.45 1.41
3.88 7.61 2.39
3.73 7.68 2.39
3.57 7.76 2.39
3.25 7.44 2.27
3.21 7.76 2.35
3.05 7.83 2.35
2.79 7.61 2.27
2.66 7.73 2.29
2.62 8.13 2.39
2.45 8.18 2.39
2.31 8.30 2.41
2.21 8.62 2.49
2.04 8.67 2.49
1.87 8.70 2.49
1.69 8.74 2.49
1.51 8.77 2.49
1.34 8.80 2.49
1.16 8.82 2.49
0.98 8.84 2.49
0.81 8.86 2.49
0.63 8.87 2.49
0.45 8.88 2.49
0.27 8.89 2.49
0.09 8.89 2.49
-0.09 8.89 2.49
-0.26 8.89 2.49
-0.44 8.88 2.49
-0.62 8.87 2.49
-0.80 8.85 2.49
-0.97 8.83 2.49
-1.15 8.81 2.49
-1.33 8.78 2.49
-1.50 8.75 2.49
-1.68 8.72 2.49
-1.85 8.68 2.49
-2.03 8.64 2.49
-2.20 8.60 2.49
-2.37 8.55 2.49
-2.54 8.50 2.49
-2.71 8.45 2.49
-2.88 8.39 2.49
-3.05 8.33 2.49
-3.21 8.26 2.49
-3.38 8.20 2.49
-3.54 8.13 2.49
-3.70 8.05 2.49
-3.86 7.97 2.49
-4.02 7.89 2.49
-4.18 7.81 2.49
-4.33 7.72 2.49
-4.48 7.63 2.49
-4.64 7.54 2.49
-4.78 7.44 2.49
-4.93 7.34 2.49
-5.08 7.24 2.49
-5.22 7.14 2.49
-5.36 7.03 2.49
-5.50 6.92 2.49
-5.64 6.81 2.49
-5.77 6.69 2.49
-5.78 6.44 2.44
-5.80 6.20 2.40
-5.90 6.06 2.39
-6.02 5.94 2.39
-6.14 5.82 2.39
-6.25 5.69 2.39
-6.37 5.57 2.39
-6.48 5.44 2.39
-6.58 5.30 2.39
-6.69 5.17 2.39
-6.79 5.03 2.39
-6.88 4.90 2.39
-6.98 4.75 2.39
-7.07 4.61 2.39
-7.16 4.47 2.39
-7.25 4.32 2.39
-7.33 4.18 2.39
-7.41 4.03 2.39
-7.49 3.88 2.39
-7.56 3.72 2.39
-7.64 3.57 2.39
-7.70 3.42 2.39
-7.77 3.26 2.39
-7.83 3.10 2.39
-7.89 2.94 2.39
-7.95 2.78 2.39
-8.00 2.62 2.39
-8.05 2.46 2.39
-8.09 2.30 2.39
-8.14 2.14 2.39
-8.18 1.97 2.39
-8.21 1.81 2.39
-8.25 1.64 2.39
-8.28 1.48 2.39
-8.30 1.31 2.39
-8.33 1.14 2.39
-8.34 0.97 2.39
-8.36 0.81 2.39
-8.37 0.64 2.39
-8.38 0.47 2.39
-8.39 0.30 2.39
-8.39 0.13 2.39
-8.39 -0.04 2.39
-8.39 -0.20 2.39
-8.38 -0.37 2.39
-8.37 -0.54 2.39
-8.36 -0.71 2.39
-8.34 -0.88 2.39
-8.32 -1.04 2.39
-8.29 -1.21 2.39
-8.27 -1.38 2.39
-8.24 -1.54 2.39
-8.20 -1.71 2.39
-8.16 -1.87 2.39
-8.12 -2.03 2.39
-8.08 -2.20 2.39
-8.03 -2.36 2.39
-7.98 -2.52 2.39
-7.93 -2.68 2.39
-7.87 -2.84 2.39
-7.81 -2.99 2.39
-7.75 -3.15 2.39
-7.69 -3.30 2.39
-7.62 -3.46 2.39
-7.54 -3.61 2.39
-7.47 -3.76 2.39
-7.39 -3.91 2.39
-7.31 -4.06 2.39
-7.23 -4.20 2.39
-7.14 -4.35 2.39
-7.05 -4.49 2.39
-6.96 -4.63 2.39
-6.86 -4.77 2.39
-6.77 -4.90 2.39
-6.67 -5.04 2.39
-6.56 -5.17 2.39
-6.46 -5.30 2.39
-6.35 -5.43 2.39
-6.24 -5.55 2.39
-6.13 -5.68 2.39
-6.05 -5.84 2.41
-6.04 -6.07 2.45
-6.02 -6.30 2.49
-5.89 -6.42 2.49
-5.76 -6.53 2.49
-5.63 -6.65 2.49
-5.49 -6.76 2.49
-5.36 -6.87 2.49
-5.22 -6.97 2.49
-5.08 -7.08 2.49
-4.93 -7.18 2.49
-4.79 -7.28 2.49
-4.64 -7.37 2.49
-4.49 -7.46 2.49
-4.34 -7.55 2.49
-4.19 -7.64 2.49
-4.04 -7.72 2.49
-3.88 -7.80 2.49
-3.72 -7.88 2.49
-3.56 -7.95 2.49
-3.40 -8.02 2.49
-3.24 -8.09 2.49
-3.08 -8.15 2.49
-2.91 -8.21 2.49
-2.75 -8.27 2.49
-2.58 -8.32 2.49
-2.41 -8.37 2.49
-2.25 -8.42 2.49
-2.08 -8.47 2.49
-1.91 -8.51 2.49
-1.74 -8.54 2.49
-1.56 -8.58 2.49
-1.39 -8.61 2.49
-1.22 -8.63 2.49
-1.04 -8.66 2.49
-0.87 -8.68 2.49
-0.70 -8.69 2.49
-0.52 -8.71 2.49
-0.35 -8.72 2.49
-0.17 -8.72 2.49
0.00 -8.04 2.49
0.17 -8.04 2.49
0.33 -8.03 2.49
0.49 -8.03 2.49
0.65 -8.01 2.49
0.81 -8.00 2.49
0.97 -7.98 2.49
1.13 -7.96 2.49
1.29 -7.94 2.49
1.45 -7.91 2.49
1.61 -7.89 2.49
1.77 -7.85 2.49
1.93 -7.82 2.49
2.00 -7.46 2.39
2.15 -7.41 2.39
2.29 -7.37 2.39
2.44 -7.33 2.39
2.59 -7.28 2.39
2.74 -7.22 2.39
2.88 -7.17 2.39
3.03 -7.11 2.39
3.17 -7.05 2.39
3.31 -6.99 2.39
3.45 -6.92 2.39
3.59 -6.85 2.39
3.73 -6.78 2.39
3.86 -6.70 2.39
4.00 -6.62 2.39
4.13 -6.54 2.39
4.26 -6.46 2.39
4.39 -6.38 2.39
4.52 -6.29 2.39
4.65 -6.20 2.39
4.77 -6.10 2.39
4.89 -6.01 2.39
5.01 -5.91 2.39
5.13 -5.81 2.39
5.25 -5.71 2.39
5.36 -5.60 2.39
5.48 -5.49 2.39
5.59 -5.38 2.39
5.69 -5.27 2.39
5.80 -5.16 2.39
5.90 -5.04 2.39
6.00 -4.92 2.39
6.14 -4.83 2.41
6.24 -4.71 2.41
6.34 -4.58 2.41
6.43 -4.46 2.41
6.52 -4.33 2.41
6.60 -4.20 2.41
6.69 -4.07 2.41
6.77 -3.93 2.41
6.85 -3.80 2.41
6.93 -3.66 2.41
7.00 -3.52 2.41
7.07 -3.38 2.41
7.14 -3.24 2.41
7.20 -3.09 2.41
7.27 -2.95 2.41
7.32 -2.80 2.41
7.38 -2.66 2.41
7.43 -2.51 2.41
7.48 -2.36 2.41
7.53 -2.21 2.41
7.58 -2.06 2.41
7.62 -1.90 2.41
7.66 -1.75 2.41
7.69 -1.60 2.41
7.72 -1.44 2.41
7.75 -1.29 2.41
7.78 -1.13 2.41
7.80 -0.98 2.41
7.82 -0.82 2.41
7.84 -0.66 2.41
7.85 -0.51 2.41
7.86 -0.35 2.41
7.87 -0.19 2.41
7.87 -0.03 2.41
7.87 0.12 2.41
7.87 0.28 2.41
7.86 0.44 2.41
7.85 0.60 2.41
7.84 0.76 2.41
7.82 0.91 2.41
7.81 1.07 2.41
7.78 1.23 2.41
7.76 1.38 2.41
7.73 1.54 2.41
7.70 1.69 2.41
7.67 1.85 2.41
7.63 2.00 2.41
7.59 2.15 2.41
7.54 2.31 2.41
7.50 2.46 2.41
7.45 2.61 2.41
7.39 2.76 2.41
7.34 2.90 2.41
7.28 3.05 2.41
7.22 3.20 2.41
7.15 3.34 2.41
7.09 3.49 2.41
7.01 3.63 2.41
6.94 3.77 2.41
6.86 3.91 2.41
6.79 4.04 2.41
6.70 4.18 2.41
6.62 4.31 2.41
6.53 4.45 2.41
6.44 4.58 2.41
6.35 4.70 2.41
6.21 4.80 2.39
6.12 4.92 2.39
6.02 5.04 2.39
5.91 5.16 2.39
5.81 5.28 2.39
5.70 5.40 2.39
5.59 5.51 2.39
5.48 5.62 2.39
5.37 5.73 2.39
5.25 5.84 2.39
5.13 5.94 2.39
5.01 6.04 2.39
4.89 6.14 2.39
4.77 6.24 2.39
4.64 6.34 2.39
4.51 6.43 2.39
4.38 6.52 2.39
4.25 6.60 2.39
4.12 6.69 2.39
3.98 6.77 2.39
2.50 4.44 1.55
2.39 4.45 1.54
3.57 7.00 2.39
3.25 6.71 2.27
3.23 7.00 2.35
3.09 7.08 2.35
2.95 7.14 2.35
2.71 6.94 2.27
2.65 7.22 2.34
2.56 7.42 2.39
2.41 7.47 2.39
2.29 7.64 2.43
2.19 7.89 2.49
2.04 7.93 2.49
1.88 7.97 2.49
1.72 8.01 2.49
1.55 8.04 2.49
1.39 8.07 2.49
1.23 8.09 2.49
1.07 8.11 2.49
0.91 8.13 2.49
0.74 8.15 2.49
0.58 8.16 2.49
0.41 8.17 2.49
0.25 8.18 2.49
0.09 8.18 2.49
-0.08 8.18 2.49
-0.24 8.17 2.49
-0.41 8.17 2.49
-0.57 8.16 2.49
-0.73 8.14 2.49
-0.90 8.12 2.49
-1.06 8.10 2.49
-1.22 8.08 2.49
-1.38 8.05 2.49
-1.54 8.02 2.49
-1.70 7.99 2.49
-1.86 7.95 2.49
-2.02 7.91 2.49
-2.18 7.87 2.49
-2.34 7.82 2.49
-2.49 7.77 2.49
-2.65 7.72 2.49
-2.80 7.66 2.49
-2.95 7.60 2.49
-3.11 7.54 2.49
-3.26 7.48 2.49
-3.40 7.41 2.49
-3.55 7.34 2.49
-3.70 7.26 2.49
-3.84 7.19 2.49
-3.98 7.11 2.49
-4.13 7.02 2.49
-4.26 6.94 2.49
-4.40 6.85 2.49
-4.54 6.76 2.49
-4.67 6.66 2.49
-4.80 6.57 2.49
-4.93 6.47 2.49
-5.06 6.37 2.49
-5.19 6.26 2.49
-5.31 6.16 2.49
-5.43 6.05 2.49
-5.55 5.94 2.49
-5.67 5.82 2.49
-5.78 5.71 2.49
-5.80 5.50 2.46
-5.81 5.29 2.41
-5.86 5.12 2.39
-5.96 5.00 2.39
-6.06 4.88 2.39
-6.15 4.76 2.39
-6.25 4.63 2.39
-6.34 4.51 2.39
-6.42 4.38 2.39
-6.51 4.25 2.39
-6.59 4.11 2.39
-6.67 3.98 2.39
-6.75 3.84 2.39
-6.82 3.71 2.39
-6.89 3.57 2.39
-6.96 3.43 2.39
-7.03 3.29 2.39
-7.09 3.15 2.39
-7.15 3.00 2.39
-7.21 2.86 2.39
-7.26 2.71 2.39
-7.32 2.56 2.39
-7.36 2.42 2.39
-7.41 2.27 2.39
-7.45 2.12 2.39
-7.49 1.97 2.39
-7.53 1.82 2.39
-7.56 1.66 2.39
-7.59 1.51 2.39
-7.62 1.36 2.39
-7.64 1.21 2.39
-7.66 1.05 2.39
-7.68 0.90 2.39
-7.70 0.74 2.39
-7.71 0.59 2.39
-7.72 0.43 2.39
-7.72 0.28 2.39
-7.73 0.12 2.39
-7.73 -0.03 2.39
-7.72 -0.19 2.39
-7.72 -0.34 2.39
-7.71 -0.50 2.39
-7.69 -0.65 2.39
-7.68 -0.81 2.39
-7.66 -0.96 2.39
-7.64 -1.11 2.39
-7.61 -1.27 2.39
-7.58 -1.42 2.39
-7.55 -1.57 2.39
-7.52 -1.72 2.39
-7.48 -1.87 2.39
-7.44 -2.02 2.39
-7.40 -2.17 2.39
-7.35 -2.32 2.39
-7.30 -2.47 2.39
-7.25 -2.61 2.39
-7.20 -2.76 2.39
-7.14 -2.90 2.39
-7.08 -3.04 2.39
-7.01 -3.18 2.39
-6.95 -3.32 2.39
-6.88 -3.46 2.39
-6.81 -3.60 2.39
-6.73 -3.74 2.39
-6.66 -3.87 2.39
-6.58 -4.00 2.39
-6.49 -4.13 2.39
-6.41 -4.26 2.39
-6.32 -4.39 2.39
-6.23 -4.52 2.39
-6.14 -4.64 2.39
-6.05 -4.76 2.39
-6.03 -4.95 2.42
-6.03 -5.15 2.46
-5.99 -5.34 2.49
-5.89 -5.46 2.49
-5.77 -5.57 2.49
-5.66 -5.69 2.49
-5.55 -5.80 2.49
-5.43 -5.91 2.49
-5.31 -6.02 2.49
-5.19 -6.12 2.49
-5.06 -6.23 2.49
-4.94 -6.33 2.49
-4.81 -6.42 2.49
-4.68 -6.52 2.49
-4.54 -6.61 2.49
-4.41 -6.70 2.49
-4.28 -6.79 2.49
-4.14 -6.87 2.49
-4.00 -6.96 2.49
-3.86 -7.03 2.49
-3.72 -7.11 2.49
-3.57 -7.18 2.49
-3.43 -7.25 2.49
-3.28 -7.32 2.49
-3.13 -7.39 2.49
-2.99 -7.45 2.49
-2.84 -7.51 2.49
-2.68 -7.56 2.49
-2.53 -7.62 2.49
-2.38 -7.67 2.49
-2.22 -7.71 2.49
-2.07 -7.76 2.49
-1.91 -7.80 2.49
-1.76 -7.83 2.49
-1.60 -7.87 2.49
-1.44 -7.90 2.49
-1.28 -7.93 2.49
-1.12 -7.95 2.49
-0.96 -7.97 2.49
-0.80 -7.99 2.49
-0.64 -8.01 2.49
-0.48 -8.02 2.49
-0.32 -8.03 2.49
-0.16 -8.03 2.49
0.00 -7.44 2.49
0.15 -7.44 2.49
0.30 -7.44 2.49
0.45 -7.43 2.49
0.60 -7.42 2.49
0.75 -7.41 2.49
0.90 -7.39 2.49
1.05 -7.37 2.49
1.20 -7.35 2.49
1.34 -7.33 2.49
1.49 -7.30 2.49
1.64 -7.27 2.49
1.78 -7.24 2.49
1.93 -7.20 2.49
2.00 -6.89 2.40
2.12 -6.82 2.39
2.26 -6.78 2.39
2.40 -6.73 2.39
2.53 -6.69 2.39
2.67 -6.64 2.39
2.80 -6.58 2.39
2.93 -6.52 2.39
3.06 -6.47 2.39
3.19 -6.40 2.39
3.32 -6.34 2.39
3.45 -6.27 2.39
3.58 -6.20 2.39
3.70 -6.13 2.39
3.82 -6.06 2.39
3.94 -5.98 2.39
4.06 -5.90 2.39
4.18 -5.82 2.39
4.30 -5.74 2.39
4.41 -5.65 2.39
4.53 -5.56 2.39
4.64 -5.47 2.39
4.75 -5.38 2.39
4.86 -5.28 2.39
4.96 -5.18 2.39
5.07 -5.08 2.39
5.17 -4.98 2.39
5.27 -4.88 2.39
5.37 -4.77 2.39
5.46 -4.66 2.39
5.56 -4.55 2.39
5.65 -4.44 2.39
5.74 -4.33 2.39
5.82 -4.21 2.39
5.91 -4.10 2.39
5.99 -3.98 2.39
6.11 -3.88 2.41
6.19 -3.76 2.41
6.26 -3.64 2.41
6.34 -3.51 2.41
6.41 -3.38 2.41
6.48 -3.26 2.41
6.54 -3.13 2.41
6.60 -2.99 2.41
6.66 -2.86 2.41
6.72 -2.73 2.41
6.78 -2.59 2.41
6.83 -2.46 2.41
6.88 -2.32 2.41
6.92 -2.18 2.41
6.97 -2.04 2.41
7.01 -1.90 2.41
7.05 -1.76 2.41
7.08 -1.62 2.41
7.11 -1.48 2.41
7.14 -1.34 2.41
7.17 -1.19 2.41
7.19 -1.05 2.41
7.22 -0.90 2.41
7.23 -0.76 2.41
7.25 -0.61 2.41
7.26 -0.47 2.41
7.27 -0.32 2.41
7.28 -0.18 2.41
7.28 -0.03 2.41
7.28 0.12 2.41
7.28 0.26 2.41
7.27 0.41 2.41
7.26 0.55 2.41
7.25 0.70 2.41
7.24 0.84 2.41
7.22 0.99 2.41
7.20 1.13 2.41
7.18 1.28 2.41
7.15 1.42 2.41
7.12 1.57 2.41
7.09 1.71 2.41
7.05 1.85 2.41
7.02 1.99 2.41
6.98 2.13 2.41
6.93 2.27 2.41
6.89 2.41 2.41
6.84 2.55 2.41
6.79 2.69 2.41
6.73 2.82 2.41
6.67 2.96 2.41
6.61 3.09 2.41
6.55 3.22 2.41
6.49 3.35 2.41
6.42 3.48 2.41
6.35 3.61 2.41
6.28 3.74 2.41
6.16 3.84 2.39
6.08 3.96 2.39
6.00 4.08 2.39
5.92 4.20 2.39
5.83 4.32 2.39
5.74 4.44 2.39
5.65 4.55 2.39
5.56 4.67 2.39
5.47 4.78 2.39
5.37 4.88 2.39
5.27 4.99 2.39
5.17 5.10 2.39
5.07 5.20 2.39
4.96 5.30 2.39
4.86 5.40 2.39
4.75 5.50 2.39
4.64 5.59 2.39
4.52 5.68 2.39
4.41 5.77 2.39
4.29 5.86 2.39
4.17 5.94 2.39
4.05 6.03 2.39
3.93 6.11 2.39
3.81 6.18 2.39
3.68 6.26 2.39
2.50 4.44 1.68
2.39 4.45 1.66
3.22 6.31 2.33
3.12 6.43 2.35
2.99 6.49 2.35
2.76 6.32 2.27
2.64 6.39 2.27
2.64 6.77 2.39
2.50 6.82 2.39
2.36 6.87 2.39
2.28 7.07 2.45
2.18 7.25 2.49
2.03 7.30 2.49
1.88 7.33 2.49
1.74 7.37 2.49
1.59 7.40 2.49
1.44 7.43 2.49
1.29 7.46 2.49
1.14 7.48 2.49
0.99 7.50 2.49
0.84 7.52 2.49
0.69 7.54 2.49
0.53 7.55 2.49
0.38 7.56 2.49
0.23 7.56 2.49
0.08 7.56 2.49
-0.07 7.56 2.49
-0.22 7.56 2.49
-0.37 7.55 2.49
-0.53 7.54 2.49
-0.68 7.53 2.49
-0.83 7.51 2.49
-0.98 7.49 2.49
-1.13 7.47 2.49
-1.28 7.45 2.49
-1.43 7.42 2.49
-1.58 7.39 2.49
-1.72 7.35 2.49
-1.87 7.32 2.49
-2.02 7.28 2.49
-2.16 7.23 2.49
-2.31 7.19 2.49
-2.45 7.14 2.49
-2.59 7.09 2.49
-2.73 7.03 2.49
-2.87 6.98 2.49
-3.01 6.91 2.49
-3.15 6.85 2.49
-3.29 6.79 2.49
-3.42 6.72 2.49
-3.55 6.65 2.49
-3.69 6.57 2.49
-3.82 6.50 2.49
-3.94 6.42 2.49
-4.07 6.34 2.49
-4.20 6.25 2.49
-4.32 6.17 2.49
-4.44 6.08 2.49
-4.56 5.98 2.49
-4.68 5.89 2.49
-4.80 5.79 2.49
-4.91 5.70 2.49
-5.02 5.60 2.49
-5.14 5.49 2.49
-5.24 5.39 2.49
-5.35 5.28 2.49
-5.45 5.17 2.49
-5.55 5.06 2.49
-5.65 4.95 2.49
-5.75 4.83 2.49
-5.82 4.69 2.48
-5.82 4.51 2.45
-5.83 4.33 2.41
-5.86 4.17 2.39
-5.94 4.05 2.39
-6.03 3.93 2.39
-6.10 3.81 2.39
-6.17 3.68 2.39
-6.24 3.56 2.39
-6.31 3.43 2.39
-6.38 3.30 2.39
-6.44 3.17 2.39
-6.50 3.04 2.39
-6.56 2.91 2.39
-6.62 2.78 2.39
-6.67 2.64 2.39
-6.72 2.51 2.39
-6.77 2.37 2.39
-6.82 2.24 2.39
-6.86 2.10 2.39
-6.90 1.96 2.39
-6.93 1.82 2.39
-6.97 1.68 2.39
-7.00 1.54 2.39
-7.03 1.40 2.39
-7.05 1.26 2.39
-7.07 1.12 2.39
-7.09 0.97 2.39
-7.11 0.83 2.39
-7.13 0.69 2.39
-7.14 0.54 2.39
-7.14 0.40 2.39
-7.15 0.26 2.39
-7.15 0.11 2.39
-7.15 -0.03 2.39
-7.15 -0.17 2.39
-7.14 -0.32 2.39
-7.13 -0.46 2.39
-7.12 -0.60 2.39
-7.11 -0.75 2.39
-7.09 -0.89 2.39
-7.07 -1.03 2.39
-7.05 -1.17 2.39
-7.02 -1.31 2.39
-6.99 -1.45 2.39
-6.96 -1.59 2.39
-6.93 -1.73 2.39
-6.89 -1.87 2.39
-6.85 -2.01 2.39
-6.81 -2.15 2.39
-6.76 -2.28 2.39
-6.71 -2.42 2.39
-6.66 -2.55 2.39
-6.61 -2.68 2.39
-6.55 -2.82 2.39
-6.49 -2.95 2.39
-6.43 -3.08 2.39
-6.37 -3.21 2.39
-6.30 -3.33 2.39
-6.23 -3.46 2.39
-6.18 -3.59 2.40
-6.09 -3.70 2.39
-6.01 -3.83 2.39
-6.01 -3.99 2.42
-6.01 -4.17 2.45
-6.01 -4.35 2.49
-5.93 -4.48 2.49
-5.84 -4.60 2.49
-5.74 -4.71 2.49
-5.65 -4.83 2.49
-5.55 -4.94 2.49
-5.45 -5.05 2.49
-5.35 -5.16 2.49
-5.24 -5.27 2.49
-5.13 -5.37 2.49
-5.03 -5.47 2.49
-4.91 -5.57 2.49
-4.80 -5.67 2.49
-4.69 -5.76 2.49
-4.57 -5.86 2.49
-4.45 -5.95 2.49
-4.33 -6.04 2.49
-4.21 -6.12 2.49
-4.08 -6.20 2.49
-3.96 -6.29 2.49
-3.83 -6.36 2.49
-3.70 -6.44 2.49
-3.57 -6.51 2.49
-3.44 -6.58 2.49
-3.31 -6.65 2.49
-3.17 -6.72 2.49
-3.04 -6.78 2.49
-2.90 -6.84 2.49
-2.76 -6.90 2.49
-2.63 -6.95 2.49
-2.49 -7.00 2.49
-2.34 -7.05 2.49
-2.20 -7.10 2.49
-2.06 -7.14 2.49
-1.92 -7.18 2.49
-1.77 -7.22 2.49
-1.63 -7.25 2.49
-1.48 -7.29 2.49
-1.33 -7.31 2.49
-1.19 -7.34 2.49
-1.04 -7.36 2.49
-0.89 -7.38 2.49
-0.74 -7.40 2.49
-0.59 -7.41 2.49
-0.44 -7.43 2.49
-0.29 -7.43 2.49
-0.15 -7.44 2.49
0.00 -6.92 2.49
0.14 -6.92 2.49
0.28 -6.92 2.49
0.42 -6.91 2.49
0.56 -6.90 2.49
0.70 -6.89 2.49
0.84 -6.87 2.49
0.97 -6.86 2.49
1.11 -6.84 2.49
1.25 -6.81 2.49
1.39 -6.79 2.49
1.52 -6.76 2.49
1.66 -6.73 2.49
1.79 -6.69 2.49
1.93 -6.66 2.49
2.00 -6.42 2.42
2.10 -6.30 2.39
2.23 -6.26 2.39
2.36 -6.22 2.39
2.48 -6.17 2.39
2.60 -6.12 2.39
2.73 -6.07 2.39
2.85 -6.01 2.39
2.97 -5.95 2.39
3.09 -5.89 2.39
3.21 -5.83 2.39
3.32 -5.77 2.39
3.44 -5.70 2.39
3.55 -5.63 2.39
3.67 -5.56 2.39
3.78 -5.49 2.39
3.89 -5.41 2.39
4.00 -5.33 2.39
4.10 -5.25 2.39
4.21 -5.17 2.39
4.31 -5.08 2.39
4.42 -5.00 2.39
4.52 -4.91 2.39
4.61 -4.82 2.39
4.71 -4.72 2.39
4.81 -4.63 2.39
4.90 -4.53 2.39
4.99 -4.44 2.39
5.08 -4.33 2.39
5.17 -4.23 2.39
5.25 -4.13 2.39
5.33 -4.02 2.39
5.41 -3.92 2.39
5.49 -3.81 2.39
5.57 -3.70 2.39
5.64 -3.59 2.39
5.71 -3.47 2.39
5.78 -3.36 2.39
5.85 -3.24 2.39
5.92 -3.12 2.39
5.98 -3.00 2.39
6.04 -2.88 2.39
6.14 -2.78 2.41
6.19 -2.66 2.41
6.25 -2.53 2.41
6.30 -2.41 2.41
6.35 -2.28 2.41
6.39 -2.16 2.41
6.44 -2.03 2.41
6.48 -1.90 2.41
6.51 -1.77 2.41
6.55 -1.64 2.41
6.58 -1.51 2.41
6.61 -1.37 2.41
6.64 -1.24 2.41
6.66 -1.11 2.41
6.69 -0.97 2.41
6.71 -0.84 2.41
6.72 -0.70 2.41
6.74 -0.57 2.41
6.75 -0.43 2.41
6.76 -0.30 2.41
6.76 -0.16 2.41
6.76 -0.03 2.41
6.76 0.11 2.41
6.76 0.24 2.41
6.76 0.38 2.41
6.75 0.51 2.41
6.74 0.65 2.41
6.72 0.79 2.41
6.71 0.92 2.41
6.69 1.05 2.41
6.67 1.19 2.41
6.64 1.32 2.41
6.62 1.46 2.41
6.59 1.59 2.41
6.55 1.72 2.41
6.52 1.85 2.41
6.48 1.98 2.41
6.44 2.11 2.41
6.40 2.24 2.41
6.35 2.37 2.41
6.31 2.50 2.41
6.25 2.62 2.41
6.16 2.73 2.39
6.10 2.85 2.39
6.05 2.97 2.39
5.99 3.10 2.39
5.92 3.22 2.39
5.86 3.33 2.39
5.79 3.45 2.39
5.72 3.57 2.39
5.65 3.68 2.39
5.57 3.79 2.39
5.50 3.91 2.39
5.42 4.01 2.39
5.34 4.12 2.39
5.25 4.23 2.39
5.17 4.33 2.39
5.08 4.44 2.39
4.99 4.54 2.39
4.90 4.64 2.39
4.80 4.74 2.39
4.71 4.83 2.39
4.61 4.92 2.39
4.51 5.02 2.39
4.41 5.11 2.39
4.31 5.19 2.39
4.20 5.28 2.39
4.10 5.36 2.39
3.99 5.44 2.39
3.88 5.52 2.39
3.77 5.60 2.39
3.65 5.67 2.39
3.54 5.74 2.39
3.25 5.52 2.27
2.50 4.44 1.81
2.39 4.45 1.79
3.02 5.91 2.35
2.90 5.97 2.35
2.68 5.82 2.27
2.62 6.01 2.32
2.58 6.24 2.39
2.47 6.34 2.41
2.32 6.33 2.39
2.27 6.59 2.47
2.16 6.70 2.49
2.02 6.74 2.49
1.89 6.78 2.49
1.75 6.81 2.49
1.61 6.85 2.49
1.47 6.88 2.49
1.34 6.91 2.49
1.20 6.93 2.49
1.06 6.95 2.49
0.92 6.97 2.49
0.78 6.99 2.49
0.64 7.00 2.49
0.50 7.01 2.49
0.36 7.02 2.49
0.22 7.03 2.49
0.07 7.03 2.49
-0.07 7.03 2.49
-0.21 7.02 2.49
-0.35 7.02 2.49
-0.49 7.01 2.49
-0.63 7.00 2.49
-0.77 6.98 2.49
-0.91 6.96 2.49
-1.05 6.94 2.49
-1.19 6.92 2.49
-1.33 6.89 2.49
-1.46 6.86 2.49
-1.60 6.83 2.49
-1.74 6.80 2.49
-1.87 6.76 2.49
-2.01 6.72 2.49
-2.14 6.68 2.49
-2.27 6.63 2.49
-2.41 6.59 2.49
-2.54 6.54 2.49
-2.67 6.48 2.49
-2.80 6.43 2.49
-2.93 6.37 2.49
-3.05 6.31 2.49
-3.18 6.24 2.49
-3.30 6.18 2.49
-3.42 6.11 2.49
-3.55 6.04 2.49
-3.67 5.96 2.49
-3.78 5.89 2.49
-3.90 5.81 2.49
-4.02 5.73 2.49
-4.13 5.65 2.49
-4.24 5.56 2.49
-4.35 5.47 2.49
-4.46 5.39 2.49
-4.57 5.29 2.49
-4.67 5.20 2.49
-4.77 5.10 2.49
-4.87 5.01 2.49
-4.97 4.91 2.49
-5.07 4.81 2.49
-5.16 4.70 2.49
-5.25 4.60 2.49
-5.35 4.49 2.49
-5.43 4.38 2.49
-5.52 4.27 2.49
-5.60 4.16 2.49
-5.68 4.04 2.49
-5.76 3.93 2.49
-5.84 3.81 2.49
-5.84 3.65 2.46
-5.85 3.49 2.44
-5.86 3.34 2.41
-5.87 3.19 2.39
-5.93 3.07 2.39
-5.99 2.95 2.39
-6.05 2.83 2.39
-6.10 2.71 2.39
-6.15 2.58 2.39
-6.20 2.46 2.39
-6.25 2.33 2.39
-6.29 2.21 2.39
-6.34 2.08 2.39
-6.37 1.95 2.39
-6.41 1.82 2.39
-6.45 1.69 2.39
-6.48 1.56 2.39
-6.51 1.43 2.39
-6.53 1.30 2.39
-6.56 1.17 2.39
-6.58 1.04 2.39
-6.60 0.91 2.39
-6.61 0.77 2.39
-6.62 0.64 2.39
-6.64 0.51 2.39
-6.64 0.37 2.39
-6.65 0.24 2.39
-6.65 0.11 2.39
-6.65 -0.03 2.39
-6.65 -0.16 2.39
-6.64 -0.29 2.39
-6.63 -0.43 2.39
-6.62 -0.56 2.39
-6.61 -0.69 2.39
-6.59 -0.83 2.39
-6.57 -0.96 2.39
-6.55 -1.09 2.39
-6.53 -1.22 2.39
-6.50 -1.35 2.39
-6.47 -1.48 2.39
-6.44 -1.61 2.39
-6.41 -1.74 2.39
-6.37 -1.87 2.39
-6.33 -2.00 2.39
-6.29 -2.12 2.39
-6.24 -2.25 2.39
-6.20 -2.37 2.39
-6.16 -2.50 2.40
-6.09 -2.62 2.39
-6.04 -2.74 2.39
-5.99 -2.86 2.39
-5.99 -3.01 2.42
-5.98 -3.16 2.44
-5.99 -3.32 2.47
-5.98 -3.47 2.49
-5.91 -3.59 2.49
-5.83 -3.71 2.49
-5.76 -3.83 2.49
-5.68 -3.94 2.49
-5.60 -4.06 2.49
-5.52 -4.17 2.49
-5.43 -4.28 2.49
-5.34 -4.38 2.49
-5.25 -4.49 2.49
-5.16 -4.60 2.49
-5.07 -4.70 2.49
-4.97 -4.80 2.49
-4.87 -4.90 2.49
-4.78 -4.99 2.49
-4.67 -5.09 2.49
-4.57 -5.18 2.49
-4.47 -5.27 2.49
-4.36 -5.36 2.49
-4.25 -5.45 2.49
-4.14 -5.53 2.49
-4.03 -5.61 2.49
-3.91 -5.69 2.49
-3.80 -5.77 2.49
-3.68 -5.85 2.49
-3.56 -5.92 2.49
-3.44 -5.99 2.49
-3.32 -6.06 2.49
-3.20 -6.12 2.49
-3.08 -6.19 2.49
-2.95 -6.25 2.49
-2.83 -6.31 2.49
-2.70 -6.36 2.49
-2.57 -6.41 2.49
-2.44 -6.46 2.49
-2.31 -6.51 2.49
-2.18 -6.56 2.49
-2.05 -6.60 2.49
-1.91 -6.64 2.49
-1.78 -6.68 2.49
-1.65 -6.71 2.49
-1.51 -6.75 2.49
-1.38 -6.78 2.49
-1.24 -6.80 2.49
-1.10 -6.83 2.49
-0.97 -6.85 2.49
-0.83 -6.87 2.49
-0.69 -6.88 2.49
-0.55 -6.89 2.49
-0.41 -6.91 2.49
-0.27 -6.91 2.49
-0.13 -6.92 2.49
0.00 -6.46 2.49
0.13 -6.46 2.49
0.26 -6.46 2.49
0.39 -6.45 2.49
0.52 -6.44 2.49
0.65 -6.43 2.49
0.78 -6.42 2.49
0.91 -6.40 2.49
1.04 -6.38 2.49
1.17 -6.36 2.49
1.29 -6.34 2.49
1.42 -6.31 2.49
1.55 -6.28 2.49
1.67 -6.25 2.49
1.80 -6.21 2.49
1.92 -6.18 2.49
2.00 -6.01 2.44
2.08 -5.85 2.39
2.22 -5.85 2.41
2.32 -5.76 2.39
2.43 -5.71 2.39
2.55 -5.66 2.39
2.66 -5.61 2.39
2.77 -5.56 2.39
2.88 -5.50 2.39
2.99 -5.44 2.39
3.10 -5.38 2.39
3.21 -5.32 2.39
3.32 -5.26 2.39
3.42 -5.19 2.39
3.53 -5.12 2.39
3.63 -5.05 2.39
3.73 -4.98 2.39
3.83 -4.90 2.39
3.93 -4.82 2.39
4.03 -4.74 2.39
4.12 -4.66 2.39
4.21 -4.58 2.39
4.31 -4.50 2.39
4.40 -4.41 2.39
4.49 -4.32 2.39
4.57 -4.23 2.39
4.66 -4.14 2.39
4.74 -4.05 2.39
4.82 -3.95 2.39
4.90 -3.85 2.39
4.98 -3.75 2.39
5.05 -3.65 2.39
5.13 -3.55 2.39
5.20 -3.45 2.39
5.27 -3.35 2.39
5.33 -3.24 2.39
5.40 -3.13 2.39
5.46 -3.02 2.39
5.52 -2.91 2.39
5.58 -2.80 2.39
5.64 -2.69 2.39
5.69 -2.58 2.39
5.74 -2.46 2.39
5.79 -2.35 2.39
5.84 -2.23 2.39
5.88 -2.12 2.39
5.92 -2.00 2.39
5.96 -1.88 2.39
6.00 -1.76 2.39
6.04 -1.64 2.39
6.07 -1.52 2.39
6.10 -1.39 2.39
6.17 -1.28 2.41
6.19 -1.16 2.41
6.22 -1.03 2.41
6.24 -0.91 2.41
6.26 -0.78 2.41
6.27 -0.66 2.41
6.28 -0.53 2.41
6.29 -0.41 2.41
6.30 -0.28 2.41
6.31 -0.15 2.41
6.31 -0.03 2.41
6.31 0.10 2.41
6.31 0.23 2.41
6.30 0.35 2.41
6.30 0.48 2.41
6.29 0.61 2.41
6.27 0.73 2.41
6.26 0.86 2.41
6.24 0.98 2.41
6.22 1.11 2.41
6.16 1.23 2.39
6.13 1.35 2.39
6.10 1.47 2.39
6.07 1.59 2.39
6.04 1.72 2.39
6.01 1.84 2.39
5.97 1.96 2.39
5.93 2.08 2.39
5.89 2.20 2.39
5.84 2.31 2.39
5.80 2.43 2.39
5.75 2.55 2.39
5.69 2.66 2.39
5.64 2.78 2.39
5.58 2.89 2.39
5.53 3.00 2.39
5.46 3.11 2.39
5.40 3.22 2.39
5.34 3.33 2.39
5.27 3.43 2.39
5.20 3.54 2.39
5.13 3.64 2.39
5.05 3.74 2.39
4.98 3.85 2.39
4.90 3.95 2.39
4.82 4.04 2.39
4.74 4.14 2.39
4.65 4.23 2.39
4.57 4.33 2.39
4.48 4.42 2.39
4.39 4.51 2.39
4.30 4.59 2.39
4.21 4.68 2.39
4.11 4.76 2.39
4.02 4.84 2.39
3.92 4.92 2.39
3.82 5.00 2.39
3.72 5.08 2.39
3.62 5.15 2.39
3.51 5.22 2.39
3.23 5.02 2.27
3.13 5.09 2.27
3.03 5.15 2.27
2.50 4.44 1.94
2.39 4.45 1.92
2.72 5.32 2.27
2.61 5.39 2.28
2.62 5.68 2.38
2.52 5.77 2.39
2.40 5.82 2.39
2.28 5.86 2.39
2.26 6.16 2.49
2.14 6.21 2.49
2.01 6.25 2.49
1.89 6.29 2.49
1.76 6.32 2.49
1.63 6.36 2.49
1.50 6.39 2.49
1.38 6.42 2.49
1.25 6.44 2.49
1.12 6.46 2.49
0.99 6.49 2.49
0.86 6.50 2.49
0.73 6.52 2.49
0.60 6.53 2.49
0.46 6.54 2.49
0.33 6.55 2.49
0.20 6.55 2.49
0.07 6.56 2.49
-0.06 6.55 2.49
-0.19 6.55 2.49
-0.32 6.55 2.49
-0.46 6.54 2.49
-0.59 6.53 2.49
-0.72 6.51 2.49
-0.85 6.50 2.49
-0.98 6.48 2.49
-1.11 6.45 2.49
-1.24 6.43 2.49
-1.36 6.40 2.49
-1.49 6.37 2.49
-1.62 6.34 2.49
-1.75 6.31 2.49
-1.87 6.27 2.49
-2.00 6.23 2.49
-2.12 6.19 2.49
-2.25 6.14 2.49
-2.37 6.10 2.49
-2.49 6.05 2.49
-2.61 6.00 2.49
-2.73 5.94 2.49
-2.85 5.88 2.49
-2.96 5.82 2.49
-3.08 5.76 2.49
-3.19 5.70 2.49
-3.31 5.63 2.49
-3.42 5.56 2.49
-3.53 5.49 2.49
-3.64 5.42 2.49
-3.75 5.35 2.49
-3.85 5.27 2.49
-3.96 5.19 2.49
-4.06 5.11 2.49
-4.16 5.03 2.49
-4.26 4.94 2.49
-4.36 4.85 2.49
-4.45 4.76 2.49
-4.55 4.67 2.49
-4.64 4.58 2.49
-4.73 4.48 2.49
-4.82 4.39 2.49
-4.90 4.29 2.49
-4.99 4.19 2.49
-5.07 4.09 2.49
-5.15 3.98 2.49
-5.23 3.88 2.49
-5.30 3.77 2.49
-5.38 3.67 2.49
-5.45 3.56 2.49
-5.52 3.45 2.49
-5.59 3.33 2.49
-5.65 3.22 2.49
-5.71 3.11 2.49
-5.77 2.99 2.49
-5.83 2.87 2.49
-5.86 2.74 2.48
-5.86 2.60 2.46
-5.87 2.46 2.44
-5.87 2.33 2.43
-5.88 2.20 2.41
-5.89 2.06 2.40
-5.91 1.94 2.39
-5.95 1.82 2.39
-5.98 1.70 2.39
-6.02 1.58 2.39
-6.05 1.46 2.39
-6.08 1.34 2.39
-6.10 1.22 2.39
-6.12 1.09 2.39
-6.14 0.97 2.39
-6.16 0.85 2.39
-6.17 0.72 2.39
-6.18 0.60 2.39
-6.19 0.47 2.39
-6.20 0.35 2.39
-6.21 0.22 2.39
-6.21 0.10 2.39
-6.21 -0.03 2.39
-6.20 -0.15 2.39
-6.20 -0.27 2.39
-6.19 -0.40 2.39
-6.18 -0.52 2.39
-6.17 -0.65 2.39
-6.15 -0.77 2.39
-6.14 -0.89 2.39
-6.13 -1.02 2.40
-6.09 -1.14 2.39
-6.07 -1.26 2.39
-6.04 -1.38 2.39
-6.01 -1.50 2.39
-5.98 -1.62 2.39
-5.96 -1.75 2.40
-5.96 -1.88 2.41
-5.96 -2.01 2.43
-5.96 -2.15 2.45
-5.97 -2.28 2.47
-5.97 -2.42 2.49
-5.93 -2.55 2.49
-5.88 -2.67 2.49
-5.83 -2.79 2.49
-5.77 -2.90 2.49
-5.71 -3.02 2.49
-5.65 -3.13 2.49
-5.58 -3.24 2.49
-5.51 -3.36 2.49
-5.45 -3.46 2.49
-5.37 -3.57 2.49
-5.30 -3.68 2.49
-5.23 -3.79 2.49
-5.15 -3.89 2.49
-5.07 -3.99 2.49
-4.99 -4.09 2.49
-4.90 -4.19 2.49
-4.82 -4.29 2.49
-4.73 -4.39 2.49
-4.64 -4.48 2.49
-4.55 -4.57 2.49
-4.46 -4.66 2.49
-4.36 -4.75 2.49
-4.27 -4.84 2.49
-4.17 -4.92 2.49
-4.07 -5.00 2.49
-3.97 -5.09 2.49
-3.86 -5.16 2.49
-3.76 -5.24 2.49
-3.65 -5.32 2.49
-3.55 -5.39 2.49
-3.44 -5.46 2.49
-3.33 -5.53 2.49
-3.22 -5.59 2.49
-3.10 -5.66 2.49
-2.99 -5.72 2.49
-2.87 -5.78 2.49
-2.76 -5.83 2.49
-2.64 -5.89 2.49
-2.52 -5.94 2.49
-2.40 -5.99 2.49
-2.28 -6.04 2.49
-2.16 -6.08 2.49
-2.04 -6.12 2.49
-1.91 -6.16 2.49
-1.79 -6.20 2.49
-1.66 -6.24 2.49
-1.54 -6.27 2.49
-1.41 -6.30 2.49
-1.28 -6.33 2.49
-1.16 -6.35 2.49
-1.03 -6.37 2.49
-0.90 -6.39 2.49
-0.77 -6.41 2.49
-0.64 -6.42 2.49
-0.51 -6.44 2.49
-0.38 -6.45 2.49
-0.26 -6.45 2.49
-0.13 -6.46 2.49
0.00 -6.05 2.49
0.13 -6.05 2.49
0.25 -6.05 2.49
0.37 -6.04 2.49
0.49 -6.03 2.49
0.61 -6.02 2.49
0.73 -6.01 2.49
0.85 -5.99 2.49
0.97 -5.98 2.49
1.09 -5.96 2.49
1.21 -5.93 2.49
1.33 -5.91 2.49
1.45 -5.88 2.49
1.57 -5.85 2.49
1.69 -5.82 2.49
1.80 -5.79 2.49
1.92 -5.75 2.49
2.01 -5.65 2.47
2.06 -5.43 2.39
2.17 -5.39 2.39
2.28 -5.35 2.39
2.38 -5.30 2.39
2.49 -5.25 2.39
2.60 -5.20 2.39
2.70 -5.15 2.39
2.80 -5.10 2.39
2.91 -5.04 2.39
2.85 -4.73 2.27
2.95 -4.67 2.27
3.04 -4.61 2.27
3.30 -4.79 2.39
3.40 -4.73 2.39
3.49 -4.66 2.39
3.59 -4.59 2.39
3.68 -4.52 2.39
3.77 -4.44 2.39
3.86 -4.37 2.39
3.95 -4.29 2.39
4.03 -4.21 2.39
4.12 -4.13 2.39
4.20 -4.05 2.39
4.28 -3.96 2.39
4.36 -3.88 2.39
4.44 -3.79 2.39
4.51 -3.70 2.39
4.59 -3.61 2.39
4.66 -3.52 2.39
4.73 -3.42 2.39
4.80 -3.33 2.39
4.87 -3.23 2.39
4.93 -3.13 2.39
4.99 -3.03 2.39
5.05 -2.93 2.39
5.11 -2.83 2.39
5.17 -2.73 2.39
5.22 -2.62 2.39
5.28 -2.52 2.39
5.33 -2.41 2.39
5.38 -2.31 2.39
5.42 -2.20 2.39
5.47 -2.09 2.39
5.51 -1.98 2.39
5.55 -1.87 2.39
5.58 -1.76 2.39
5.62 -1.65 2.39
5.65 -1.53 2.39
5.68 -1.42 2.39
5.71 -1.31 2.39
5.74 -1.19 2.39
5.76 -1.08 2.39
5.78 -0.96 2.39
5.80 -0.84 2.39
5.82 -0.73 2.39
5.83 -0.61 2.39
5.84 -0.49 2.39
5.85 -0.38 2.39
5.86 -0.26 2.39
5.87 -0.14 2.39
5.87 -0.02 2.39
5.87 0.09 2.39
5.87 0.21 2.39
5.86 0.33 2.39
5.85 0.45 2.39
5.84 0.56 2.39
5.83 0.68 2.39
5.82 0.80 2.39
5.80 0.92 2.39
5.78 1.03 2.39
5.76 1.15 2.39
5.74 1.26 2.39
5.71 1.38 2.39
5.69 1.49 2.39
5.65 1.61 2.39
5.62 1.72 2.39
5.59 1.83 2.39
5.55 1.94 2.39
5.51 2.06 2.39
5.47 2.17 2.39
5.42 2.27 2.39
5.38 2.38 2.39
5.33 2.49 2.39
5.28 2.60 2.39
5.23 2.70 2.39
5.17 2.81 2.39
5.11 2.91 2.39
5.06 3.01 2.39
4.99 3.11 2.39
4.93 3.21 2.39
4.87 3.31 2.39
4.80 3.41 2.39
4.73 3.51 2.39
4.66 3.60 2.39
4.59 3.69 2.39
4.51 3.78 2.39
4.43 3.87 2.39
4.36 3.96 2.39
4.28 4.05 2.39
4.19 4.13 2.39
4.11 4.22 2.39
4.03 4.30 2.39
3.94 4.38 2.39
3.85 4.46 2.39
3.76 4.53 2.39
3.67 4.61 2.39
3.58 4.68 2.39
3.30 4.51 2.27
3.21 4.58 2.27
3.18 4.73 2.32
3.14 4.87 2.35
3.04 4.93 2.35
2.92 4.95 2.33
2.50 4.44 2.07
2.39 4.45 2.05
2.60 5.10 2.33
2.57 5.30 2.39
2.46 5.35 2.39
2.36 5.40 2.39
2.25 5.46 2.40
2.23 5.72 2.49
2.12 5.77 2.49
2.00 5.81 2.49
1.88 5.85 2.49
1.76 5.88 2.49
1.65 5.92 2.49
1.53 5.95 2.49
1.41 5.98 2.49
1.29 6.00 2.49
1.17 6.03 2.49
1.05 6.05 2.49
0.92 6.07 2.49
0.80 6.09 2.49
0.68 6.10 2.49
0.56 6.11 2.49
0.43 6.12 2.49
0.31 6.13 2.49
0.19 6.13 2.49
0.07 6.14 2.49
-0.06 6.14 2.49
-0.18 6.13 2.49
-0.30 6.13 2.49
-0.43 6.12 2.49
-0.55 6.11 2.49
-0.67 6.10 2.49
-0.79 6.08 2.49
-0.91 6.06 2.49
-1.04 6.04 2.49
-1.16 6.02 2.49
-1.28 5.99 2.49
-1.40 5.97 2.49
-1.52 5.94 2.49
-1.63 5.90 2.49
-1.75 5.87 2.49
-1.87 5.83 2.49
-1.99 5.79 2.49
-2.10 5.75 2.49
-2.22 5.71 2.49
-2.33 5.66 2.49
-2.44 5.61 2.49
-2.55 5.56 2.49
-2.66 5.51 2.49
-2.77 5.45 2.49
-2.88 5.40 2.49
-2.99 5.34 2.49
-3.10 5.27 2.49
-3.20 5.21 2.49
-3.30 5.14 2.49
-3.41 5.08 2.49
-3.51 5.01 2.49
-3.61 4.93 2.49
-3.70 4.86 2.49
-3.80 4.78 2.49
-3.89 4.71 2.49
-3.99 4.63 2.49
-4.08 4.54 2.49
-4.17 4.46 2.49
-4.26 4.37 2.49
-4.34 4.29 2.49
-4.43 4.20 2.49
-4.51 4.11 2.49
-4.59 4.02 2.49
-4.67 3.92 2.49
-4.75 3.83 2.49
-4.82 3.73 2.49
-4.89 3.63 2.49
-4.97 3.53 2.49
-5.03 3.43 2.49
-5.10 3.33 2.49
-5.17 3.23 2.49
-5.23 3.12 2.49
-5.29 3.02 2.49
-5.35 2.91 2.49
-5.41 2.80 2.49
-5.46 2.69 2.49
-5.51 2.58 2.49
-5.56 2.47 2.49
-5.61 2.36 2.49
-5.65 2.24 2.49
-5.70 2.13 2.49
-5.74 2.01 2.49
-5.78 1.90 2.49
-5.81 1.78 2.49
-5.85 1.66 2.49
-5.88 1.54 2.49
-5.89 1.42 2.49
-5.89 1.30 2.48
-5.89 1.18 2.47
-5.90 1.05 2.46
-5.90 0.93 2.45
-5.90 0.81 2.45
-5.90 0.69 2.44
-5.91 0.57 2.44
-5.91 0.45 2.44
-5.91 0.33 2.43
-5.92 0.21 2.43
-5.92 0.10 2.43
-5.92 -0.02 2.43
-5.92 -0.14 2.44
-5.92 -0.26 2.44
-5.93 -0.38 2.44
-5.93 -0.50 2.45
-5.93 -0.62 2.45
-5.93 -0.74 2.46
-5.94 -0.86 2.47
-5.94 -0.99 2.48
-5.94 -1.11 2.49
-5.93 -1.23 2.49
-5.90 -1.35 2.49
-5.87 -1.47 2.49
-5.84 -1.59 2.49
-5.81 -1.70 2.49
-5.77 -1.82 2.49
-5.73 -1.94 2.49
-5.69 -2.05 2.49
-5.65 -2.16 2.49
-5.61 -2.28 2.49
-5.56 -2.39 2.49
-5.51 -2.50 2.49
-5.46 -2.61 2.49
-5.40 -2.72 2.49
-5.35 -2.83 2.49
-5.29 -2.93 2.49
-5.23 -3.04 2.49
-5.17 -3.14 2.49
-5.10 -3.25 2.49
-5.03 -3.35 2.49
-4.97 -3.45 2.49
-4.90 -3.55 2.49
-4.82 -3.64 2.49
-4.75 -3.74 2.49
-4.67 -3.83 2.49
-4.59 -3.93 2.49
-4.51 -4.02 2.49
-4.43 -4.11 2.49
-4.35 -4.20 2.49
-4.26 -4.28 2.49
-4.18 -4.37 2.49
-4.09 -4.45 2.49
-4.00 -4.53 2.49
-3.91 -4.61 2.49
-3.81 -4.69 2.49
-3.72 -4.76 2.49
-3.62 -4.84 2.49
-3.52 -4.91 2.49
-3.42 -4.98 2.49
-3.32 -5.05 2.49
-3.22 -5.11 2.49
