ply
format ascii 1.0
element vertex 2924
property float32 x
property float32 y
property float32 z
end_header
-5.94 -24.11 2.41
-5.63 -25.04 2.49
-5.12 -25.12 2.49
-4.61 -25.19 2.49
-4.10 -25.25 2.49
-3.59 -25.30 2.49
-3.08 -25.34 2.49
-2.57 -25.37 2.49
-2.06 -25.39 2.49
-1.54 -25.40 2.49
-1.03 -25.40 2.49
-0.52 -25.39 2.49
-0.01 -20.59 2.49
0.40 -20.57 2.49
0.81 -20.55 2.49
1.22 -20.51 2.49
1.64 -20.46 2.49
2.04 -20.41 2.49
2.35 -19.51 2.39
2.54 -18.05 2.22
3.01 -18.65 2.30
3.51 -19.29 2.39
3.90 -19.20 2.39
4.28 -19.10 2.39
4.66 -19.00 2.39
5.03 -18.89 2.39
5.41 -18.77 2.39
5.78 -18.65 2.39
6.19 -18.64 2.41
6.56 -18.50 2.41
6.93 -18.35 2.41
7.29 -18.20 2.41
7.65 -18.04 2.41
8.00 -17.87 2.41
8.36 -17.69 2.41
8.69 -17.47 2.40
8.94 -17.12 2.38
9.19 -16.77 2.36
9.44 -16.42 2.33
9.67 -16.07 2.31
9.89 -15.72 2.29
10.10 -15.35 2.27
10.30 -14.99 2.25
10.49 -14.64 2.22
10.71 -14.33 2.21
9.56 -12.27 1.92
11.08 -13.64 2.17
11.07 -13.09 2.12
11.07 -12.56 2.07
11.01 -12.00 2.02
10.95 -11.46 1.96
10.95 -11.01 1.92
10.98 -10.61 1.89
11.05 -10.25 1.87
11.04 -9.84 1.83
11.04 -9.44 1.80
11.03 -9.06 1.77
11.12 -8.77 1.76
11.12 -8.41 1.73
11.11 -8.06 1.70
11.11 -7.72 1.68
11.02 -7.33 1.64
11.01 -7.02 1.62
11.01 -6.71 1.60
11.18 -6.51 1.61
11.72 -6.51 1.66
12.28 -6.50 1.73
12.89 -6.49 1.79
13.55 -6.49 1.87
12.42 -5.65 1.70
12.56 -5.41 1.70
12.40 -5.05 1.66
12.40 -4.76 1.65
12.40 -4.47 1.64
12.40 -4.19 1.63
12.40 -3.92 1.61
12.40 -3.64 1.60
12.39 -3.37 1.59
12.39 -3.11 1.59
12.42 -2.85 1.58
12.40 -2.59 1.57
12.52 -2.35 1.58
12.98 -2.17 1.63
16.46 -2.41 2.06
16.50 -2.08 2.06
16.54 -1.75 2.06
7.83 -0.67 0.97
7.85 -0.51 0.97
8.26 -0.37 1.02
13.93 -0.35 1.72
18.07 -0.09 2.24
18.11 0.28 2.24
18.12 0.64 2.24
18.11 1.01 2.24
18.10 1.37 2.24
16.99 1.63 2.11
13.74 1.60 1.71
11.49 1.57 1.43
9.96 1.57 1.24
9.96 1.77 1.25
9.96 1.98 1.25
9.95 2.19 1.25
9.95 2.40 1.26
9.95 2.61 1.27
9.95 2.82 1.27
9.95 3.04 1.28
9.94 3.26 1.28
9.94 3.48 1.29
9.94 3.70 1.30
9.94 3.93 1.31
9.93 4.16 1.32
9.93 4.40 1.33
9.93 4.64 1.34
9.93 4.88 1.35
9.92 5.13 1.36
9.92 5.39 1.38
9.92 5.65 1.39
9.92 5.91 1.41
9.91 6.18 1.42
9.91 6.46 1.44
9.91 6.75 1.46
9.91 7.04 1.48
9.90 7.34 1.50
9.90 7.65 1.52
9.90 7.97 1.54
9.89 8.30 1.56
9.89 8.64 1.59
9.89 9.00 1.62
9.88 9.36 1.64
9.88 9.74 1.67
9.88 10.14 1.71
9.87 10.55 1.74
9.87 10.98 1.78
9.87 11.43 1.82
9.86 11.90 1.86
9.94 12.50 1.92
9.91 12.99 1.96
11.39 15.56 2.31
11.15 15.90 2.33
10.92 16.25 2.34
10.68 16.60 2.36
10.47 17.03 2.39
10.16 17.29 2.39
8.54 15.23 2.08
9.53 17.81 2.41
9.18 18.02 2.41
8.82 18.22 2.41
8.46 18.41 2.41
8.10 18.59 2.41
7.73 18.77 2.41
7.36 18.94 2.41
6.99 19.10 2.41
6.61 19.25 2.41
6.23 19.40 2.41
5.98 20.02 2.47
5.42 19.54 2.39
5.03 19.66 2.39
4.64 19.78 2.39
4.24 19.88 2.39
3.85 19.98 2.39
2.19 12.77 1.52
2.83 18.71 2.22
2.50 19.15 2.26
2.24 20.30 2.39
1.91 21.24 2.49
1.49 21.29 2.49
1.06 21.34 2.49
0.63 21.38 2.49
0.20 21.41 2.49
-0.23 21.43 2.50
-0.66 21.44 2.50
-1.09 21.44 2.50
-1.52 21.44 2.50
-1.95 21.42 2.50
-2.38 21.39 2.50
-2.81 21.36 2.50
-3.24 21.31 2.50
-3.67 21.26 2.50
-4.10 21.19 2.50
-4.53 21.12 2.49
-4.96 21.04 2.49
-5.38 20.95 2.49
-5.80 20.85 2.49
-6.22 20.74 2.49
-6.39 19.84 2.40
-6.77 19.65 2.39
-7.17 19.53 2.39
-7.56 19.39 2.39
-7.95 19.25 2.39
-8.34 19.10 2.39
-8.73 18.94 2.39
-9.12 18.77 2.39
-9.50 18.59 2.39
-9.87 18.41 2.39
-10.25 18.22 2.39
-10.84 18.40 2.44
-10.06 16.33 2.19
-10.09 15.65 2.13
-10.11 15.01 2.07
-10.10 14.37 2.00
-10.09 13.77 1.95
-10.09 13.20 1.89
-10.08 12.66 1.84
-10.08 12.14 1.80
-10.07 11.65 1.75
-10.07 11.18 1.71
-10.06 10.74 1.67
-10.06 10.31 1.64
-10.06 9.90 1.60
-10.05 9.51 1.57
-10.05 9.13 1.54
-10.05 8.77 1.51
-10.04 8.41 1.49
-10.04 8.07 1.46
-10.03 7.74 1.44
-10.03 7.43 1.42
-10.03 7.12 1.39
-10.03 6.82 1.37
-9.98 6.50 1.35
-10.02 6.24 1.34
-10.02 5.96 1.32
-10.01 5.69 1.31
-10.01 5.43 1.29
-10.01 5.17 1.28
-10.01 4.92 1.26
-10.00 4.67 1.25
-10.00 4.43 1.24
-10.00 4.19 1.23
-10.00 3.95 1.22
-10.00 3.72 1.21
-9.99 3.49 1.20
-9.99 3.27 1.19
-9.99 3.05 1.18
-9.99 2.83 1.18
-9.92 2.60 1.16
-9.98 2.40 1.16
-9.98 2.19 1.16
-9.98 1.98 1.15
-9.98 1.77 1.15
-9.97 1.57 1.15
-9.97 1.36 1.14
-9.97 1.16 1.14
-9.97 0.96 1.14
-9.97 0.75 1.14
-9.96 0.55 1.13
-9.96 0.35 1.13
-9.96 0.15 1.13
-9.96 -0.05 1.13
-9.96 -0.25 1.13
-9.95 -0.45 1.14
-9.95 -0.65 1.14
-9.95 -0.85 1.14
-9.95 -1.05 1.14
-9.95 -1.25 1.14
-9.87 -1.44 1.14
-9.94 -1.66 1.15
-9.94 -1.86 1.16
-9.94 -2.07 1.16
-9.94 -2.28 1.17
-9.93 -2.49 1.17
-9.93 -2.70 1.18
-9.93 -2.92 1.19
-9.93 -3.13 1.19
-9.93 -3.35 1.20
-9.92 -3.58 1.21
-9.92 -3.80 1.22
-9.92 -4.03 1.23
-9.92 -4.26 1.24
-9.91 -4.50 1.25
-9.91 -4.74 1.27
-9.91 -4.99 1.28
-9.91 -5.24 1.29
-9.84 -5.46 1.30
-9.90 -5.75 1.32
-9.90 -6.02 1.34
-9.90 -6.30 1.36
-9.89 -6.58 1.38
-6.66 -4.62 0.94
-9.89 -7.16 1.42
-9.88 -7.47 1.44
-9.88 -7.78 1.46
-9.88 -8.10 1.49
-9.88 -8.44 1.51
-9.87 -8.78 1.54
-9.87 -9.14 1.57
-9.80 -9.45 1.59
-9.86 -9.90 1.63
-9.86 -10.30 1.67
-9.85 -10.72 1.71
-9.85 -11.16 1.74
-9.84 -11.61 1.79
-9.84 -12.09 1.83
-9.83 -12.59 1.88
-9.83 -13.12 1.93
-9.82 -13.68 1.98
-9.82 -14.26 2.04
-8.86 -13.44 1.90
-8.50 -13.47 1.88
-8.45 -14.01 1.93
-8.44 -14.66 2.00
-9.72 -17.69 2.39
-8.62 -16.46 2.20
-8.69 -17.44 2.31
-8.62 -18.19 2.39
-8.24 -18.35 2.39
-7.86 -18.49 2.39
-7.48 -18.63 2.39
-7.10 -18.76 2.39
-6.72 -18.88 2.39
-6.33 -18.99 2.39
-5.99 -19.23 2.41
-5.79 -20.02 2.49
-5.39 -20.12 2.49
-4.98 -20.20 2.49
-4.57 -20.28 2.49
-4.15 -20.35 2.49
-3.74 -20.41 2.49
-3.33 -20.47 2.49
-2.91 -20.51 2.49
-2.50 -20.55 2.49
-2.08 -20.58 2.49
-1.67 -20.60 2.49
-1.25 -20.61 2.49
-0.84 -20.61 2.49
-0.43 -20.61 2.49
-0.01 -17.32 2.49
0.34 -17.30 2.49
0.68 -17.28 2.49
1.03 -17.25 2.49
1.37 -17.22 2.49
1.72 -17.17 2.49
2.05 -17.01 2.48
2.30 -16.36 2.39
2.48 -15.37 2.25
2.83 -15.56 2.29
3.07 -15.11 2.23
3.60 -16.08 2.39
3.92 -16.00 2.39
4.24 -15.91 2.39
4.55 -15.81 2.39
4.87 -15.71 2.39
5.18 -15.60 2.39
5.49 -15.48 2.39
5.80 -15.36 2.39
6.14 -15.33 2.41
6.44 -15.20 2.41
6.74 -15.06 2.41
7.04 -14.91 2.41
7.34 -14.76 2.41
7.63 -14.61 2.41
7.92 -14.44 2.41
8.20 -14.27 2.41
8.48 -14.10 2.41
8.72 -13.85 2.39
8.92 -13.57 2.38
9.13 -13.29 2.36
8.83 -12.32 2.22
9.05 -12.10 2.21
9.26 -11.88 2.21
9.37 -11.54 2.18
9.37 -11.07 2.13
9.36 -10.62 2.08
9.56 -10.42 2.08
9.69 -10.15 2.06
9.97 -10.02 2.08
10.36 -10.00 2.12
10.78 -10.00 2.16
11.04 -9.84 2.17
11.04 -9.45 2.14
11.03 -9.06 2.10
11.03 -8.70 2.07
11.03 -8.34 2.03
11.02 -7.99 2.00
11.03 -7.66 1.98
11.02 -7.33 1.95
11.01 -7.02 1.92
11.01 -6.71 1.90
11.17 -6.50 1.90
11.72 -6.51 1.97
12.28 -6.50 2.04
12.89 -6.49 2.12
13.55 -6.49 2.21
13.08 -5.94 2.11
12.49 -5.37 2.00
12.41 -5.05 1.97
13.38 -5.13 2.11
13.47 -4.86 2.11
12.38 -4.19 1.92
12.38 -3.91 1.91
12.38 -3.64 1.90
12.37 -3.37 1.89
13.86 -3.48 2.10
12.50 -2.87 1.89
12.48 -2.60 1.88
12.53 -2.35 1.87
14.07 -2.35 2.10
14.12 -2.07 2.10
14.15 -1.78 2.10
6.60 -0.70 0.97
6.61 -0.56 0.97
6.62 -0.43 0.97
8.88 -0.40 1.30
13.93 -0.35 2.04
15.26 -0.07 2.24
15.28 0.24 2.24
15.29 0.54 2.24
15.28 0.85 2.24
15.26 1.16 2.24
15.24 1.46 2.24
13.74 1.60 2.02
11.49 1.57 1.70
9.96 1.57 1.47
9.96 1.77 1.48
9.96 1.98 1.48
9.95 2.19 1.49
9.95 2.40 1.49
9.95 2.61 1.50
9.95 2.82 1.51
9.95 3.04 1.52
9.94 3.26 1.52
9.94 3.48 1.53
9.94 3.71 1.54
9.94 3.93 1.55
9.93 4.17 1.57
9.93 4.40 1.58
9.93 4.64 1.59
9.93 4.88 1.61
9.92 5.13 1.62
9.92 5.39 1.64
9.92 5.65 1.65
9.92 5.91 1.67
9.91 6.18 1.69
9.91 6.46 1.71
9.91 6.75 1.73
9.91 7.04 1.76
9.90 7.34 1.78
9.90 7.65 1.80
9.90 7.97 1.83
9.89 8.30 1.86
9.89 8.65 1.89
9.89 9.00 1.92
9.88 9.37 1.96
9.88 9.75 1.99
9.88 10.14 2.03
9.87 10.55 2.07
9.87 10.98 2.12
9.87 11.43 2.16
9.86 11.90 2.21
9.86 12.40 2.26
9.88 12.95 2.33
9.86 13.48 2.39
9.61 13.70 2.39
9.35 13.92 2.39
9.09 14.14 2.39
8.83 14.36 2.40
8.56 14.57 2.40
8.28 14.77 2.41
7.99 14.94 2.41
7.70 15.11 2.41
7.40 15.28 2.41
7.09 15.43 2.41
6.79 15.59 2.41
6.48 15.73 2.41
6.17 15.87 2.41
5.85 16.00 2.41
5.50 16.02 2.39
5.18 16.14 2.39
4.86 16.26 2.39
4.53 16.36 2.39
4.21 16.46 2.39
3.88 16.56 2.39
3.55 16.64 2.39
3.22 16.72 2.39
2.19 12.76 1.82
2.45 16.24 2.30
2.21 16.93 2.39
1.87 16.98 2.39
1.60 17.76 2.49
1.24 17.80 2.49
0.88 17.84 2.49
0.53 17.86 2.49
0.17 17.88 2.49
-0.19 17.90 2.49
-0.55 17.90 2.49
-0.91 17.90 2.49
-1.27 17.89 2.49
-1.63 17.87 2.49
-1.99 17.85 2.49
-2.35 17.82 2.49
-2.71 17.78 2.49
-3.07 17.73 2.49
-3.42 17.68 2.49
-3.78 17.62 2.49
-4.14 17.55 2.49
-4.49 17.47 2.49
-4.84 17.39 2.49
-5.19 17.30 2.49
-5.54 17.20 2.49
-5.89 17.10 2.49
-6.24 16.99 2.49
-6.34 16.26 2.40
-6.63 16.05 2.39
-6.96 15.92 2.39
-7.28 15.79 2.39
-7.60 15.65 2.39
-7.92 15.50 2.39
-8.23 15.34 2.39
-8.54 15.18 2.39
-8.85 15.01 2.39
-9.15 14.84 2.39
-9.45 14.66 2.39
-9.75 14.47 2.39
-10.04 14.28 2.39
-11.61 15.83 2.69
-11.92 15.59 2.69
-10.03 12.59 2.20
-10.02 12.07 2.15
-10.07 11.65 2.11
-10.07 11.18 2.06
-10.06 10.74 2.01
-10.06 10.31 1.97
-10.06 9.90 1.93
-10.05 9.51 1.89
-10.05 9.13 1.85
-10.05 8.76 1.82
-10.04 8.41 1.79
-10.04 8.07 1.76
-10.03 7.74 1.73
-10.03 7.43 1.70
-10.03 7.12 1.68
-10.03 6.82 1.65
-9.98 6.50 1.62
-10.02 6.24 1.61
-10.02 5.96 1.59
-10.01 5.69 1.57
-10.01 5.43 1.55
-10.01 5.17 1.53
-10.01 4.92 1.52
-10.00 4.67 1.50
-10.00 4.43 1.49
-10.00 4.19 1.48
-10.00 3.95 1.46
-10.00 3.72 1.45
-9.99 3.49 1.44
-9.99 3.27 1.43
-9.99 3.05 1.42
-9.99 2.83 1.41
-9.92 2.60 1.40
-9.98 2.40 1.40
-9.98 2.19 1.39
-9.98 1.98 1.39
-9.98 1.77 1.38
-9.97 1.57 1.38
-9.97 1.36 1.37
-9.97 1.16 1.37
-9.97 0.96 1.37
-9.97 0.75 1.36
-9.96 0.55 1.36
-9.96 0.35 1.36
-9.96 0.15 1.36
-9.96 -0.05 1.36
-9.96 -0.25 1.36
-9.95 -0.45 1.36
-9.95 -0.65 1.37
-9.95 -0.85 1.37
-9.95 -1.05 1.37
-9.95 -1.25 1.37
-9.87 -1.44 1.37
-9.94 -1.66 1.38
-9.94 -1.86 1.39
-9.94 -2.07 1.39
-9.94 -2.28 1.40
-9.93 -2.49 1.41
-9.93 -2.70 1.42
-9.93 -2.92 1.42
-9.93 -3.13 1.43
-9.93 -3.35 1.44
-9.92 -3.57 1.45
-9.92 -3.80 1.46
-9.92 -4.03 1.48
-9.92 -4.26 1.49
-9.91 -4.50 1.50
-9.91 -4.74 1.52
-9.91 -4.99 1.53
-9.91 -5.24 1.55
-9.84 -5.45 1.56
-9.90 -5.75 1.59
-9.90 -6.02 1.61
-9.90 -6.29 1.63
-9.89 -6.57 1.65
-6.66 -4.62 1.13
-9.89 -7.16 1.70
-9.88 -7.46 1.72
-9.88 -7.78 1.75
-9.88 -8.10 1.78
-9.88 -8.44 1.81
-9.87 -8.78 1.84
-9.87 -9.14 1.88
-9.79 -9.44 1.90
-9.86 -9.90 1.95
-9.86 -10.30 1.99
-9.85 -10.72 2.04
-9.85 -11.15 2.08
-8.94 -10.54 1.94
-8.58 -10.54 1.91
-8.48 -10.86 1.93
-8.48 -11.31 1.99
-8.47 -11.79 2.04
-9.63 -13.99 2.39
-9.34 -14.17 2.39
-8.62 -13.67 2.28
-8.75 -14.51 2.39
-8.45 -14.67 2.39
-8.15 -14.82 2.39
-7.84 -14.97 2.39
-7.53 -15.11 2.39
-7.22 -15.25 2.39
-6.91 -15.38 2.39
-6.60 -15.50 2.39
-6.28 -15.62 2.39
-6.02 -15.88 2.41
-5.88 -16.52 2.49
-5.54 -16.62 2.49
-5.21 -16.72 2.49
-4.87 -16.81 2.49
-4.52 -16.89 2.49
-4.18 -16.96 2.49
-3.84 -17.03 2.49
-3.49 -17.09 2.49
-3.14 -17.14 2.49
-2.80 -17.19 2.49
-2.45 -17.23 2.49
-2.10 -17.26 2.49
-1.75 -17.29 2.49
-1.41 -17.31 2.49
-1.06 -17.32 2.49
-0.71 -17.33 2.49
-0.36 -17.33 2.49
-0.01 -14.93 2.49
0.29 -14.91 2.49
0.59 -14.90 2.49
0.89 -14.87 2.49
1.18 -14.84 2.49
1.48 -14.81 2.49
1.78 -14.77 2.49
2.02 -14.38 2.44
2.27 -14.06 2.39
2.46 -13.54 2.31
2.72 -13.42 2.30
2.99 -13.36 2.30
3.14 -12.81 2.22
3.66 -13.73 2.39
3.93 -13.64 2.39
4.20 -13.56 2.39
4.47 -13.46 2.39
4.74 -13.36 2.39
5.00 -13.26 2.39
5.26 -13.15 2.39
5.53 -13.04 2.39
5.78 -12.92 2.39
6.08 -12.88 2.41
6.33 -12.75 2.41
6.44 -12.33 2.35
6.64 -12.11 2.34
6.84 -11.90 2.32
7.03 -11.69 2.31
7.22 -11.48 2.30
7.41 -11.27 2.28
7.59 -11.06 2.27
7.78 -10.85 2.26
7.96 -10.64 2.25
8.13 -10.44 2.24
8.31 -10.23 2.24
8.55 -10.10 2.25
8.90 -10.10 2.29
9.31 -10.15 2.34
9.46 -9.90 2.33
9.59 -9.65 2.31
9.71 -9.38 2.30
9.83 -9.12 2.28
9.94 -8.86 2.26
10.05 -8.60 2.25
10.16 -8.34 2.24
10.26 -8.09 2.22
10.36 -7.83 2.21
10.47 -7.59 2.20
10.59 -7.36 2.20
10.76 -7.16 2.20
10.93 -6.96 2.21
11.01 -6.71 2.19
11.18 -6.51 2.20
11.03 -6.13 2.15
11.14 -5.90 2.15
11.25 -5.67 2.14
11.35 -5.44 2.14
11.45 -5.20 2.14
11.54 -4.97 2.14
11.63 -4.73 2.14
11.71 -4.49 2.14
11.79 -4.25 2.13
11.87 -4.01 2.13
11.94 -3.77 2.13
12.01 -3.53 2.13
12.07 -3.29 2.13
12.13 -3.04 2.13
12.19 -2.80 2.13
12.24 -2.55 2.13
12.28 -2.30 2.13
12.32 -2.06 2.13
12.36 -1.81 2.12
12.49 -1.57 2.14
6.58 -0.69 1.13
6.58 -0.56 1.12
6.85 -0.45 1.17
8.88 -0.40 1.51
13.20 -0.33 2.24
13.21 -0.06 2.24
13.21 0.20 2.24
13.21 0.47 2.24
13.20 0.74 2.24
13.19 1.00 2.24
13.17 1.27 2.24
13.14 1.53 2.24
11.49 1.57 1.96
9.96 1.57 1.71
9.96 1.77 1.71
9.96 1.98 1.72
9.95 2.19 1.72
9.95 2.40 1.73
9.95 2.61 1.74
9.95 2.82 1.75
9.95 3.04 1.76
9.94 3.26 1.77
9.94 3.48 1.78
9.94 3.71 1.79
9.94 3.93 1.80
9.93 4.17 1.81
9.93 4.40 1.83
9.93 4.64 1.84
9.93 4.89 1.86
9.92 5.14 1.88
9.92 5.39 1.90
9.92 5.65 1.92
9.92 5.91 1.94
9.91 6.19 1.96
9.91 6.46 1.98
9.91 6.75 2.01
9.91 7.04 2.04
9.90 7.34 2.06
9.90 7.66 2.09
9.90 7.98 2.12
9.89 8.31 2.16
9.89 8.65 2.19
9.89 9.00 2.23
9.88 9.37 2.27
9.88 9.75 2.31
9.88 10.14 2.36
9.76 10.44 2.38
9.58 10.66 2.38
9.39 10.88 2.39
9.19 11.10 2.39
8.99 11.31 2.40
8.78 11.51 2.40
8.56 11.70 2.40
8.34 11.89 2.41
8.10 12.06 2.41
7.86 12.23 2.41
7.62 12.40 2.41
7.37 12.55 2.41
7.13 12.71 2.41
6.87 12.86 2.41
6.62 13.00 2.41
6.36 13.14 2.41
6.10 13.28 2.41
5.84 13.40 2.41
5.53 13.44 2.39
5.27 13.56 2.39
5.00 13.67 2.39
4.72 13.77 2.39
4.45 13.88 2.39
4.17 13.97 2.39
3.89 14.06 2.39
3.61 14.15 2.39
3.33 14.23 2.39
2.83 13.27 2.22
2.66 13.83 2.30
2.19 12.76 2.11
2.18 14.49 2.39
1.89 14.54 2.39
1.67 15.21 2.49
1.37 15.25 2.49
1.06 15.28 2.49
0.76 15.31 2.49
0.45 15.33 2.49
0.14 15.35 2.49
-0.17 15.36 2.49
-0.47 15.36 2.49
-0.78 15.36 2.49
-1.09 15.35 2.49
-1.40 15.33 2.49
-1.71 15.31 2.49
-2.02 15.28 2.49
-2.32 15.25 2.49
-2.63 15.21 2.49
-2.94 15.16 2.49
-3.24 15.10 2.49
-3.55 15.04 2.49
-3.85 14.98 2.49
-4.15 14.91 2.49
-4.45 14.83 2.49
-4.75 14.74 2.49
-5.05 14.65 2.49
-5.34 14.55 2.49
-5.64 14.45 2.49
-5.93 14.34 2.49
-6.22 14.23 2.49
-6.31 13.68 2.42
-6.51 13.40 2.39
-6.78 13.27 2.39
-7.05 13.14 2.39
-7.31 13.00 2.39
-7.58 12.86 2.39
-7.83 12.71 2.39
-8.09 12.55 2.39
-8.34 12.39 2.39
-8.59 12.23 2.39
-8.84 12.06 2.39
-9.08 11.88 2.39
-9.32 11.70 2.39
-9.56 11.51 2.39
-9.79 11.32 2.39
-10.02 11.13 2.39
-10.24 10.93 2.39
-12.87 13.19 2.94
-13.16 12.95 2.95
-10.00 9.45 2.19
-9.99 9.08 2.15
-10.03 8.75 2.12
-10.04 8.41 2.09
-10.04 8.07 2.05
-10.03 7.74 2.02
-10.03 7.43 1.99
-10.03 7.12 1.96
-10.03 6.82 1.93
-9.98 6.50 1.90
-10.02 6.24 1.88
-10.02 5.96 1.86
-10.01 5.69 1.83
-10.01 5.43 1.81
-10.01 5.17 1.79
-10.01 4.92 1.78
-10.00 4.67 1.76
-10.00 4.43 1.74
-10.00 4.19 1.73
-10.00 3.95 1.71
-10.00 3.72 1.70
-9.99 3.49 1.69
-9.99 3.27 1.67
-9.99 3.05 1.66
-9.99 2.83 1.65
-9.92 2.60 1.63
-9.98 2.40 1.64
-9.98 2.19 1.63
-9.98 1.98 1.62
-9.98 1.77 1.62
-9.97 1.57 1.61
-9.97 1.36 1.60
-9.97 1.16 1.60
-9.97 0.96 1.60
-9.97 0.75 1.59
-9.96 0.55 1.59
-9.96 0.35 1.59
-9.96 0.15 1.59
-9.96 -0.05 1.59
-9.96 -0.25 1.59
-9.95 -0.45 1.59
-9.95 -0.65 1.59
-9.95 -0.85 1.60
-9.95 -1.05 1.60
-9.95 -1.25 1.60
-9.87 -1.44 1.60
-9.94 -1.66 1.61
-9.94 -1.86 1.62
-9.94 -2.07 1.63
-9.94 -2.28 1.63
-9.93 -2.49 1.64
-9.93 -2.70 1.65
-9.93 -2.91 1.66
-9.93 -3.13 1.67
-9.93 -3.35 1.68
-9.92 -3.57 1.70
-9.92 -3.80 1.71
-9.92 -4.03 1.72
-9.92 -4.26 1.74
-9.91 -4.50 1.75
-9.91 -4.74 1.77
-9.91 -4.98 1.79
-9.91 -5.23 1.81
-9.84 -5.45 1.82
-9.90 -5.75 1.85
-9.90 -6.02 1.87
-9.90 -6.29 1.90
-9.89 -6.57 1.92
-6.66 -4.62 1.31
-9.89 -7.16 1.98
-9.88 -7.46 2.01
-9.88 -7.78 2.04
-9.88 -8.10 2.07
-8.92 -7.62 1.91
-8.65 -7.69 1.88
-8.52 -7.89 1.89
-8.51 -8.20 1.92
-8.50 -8.53 1.96
-8.50 -8.88 2.00
-9.92 -10.79 2.39
-9.70 -10.98 2.39
-9.47 -11.16 2.39
-8.78 -10.78 2.27
-9.00 -11.52 2.39
-8.76 -11.69 2.39
-8.52 -11.86 2.39
-8.28 -12.02 2.39
-8.03 -12.17 2.39
-7.78 -12.32 2.39
-7.52 -12.47 2.39
-7.27 -12.61 2.39
-7.01 -12.74 2.39
-6.75 -12.87 2.39
-6.48 -13.00 2.39
-6.21 -13.12 2.39
-6.04 -13.43 2.43
-5.92 -13.91 2.49
-5.64 -14.02 2.49
-5.35 -14.12 2.49
-5.06 -14.22 2.49
-4.77 -14.30 2.49
-4.48 -14.39 2.49
-4.19 -14.47 2.49
-3.90 -14.54 2.49
-3.60 -14.60 2.49
-3.30 -14.66 2.49
-3.01 -14.72 2.49
-2.71 -14.76 2.49
-2.41 -14.81 2.49
-2.11 -14.84 2.49
-1.81 -14.87 2.49
-1.51 -14.90 2.49
-1.21 -14.91 2.49
-0.91 -14.93 2.49
-0.61 -14.93 2.49
-0.31 -14.93 2.49
-0.01 -13.10 2.49
0.25 -13.09 2.49
0.51 -13.08 2.49
0.78 -13.06 2.49
1.04 -13.03 2.49
1.30 -13.00 2.49
1.56 -12.97 2.49
1.82 -12.93 2.49
2.01 -12.47 2.41
2.24 -12.30 2.39
2.48 -12.25 2.39
2.73 -12.19 2.39
2.97 -12.13 2.39
3.21 -12.06 2.39
3.45 -11.99 2.39
3.69 -11.91 2.39
3.93 -11.83 2.39
4.16 -11.74 2.39
4.39 -11.65 2.39
4.63 -11.56 2.39
4.86 -11.46 2.39
5.08 -11.35 2.39
5.31 -11.25 2.39
5.53 -11.13 2.39
5.75 -11.02 2.39
5.97 -10.89 2.39
6.14 -10.70 2.37
6.32 -10.51 2.36
6.49 -10.32 2.35
6.66 -10.13 2.34
6.93 -10.09 2.36
7.24 -10.10 2.39
7.47 -9.99 2.41
7.67 -9.84 2.41
7.86 -9.68 2.41
8.05 -9.52 2.41
8.24 -9.35 2.41
8.42 -9.18 2.41
8.59 -8.99 2.40
8.71 -8.76 2.39
8.84 -8.54 2.37
8.96 -8.31 2.36
9.07 -8.08 2.35
9.18 -7.86 2.34
9.29 -7.64 2.33
9.41 -7.42 2.32
9.52 -7.20 2.31
9.63 -6.99 2.30
9.74 -6.77 2.29
9.54 -6.35 2.22
9.63 -6.13 2.21
9.71 -5.92 2.20
9.80 -5.70 2.19
9.88 -5.49 2.19
9.97 -5.28 2.18
10.05 -5.06 2.18
10.13 -4.85 2.17
10.21 -4.64 2.17
10.29 -4.43 2.17
10.36 -4.22 2.16
10.43 -4.00 2.16
10.50 -3.79 2.16
10.56 -3.57 2.16
10.63 -3.36 2.16
10.69 -3.14 2.15
10.74 -2.92 2.15
10.79 -2.71 2.15
10.84 -2.49 2.15
10.88 -2.27 2.15
10.92 -2.05 2.15
10.96 -1.83 2.15
11.25 -1.65 2.20
11.42 -1.44 2.23
6.58 -0.69 1.28
6.58 -0.56 1.28
6.85 -0.45 1.33
8.88 -0.40 1.72
11.56 -0.29 2.23
11.58 -0.05 2.24
11.60 0.18 2.24
11.62 0.41 2.24
11.61 0.65 2.24
11.60 0.88 2.24
11.58 1.11 2.24
11.56 1.35 2.24
11.49 1.57 2.23
9.96 1.57 1.94
9.96 1.77 1.95
9.96 1.98 1.95
9.95 2.19 1.96
9.95 2.40 1.97
9.95 2.61 1.98
9.95 2.82 1.99
9.95 3.04 2.00
9.94 3.26 2.01
9.94 3.48 2.02
9.94 3.71 2.04
9.94 3.94 2.05
9.93 4.17 2.07
9.93 4.40 2.08
9.93 4.64 2.10
9.93 4.89 2.12
9.92 5.14 2.14
9.92 5.39 2.16
9.92 5.65 2.18
9.92 5.92 2.21
9.91 6.19 2.23
9.91 6.47 2.26
9.91 6.75 2.29
9.91 7.04 2.32
9.90 7.35 2.35
9.84 7.61 2.37
9.69 7.81 2.37
9.56 8.02 2.37
9.41 8.23 2.38
9.26 8.44 2.38
9.12 8.64 2.39
8.97 8.85 2.39
8.81 9.05 2.40
8.64 9.25 2.40
8.47 9.44 2.40
8.29 9.62 2.41
8.10 9.79 2.41
7.91 9.95 2.41
7.71 10.12 2.41
7.51 10.28 2.41
7.31 10.43 2.41
7.10 10.58 2.41
6.89 10.73 2.41
6.68 10.87 2.41
6.46 11.01 2.41
6.25 11.14 2.41
6.02 11.27 2.41
5.76 11.32 2.39
5.54 11.44 2.39
5.31 11.56 2.39
5.08 11.67 2.39
4.85 11.78 2.39
4.61 11.88 2.39
4.38 11.98 2.39
4.14 12.07 2.39
3.90 12.16 2.39
3.65 12.24 2.39
3.41 12.32 2.39
2.94 11.50 2.22
2.80 11.95 2.29
2.57 12.05 2.30
2.24 11.68 2.22
2.16 12.63 2.39
1.91 12.68 2.39
1.73 13.27 2.49
1.46 13.31 2.49
1.20 13.35 2.49
0.93 13.38 2.49
0.66 13.40 2.49
0.39 13.42 2.49
0.12 13.43 2.49
-0.15 13.44 2.49
-0.42 13.44 2.49
-0.69 13.43 2.49
-0.96 13.43 2.49
-1.23 13.41 2.49
-1.50 13.39 2.49
-1.77 13.36 2.49
-2.03 13.33 2.49
-2.30 13.30 2.49
-2.57 13.25 2.49
-2.84 13.21 2.49
-3.10 13.15 2.49
-3.37 13.09 2.49
-3.63 13.03 2.49
-3.89 12.96 2.49
-4.15 12.89 2.49
-4.41 12.81 2.49
-4.67 12.72 2.49
-4.93 12.63 2.49
-5.18 12.53 2.49
-5.44 12.43 2.49
-5.69 12.32 2.49
-5.93 12.21 2.49
-6.18 12.10 2.49
-6.28 11.71 2.44
-6.39 11.36 2.39
-6.62 11.23 2.39
-6.84 11.10 2.39
-7.07 10.96 2.39
-7.29 10.82 2.39
-7.51 10.68 2.39
-7.72 10.53 2.39
-7.93 10.37 2.39
-8.14 10.22 2.39
-8.35 10.05 2.39
-8.55 9.89 2.39
-8.75 9.72 2.39
-8.94 9.54 2.39
-9.14 9.36 2.39
-9.32 9.18 2.39
-9.51 8.99 2.39
-9.69 8.80 2.39
-9.86 8.61 2.39
-10.04 8.41 2.39
-10.20 8.21 2.39
-9.97 6.78 2.20
-9.96 6.49 2.17
-9.97 6.21 2.14
-10.00 5.95 2.12
-10.01 5.69 2.10
-10.01 5.43 2.08
-10.01 5.17 2.05
-10.01 4.92 2.03
-10.00 4.67 2.01
-10.00 4.43 2.00
-10.00 4.19 1.98
-10.00 3.95 1.96
-10.00 3.72 1.95
-9.99 3.49 1.93
-9.99 3.27 1.92
-9.99 3.05 1.91
-9.99 2.83 1.89
-9.92 2.60 1.87
-9.98 2.40 1.87
-9.98 2.19 1.87
-9.98 1.98 1.86
-9.98 1.77 1.85
-9.97 1.57 1.84
-9.97 1.36 1.84
-9.97 1.16 1.83
-9.97 0.96 1.83
-9.97 0.76 1.83
-9.96 0.55 1.82
-9.96 0.35 1.82
-9.96 0.15 1.82
-9.96 -0.05 1.82
-9.96 -0.25 1.82
-9.95 -0.45 1.82
-9.95 -0.65 1.83
-9.95 -0.85 1.83
-9.95 -1.05 1.83
-9.95 -1.25 1.84
-9.87 -1.44 1.83
-9.94 -1.66 1.85
-9.94 -1.86 1.86
-9.94 -2.07 1.86
-9.94 -2.28 1.87
-9.93 -2.49 1.88
-9.93 -2.70 1.89
-9.93 -2.91 1.90
-9.93 -3.13 1.91
-9.93 -3.35 1.93
-9.92 -3.57 1.94
-9.92 -3.80 1.96
-9.92 -4.03 1.97
-9.92 -4.26 1.99
-9.91 -4.50 2.01
-9.91 -4.74 2.03
-9.91 -4.98 2.05
-9.91 -5.23 2.07
-9.84 -5.45 2.08
-9.90 -5.75 2.12
-9.86 -5.99 2.13
-9.84 -6.26 2.16
-9.84 -6.53 2.19
-6.63 -4.60 1.49
-10.62 -7.68 2.43
-10.43 -7.87 2.42
-10.36 -8.15 2.44
-9.96 -8.17 2.39
-9.79 -8.36 2.39
-8.83 -7.85 2.19
-8.59 -7.96 2.18
-9.26 -8.92 2.39
-8.80 -8.83 2.32
-8.88 -9.27 2.39
-8.69 -9.44 2.39
-8.49 -9.61 2.39
-8.29 -9.77 2.39
-8.09 -9.93 2.39
-7.88 -10.09 2.39
-7.68 -10.24 2.39
-7.46 -10.38 2.39
-7.25 -10.53 2.39
-7.03 -10.66 2.39
-6.81 -10.79 2.39
-6.59 -10.92 2.39
-6.37 -11.05 2.39
-6.14 -11.17 2.39
-6.05 -11.55 2.45
-5.93 -11.88 2.49
-5.68 -11.99 2.49
-5.44 -12.10 2.49
-5.19 -12.19 2.49
-4.94 -12.29 2.49
-4.69 -12.38 2.49
-4.44 -12.46 2.49
-4.19 -12.54 2.49
-3.93 -12.62 2.49
-3.68 -12.69 2.49
-3.42 -12.75 2.49
-3.16 -12.81 2.49
-2.90 -12.86 2.49
-2.64 -12.91 2.49
-2.38 -12.95 2.49
-2.12 -12.99 2.49
-1.85 -13.02 2.49
-1.59 -13.05 2.49
-1.33 -13.07 2.49
-1.07 -13.09 2.49
-0.80 -13.10 2.49
-0.54 -13.11 2.49
-0.28 -13.11 2.49
-0.01 -11.67 2.49
0.22 -11.66 2.49
0.46 -11.65 2.49
0.69 -11.63 2.49
0.92 -11.61 2.49
1.15 -11.58 2.49
1.39 -11.55 2.49
1.62 -11.52 2.49
1.85 -11.48 2.49
2.00 -11.00 2.40
2.21 -10.91 2.39
2.43 -10.86 2.39
2.64 -10.81 2.39
2.86 -10.75 2.39
3.07 -10.68 2.39
3.29 -10.61 2.39
3.50 -10.54 2.39
3.71 -10.47 2.39
3.92 -10.38 2.39
4.12 -10.30 2.39
4.33 -10.21 2.39
4.53 -10.12 2.39
4.73 -10.02 2.39
4.93 -9.92 2.39
5.13 -9.82 2.39
5.32 -9.71 2.39
5.51 -9.60 2.39
5.70 -9.48 2.39
5.89 -9.36 2.39
6.12 -9.30 2.41
6.30 -9.18 2.41
6.48 -9.04 2.41
6.66 -8.91 2.41
6.84 -8.77 2.41
7.01 -8.63 2.41
7.18 -8.49 2.41
7.35 -8.34 2.41
7.51 -8.19 2.41
7.67 -8.03 2.41
7.83 -7.88 2.41
7.99 -7.72 2.41
8.13 -7.55 2.40
8.28 -7.38 2.40
8.42 -7.21 2.40
8.55 -7.02 2.40
8.65 -6.82 2.39
8.49 -6.42 2.31
8.59 -6.23 2.30
8.68 -6.04 2.29
8.77 -5.84 2.28
8.85 -5.64 2.28
8.93 -5.44 2.27
9.01 -5.24 2.26
9.08 -5.04 2.25
9.16 -4.85 2.25
9.22 -4.65 2.24
9.29 -4.45 2.24
9.35 -4.25 2.23
9.41 -4.05 2.22
9.46 -3.85 2.22
9.52 -3.65 2.21
9.57 -3.45 2.21
9.62 -3.25 2.20
9.66 -3.05 2.20
9.71 -2.85 2.19
9.75 -2.65 2.19
9.79 -2.45 2.19
9.83 -2.26 2.19
9.86 -2.06 2.18
9.89 -1.86 2.18
10.19 -1.70 2.24
10.22 -1.50 2.24
10.25 -1.29 2.24
6.58 -0.69 1.43
6.58 -0.56 1.43
6.86 -0.45 1.49
8.88 -0.40 1.93
10.36 -0.26 2.24
10.38 -0.05 2.25
10.39 0.16 2.25
10.39 0.37 2.25
10.38 0.58 2.25
10.38 0.79 2.25
10.36 1.00 2.25
10.35 1.21 2.25
10.33 1.42 2.25
9.96 1.57 2.18
9.96 1.77 2.18
9.96 1.98 2.19
9.95 2.19 2.20
9.95 2.40 2.21
9.95 2.61 2.22
9.95 2.83 2.23
9.95 3.04 2.24
9.94 3.26 2.25
9.94 3.48 2.27
9.94 3.71 2.28
9.88 3.92 2.29
9.82 4.12 2.29
9.76 4.33 2.30
9.72 4.55 2.31
9.69 4.77 2.32
9.67 5.00 2.34
9.64 5.24 2.36
9.60 5.47 2.37
9.54 5.69 2.38
9.44 5.89 2.39
9.33 6.09 2.39
9.22 6.28 2.39
9.10 6.48 2.39
8.98 6.66 2.39
8.85 6.85 2.39
8.73 7.04 2.40
8.60 7.22 2.40
8.47 7.41 2.40
8.33 7.59 2.41
8.18 7.76 2.41
8.03 7.92 2.41
7.87 8.09 2.41
7.71 8.25 2.41
7.55 8.41 2.41
7.38 8.56 2.41
7.21 8.71 2.41
7.04 8.86 2.41
6.86 9.00 2.41
6.68 9.14 2.41
6.50 9.28 2.41
6.32 9.41 2.41
6.13 9.54 2.41
5.94 9.67 2.41
5.71 9.73 2.39
5.52 9.85 2.39
5.32 9.96 2.39
5.12 10.07 2.39
4.92 10.18 2.39
4.72 10.28 2.39
4.51 10.38 2.39
4.31 10.47 2.39
4.10 10.56 2.39
3.89 10.65 2.39
3.68 10.73 2.39
3.46 10.81 2.39
3.25 10.88 2.39
2.82 10.19 2.23
2.70 10.60 2.30
2.49 10.66 2.30
2.23 10.46 2.25
2.15 11.18 2.39
1.92 11.23 2.39
1.76 11.69 2.48
1.53 11.79 2.49
1.30 11.83 2.49
1.06 11.86 2.49
0.82 11.88 2.49
0.59 11.90 2.49
0.35 11.92 2.49
0.11 11.93 2.49
-0.13 11.93 2.49
-0.37 11.93 2.49
-0.61 11.93 2.49
-0.85 11.92 2.49
-1.09 11.91 2.49
-1.33 11.89 2.49
-1.57 11.86 2.49
-1.81 11.84 2.49
-2.04 11.80 2.49
-2.28 11.76 2.49
-2.52 11.72 2.49
-2.75 11.67 2.49
-2.99 11.62 2.49
-3.22 11.56 2.49
-3.46 11.50 2.49
-3.69 11.43 2.49
-3.92 11.36 2.49
-4.15 11.29 2.49
-4.37 11.20 2.49
-4.60 11.12 2.49
-4.82 11.03 2.49
-5.04 10.93 2.49
-5.26 10.83 2.49
-5.48 10.73 2.49
-5.70 10.62 2.49
-5.91 10.51 2.49
-6.12 10.39 2.49
-6.26 10.15 2.46
-6.28 9.74 2.39
-6.46 9.60 2.39
-6.66 9.47 2.39
-6.85 9.34 2.39
-7.04 9.20 2.39
-7.22 9.06 2.39
-7.40 8.91 2.39
-7.58 8.77 2.39
-7.76 8.61 2.39
-7.93 8.46 2.39
-8.10 8.30 2.39
-8.27 8.14 2.39
-8.43 7.97 2.39
-8.59 7.80 2.39
-8.74 7.63 2.39
-8.90 7.45 2.39
-9.05 7.27 2.39
-9.19 7.09 2.39
-9.33 6.91 2.39
-9.47 6.72 2.39
-9.60 6.53 2.39
-9.73 6.33 2.39
-9.86 6.14 2.39
-9.98 5.94 2.39
-10.10 5.74 2.39
-10.21 5.54 2.39
-11.57 5.68 2.65
-11.53 5.38 2.62
-11.49 5.08 2.58
-11.44 4.79 2.55
-9.94 3.93 2.20
-9.94 3.70 2.18
-9.94 3.47 2.17
-9.93 3.25 2.15
-9.94 3.03 2.14
-9.95 2.82 2.13
-9.92 2.60 2.11
-9.98 2.40 2.11
-9.98 2.19 2.10
-9.98 1.98 2.09
-9.98 1.77 2.09
-9.97 1.57 2.08
-9.97 1.36 2.07
-9.97 1.16 2.07
-9.97 0.96 2.06
-9.97 0.76 2.06
-9.96 0.55 2.06
-9.96 0.35 2.06
-9.96 0.15 2.05
-9.96 -0.05 2.05
-9.96 -0.24 2.06
-9.95 -0.44 2.06
-9.95 -0.64 2.06
-9.95 -0.85 2.06
-9.95 -1.05 2.07
-9.95 -1.25 2.07
-9.87 -1.44 2.06
-9.94 -1.66 2.08
-9.94 -1.86 2.09
-9.94 -2.07 2.10
-9.94 -2.28 2.11
-9.92 -2.48 2.12
-9.91 -2.69 2.13
-9.89 -2.90 2.14
-9.87 -3.11 2.15
-9.87 -3.33 2.16
-9.87 -3.55 2.17
-9.87 -3.78 2.19
-9.89 -4.01 2.22
-10.27 -4.41 2.32
-10.21 -4.63 2.33
-10.35 -4.95 2.38
-10.56 -5.31 2.46
-10.78 -5.69 2.53
-9.84 -5.45 2.34
-9.93 -5.77 2.39
-9.81 -5.96 2.39
-9.68 -6.15 2.39
-9.55 -6.34 2.39
-6.63 -4.60 1.68
-9.28 -6.72 2.39
-9.14 -6.90 2.39
-9.00 -7.08 2.39
-8.85 -7.25 2.39
-8.70 -7.42 2.39
-8.54 -7.59 2.39
-8.38 -7.76 2.39
-8.22 -7.92 2.39
-8.06 -8.08 2.39
-7.89 -8.24 2.39
-7.72 -8.39 2.39
-7.55 -8.54 2.39
-7.37 -8.68 2.39
-7.19 -8.82 2.39
-7.01 -8.96 2.39
-6.82 -9.10 2.39
-6.63 -9.23 2.39
-6.44 -9.35 2.39
-6.25 -9.48 2.39
-6.08 -9.63 2.40
-6.07 -10.05 2.47
-5.91 -10.24 2.49
-5.70 -10.35 2.49
-5.48 -10.46 2.49
-5.27 -10.56 2.49
-5.06 -10.66 2.49
-4.84 -10.76 2.49
-4.62 -10.84 2.49
-4.40 -10.93 2.49
-4.17 -11.01 2.49
-3.95 -11.08 2.49
-3.73 -11.16 2.49
-3.50 -11.22 2.49
-3.27 -11.28 2.49
-3.04 -11.34 2.49
-2.81 -11.39 2.49
-2.58 -11.44 2.49
-2.35 -11.49 2.49
-2.12 -11.53 2.49
-1.89 -11.56 2.49
-1.65 -11.59 2.49
-1.42 -11.61 2.49
-1.18 -11.63 2.49
-0.95 -11.65 2.49
-0.72 -11.66 2.49
-0.48 -11.67 2.49
-0.25 -11.67 2.49
-0.01 -10.50 2.49
0.20 -10.50 2.49
0.41 -10.49 2.49
0.62 -10.47 2.49
0.83 -10.45 2.49
1.04 -10.43 2.49
1.25 -10.40 2.49
1.46 -10.37 2.49
1.66 -10.34 2.49
1.87 -10.30 2.49
1.99 -9.83 2.39
2.19 -9.78 2.39
2.38 -9.73 2.39
2.57 -9.68 2.39
2.77 -9.62 2.39
2.96 -9.56 2.39
3.15 -9.50 2.39
3.34 -9.43 2.39
3.53 -9.36 2.39
3.71 -9.28 2.39
3.90 -9.20 2.39
4.08 -9.12 2.39
4.26 -9.03 2.39
4.44 -8.94 2.39
4.62 -8.85 2.39
4.79 -8.75 2.39
4.97 -8.65 2.39
5.14 -8.55 2.39
5.31 -8.44 2.39
5.47 -8.33 2.39
5.64 -8.21 2.39
5.80 -8.10 2.39
5.96 -7.98 2.39
6.16 -7.91 2.41
6.32 -7.78 2.41
6.47 -7.65 2.41
6.62 -7.51 2.41
6.76 -7.37 2.40
6.91 -7.23 2.40
7.05 -7.09 2.40
7.18 -6.94 2.40
7.32 -6.79 2.40
7.30 -6.51 2.35
7.42 -6.35 2.35
7.54 -6.19 2.35
7.65 -6.03 2.34
7.76 -5.87 2.34
7.86 -5.70 2.34
7.96 -5.54 2.33
8.06 -5.37 2.33
8.15 -5.19 2.33
8.24 -5.02 2.32
8.32 -4.84 2.32
8.40 -4.67 2.31
8.47 -4.48 2.31
8.54 -4.30 2.30
8.60 -4.12 2.30
8.66 -3.94 2.29
8.72 -3.75 2.28
8.77 -3.57 2.28
8.82 -3.38 2.27
8.87 -3.20 2.27
8.91 -3.01 2.26
8.96 -2.83 2.26
9.00 -2.64 2.26
9.03 -2.46 2.25
9.07 -2.27 2.25
9.10 -2.09 2.25
9.13 -1.90 2.24
9.44 -1.77 2.31
9.48 -1.58 2.31
9.51 -1.39 2.31
9.53 -1.20 2.31
6.58 -0.69 1.59
6.58 -0.56 1.59
6.86 -0.45 1.65
8.88 -0.40 2.14
9.62 -0.24 2.31
9.63 -0.04 2.31
9.63 0.15 2.31
9.62 0.34 2.31
9.62 0.54 2.31
9.61 0.73 2.31
9.60 0.92 2.31
9.58 1.12 2.31
9.57 1.31 2.32
9.55 1.50 2.32
9.52 1.70 2.32
9.50 1.89 2.32
9.47 2.08 2.32
9.44 2.28 2.33
9.40 2.47 2.33
9.37 2.66 2.33
9.33 2.85 2.33
9.28 3.05 2.34
9.24 3.24 2.34
9.19 3.43 2.34
9.14 3.62 2.35
9.08 3.81 2.35
9.02 4.00 2.36
8.96 4.19 2.36
8.90 4.38 2.37
8.86 4.59 2.38
8.82 4.80 2.39
8.75 4.99 2.40
8.66 5.17 2.40
8.56 5.35 2.40
8.46 5.52 2.41
8.36 5.70 2.41
8.24 5.87 2.41
8.13 6.03 2.41
8.01 6.20 2.41
7.89 6.36 2.41
7.76 6.52 2.41
7.63 6.68 2.41
7.50 6.83 2.41
7.36 6.98 2.41
7.22 7.13 2.41
7.08 7.28 2.41
6.94 7.42 2.41
6.79 7.57 2.41
6.64 7.70 2.41
6.49 7.84 2.41
6.33 7.97 2.41
6.17 8.10 2.41
6.01 8.23 2.41
5.81 8.30 2.39
5.65 8.41 2.39
5.48 8.53 2.39
5.31 8.64 2.39
5.14 8.75 2.39
4.96 8.86 2.39
4.79 8.96 2.39
4.61 9.06 2.39
4.43 9.15 2.39
4.24 9.25 2.39
4.06 9.33 2.39
3.87 9.42 2.39
3.68 9.50 2.39
3.50 9.57 2.39
3.30 9.65 2.39
2.89 9.02 2.22
2.71 9.09 2.22
2.53 9.14 2.22
2.34 9.19 2.22
2.23 9.56 2.30
2.13 10.00 2.39
1.93 10.05 2.39
1.77 10.38 2.46
1.59 10.56 2.49
1.38 10.60 2.49
1.17 10.63 2.49
0.95 10.65 2.49
0.74 10.68 2.49
0.52 10.69 2.49
0.31 10.71 2.49
0.10 10.72 2.49
-0.12 10.72 2.49
-0.34 10.72 2.49
-0.55 10.72 2.49
-0.77 10.71 2.49
-0.98 10.70 2.49
-1.20 10.68 2.49
-1.41 10.66 2.49
-1.62 10.63 2.49
-1.84 10.60 2.49
-2.05 10.57 2.49
-2.26 10.53 2.49
-2.47 10.48 2.49
-2.69 10.43 2.49
-2.90 10.38 2.49
-3.10 10.33 2.49
-3.31 10.27 2.49
-3.52 10.20 2.49
-3.72 10.13 2.49
-3.93 10.06 2.49
-4.13 9.98 2.49
-4.33 9.90 2.49
-4.53 9.81 2.49
-4.73 9.72 2.49
-4.92 9.63 2.49
-5.12 9.53 2.49
-5.31 9.43 2.49
-5.50 9.33 2.49
-5.68 9.22 2.49
-5.87 9.10 2.49
-6.05 8.99 2.49
-6.23 8.86 2.49
-6.25 8.52 2.43
-6.31 8.25 2.39
-6.48 8.13 2.39
-6.64 8.00 2.39
-6.80 7.87 2.39
-6.96 7.73 2.39
-7.12 7.59 2.39
-7.27 7.45 2.39
-7.42 7.30 2.39
-7.56 7.15 2.39
-7.71 7.00 2.39
-7.85 6.84 2.39
-7.98 6.69 2.39
-8.12 6.53 2.39
-8.25 6.36 2.39
-8.37 6.20 2.39
-8.50 6.03 2.39
-8.62 5.86 2.39
-8.73 5.68 2.39
-8.85 5.51 2.39
-8.95 5.33 2.39
-9.06 5.15 2.39
-9.16 4.97 2.39
-9.26 4.78 2.39
-9.35 4.60 2.39
-9.44 4.41 2.39
-9.53 4.22 2.39
-9.61 4.02 2.39
-9.69 3.83 2.39
-9.77 3.64 2.39
-9.84 3.44 2.39
-9.90 3.24 2.39
-9.97 3.04 2.39
-10.02 2.84 2.39
-9.92 2.60 2.35
-10.13 2.44 2.39
-10.17 2.23 2.39
-11.15 2.21 2.61
-11.18 1.99 2.61
-11.20 1.76 2.60
-11.22 1.53 2.60
-11.23 1.31 2.60
-11.24 1.08 2.59
-11.25 0.85 2.59
-11.26 0.63 2.59
-11.27 0.40 2.59
-11.37 0.18 2.61
-11.30 -0.05 2.60
-11.20 -0.27 2.58
-11.10 -0.50 2.56
-11.00 -0.71 2.54
-10.90 -0.93 2.52
-10.80 -1.14 2.50
-10.66 -1.34 2.47
-9.87 -1.44 2.30
-10.38 -1.73 2.42
-10.27 -1.92 2.41
-10.15 -2.11 2.39
-10.11 -2.31 2.39
-10.06 -2.52 2.39
-10.00 -2.72 2.39
-9.94 -2.91 2.39
-9.88 -3.11 2.39
-9.81 -3.31 2.39
-9.74 -3.50 2.39
-9.66 -3.70 2.39
-9.58 -3.89 2.39
-9.50 -4.08 2.39
-9.41 -4.27 2.39
-9.32 -4.45 2.39
-9.23 -4.64 2.39
-9.13 -4.82 2.39
-9.03 -5.00 2.39
-8.92 -5.18 2.39
-8.81 -5.35 2.39
-8.70 -5.53 2.39
-8.58 -5.70 2.39
-6.63 -4.60 1.87
-8.34 -6.03 2.39
-8.21 -6.20 2.39
-8.08 -6.36 2.39
-7.95 -6.51 2.39
-7.81 -6.67 2.39
-7.68 -6.82 2.39
-7.53 -6.97 2.39
-7.39 -7.12 2.39
-7.24 -7.26 2.39
-7.09 -7.40 2.39
-6.94 -7.54 2.39
-6.78 -7.67 2.39
-6.62 -7.80 2.39
-6.46 -7.93 2.39
-6.30 -8.06 2.39
-6.13 -8.18 2.39
-6.08 -8.46 2.44
-6.05 -8.77 2.49
-5.87 -8.89 2.49
-5.68 -9.00 2.49
-5.50 -9.11 2.49
-5.31 -9.21 2.49
-5.12 -9.31 2.49
-4.93 -9.41 2.49
-4.74 -9.50 2.49
-4.55 -9.59 2.49
-4.35 -9.67 2.49
-4.16 -9.75 2.49
-3.96 -9.83 2.49
-3.76 -9.90 2.49
-3.56 -9.97 2.49
-3.35 -10.04 2.49
-3.15 -10.10 2.49
-2.94 -10.15 2.49
-2.74 -10.21 2.49
-2.53 -10.25 2.49
-2.32 -10.30 2.49
-2.12 -10.34 2.49
-1.91 -10.37 2.49
-1.70 -10.40 2.49
-1.49 -10.43 2.49
-1.28 -10.45 2.49
-1.07 -10.47 2.49
-0.86 -10.49 2.49
-0.65 -10.50 2.49
-0.43 -10.50 2.49
-0.22 -10.51 2.49
-0.01 -9.54 2.49
0.18 -9.54 2.49
0.37 -9.53 2.49
0.56 -9.51 2.49
0.75 -9.50 2.49
0.94 -9.48 2.49
1.13 -9.45 2.49
1.32 -9.42 2.49
1.51 -9.39 2.49
1.70 -9.36 2.49
1.88 -9.32 2.49
1.99 -8.89 2.39
2.16 -8.85 2.39
2.34 -8.80 2.39
2.51 -8.75 2.39
2.69 -8.69 2.39
2.86 -8.63 2.39
3.03 -8.57 2.39
3.20 -8.51 2.39
3.37 -8.44 2.39
3.54 -8.36 2.39
3.71 -8.29 2.39
3.87 -8.21 2.39
4.04 -8.13 2.39
4.20 -8.04 2.39
4.36 -7.96 2.39
4.51 -7.86 2.39
4.67 -7.77 2.39
4.82 -7.67 2.39
4.98 -7.57 2.39
5.13 -7.47 2.39
5.27 -7.36 2.39
5.42 -7.25 2.39
5.56 -7.14 2.39
5.71 -7.03 2.39
5.84 -6.91 2.39
6.02 -6.84 2.41
6.08 -6.62 2.38
6.20 -6.49 2.37
6.32 -6.36 2.37
6.44 -6.22 2.37
6.56 -6.09 2.37
6.67 -5.95 2.36
6.78 -5.81 2.36
6.89 -5.66 2.36
7.00 -5.52 2.36
7.10 -5.37 2.35
7.20 -5.22 2.35
7.29 -5.07 2.35
7.39 -4.92 2.35
7.48 -4.76 2.35
7.56 -4.61 2.34
7.65 -4.45 2.34
7.73 -4.29 2.34
7.80 -4.13 2.34
7.88 -3.97 2.33
7.95 -3.81 2.33
8.01 -3.64 2.33
8.08 -3.48 2.33
8.13 -3.31 2.32
8.19 -3.14 2.32
8.24 -2.97 2.32
8.29 -2.80 2.32
8.34 -2.63 2.31
8.38 -2.46 2.31
8.41 -2.29 2.31
8.45 -2.12 2.30
8.48 -1.95 2.30
8.74 -1.82 2.36
8.82 -1.65 2.37
8.85 -1.48 2.37
8.88 -1.30 2.37
8.90 -1.12 2.37
6.58 -0.69 1.75
6.58 -0.56 1.75
6.87 -0.45 1.82
8.88 -0.40 2.35
8.95 -0.22 2.37
8.96 -0.04 2.37
8.96 0.14 2.37
8.95 0.32 2.37
8.95 0.50 2.37
8.94 0.68 2.37
8.93 0.86 2.37
8.92 1.04 2.37
8.90 1.22 2.37
8.88 1.40 2.37
8.86 1.58 2.37
8.83 1.76 2.37
8.81 1.94 2.38
8.78 2.12 2.38
8.75 2.30 2.38
8.71 2.48 2.38
8.67 2.65 2.39
8.63 2.83 2.39
8.59 3.01 2.39
8.54 3.19 2.40
8.49 3.37 2.40
8.44 3.54 2.40
8.37 3.72 2.41
8.30 3.88 2.41
8.22 4.05 2.41
8.14 4.22 2.41
8.06 4.38 2.41
7.97 4.54 2.41
7.88 4.70 2.41
7.79 4.86 2.41
7.69 5.02 2.41
7.59 5.18 2.41
7.49 5.33 2.41
7.38 5.48 2.41
7.28 5.63 2.41
7.16 5.78 2.41
7.05 5.92 2.41
6.93 6.07 2.41
6.81 6.21 2.41
6.69 6.35 2.41
6.56 6.48 2.41
6.43 6.61 2.41
6.30 6.74 2.41
6.17 6.87 2.41
6.03 7.00 2.41
5.89 7.12 2.41
5.71 7.19 2.39
5.57 7.31 2.39
5.42 7.42 2.39
5.28 7.53 2.39
5.13 7.64 2.39
4.97 7.75 2.39
4.82 7.85 2.39
4.66 7.95 2.39
4.50 8.04 2.39
4.34 8.13 2.39
4.18 8.22 2.39
4.02 8.31 2.39
3.85 8.39 2.39
3.68 8.47 2.39
3.51 8.55 2.39
3.34 8.62 2.39
2.94 8.07 2.22
2.83 8.28 2.26
2.72 8.49 2.30
2.55 8.54 2.30
2.29 8.29 2.22
2.29 8.98 2.39
2.11 9.03 2.39
1.93 9.08 2.39
1.79 9.32 2.44
1.63 9.55 2.49
1.44 9.58 2.49
1.25 9.61 2.49
1.06 9.64 2.49
0.86 9.67 2.49
0.67 9.68 2.49
0.47 9.70 2.49
0.28 9.71 2.49
0.09 9.72 2.49
-0.11 9.72 2.49
-0.30 9.72 2.49
-0.50 9.72 2.49
-0.70 9.71 2.49
-0.89 9.70 2.49
-1.09 9.68 2.49
-1.28 9.66 2.49
-1.47 9.64 2.49
-1.67 9.61 2.49
-1.86 9.58 2.49
-2.05 9.54 2.49
-2.24 9.50 2.49
-2.44 9.46 2.49
-2.63 9.41 2.49
-2.81 9.36 2.49
-3.00 9.31 2.49
-3.19 9.25 2.49
-3.38 9.18 2.49
-3.56 9.12 2.49
-3.74 9.05 2.49
-3.93 8.97 2.49
-4.11 8.89 2.49
-4.28 8.81 2.49
-4.46 8.73 2.49
-4.64 8.64 2.49
-4.81 8.55 2.49
-4.98 8.45 2.49
-5.15 8.35 2.49
-5.32 8.25 2.49
-5.49 8.14 2.49
-5.65 8.03 2.49
-5.81 7.92 2.49
-5.97 7.80 2.49
-6.13 7.68 2.49
-6.24 7.51 2.48
-6.24 7.22 2.42
-6.31 7.00 2.39
-6.45 6.88 2.39
-6.59 6.75 2.39
-6.72 6.61 2.39
-6.85 6.48 2.39
-6.98 6.34 2.39
-7.11 6.20 2.39
-7.23 6.06 2.39
-7.35 5.91 2.39
-7.47 5.76 2.39
-7.59 5.61 2.39
-7.70 5.46 2.39
-7.81 5.31 2.39
-7.91 5.15 2.39
-8.01 4.99 2.39
-8.11 4.83 2.39
-8.21 4.66 2.39
-8.30 4.50 2.39
-8.39 4.33 2.39
-8.47 4.16 2.39
-8.56 3.99 2.39
-8.63 3.82 2.39
-8.71 3.65 2.39
-8.78 3.47 2.39
-8.85 3.29 2.39
-8.91 3.12 2.39
-8.97 2.94 2.39
-9.03 2.76 2.39
-9.08 2.57 2.39
-9.13 2.39 2.39
-9.17 2.21 2.39
-9.22 2.02 2.39
-9.25 1.84 2.39
-9.29 1.65 2.39
-9.32 1.47 2.39
-9.34 1.28 2.39
-9.37 1.09 2.39
-9.39 0.90 2.39
-9.40 0.71 2.39
-9.41 0.52 2.39
-9.42 0.34 2.39
-9.42 0.15 2.39
-9.42 -0.04 2.39
-9.42 -0.23 2.39
-9.41 -0.42 2.39
-9.40 -0.61 2.39
-9.38 -0.80 2.39
-9.36 -0.98 2.39
-9.34 -1.17 2.39
-9.31 -1.36 2.39
-9.28 -1.54 2.39
-9.24 -1.73 2.39
-9.20 -1.91 2.39
-9.16 -2.10 2.39
-9.11 -2.28 2.39
-9.06 -2.46 2.39
-9.01 -2.64 2.39
-8.95 -2.82 2.39
-8.89 -3.00 2.39
-8.83 -3.17 2.39
-8.76 -3.35 2.39
-8.69 -3.52 2.39
-8.61 -3.70 2.39
-8.53 -3.87 2.39
-8.45 -4.04 2.39
-8.36 -4.20 2.39
-8.28 -4.37 2.39
-8.18 -4.53 2.39
-8.09 -4.69 2.39
-7.99 -4.85 2.39
-7.89 -5.01 2.39
-7.78 -5.17 2.39
-6.63 -4.59 2.07
-7.56 -5.47 2.39
-7.45 -5.62 2.39
-7.33 -5.76 2.39
-7.21 -5.91 2.39
-7.09 -6.05 2.39
-6.96 -6.19 2.39
-6.83 -6.32 2.39
-6.70 -6.46 2.39
-6.57 -6.59 2.39
-6.43 -6.71 2.39
-6.31 -6.86 2.40
-6.15 -6.96 2.39
-6.10 -7.18 2.43
-6.09 -7.48 2.48
-5.96 -7.62 2.49
-5.81 -7.74 2.49
-5.65 -7.85 2.49
-5.49 -7.96 2.49
-5.32 -8.06 2.49
-5.16 -8.17 2.49
-4.99 -8.26 2.49
-4.82 -8.36 2.49
-4.65 -8.45 2.49
-4.48 -8.54 2.49
-4.30 -8.62 2.49
-4.13 -8.70 2.49
-3.95 -8.78 2.49
-3.77 -8.85 2.49
-3.59 -8.92 2.49
-3.41 -8.99 2.49
-3.23 -9.05 2.49
-3.05 -9.11 2.49
-2.86 -9.17 2.49
-2.67 -9.22 2.49
-2.49 -9.27 2.49
-2.30 -9.31 2.49
-2.11 -9.35 2.49
-1.92 -9.39 2.49
-1.73 -9.42 2.49
-1.54 -9.45 2.49
-1.35 -9.47 2.49
-1.16 -9.49 2.49
-0.97 -9.51 2.49
-0.78 -9.53 2.49
-0.59 -9.54 2.49
-0.40 -9.54 2.49
-0.20 -9.54 2.49
-0.01 -8.73 2.49
0.16 -8.73 2.49
0.34 -8.72 2.49
0.51 -8.71 2.49
0.69 -8.69 2.49
0.86 -8.67 2.49
1.04 -8.65 2.49
1.21 -8.63 2.49
1.38 -8.60 2.49
1.55 -8.57 2.49
1.72 -8.53 2.49
1.90 -8.49 2.49
1.98 -8.10 2.39
2.15 -8.09 2.40
2.30 -8.01 2.39
2.46 -7.96 2.39
2.62 -7.90 2.39
2.78 -7.85 2.39
2.93 -7.79 2.39
3.09 -7.73 2.39
3.24 -7.66 2.39
3.39 -7.59 2.39
3.55 -7.52 2.39
3.70 -7.44 2.39
3.84 -7.37 2.39
3.99 -7.29 2.39
4.13 -7.20 2.39
4.28 -7.12 2.39
4.42 -7.03 2.39
4.56 -6.94 2.39
4.70 -6.84 2.39
4.83 -6.74 2.39
4.96 -6.64 2.39
5.10 -6.54 2.39
5.23 -6.44 2.39
5.35 -6.33 2.39
5.48 -6.22 2.39
5.60 -6.11 2.39
5.72 -5.99 2.39
5.84 -5.88 2.39
5.93 -5.73 2.38
6.03 -5.60 2.38
6.14 -5.47 2.37
6.24 -5.34 2.37
6.34 -5.21 2.37
6.44 -5.08 2.37
6.53 -4.94 2.36
6.62 -4.80 2.36
6.71 -4.67 2.36
6.80 -4.53 2.36
6.88 -4.39 2.36
6.97 -4.24 2.36
7.04 -4.10 2.35
7.12 -3.95 2.35
7.19 -3.81 2.35
7.26 -3.66 2.35
7.33 -3.51 2.35
7.39 -3.36 2.35
7.46 -3.21 2.35
7.51 -3.06 2.34
7.57 -2.90 2.34
7.62 -2.75 2.34
7.67 -2.59 2.34
7.72 -2.44 2.34
7.76 -2.28 2.34
7.80 -2.12 2.33
7.84 -1.96 2.33
8.12 -1.86 2.41
8.16 -1.70 2.41
8.19 -1.54 2.41
8.22 -1.37 2.41
8.25 -1.21 2.41
8.27 -1.04 2.41
6.58 -0.69 1.91
6.58 -0.56 1.91
6.87 -0.45 1.99
8.33 -0.37 2.41
8.34 -0.20 2.41
8.34 -0.04 2.41
8.35 0.13 2.41
8.34 0.30 2.41
8.34 0.47 2.41
8.33 0.63 2.41
8.31 0.80 2.41
8.30 0.97 2.41
8.28 1.14 2.41
8.26 1.30 2.41
8.23 1.47 2.41
8.20 1.63 2.41
8.17 1.80 2.41
8.13 1.96 2.41
8.09 2.13 2.41
8.05 2.29 2.41
8.01 2.45 2.41
7.96 2.61 2.41
7.91 2.77 2.41
7.85 2.93 2.41
7.79 3.09 2.41
7.73 3.25 2.41
7.67 3.40 2.41
7.60 3.56 2.41
7.53 3.71 2.41
7.45 3.86 2.41
7.38 4.01 2.41
7.30 4.16 2.41
7.22 4.31 2.41
7.13 4.45 2.41
7.04 4.60 2.41
6.95 4.74 2.41
6.86 4.88 2.41
6.76 5.02 2.41
6.66 5.16 2.41
6.56 5.29 2.41
6.45 5.42 2.41
6.34 5.55 2.41
6.23 5.68 2.41
6.12 5.81 2.41
6.00 5.93 2.41
5.89 6.05 2.41
5.73 6.13 2.39
5.61 6.25 2.39
5.48 6.36 2.39
5.35 6.47 2.39
5.23 6.58 2.39
5.09 6.69 2.39
4.96 6.79 2.39
4.83 6.89 2.39
4.69 6.99 2.39
4.55 7.09 2.39
4.41 7.18 2.39
4.26 7.27 2.39
4.12 7.36 2.39
3.97 7.44 2.39
3.82 7.52 2.39
3.67 7.60 2.39
3.52 7.68 2.39
3.37 7.75 2.39
3.21 7.82 2.39
2.85 7.34 2.23
2.79 7.65 2.30
2.64 7.71 2.30
2.48 7.76 2.30
2.25 7.57 2.23
2.26 8.17 2.39
2.09 8.21 2.39
1.93 8.26 2.39
1.80 8.46 2.44
1.67 8.69 2.49
1.49 8.73 2.49
1.32 8.76 2.49
1.14 8.79 2.49
0.96 8.81 2.49
0.79 8.84 2.49
0.61 8.85 2.49
0.43 8.87 2.49
0.25 8.88 2.49
0.08 8.88 2.49
-0.10 8.89 2.49
-0.28 8.89 2.49
-0.46 8.88 2.49
-0.64 8.87 2.49
-0.81 8.86 2.49
-0.99 8.85 2.49
-1.17 8.83 2.49
-1.35 8.81 2.49
-1.52 8.78 2.49
-1.70 8.75 2.49
-1.88 8.72 2.49
-2.05 8.68 2.49
-2.23 8.64 2.49
-2.40 8.60 2.49
-2.57 8.55 2.49
-2.74 8.50 2.49
-2.92 8.45 2.49
-3.08 8.39 2.49
-3.25 8.33 2.49
-3.42 8.26 2.49
-3.59 8.20 2.49
-3.75 8.12 2.49
-3.91 8.05 2.49
-4.08 7.97 2.49
-4.24 7.89 2.49
-4.39 7.81 2.49
-4.55 7.72 2.49
-4.71 7.63 2.49
-4.86 7.53 2.49
-5.01 7.44 2.49
-5.16 7.33 2.49
-5.31 7.23 2.49
-5.45 7.12 2.49
-5.59 7.02 2.49
-5.73 6.90 2.49
-5.87 6.79 2.49
-6.01 6.67 2.49
-6.14 6.55 2.49
-6.23 6.38 2.48
-6.23 6.13 2.43
-6.26 5.92 2.39
-6.38 5.79 2.39
-6.49 5.66 2.39
-6.60 5.53 2.39
-6.71 5.40 2.39
-6.82 5.26 2.39
-6.93 5.13 2.39
-7.03 4.99 2.39
-7.13 4.84 2.39
-7.22 4.70 2.39
-7.32 4.56 2.39
-7.41 4.41 2.39
-7.49 4.26 2.39
-7.58 4.11 2.39
-7.66 3.96 2.39
-7.74 3.80 2.39
-7.81 3.65 2.39
-7.88 3.49 2.39
-7.95 3.33 2.39
-8.02 3.17 2.39
-8.08 3.01 2.39
-8.14 2.85 2.39
-8.19 2.68 2.39
-8.24 2.52 2.39
-8.29 2.35 2.39
-8.34 2.18 2.39
-8.38 2.02 2.39
-8.42 1.85 2.39
-8.45 1.68 2.39
-8.48 1.51 2.39
-8.51 1.34 2.39
-8.53 1.17 2.39
-8.55 1.00 2.39
-8.57 0.82 2.39
-8.58 0.65 2.39
-8.59 0.48 2.39
-8.60 0.31 2.39
-8.60 0.13 2.39
-8.60 -0.04 2.39
-8.60 -0.21 2.39
-8.59 -0.38 2.39
-8.58 -0.55 2.39
-8.57 -0.73 2.39
-8.55 -0.90 2.39
-8.53 -1.07 2.39
-8.50 -1.24 2.39
-8.47 -1.41 2.39
-8.44 -1.58 2.39
-8.41 -1.75 2.39
-8.37 -1.91 2.39
-8.32 -2.08 2.39
-8.28 -2.25 2.39
-8.23 -2.41 2.39
-8.18 -2.58 2.39
-8.12 -2.74 2.39
-8.06 -2.90 2.39
-8.00 -3.06 2.39
-7.94 -3.22 2.39
-7.87 -3.38 2.39
-7.80 -3.53 2.39
-7.72 -3.69 2.39
-7.64 -3.84 2.39
-7.56 -3.99 2.39
-7.48 -4.14 2.39
-7.39 -4.29 2.39
-7.30 -4.43 2.39
-7.21 -4.58 2.39
-7.11 -4.72 2.39
-6.63 -4.59 2.26
-6.91 -5.00 2.39
-6.81 -5.13 2.39
-6.70 -5.27 2.39
-6.59 -5.40 2.39
-6.48 -5.53 2.39
-6.36 -5.65 2.39
-6.25 -5.78 2.39
-6.13 -5.90 2.39
-6.11 -6.12 2.43
-6.10 -6.37 2.48
-6.00 -6.52 2.49
-5.87 -6.64 2.49
-5.73 -6.75 2.49
-5.59 -6.86 2.49
-5.45 -6.97 2.49
-5.31 -7.07 2.49
-5.16 -7.18 2.49
-5.02 -7.28 2.49
-4.87 -7.37 2.49
-4.72 -7.47 2.49
-4.57 -7.56 2.49
-4.41 -7.64 2.49
-4.25 -7.73 2.49
-4.10 -7.81 2.49
-3.94 -7.88 2.49
-3.78 -7.96 2.49
-3.62 -8.03 2.49
-3.45 -8.10 2.49
-3.29 -8.16 2.49
-3.12 -8.22 2.49
-2.95 -8.28 2.49
-2.79 -8.33 2.49
-2.62 -8.39 2.49
-2.45 -8.43 2.49
-2.28 -8.48 2.49
-2.11 -8.52 2.49
-1.93 -8.55 2.49
-1.76 -8.59 2.49
-1.59 -8.62 2.49
-1.41 -8.65 2.49
-1.24 -8.67 2.49
-1.06 -8.69 2.49
-0.89 -8.70 2.49
-0.71 -8.72 2.49
-0.54 -8.73 2.49
-0.36 -8.73 2.49
-0.19 -8.73 2.49
-0.01 -8.04 2.49
0.15 -8.04 2.49
0.31 -8.03 2.49
0.47 -8.02 2.49
0.63 -8.01 2.49
0.79 -7.99 2.49
0.95 -7.97 2.49
1.11 -7.95 2.49
1.27 -7.92 2.49
1.43 -7.89 2.49
1.59 -7.86 2.49
1.74 -7.82 2.49
1.90 -7.78 2.49
1.97 -7.42 2.39
2.12 -7.38 2.39
2.27 -7.33 2.39
2.41 -7.28 2.39
2.56 -7.23 2.39
2.70 -7.18 2.39
2.85 -7.12 2.39
2.99 -7.06 2.39
3.13 -6.99 2.39
3.27 -6.93 2.39
3.40 -6.86 2.39
3.54 -6.79 2.39
3.68 -6.71 2.39
3.81 -6.64 2.39
3.94 -6.56 2.39
4.07 -6.48 2.39
4.20 -6.39 2.39
4.33 -6.30 2.39
4.45 -6.22 2.39
4.57 -6.12 2.39
4.70 -6.03 2.39
4.81 -5.93 2.39
4.93 -5.83 2.39
5.05 -5.73 2.39
5.16 -5.63 2.39
5.27 -5.52 2.39
5.38 -5.42 2.39
5.49 -5.31 2.39
5.59 -5.19 2.39
5.70 -5.08 2.39
5.80 -4.96 2.39
5.87 -4.82 2.38
5.96 -4.70 2.38
6.04 -4.57 2.38
6.13 -4.45 2.37
6.21 -4.32 2.37
6.29 -4.19 2.37
6.37 -4.06 2.37
6.45 -3.93 2.37
6.52 -3.79 2.36
6.59 -3.66 2.36
6.66 -3.52 2.36
6.72 -3.39 2.36
6.79 -3.25 2.36
6.85 -3.11 2.36
6.90 -2.97 2.36
6.96 -2.83 2.36
7.01 -2.69 2.35
7.06 -2.55 2.35
7.11 -2.40 2.35
7.15 -2.26 2.35
7.19 -2.11 2.35
7.25 -1.97 2.36
7.45 -1.87 2.41
7.49 -1.72 2.41
7.52 -1.57 2.41
7.55 -1.41 2.41
7.58 -1.26 2.41
7.60 -1.11 2.41
7.62 -0.96 2.41
6.58 -0.69 2.07
6.58 -0.56 2.07
6.87 -0.44 2.16
7.68 -0.34 2.41
7.69 -0.19 2.41
7.69 -0.03 2.41
7.69 0.12 2.41
7.69 0.28 2.41
7.68 0.43 2.41
7.67 0.59 2.41
7.66 0.74 2.41
7.65 0.89 2.41
7.63 1.05 2.41
7.61 1.20 2.41
7.58 1.35 2.41
7.56 1.51 2.41
7.53 1.66 2.41
7.49 1.81 2.41
7.46 1.96 2.41
7.42 2.11 2.41
7.38 2.26 2.41
7.33 2.41 2.41
7.28 2.55 2.41
7.23 2.70 2.41
7.18 2.85 2.41
7.12 2.99 2.41
7.06 3.13 2.41
7.00 3.28 2.41
6.93 3.42 2.41
6.87 3.56 2.41
6.80 3.70 2.41
6.72 3.83 2.41
6.65 3.97 2.41
6.57 4.10 2.41
6.48 4.24 2.41
6.40 4.37 2.41
6.31 4.50 2.41
6.22 4.62 2.41
6.13 4.75 2.41
6.04 4.87 2.41
5.94 4.99 2.41
5.80 5.08 2.39
5.70 5.20 2.39
5.60 5.31 2.39
5.49 5.43 2.39
5.38 5.54 2.39
5.27 5.65 2.39
5.16 5.75 2.39
5.05 5.86 2.39
4.93 5.96 2.39
4.81 6.06 2.39
4.69 6.16 2.39
4.57 6.25 2.39
4.44 6.35 2.39
4.31 6.44 2.39
4.19 6.52 2.39
4.06 6.61 2.39
3.92 6.69 2.39
3.79 6.77 2.39
3.65 6.85 2.39
3.52 6.92 2.39
3.38 7.00 2.39
3.24 7.07 2.39
2.88 6.62 2.22
2.84 6.91 2.30
2.71 6.98 2.30
2.57 7.04 2.30
2.34 6.84 2.22
2.26 7.06 2.28
2.22 7.47 2.39
2.07 7.52 2.39
1.92 7.56 2.39
1.81 7.74 2.43
1.69 7.96 2.49
1.53 8.00 2.49
1.37 8.03 2.49
1.21 8.06 2.49
1.05 8.09 2.49
0.89 8.11 2.49
0.72 8.13 2.49
0.56 8.14 2.49
0.40 8.16 2.49
0.23 8.17 2.49
0.07 8.17 2.49
-0.09 8.17 2.49
-0.26 8.17 2.49
-0.42 8.17 2.49
-0.59 8.16 2.49
-0.75 8.15 2.49
-0.91 8.14 2.49
-1.08 8.12 2.49
-1.24 8.10 2.49
-1.40 8.08 2.49
-1.56 8.05 2.49
-1.73 8.02 2.49
-1.89 7.98 2.49
-2.05 7.95 2.49
-2.21 7.91 2.49
-2.37 7.86 2.49
-2.52 7.82 2.49
-2.68 7.77 2.49
-2.84 7.71 2.49
-2.99 7.66 2.49
-3.15 7.60 2.49
-3.30 7.53 2.49
-3.45 7.47 2.49
-3.60 7.40 2.49
-3.75 7.33 2.49
-3.90 7.25 2.49
-4.04 7.18 2.49
-4.18 7.09 2.49
-4.33 7.01 2.49
-4.47 6.92 2.49
-4.61 6.83 2.49
-4.74 6.74 2.49
-4.88 6.65 2.49
-5.01 6.55 2.49
-5.14 6.45 2.49
-5.27 6.35 2.49
-5.40 6.24 2.49
-5.52 6.13 2.49
-5.65 6.02 2.49
-5.77 5.91 2.49
-5.88 5.79 2.49
-6.00 5.67 2.49
-6.11 5.55 2.49
-6.22 5.42 2.49
-6.22 5.21 2.45
-6.22 5.00 2.41
-6.27 4.84 2.39
-6.37 4.71 2.39
-6.46 4.58 2.39
-6.55 4.45 2.39
-6.64 4.32 2.39
-6.72 4.19 2.39
-6.81 4.05 2.39
-6.89 3.91 2.39
-6.97 3.78 2.39
-7.04 3.64 2.39
-7.11 3.49 2.39
-7.18 3.35 2.39
-7.25 3.21 2.39
-7.31 3.06 2.39
-7.37 2.91 2.39
-7.42 2.76 2.39
-7.48 2.62 2.39
-7.53 2.46 2.39
-7.58 2.31 2.39
-7.62 2.16 2.39
-7.66 2.01 2.39
-7.70 1.85 2.39
-7.73 1.70 2.39
-7.77 1.54 2.39
-7.80 1.39 2.39
-7.82 1.23 2.39
-7.84 1.07 2.39
-7.86 0.92 2.39
-7.88 0.76 2.39
-7.89 0.60 2.39
-7.90 0.44 2.39
-7.91 0.28 2.39
-7.91 0.12 2.39
-7.91 -0.03 2.39
-7.90 -0.19 2.39
-7.90 -0.35 2.39
-7.89 -0.51 2.39
-7.87 -0.67 2.39
-7.86 -0.82 2.39
-7.84 -0.98 2.39
-7.82 -1.14 2.39
-7.79 -1.29 2.39
-7.76 -1.45 2.39
-7.73 -1.60 2.39
-7.69 -1.76 2.39
-7.65 -1.91 2.39
-7.61 -2.07 2.39
-7.57 -2.22 2.39
-7.52 -2.37 2.39
-7.47 -2.52 2.39
-7.41 -2.67 2.39
-7.36 -2.81 2.39
-7.30 -2.96 2.39
-7.23 -3.10 2.39
-7.17 -3.25 2.39
-7.10 -3.39 2.39
-7.03 -3.53 2.39
-6.95 -3.67 2.39
-6.88 -3.81 2.39
-6.80 -3.94 2.39
-6.71 -4.08 2.39
-6.63 -4.21 2.39
-6.54 -4.34 2.39
-6.45 -4.47 2.39
-6.36 -4.60 2.39
-6.26 -4.72 2.39
-6.16 -4.84 2.39
-6.12 -5.01 2.41
-6.11 -5.21 2.45
-6.11 -5.42 2.49
-6.00 -5.54 2.49
-5.88 -5.66 2.49
-5.76 -5.78 2.49
-5.65 -5.89 2.49
-5.52 -6.00 2.49
-5.40 -6.11 2.49
-5.28 -6.21 2.49
-5.15 -6.31 2.49
-5.02 -6.41 2.49
-4.89 -6.51 2.49
-4.75 -6.60 2.49
-4.62 -6.70 2.49
-4.48 -6.78 2.49
-4.34 -6.87 2.49
-4.20 -6.95 2.49
-4.06 -7.03 2.49
-3.92 -7.11 2.49
-3.77 -7.18 2.49
-3.63 -7.26 2.49
-3.48 -7.32 2.49
-3.33 -7.39 2.49
-3.18 -7.45 2.49
-3.03 -7.51 2.49
-2.87 -7.57 2.49
-2.72 -7.62 2.49
-2.57 -7.67 2.49
-2.41 -7.72 2.49
-2.25 -7.76 2.49
-2.10 -7.80 2.49
-1.94 -7.84 2.49
-1.78 -7.88 2.49
-1.62 -7.91 2.49
-1.46 -7.93 2.49
-1.30 -7.96 2.49
-1.14 -7.98 2.49
-0.98 -8.00 2.49
-0.82 -8.01 2.49
-0.66 -8.03 2.49
-0.50 -8.04 2.49
-0.34 -8.04 2.49
-0.17 -8.04 2.49
-0.01 -7.45 2.49
0.14 -7.44 2.49
0.29 -7.44 2.49
0.44 -7.43 2.49
0.58 -7.41 2.49
0.73 -7.40 2.49
0.88 -7.38 2.49
1.03 -7.36 2.49
1.18 -7.33 2.49
1.32 -7.31 2.49
1.47 -7.28 2.49
1.62 -7.24 2.49
1.76 -7.21 2.49
1.90 -7.17 2.49
1.96 -6.83 2.39
2.10 -6.79 2.39
2.23 -6.74 2.39
2.37 -6.70 2.39
2.50 -6.65 2.39
2.63 -6.59 2.39
2.77 -6.54 2.39
2.90 -6.48 2.39
3.02 -6.42 2.39
3.15 -6.35 2.39
3.28 -6.29 2.39
3.40 -6.22 2.39
3.53 -6.15 2.39
3.65 -6.07 2.39
3.77 -6.00 2.39
3.89 -5.92 2.39
4.01 -5.84 2.39
4.12 -5.76 2.39
4.24 -5.67 2.39
4.35 -5.58 2.39
4.46 -5.50 2.39
4.57 -5.40 2.39
4.68 -5.31 2.39
4.78 -5.21 2.39
4.88 -5.12 2.39
4.99 -5.02 2.39
5.08 -4.91 2.39
5.18 -4.81 2.39
5.28 -4.71 2.39
5.37 -4.60 2.39
5.46 -4.49 2.39
5.55 -4.38 2.39
5.64 -4.26 2.39
5.72 -4.15 2.39
5.80 -4.03 2.39
5.86 -3.90 2.38
5.93 -3.78 2.38
6.00 -3.65 2.38
6.07 -3.53 2.37
6.13 -3.41 2.37
6.19 -3.28 2.37
6.25 -3.15 2.37
6.31 -3.02 2.37
6.37 -2.89 2.37
6.42 -2.76 2.37
6.47 -2.63 2.36
6.52 -2.50 2.36
6.57 -2.37 2.36
6.61 -2.24 2.36
6.65 -2.10 2.36
6.82 -2.01 2.41
6.86 -1.87 2.41
6.90 -1.73 2.41
6.93 -1.59 2.41
6.97 -1.45 2.41
6.99 -1.31 2.41
7.02 -1.17 2.41
7.04 -1.03 2.41
7.06 -0.89 2.41
6.58 -0.69 2.24
6.58 -0.56 2.23
6.88 -0.44 2.33
7.11 -0.32 2.41
7.12 -0.17 2.41
7.12 -0.03 2.41
7.12 0.11 2.41
7.12 0.26 2.41
7.12 0.40 2.41
7.11 0.54 2.41
7.10 0.69 2.41
7.08 0.83 2.41
7.07 0.97 2.41
7.05 1.11 2.41
7.02 1.25 2.41
7.00 1.40 2.41
6.97 1.54 2.41
6.94 1.68 2.41
6.91 1.82 2.41
6.87 1.95 2.41
6.83 2.09 2.41
6.79 2.23 2.41
6.74 2.37 2.41
6.70 2.50 2.41
6.65 2.64 2.41
6.59 2.77 2.41
