ply
format ascii 1.0
element vertex 2906
property float32 x
property float32 y
property float32 z
end_header
-9.62 -33.34 2.39
-8.95 -33.53 2.39
-8.28 -33.71 2.39
-7.60 -33.87 2.39
-6.92 -34.02 2.39
-6.24 -34.15 2.39
-5.79 -35.75 2.49
-5.07 -35.86 2.49
-4.35 -35.95 2.49
-3.63 -36.03 2.49
-2.91 -36.09 2.49
-2.18 -36.14 2.49
-1.45 -36.17 2.49
-0.66 -32.67 2.25
-0.00 -27.23 2.49
0.54 -27.22 2.49
1.09 -27.20 2.49
1.64 -27.17 2.49
2.09 -26.00 2.39
2.48 -24.63 2.27
3.02 -24.98 2.31
3.65 -25.81 2.39
4.16 -25.72 2.39
4.68 -25.63 2.39
5.19 -25.52 2.39
5.70 -25.40 2.39
6.25 -25.44 2.41
6.75 -25.30 2.41
7.26 -25.15 2.41
7.76 -24.99 2.41
8.25 -24.82 2.41
8.69 -24.48 2.39
9.02 -23.87 2.35
9.33 -23.28 2.31
9.63 -22.69 2.27
9.98 -22.26 2.25
10.35 -21.90 2.24
7.68 -15.44 1.59
8.05 -15.41 1.61
8.47 -15.44 1.63
8.85 -15.41 1.64
9.29 -15.44 1.67
9.72 -15.44 1.69
10.13 -15.40 1.71
10.60 -15.43 1.74
11.04 -15.40 1.76
11.54 -15.43 1.79
12.00 -15.40 1.81
12.53 -15.43 1.85
13.03 -15.39 1.88
11.03 -12.52 1.55
11.03 -12.02 1.52
11.12 -11.64 1.50
11.12 -11.18 1.47
11.12 -10.74 1.44
11.11 -10.31 1.42
11.02 -9.83 1.38
11.02 -9.44 1.36
11.02 -9.06 1.34
10.96 -8.64 1.31
10.93 -8.27 1.29
10.91 -7.92 1.27
9.55 -6.64 1.09
10.92 -7.27 1.23
10.97 -6.99 1.23
11.01 -6.71 1.22
11.01 -6.41 1.20
11.01 -6.12 1.19
11.01 -5.83 1.18
11.01 -5.55 1.17
11.01 -5.28 1.16
11.01 -5.01 1.15
11.01 -4.74 1.14
11.01 -4.48 1.13
11.01 -4.23 1.12
11.01 -3.98 1.11
11.01 -3.73 1.11
11.01 -3.48 1.10
11.00 -3.24 1.09
11.00 -3.00 1.09
11.91 -2.99 1.17
12.99 -2.99 1.28
14.28 -2.99 1.40
15.84 -2.98 1.55
12.47 -2.09 1.21
12.46 -1.83 1.21
12.46 -1.58 1.21
12.46 -1.32 1.21
12.46 -1.07 1.20
12.46 -0.82 1.20
12.46 -0.57 1.20
12.46 -0.32 1.20
12.47 -0.07 1.21
12.48 0.18 1.21
12.50 0.43 1.21
12.50 0.69 1.21
12.56 0.94 1.22
21.38 2.04 2.09
21.42 2.47 2.10
20.96 2.85 2.06
18.16 2.84 1.79
16.00 2.83 1.58
14.30 2.83 1.42
12.92 2.83 1.29
11.90 2.86 1.20
10.92 2.85 1.10
9.86 2.79 1.00
9.52 2.90 0.98
9.45 3.09 0.98
14.60 5.10 1.52
13.70 5.09 1.44
12.90 5.09 1.36
12.17 5.09 1.30
11.50 5.08 1.24
10.90 5.08 1.19
10.36 5.08 1.14
10.04 5.18 1.11
10.07 5.45 1.13
10.01 5.69 1.14
10.01 5.95 1.15
10.01 6.23 1.17
10.01 6.51 1.18
10.01 6.80 1.20
10.00 7.10 1.22
10.00 7.40 1.23
10.00 7.72 1.25
10.00 8.04 1.27
10.00 8.38 1.30
10.00 8.72 1.32
10.00 9.08 1.34
10.00 9.46 1.37
10.00 9.84 1.40
10.00 10.24 1.43
9.99 10.66 1.46
9.99 11.10 1.49
9.99 11.56 1.52
9.99 12.04 1.56
9.99 12.54 1.60
9.99 13.07 1.64
9.99 13.62 1.69
9.98 14.21 1.74
9.98 14.83 1.79
9.98 15.50 1.85
10.05 16.30 1.92
11.67 19.83 2.30
11.40 20.29 2.33
11.28 21.05 2.39
10.87 21.30 2.40
10.45 21.53 2.40
10.04 21.80 2.41
9.60 21.99 2.41
9.15 22.17 2.41
8.71 22.35 2.41
8.25 22.52 2.41
7.80 22.67 2.41
7.34 22.82 2.41
6.88 22.96 2.41
6.42 23.09 2.41
5.91 23.06 2.39
5.45 23.17 2.39
4.98 23.28 2.39
4.51 23.37 2.39
4.04 23.46 2.39
3.57 23.53 2.39
2.90 22.11 2.24
2.43 21.96 2.22
2.15 23.71 2.39
1.74 24.78 2.49
1.25 24.81 2.50
0.75 24.84 2.50
0.25 24.85 2.50
-0.25 24.86 2.50
-0.75 24.86 2.50
-1.25 24.84 2.50
-1.75 24.82 2.50
-2.25 24.79 2.50
-2.75 24.74 2.50
-3.24 24.68 2.50
-3.74 24.61 2.50
-4.23 24.54 2.50
-4.72 24.45 2.50
-5.22 24.36 2.49
-5.70 24.25 2.49
-6.18 24.08 2.49
-6.40 23.03 2.39
-6.87 22.90 2.39
-7.33 22.77 2.39
-7.79 22.63 2.39
-8.24 22.48 2.39
-8.70 22.32 2.39
-9.15 22.15 2.39
-9.59 21.97 2.39
-10.04 21.78 2.39
-10.70 22.04 2.44
-9.91 19.41 2.17
-9.96 18.58 2.10
-9.96 17.72 2.02
-9.96 16.91 1.95
-9.96 16.15 1.89
-9.95 15.45 1.83
-9.95 14.78 1.77
-9.94 14.14 1.71
-9.95 13.57 1.67
-9.95 13.01 1.62
-9.94 12.48 1.58
-9.94 11.98 1.54
-9.94 11.50 1.50
-9.94 11.04 1.47
-9.94 10.60 1.43
-9.90 10.15 1.40
-9.94 9.78 1.37
-9.94 9.39 1.35
-9.93 9.02 1.32
-9.93 8.66 1.30
-9.93 8.32 1.27
-9.93 7.98 1.25
-9.93 7.66 1.23
-9.93 7.35 1.21
-9.93 7.04 1.19
-9.93 6.75 1.17
-9.93 6.46 1.16
-9.89 6.15 1.14
-9.92 5.90 1.13
-9.92 5.64 1.11
-9.92 5.38 1.10
-9.92 5.12 1.09
-9.92 4.87 1.08
-9.92 4.62 1.06
-9.92 4.38 1.05
-9.92 4.15 1.04
-9.92 3.92 1.03
-9.92 3.69 1.03
-9.92 3.46 1.02
-9.92 3.24 1.01
-9.92 3.02 1.00
-9.92 2.80 0.99
-9.91 2.59 0.99
-9.91 2.38 0.98
-9.87 2.16 0.97
-9.91 1.96 0.97
-9.91 1.75 0.97
-9.91 1.55 0.96
-9.91 1.35 0.96
-9.91 1.14 0.96
-9.91 0.94 0.95
-9.91 0.74 0.95
-9.91 0.54 0.95
-9.91 0.34 0.95
-9.91 0.15 0.94
-9.91 -0.05 0.94
-9.91 -0.25 0.94
-9.91 -0.45 0.94
-9.91 -0.65 0.94
-9.90 -0.85 0.94
-9.90 -1.05 0.94
-9.90 -1.25 0.95
-6.65 -0.98 0.64
-9.90 -1.66 0.95
-9.89 -1.86 0.95
-9.90 -2.07 0.95
-9.90 -2.28 0.96
-9.90 -2.49 0.96
-9.90 -2.70 0.97
-9.90 -2.92 0.97
-9.90 -3.13 0.98
-9.90 -3.35 0.98
-9.90 -3.57 0.99
-9.90 -3.80 0.99
-9.90 -4.03 1.00
-9.89 -4.26 1.01
-9.89 -4.50 1.02
-9.89 -4.74 1.03
-9.89 -4.99 1.03
-9.89 -5.24 1.04
-9.89 -5.50 1.06
-9.83 -5.72 1.06
-9.89 -6.03 1.08
-9.89 -6.30 1.09
-9.89 -6.58 1.10
-9.89 -6.87 1.12
-9.89 -7.17 1.13
-9.89 -7.48 1.15
-9.88 -7.79 1.17
-9.88 -8.12 1.19
-9.88 -8.46 1.20
-9.88 -8.81 1.22
-9.88 -9.17 1.25
-9.88 -9.54 1.27
-9.88 -9.93 1.29
-9.88 -10.34 1.32
-9.88 -10.76 1.35
-9.87 -11.20 1.38
-9.87 -11.66 1.41
-9.87 -12.15 1.44
-9.87 -12.66 1.48
-9.87 -13.19 1.52
-9.82 -13.70 1.55
-9.86 -14.36 1.60
-9.86 -14.99 1.65
-9.86 -15.66 1.70
-9.86 -16.38 1.76
-9.86 -17.14 1.82
-9.85 -17.96 1.88
-9.85 -18.85 1.95
-9.85 -19.80 2.03
-9.85 -20.83 2.11
-9.78 -21.82 2.19
-9.71 -24.22 2.39
-9.22 -24.41 2.39
-8.73 -24.60 2.39
-8.24 -24.77 2.39
-7.74 -24.94 2.39
-7.24 -25.09 2.39
-6.74 -25.23 2.39
-6.25 -25.45 2.40
-5.97 -26.59 2.49
-5.43 -26.70 2.49
-4.90 -26.81 2.49
-4.36 -26.90 2.49
-3.82 -26.98 2.49
-3.27 -27.05 2.49
-2.73 -27.11 2.49
-2.19 -27.16 2.49
-1.64 -27.19 2.49
-1.09 -27.22 2.49
-0.55 -27.23 2.49
-0.00 -21.81 2.49
0.44 -21.81 2.49
0.87 -21.79 2.49
1.31 -21.76 2.49
1.75 -21.73 2.49
2.09 -20.79 2.39
2.51 -20.74 2.39
2.92 -20.68 2.39
3.34 -20.61 2.39
3.75 -20.54 2.39
4.16 -20.45 2.39
4.57 -20.36 2.39
4.97 -20.26 2.39
5.38 -20.15 2.39
5.78 -20.03 2.39
6.15 -19.81 2.38
6.54 -19.66 2.38
6.93 -19.54 2.38
7.31 -19.36 2.38
7.67 -19.13 2.37
8.00 -18.85 2.36
8.31 -18.54 2.34
8.59 -18.19 2.32
7.68 -15.44 1.99
8.05 -15.41 2.00
8.47 -15.44 2.03
8.85 -15.41 2.05
9.29 -15.44 2.08
9.72 -15.44 2.11
10.13 -15.40 2.13
10.60 -15.43 2.16
11.04 -15.40 2.19
11.48 -15.35 2.22
11.81 -15.15 2.22
12.14 -14.94 2.23
12.46 -14.73 2.24
11.03 -12.52 1.93
11.03 -12.02 1.89
11.12 -11.64 1.87
11.12 -11.18 1.83
11.12 -10.74 1.80
11.11 -10.32 1.76
11.02 -9.83 1.72
11.02 -9.44 1.69
11.02 -9.06 1.66
10.96 -8.64 1.63
10.93 -8.27 1.60
10.91 -7.92 1.57
9.55 -6.64 1.36
10.92 -7.27 1.53
10.97 -6.99 1.52
11.01 -6.72 1.51
11.01 -6.42 1.49
11.01 -6.12 1.48
11.01 -5.84 1.46
11.01 -5.55 1.45
11.10 -5.32 1.45
11.10 -5.05 1.43
11.10 -4.78 1.42
11.10 -4.52 1.41
11.10 -4.26 1.40
11.10 -4.01 1.39
11.01 -3.73 1.37
11.01 -3.48 1.36
11.00 -3.24 1.36
11.00 -3.00 1.35
11.90 -2.99 1.45
12.99 -2.99 1.58
14.28 -2.99 1.73
15.83 -2.98 1.91
12.42 -2.08 1.50
12.45 -1.83 1.50
12.42 -1.57 1.49
12.42 -1.32 1.49
12.42 -1.07 1.49
12.42 -0.82 1.48
12.42 -0.57 1.48
12.42 -0.32 1.48
12.42 -0.07 1.48
12.42 0.18 1.49
12.42 0.43 1.49
12.44 0.68 1.49
12.42 0.93 1.49
12.65 1.20 1.52
17.05 1.97 2.06
18.41 2.50 2.23
18.17 2.84 2.21
16.01 2.83 1.96
14.30 2.83 1.75
12.92 2.83 1.59
11.91 2.86 1.48
10.92 2.85 1.36
9.97 2.82 1.25
9.24 2.81 1.17
8.71 2.85 1.11
7.98 2.78 1.02
7.55 2.81 0.98
7.49 2.96 0.98
7.43 3.10 0.98
11.50 5.08 1.52
10.91 5.08 1.46
10.36 5.08 1.40
10.01 5.16 1.37
10.01 5.42 1.38
10.01 5.68 1.40
10.01 5.95 1.42
10.01 6.23 1.43
10.01 6.51 1.45
10.01 6.80 1.47
10.00 7.10 1.50
10.00 7.40 1.52
10.00 7.72 1.54
10.00 8.04 1.57
10.00 8.38 1.59
10.00 8.72 1.62
10.00 9.08 1.65
10.00 9.45 1.68
10.00 9.84 1.72
10.00 10.24 1.75
9.99 10.66 1.79
9.99 11.10 1.83
9.99 11.56 1.87
9.99 12.03 1.92
9.99 12.54 1.97
9.99 13.07 2.02
9.99 13.62 2.07
9.98 14.21 2.13
9.98 14.83 2.20
9.98 15.50 2.27
9.98 16.20 2.34
9.86 16.74 2.39
9.53 16.95 2.39
9.20 17.16 2.40
8.87 17.38 2.40
8.53 17.59 2.41
8.18 17.76 2.41
7.82 17.92 2.41
7.46 18.07 2.41
7.09 18.21 2.41
6.73 18.35 2.41
6.36 18.48 2.41
5.98 18.60 2.41
5.57 18.59 2.39
5.20 18.70 2.39
4.82 18.79 2.39
4.44 18.89 2.39
4.06 18.97 2.39
3.68 19.05 2.39
3.29 19.12 2.39
2.70 17.80 2.22
2.34 17.85 2.22
2.14 19.28 2.39
1.82 20.16 2.49
1.42 20.19 2.49
1.01 20.22 2.49
0.61 20.23 2.49
0.20 20.24 2.49
-0.21 20.25 2.49
-0.61 20.24 2.49
-1.02 20.23 2.49
-1.42 20.21 2.49
-1.83 20.18 2.49
-2.24 20.14 2.49
-2.64 20.09 2.49
-3.04 20.04 2.49
-3.45 19.98 2.49
-3.85 19.91 2.49
-4.25 19.84 2.49
-4.65 19.75 2.49
-5.04 19.66 2.49
-5.44 19.56 2.49
-5.83 19.45 2.49
-6.16 19.14 2.47
-6.34 18.42 2.39
-6.71 18.30 2.39
-7.08 18.17 2.39
-7.45 18.03 2.39
-7.81 17.88 2.39
-8.17 17.73 2.39
-8.53 17.57 2.39
-8.88 17.40 2.39
-9.24 17.23 2.39
-9.58 17.05 2.39
-9.93 16.86 2.39
-11.73 19.02 2.73
-12.12 18.81 2.73
-9.89 14.70 2.16
-9.94 14.14 2.11
-9.95 13.57 2.05
-9.95 13.01 2.00
-9.94 12.48 1.94
-9.94 11.97 1.89
-9.94 11.50 1.85
-9.94 11.04 1.81
-9.94 10.60 1.77
-9.91 10.15 1.72
-9.94 9.78 1.69
-9.94 9.39 1.66
-9.93 9.02 1.63
-9.93 8.66 1.60
-9.93 8.32 1.57
-9.93 7.98 1.54
-9.93 7.66 1.52
-9.93 7.34 1.49
-9.93 7.04 1.47
-9.93 6.74 1.45
-9.93 6.46 1.43
-9.89 6.15 1.40
-9.92 5.90 1.39
-9.92 5.63 1.37
-9.92 5.37 1.36
-9.92 5.12 1.34
-9.92 4.87 1.33
-9.92 4.62 1.31
-9.92 4.38 1.30
-9.92 4.15 1.29
-9.92 3.91 1.28
-9.92 3.69 1.27
-9.92 3.46 1.26
-9.92 3.24 1.25
-9.92 3.02 1.24
-9.92 2.80 1.23
-9.91 2.59 1.22
-9.91 2.38 1.21
-9.87 2.16 1.20
-9.91 1.96 1.20
-9.91 1.75 1.20
-9.91 1.55 1.19
-9.91 1.35 1.19
-9.91 1.14 1.18
-9.91 0.94 1.18
-9.91 0.74 1.18
-9.91 0.54 1.17
-9.91 0.34 1.17
-9.91 0.14 1.17
-9.91 -0.05 1.17
-9.91 -0.25 1.17
-9.91 -0.45 1.17
-9.91 -0.65 1.17
-9.90 -0.85 1.17
-9.90 -1.05 1.17
-9.90 -1.25 1.17
-6.65 -0.98 0.79
-9.90 -1.66 1.18
-9.89 -1.86 1.18
-9.90 -2.07 1.19
-9.90 -2.28 1.19
-9.90 -2.49 1.19
-9.90 -2.70 1.20
-9.90 -2.92 1.21
-9.90 -3.13 1.21
-9.90 -3.35 1.22
-9.90 -3.58 1.23
-9.90 -3.80 1.24
-9.90 -4.03 1.24
-9.89 -4.26 1.25
-9.89 -4.50 1.26
-9.89 -4.74 1.28
-9.89 -4.99 1.29
-9.89 -5.24 1.30
-9.89 -5.50 1.31
-9.83 -5.72 1.32
-9.89 -6.03 1.34
-9.89 -6.30 1.36
-9.89 -6.59 1.37
-9.89 -6.88 1.39
-9.89 -7.17 1.41
-9.89 -7.48 1.43
-9.88 -7.80 1.45
-9.88 -8.12 1.48
-9.88 -8.46 1.50
-9.88 -8.81 1.53
-9.88 -9.17 1.55
-9.88 -9.54 1.58
-9.88 -9.93 1.61
-9.88 -10.34 1.65
-9.88 -10.76 1.68
-9.87 -11.20 1.72
-9.87 -11.67 1.76
-9.87 -12.15 1.80
-9.87 -12.66 1.84
-9.87 -13.20 1.89
-9.82 -13.70 1.93
-9.86 -14.36 2.00
-9.86 -14.99 2.06
-8.74 -13.89 1.88
-9.80 -16.28 2.18
-8.82 -15.35 2.03
-8.49 -15.48 2.02
-8.66 -16.57 2.14
-9.30 -18.70 2.39
-8.93 -18.89 2.39
-8.55 -19.06 2.39
-8.16 -19.24 2.39
-7.78 -19.40 2.39
-7.39 -19.56 2.39
-7.00 -19.70 2.39
-6.60 -19.84 2.39
-6.20 -19.97 2.39
-6.05 -20.96 2.49
-5.63 -21.08 2.49
-5.20 -21.19 2.49
-4.78 -21.29 2.49
-4.35 -21.39 2.49
-3.92 -21.47 2.49
-3.49 -21.54 2.49
-3.06 -21.61 2.49
-2.62 -21.67 2.49
-2.19 -21.71 2.49
-1.75 -21.75 2.49
-1.31 -21.78 2.49
-0.88 -21.80 2.49
-0.44 -21.81 2.49
-0.00 -18.18 2.49
0.36 -18.17 2.49
0.73 -18.16 2.49
1.09 -18.14 2.49
1.45 -18.11 2.49
1.82 -18.07 2.49
2.09 -17.28 2.39
2.43 -17.24 2.39
2.78 -17.18 2.39
3.12 -17.12 2.39
3.47 -17.05 2.39
3.81 -16.97 2.39
4.14 -16.89 2.39
4.48 -16.80 2.39
4.82 -16.70 2.39
5.15 -16.59 2.39
5.48 -16.48 2.39
5.81 -16.36 2.39
6.17 -16.35 2.41
6.50 -16.21 2.41
6.82 -16.07 2.41
7.14 -15.93 2.41
7.45 -15.78 2.41
7.68 -15.44 2.38
8.05 -15.41 2.40
8.38 -15.28 2.41
8.65 -15.05 2.40
8.88 -14.76 2.38
9.10 -14.46 2.36
9.31 -14.15 2.34
9.51 -13.85 2.33
9.71 -13.54 2.31
9.89 -13.24 2.29
10.08 -12.93 2.27
10.25 -12.63 2.26
10.43 -12.33 2.24
10.59 -12.02 2.22
10.84 -11.81 2.23
11.03 -11.55 2.22
11.03 -11.09 2.17
11.03 -10.66 2.13
11.03 -10.24 2.09
11.02 -9.83 2.06
11.02 -9.44 2.02
11.02 -9.06 1.99
10.96 -8.64 1.95
10.93 -8.27 1.91
10.91 -7.92 1.88
9.55 -6.64 1.63
10.91 -7.27 1.83
10.97 -6.99 1.82
11.01 -6.72 1.81
11.01 -6.42 1.79
11.01 -6.12 1.77
11.01 -5.84 1.75
11.01 -5.56 1.73
11.10 -5.32 1.73
11.10 -5.05 1.71
11.10 -4.79 1.70
11.10 -4.52 1.69
11.10 -4.26 1.67
11.10 -4.01 1.66
11.01 -3.73 1.64
11.01 -3.49 1.63
11.00 -3.24 1.62
11.00 -3.01 1.61
11.90 -2.99 1.73
12.98 -2.99 1.88
14.27 -2.99 2.06
15.57 -2.94 2.24
12.44 -2.09 1.79
12.53 -1.84 1.79
12.56 -1.59 1.80
12.40 -1.32 1.77
12.40 -1.07 1.77
12.40 -0.82 1.77
12.40 -0.57 1.77
12.40 -0.32 1.76
12.40 -0.07 1.77
12.39 0.18 1.77
12.40 0.43 1.77
12.52 0.68 1.79
12.55 0.94 1.80
12.60 1.20 1.81
14.54 1.68 2.09
14.49 1.97 2.09
15.40 2.41 2.23
15.37 2.72 2.23
14.31 2.83 2.09
12.92 2.82 1.90
11.91 2.86 1.76
10.92 2.85 1.62
9.97 2.82 1.49
9.24 2.81 1.39
8.72 2.85 1.32
8.05 2.81 1.23
7.65 2.84 1.17
7.11 2.81 1.10
6.65 2.78 1.04
6.62 2.92 1.04
6.62 3.08 1.05
10.36 5.08 1.67
10.01 5.16 1.63
10.01 5.42 1.64
10.01 5.68 1.66
10.01 5.95 1.68
10.01 6.23 1.70
10.01 6.51 1.73
10.01 6.80 1.75
10.00 7.09 1.78
10.00 7.40 1.80
10.00 7.72 1.83
10.00 8.04 1.86
10.00 8.38 1.89
10.00 8.72 1.93
10.00 9.08 1.96
10.00 9.45 2.00
10.00 9.84 2.04
10.00 10.24 2.08
9.99 10.66 2.13
9.99 11.10 2.17
9.99 11.55 2.22
9.99 12.03 2.28
9.99 12.54 2.33
9.91 12.96 2.38
9.67 13.19 2.38
9.42 13.41 2.39
9.17 13.62 2.39
8.91 13.83 2.40
8.65 14.03 2.40
8.37 14.22 2.41
8.08 14.38 2.41
7.79 14.54 2.41
7.50 14.69 2.41
7.20 14.83 2.41
6.90 14.97 2.41
6.60 15.10 2.41
6.29 15.23 2.41
5.98 15.35 2.41
5.63 15.37 2.39
5.32 15.47 2.39
5.01 15.58 2.39
4.70 15.67 2.39
4.38 15.76 2.39
4.04 15.78 2.38
3.74 15.92 2.39
3.42 16.00 2.39
2.92 15.13 2.25
2.67 15.52 2.30
2.33 15.38 2.27
2.13 16.22 2.39
1.88 16.94 2.49
1.54 16.99 2.49
1.20 17.02 2.49
0.85 17.04 2.49
0.51 17.06 2.49
0.17 17.07 2.49
-0.17 17.07 2.49
-0.52 17.06 2.49
-0.86 17.05 2.49
-1.20 17.03 2.49
-1.54 17.01 2.49
-1.88 16.98 2.49
-2.23 16.94 2.49
-2.57 16.89 2.49
-2.91 16.84 2.49
-3.24 16.78 2.49
-3.58 16.72 2.49
-3.92 16.65 2.49
-4.25 16.57 2.49
-4.58 16.49 2.49
-4.92 16.39 2.49
-5.25 16.30 2.49
-5.57 16.19 2.49
-5.90 16.08 2.49
-6.15 15.79 2.47
-6.27 15.19 2.39
-6.58 15.06 2.39
-6.88 14.93 2.39
-7.18 14.80 2.39
-7.48 14.66 2.39
-7.78 14.51 2.39
-8.07 14.35 2.39
-8.36 14.19 2.39
-8.65 14.03 2.39
-8.93 13.86 2.39
-9.21 13.68 2.39
-9.49 13.50 2.39
-9.76 13.31 2.39
-10.03 13.12 2.39
-12.94 16.24 3.00
-13.28 15.99 3.01
-9.88 11.43 2.18
-9.90 10.99 2.14
-9.94 10.60 2.10
-9.91 10.15 2.05
-9.94 9.78 2.01
-9.94 9.39 1.97
-9.93 9.02 1.93
-9.93 8.66 1.90
-9.93 8.32 1.87
-9.93 7.98 1.83
-9.93 7.66 1.80
-9.93 7.34 1.78
-9.93 7.04 1.75
-9.93 6.74 1.72
-9.93 6.45 1.70
-9.89 6.15 1.67
-9.92 5.90 1.66
-9.92 5.63 1.63
-9.92 5.37 1.62
-9.92 5.12 1.60
-9.92 4.87 1.58
-9.92 4.62 1.56
-9.92 4.38 1.55
-9.92 4.15 1.53
-9.92 3.91 1.52
-9.92 3.68 1.51
-9.92 3.46 1.50
-9.92 3.24 1.49
-9.92 3.02 1.47
-9.92 2.80 1.47
-9.91 2.59 1.46
-9.91 2.38 1.45
-9.87 2.16 1.43
-9.91 1.96 1.43
-9.91 1.75 1.43
-9.91 1.55 1.42
-9.91 1.34 1.42
-9.91 1.14 1.41
-9.91 0.94 1.41
-9.91 0.74 1.40
-9.91 0.54 1.40
-9.91 0.34 1.40
-9.91 0.14 1.40
-9.91 -0.06 1.40
-9.91 -0.25 1.40
-9.91 -0.45 1.40
-9.91 -0.65 1.40
-9.90 -0.85 1.40
-9.90 -1.05 1.40
-9.90 -1.26 1.40
-6.65 -0.98 0.94
-9.90 -1.66 1.41
-9.90 -1.87 1.41
-9.90 -2.07 1.42
-9.90 -2.28 1.42
-9.90 -2.49 1.43
-9.90 -2.70 1.43
-9.90 -2.92 1.44
-9.90 -3.13 1.45
-9.90 -3.35 1.46
-9.90 -3.58 1.47
-9.90 -3.80 1.48
-9.90 -4.03 1.49
-9.89 -4.27 1.50
-9.89 -4.50 1.51
-9.89 -4.74 1.53
-9.89 -4.99 1.54
-9.89 -5.24 1.56
-9.89 -5.50 1.57
-9.83 -5.73 1.58
-9.89 -6.03 1.61
-9.89 -6.30 1.63
-9.89 -6.59 1.65
-9.89 -6.88 1.67
-9.89 -7.17 1.69
-9.89 -7.48 1.72
-9.88 -7.80 1.74
-9.88 -8.12 1.77
-9.88 -8.46 1.80
-9.88 -8.81 1.83
-9.88 -9.17 1.86
-9.88 -9.54 1.90
-9.88 -9.93 1.93
-9.88 -10.34 1.97
-9.88 -10.76 2.01
-9.87 -11.20 2.06
-8.82 -10.42 1.88
-8.61 -10.60 1.88
-8.51 -10.91 1.91
-9.82 -13.70 2.32
-8.80 -12.81 2.14
-9.55 -14.52 2.39
-8.68 -13.79 2.24
-8.97 -14.90 2.39
-8.67 -15.08 2.39
-8.37 -15.26 2.39
-8.06 -15.42 2.39
-7.75 -15.59 2.39
-7.44 -15.74 2.39
-7.12 -15.89 2.39
-6.80 -16.03 2.39
-6.48 -16.17 2.39
-6.16 -16.30 2.39
-6.06 -17.08 2.49
-5.74 -17.25 2.49
-5.39 -17.36 2.49
-5.04 -17.47 2.49
-4.69 -17.57 2.49
-4.34 -17.66 2.49
-3.98 -17.74 2.49
-3.63 -17.82 2.49
-3.27 -17.89 2.49
-2.91 -17.95 2.49
-2.55 -18.01 2.49
-2.19 -18.05 2.49
-1.82 -18.09 2.49
-1.46 -18.12 2.49
-1.10 -18.15 2.49
-0.73 -18.17 2.49
-0.37 -18.18 2.49
-0.00 -15.57 2.49
0.31 -15.56 2.49
0.62 -15.55 2.49
0.93 -15.53 2.49
1.25 -15.51 2.49
1.56 -15.48 2.49
1.87 -15.44 2.49
2.08 -14.76 2.39
2.38 -14.72 2.39
2.48 -13.61 2.22
2.86 -14.06 2.30
3.03 -13.49 2.22
3.55 -14.47 2.39
3.84 -14.39 2.39
4.12 -14.31 2.39
4.41 -14.22 2.39
4.69 -14.12 2.39
4.97 -14.02 2.39
5.25 -13.91 2.39
5.53 -13.80 2.39
5.80 -13.68 2.39
6.12 -13.65 2.41
6.39 -13.52 2.41
6.65 -13.39 2.41
6.92 -13.25 2.41
7.18 -13.10 2.41
7.44 -12.95 2.41
7.69 -12.79 2.41
7.95 -12.63 2.41
8.20 -12.46 2.41
8.44 -12.29 2.41
8.64 -12.06 2.40
8.82 -11.80 2.38
8.98 -11.53 2.36
9.15 -11.26 2.35
9.30 -11.00 2.33
9.46 -10.74 2.32
9.60 -10.47 2.30
9.75 -10.21 2.29
9.90 -9.96 2.28
10.05 -9.71 2.27
9.38 -8.71 2.08
9.55 -8.52 2.08
9.71 -8.32 2.08
9.87 -8.12 2.08
10.03 -7.91 2.08
10.18 -7.71 2.08
10.33 -7.50 2.08
9.55 -6.64 1.89
10.61 -7.07 2.08
10.74 -6.85 2.08
10.87 -6.63 2.08
11.01 -6.42 2.08
11.01 -6.12 2.06
11.01 -5.84 2.04
11.01 -5.56 2.02
11.01 -5.28 2.00
11.01 -5.01 1.98
11.09 -4.78 1.98
11.10 -4.52 1.96
11.10 -4.27 1.95
11.10 -4.01 1.93
11.01 -3.73 1.91
11.01 -3.49 1.89
11.00 -3.25 1.88
11.00 -3.01 1.87
11.89 -2.99 2.02
12.98 -2.99 2.19
12.63 -2.64 2.12
12.67 -2.39 2.12
12.70 -2.13 2.12
12.40 -1.83 2.07
12.76 -1.62 2.12
12.78 -1.36 2.12
12.79 -1.10 2.12
12.80 -0.85 2.12
12.81 -0.59 2.12
12.81 -0.33 2.12
12.81 -0.07 2.12
12.80 0.18 2.12
12.79 0.44 2.12
12.40 0.68 2.06
12.75 0.95 2.12
12.72 1.21 2.12
12.69 1.46 2.12
12.66 1.72 2.12
13.31 2.08 2.24
13.28 2.35 2.24
13.23 2.61 2.24
12.93 2.82 2.20
11.92 2.86 2.04
10.92 2.85 1.88
9.97 2.82 1.73
9.24 2.81 1.61
8.72 2.85 1.53
8.06 2.81 1.42
7.65 2.84 1.36
7.12 2.81 1.28
6.80 2.84 1.23
6.62 2.92 1.21
6.62 3.08 1.22
10.36 5.08 1.93
10.01 5.16 1.89
10.01 5.42 1.91
10.01 5.68 1.93
10.01 5.95 1.95
10.01 6.23 1.98
10.01 6.51 2.00
10.01 6.80 2.03
10.00 7.09 2.06
10.00 7.40 2.09
10.00 7.71 2.12
10.00 8.04 2.16
10.00 8.37 2.19
10.00 8.72 2.23
10.00 9.08 2.27
10.00 9.45 2.32
10.00 9.84 2.36
9.87 10.11 2.38
9.67 10.31 2.38
9.47 10.51 2.38
9.26 10.71 2.39
9.06 10.91 2.39
8.86 11.11 2.40
8.65 11.31 2.40
8.43 11.50 2.41
8.20 11.67 2.41
7.96 11.83 2.41
7.72 11.98 2.41
7.48 12.13 2.41
7.23 12.28 2.41
6.98 12.42 2.41
6.73 12.55 2.41
6.47 12.68 2.41
6.22 12.81 2.41
5.96 12.93 2.41
5.66 12.96 2.39
5.40 13.07 2.39
5.13 13.17 2.39
4.87 13.27 2.39
4.60 13.36 2.39
4.33 13.45 2.39
4.06 13.54 2.39
3.78 13.61 2.39
3.51 13.69 2.39
3.00 12.77 2.22
2.74 12.82 2.22
2.49 12.88 2.22
2.34 13.58 2.33
2.12 13.97 2.39
1.89 14.37 2.45
1.62 14.65 2.49
1.33 14.68 2.49
1.03 14.70 2.49
0.74 14.72 2.49
0.44 14.73 2.49
0.15 14.74 2.49
-0.15 14.74 2.49
-0.45 14.74 2.49
-0.74 14.73 2.49
-1.04 14.71 2.49
-1.33 14.69 2.49
-1.63 14.66 2.49
-1.92 14.63 2.49
-2.22 14.59 2.49
-2.51 14.54 2.49
-2.80 14.49 2.49
-3.09 14.44 2.49
-3.38 14.37 2.49
-3.67 14.31 2.49
-3.96 14.23 2.49
-4.24 14.15 2.49
-4.53 14.07 2.49
-4.81 13.98 2.49
-5.09 13.88 2.49
-5.37 13.78 2.49
-5.65 13.67 2.49
-5.93 13.56 2.49
-6.15 13.33 2.47
-6.20 12.77 2.39
-6.46 12.65 2.39
-6.71 12.52 2.39
-6.97 12.38 2.39
-7.22 12.25 2.39
-7.46 12.10 2.39
-7.71 11.96 2.39
-7.95 11.80 2.39
-8.19 11.64 2.39
-8.42 11.48 2.39
-8.65 11.32 2.39
-8.88 11.14 2.39
-9.11 10.97 2.39
-9.33 10.79 2.39
-9.55 10.60 2.39
-9.77 10.41 2.39
-9.92 10.16 2.38
-33.25 32.71 7.81
-9.88 8.61 2.19
-9.88 8.27 2.15
-9.91 7.96 2.12
-9.93 7.66 2.09
-9.93 7.34 2.06
-9.93 7.04 2.03
-9.93 6.74 2.00
-9.93 6.45 1.97
-9.89 6.15 1.94
-9.92 5.90 1.92
-9.92 5.63 1.90
-9.92 5.37 1.88
-9.92 5.12 1.85
-9.92 4.87 1.84
-9.92 4.62 1.82
-9.92 4.38 1.80
-9.92 4.14 1.78
-9.92 3.91 1.77
-9.92 3.68 1.75
-9.92 3.46 1.74
-9.92 3.24 1.73
-9.92 3.02 1.71
-9.92 2.80 1.70
-9.91 2.59 1.69
-9.91 2.38 1.68
-9.87 2.16 1.67
-9.91 1.96 1.67
-9.91 1.75 1.66
-9.91 1.55 1.65
-9.91 1.34 1.65
-9.91 1.14 1.64
-9.91 0.94 1.64
-9.91 0.74 1.63
-9.91 0.54 1.63
-9.91 0.34 1.63
-9.91 0.14 1.63
-9.91 -0.06 1.62
-9.91 -0.26 1.62
-9.91 -0.45 1.62
-9.91 -0.65 1.63
-9.90 -0.85 1.63
-9.90 -1.05 1.63
-9.90 -1.26 1.63
-6.65 -0.98 1.10
-9.90 -1.66 1.64
-9.90 -1.87 1.64
-9.90 -2.07 1.65
-9.90 -2.28 1.66
-9.90 -2.49 1.66
-9.90 -2.70 1.67
-9.90 -2.92 1.68
-9.90 -3.14 1.69
-9.90 -3.36 1.70
-9.90 -3.58 1.71
-9.90 -3.80 1.72
-9.90 -4.03 1.74
-9.89 -4.27 1.75
-9.89 -4.50 1.76
-9.89 -4.75 1.78
-9.89 -4.99 1.80
-9.89 -5.24 1.81
-9.89 -5.50 1.83
-9.83 -5.73 1.84
-9.89 -6.03 1.87
-9.89 -6.31 1.90
-9.89 -6.59 1.92
-9.89 -6.88 1.95
-9.89 -7.18 1.97
-9.89 -7.48 2.00
-9.88 -7.80 2.03
-9.88 -8.12 2.06
-8.86 -7.59 1.88
-8.71 -7.77 1.88
-8.56 -7.94 1.88
-8.51 -8.23 1.91
-10.53 -10.59 2.41
-10.40 -10.89 2.42
-10.04 -10.95 2.39
-8.83 -10.02 2.15
-9.60 -11.35 2.39
-9.38 -11.54 2.39
-8.59 -11.02 2.25
-8.91 -11.92 2.39
-8.67 -12.10 2.39
-8.43 -12.27 2.39
-8.18 -12.44 2.39
-7.93 -12.60 2.39
-7.68 -12.76 2.39
-7.43 -12.92 2.39
-7.17 -13.07 2.39
-6.90 -13.21 2.39
-6.64 -13.35 2.39
-6.37 -13.48 2.39
-6.10 -13.61 2.39
-6.07 -14.31 2.49
-5.79 -14.44 2.49
-5.50 -14.56 2.49
-5.21 -14.67 2.49
-4.91 -14.77 2.49
-4.62 -14.87 2.49
-4.32 -14.96 2.49
-4.02 -15.04 2.49
-3.71 -15.12 2.49
-3.41 -15.19 2.49
-3.10 -15.26 2.49
-2.80 -15.32 2.49
-2.49 -15.37 2.49
-2.18 -15.42 2.49
-1.87 -15.46 2.49
-1.56 -15.49 2.49
-1.25 -15.52 2.49
-0.94 -15.54 2.49
-0.63 -15.56 2.49
-0.31 -15.56 2.49
-0.00 -13.60 2.49
0.27 -13.59 2.49
0.54 -13.59 2.49
0.82 -13.57 2.49
1.09 -13.55 2.49
1.36 -13.52 2.49
1.63 -13.49 2.49
1.90 -13.45 2.49
2.08 -12.86 2.39
2.34 -12.81 2.39
2.42 -11.89 2.23
2.69 -11.98 2.26
2.94 -11.98 2.27
3.11 -11.67 2.22
3.60 -12.50 2.39
3.85 -12.42 2.39
4.10 -12.34 2.39
4.35 -12.25 2.39
4.59 -12.16 2.39
4.83 -12.06 2.39
5.07 -11.96 2.39
5.31 -11.85 2.39
5.54 -11.74 2.39
5.78 -11.62 2.39
6.05 -11.58 2.41
6.28 -11.45 2.41
6.50 -11.32 2.41
6.73 -11.18 2.41
6.95 -11.04 2.41
7.16 -10.90 2.41
7.38 -10.75 2.41
7.59 -10.59 2.41
7.80 -10.44 2.41
8.00 -10.27 2.41
8.21 -10.11 2.41
8.40 -9.94 2.41
8.58 -9.75 2.40
8.18 -8.92 2.24
8.34 -8.73 2.24
8.48 -8.54 2.23
8.63 -8.34 2.23
8.78 -8.15 2.22
8.92 -7.95 2.22
9.06 -7.76 2.21
9.19 -7.56 2.21
9.32 -7.36 2.21
9.33 -7.06 2.17
9.33 -6.77 2.14
9.33 -6.49 2.11
9.73 -6.49 2.18
10.16 -6.48 2.24
10.31 -6.29 2.25
10.38 -6.05 2.24
10.45 -5.81 2.23
10.51 -5.57 2.22
10.58 -5.34 2.21
10.67 -5.12 2.21
10.76 -4.90 2.21
10.84 -4.68 2.21
10.91 -4.45 2.20
10.98 -4.22 2.20
11.01 -3.98 2.19
11.01 -3.73 2.18
11.01 -3.49 2.16
11.00 -3.25 2.15
11.00 -3.01 2.14
11.48 -2.89 2.22
11.15 -2.57 2.15
11.19 -2.35 2.15
11.23 -2.12 2.15
11.26 -1.89 2.15
11.29 -1.66 2.14
11.31 -1.44 2.14
11.33 -1.21 2.14
11.34 -0.98 2.14
11.35 -0.75 2.14
11.36 -0.52 2.14
11.36 -0.29 2.14
11.36 -0.07 2.14
11.35 0.16 2.14
11.34 0.39 2.14
11.33 0.62 2.14
11.31 0.84 2.14
11.29 1.07 2.14
11.26 1.30 2.14
11.23 1.52 2.14
11.19 1.75 2.15
11.58 2.05 2.23
11.53 2.28 2.23
11.47 2.51 2.23
11.41 2.73 2.23
10.92 2.85 2.14
9.97 2.82 1.97
9.25 2.81 1.84
8.72 2.85 1.74
8.06 2.81 1.62
7.65 2.84 1.55
7.12 2.81 1.46
6.80 2.84 1.40
6.62 2.92 1.38
6.62 3.08 1.39
10.37 5.08 2.20
10.01 5.16 2.15
10.01 5.42 2.17
10.01 5.68 2.20
10.01 5.95 2.22
10.01 6.22 2.25
10.01 6.51 2.28
9.92 6.74 2.29
9.81 6.96 2.30
9.71 7.18 2.31
9.59 7.40 2.32
9.48 7.62 2.33
9.36 7.84 2.34
9.25 8.07 2.35
9.17 8.33 2.37
9.09 8.59 2.40
8.92 8.78 2.40
8.75 8.97 2.40
8.58 9.15 2.41
8.40 9.33 2.41
8.21 9.49 2.41
8.01 9.65 2.41
7.82 9.81 2.41
7.62 9.96 2.41
7.41 10.11 2.41
7.21 10.25 2.41
7.00 10.39 2.41
6.79 10.53 2.41
6.57 10.66 2.41
6.36 10.79 2.41
6.14 10.91 2.41
5.88 10.96 2.39
5.65 11.08 2.39
5.43 11.18 2.39
5.20 11.29 2.39
4.97 11.39 2.39
4.74 11.49 2.39
4.51 11.58 2.39
4.28 11.67 2.39
4.04 11.75 2.39
3.81 11.83 2.39
3.57 11.90 2.39
3.33 11.97 2.39
2.93 11.44 2.27
2.74 11.64 2.30
2.41 11.27 2.22
2.35 12.20 2.39
2.11 12.24 2.39
1.90 12.49 2.43
1.69 12.85 2.49
1.43 12.88 2.49
1.17 12.90 2.49
0.91 12.93 2.49
0.65 12.94 2.49
0.39 12.95 2.49
0.13 12.96 2.49
-0.13 12.96 2.49
-0.39 12.96 2.49
-0.65 12.95 2.49
-0.91 12.93 2.49
-1.17 12.91 2.49
-1.43 12.89 2.49
-1.69 12.86 2.49
-1.95 12.82 2.49
-2.21 12.78 2.49
-2.46 12.74 2.49
-2.72 12.69 2.49
-2.97 12.63 2.49
-3.23 12.57 2.49
-3.48 12.51 2.49
-3.73 12.44 2.49
-3.98 12.36 2.49
-4.23 12.28 2.49
-4.48 12.20 2.49
-4.72 12.11 2.49
-4.97 12.02 2.49
-5.21 11.92 2.49
-5.45 11.81 2.49
-5.68 11.70 2.49
-5.92 11.59 2.49
-6.15 11.46 2.49
-6.16 10.95 2.41
-6.36 10.79 2.40
-6.56 10.63 2.39
-6.77 10.50 2.39
-6.98 10.37 2.39
-7.19 10.23 2.39
-7.40 10.09 2.39
-7.60 9.94 2.39
-7.80 9.79 2.39
-8.00 9.63 2.39
-8.20 9.47 2.39
-8.39 9.31 2.39
-8.58 9.14 2.39
-8.76 8.97 2.39
-8.94 8.80 2.39
-9.12 8.62 2.39
-9.30 8.44 2.39
-9.47 8.25 2.39
-9.64 8.06 2.39
-9.80 7.87 2.39
-9.96 7.68 2.39
-10.12 7.48 2.39
-10.88 7.71 2.53
-11.00 7.47 2.53
-11.12 7.23 2.52
-9.88 6.15 2.21
-9.87 5.86 2.18
-9.87 5.60 2.15
-9.89 5.35 2.13
-9.92 5.11 2.11
-9.92 4.86 2.09
-9.92 4.62 2.07
-9.92 4.38 2.05
-9.92 4.14 2.03
-9.92 3.91 2.01
-9.92 3.68 2.00
-9.92 3.46 1.98
-9.92 3.24 1.97
-9.92 3.02 1.95
-9.92 2.80 1.94
-9.91 2.59 1.93
-9.91 2.37 1.92
-9.87 2.16 1.90
-9.91 1.96 1.90
-9.91 1.75 1.89
-9.91 1.55 1.89
-9.91 1.34 1.88
-9.91 1.14 1.87
-9.91 0.94 1.87
-9.91 0.74 1.86
-9.91 0.54 1.86
-9.91 0.34 1.86
-9.91 0.14 1.86
-9.91 -0.06 1.85
-9.91 -0.26 1.85
-9.91 -0.46 1.85
-9.91 -0.66 1.86
-9.90 -0.86 1.86
-9.90 -1.06 1.86
-9.90 -1.26 1.86
-6.65 -0.98 1.25
-9.90 -1.66 1.87
-9.90 -1.87 1.88
-9.90 -2.07 1.88
-9.90 -2.28 1.89
-9.90 -2.49 1.90
-9.90 -2.70 1.91
-9.90 -2.92 1.92
-9.90 -3.14 1.93
-9.90 -3.36 1.94
-9.90 -3.58 1.95
-9.90 -3.80 1.97
-9.90 -4.03 1.98
-9.89 -4.27 2.00
-9.89 -4.50 2.02
-9.89 -4.75 2.03
-9.89 -4.99 2.05
-8.98 -4.76 1.88
-8.88 -4.94 1.88
-8.79 -5.12 1.88
-8.69 -5.30 1.88
-8.58 -5.47 1.88
-9.83 -6.55 2.18
-9.87 -6.86 2.22
-10.60 -7.69 2.42
-10.47 -7.92 2.42
-8.74 -6.89 2.05
-8.52 -7.00 2.03
-9.85 -8.43 2.39
-9.68 -8.63 2.39
-8.73 -8.11 2.20
-9.33 -9.02 2.39
-9.15 -9.20 2.39
-8.97 -9.39 2.39
-8.78 -9.57 2.39
-8.59 -9.75 2.39
-8.39 -9.92 2.39
-8.19 -10.09 2.39
-7.99 -10.25 2.39
-7.79 -10.41 2.39
-7.58 -10.57 2.39
-7.37 -10.72 2.39
-7.15 -10.87 2.39
-6.93 -11.01 2.39
-6.71 -11.15 2.39
-6.49 -11.29 2.39
-6.26 -11.42 2.39
-6.09 -11.65 2.41
-6.05 -12.17 2.49
-5.81 -12.29 2.49
-5.56 -12.40 2.49
-5.31 -12.51 2.49
-5.06 -12.62 2.49
-4.80 -12.72 2.49
-4.55 -12.81 2.49
-4.29 -12.90 2.49
-4.03 -12.99 2.49
-3.77 -13.07 2.49
-3.51 -13.14 2.49
-3.24 -13.21 2.49
-2.98 -13.27 2.49
-2.71 -13.33 2.49
-2.44 -13.38 2.49
-2.18 -13.43 2.49
-1.91 -13.47 2.49
-1.63 -13.50 2.49
-1.36 -13.53 2.49
-1.09 -13.56 2.49
-0.82 -13.58 2.49
-0.55 -13.59 2.49
-0.27 -13.60 2.49
-0.00 -12.06 2.49
0.24 -12.06 2.49
0.48 -12.05 2.49
0.72 -12.04 2.49
0.96 -12.02 2.49
1.21 -12.00 2.49
1.45 -11.97 2.49
1.68 -11.93 2.49
1.92 -11.90 2.49
2.07 -11.36 2.39
2.30 -11.32 2.39
2.41 -10.76 2.28
2.65 -10.79 2.30
2.86 -10.74 2.30
3.00 -10.40 2.24
3.42 -11.02 2.39
3.64 -10.95 2.39
3.86 -10.87 2.39
4.07 -10.79 2.39
4.29 -10.70 2.39
4.50 -10.61 2.39
4.71 -10.52 2.39
4.92 -10.42 2.39
5.13 -10.31 2.39
5.33 -10.21 2.39
5.53 -10.10 2.39
5.73 -9.98 2.39
5.93 -9.86 2.39
6.16 -9.80 2.41
6.36 -9.67 2.41
6.55 -9.54 2.41
6.74 -9.40 2.41
6.92 -9.26 2.41
6.85 -8.79 2.32
6.99 -8.61 2.31
7.13 -8.43 2.30
7.27 -8.25 2.29
7.40 -8.07 2.28
7.53 -7.89 2.28
7.66 -7.71 2.27
7.79 -7.53 2.26
7.91 -7.35 2.26
8.03 -7.17 2.25
8.15 -6.98 2.24
8.27 -6.80 2.24
8.39 -6.62 2.23
8.68 -6.57 2.28
9.11 -6.61 2.36
9.20 -6.40 2.35
9.29 -6.19 2.34
9.36 -5.97 2.33
9.43 -5.76 2.32
9.50 -5.54 2.31
9.57 -5.32 2.30
9.63 -5.11 2.29
9.70 -4.90 2.28
9.76 -4.68 2.27
9.82 -4.47 2.27
9.87 -4.26 2.26
9.94 -4.05 2.26
10.00 -3.85 2.25
10.06 -3.64 2.25
10.12 -3.43 2.25
10.17 -3.22 2.25
10.22 -3.02 2.25
9.99 -2.73 2.18
10.03 -2.53 2.18
10.06 -2.32 2.18
10.09 -2.12 2.18
10.12 -1.91 2.18
10.15 -1.71 2.17
10.17 -1.50 2.17
10.19 -1.29 2.17
10.20 -1.09 2.17
10.22 -0.88 2.17
10.23 -0.68 2.17
10.23 -0.47 2.17
10.23 -0.27 2.17
10.23 -0.06 2.17
10.23 0.14 2.17
10.22 0.35 2.17
10.21 0.55 2.17
10.19 0.76 2.17
10.17 0.96 2.17
10.15 1.17 2.17
10.12 1.37 2.17
10.09 1.57 2.17
10.07 1.78 2.18
10.30 2.03 2.24
10.28 2.24 2.24
10.25 2.45 2.25
10.22 2.67 2.25
9.97 2.82 2.21
9.25 2.81 2.06
8.72 2.85 1.96
8.06 2.81 1.82
7.66 2.84 1.74
7.12 2.81 1.64
6.80 2.84 1.58
6.62 2.92 1.55
6.62 3.08 1.56
9.69 4.75 2.31
9.62 4.96 2.32
9.54 5.16 2.32
9.45 5.37 2.33
9.37 5.57 2.34
9.28 5.77 2.34
9.19 5.97 2.35
9.09 6.17 2.36
8.99 6.38 2.37
8.89 6.58 2.37
8.79 6.77 2.38
8.68 6.97 2.39
8.57 7.17 2.40
8.44 7.36 2.41
8.29 7.53 2.41
8.14 7.69 2.41
7.98 7.85 2.41
7.82 8.01 2.41
7.65 8.16 2.41
7.48 8.31 2.41
7.31 8.46 2.41
7.14 8.60 2.41
6.97 8.74 2.41
6.79 8.88 2.41
6.61 9.01 2.41
6.42 9.14 2.41
6.24 9.26 2.41
6.05 9.38 2.41
5.82 9.44 2.39
5.63 9.55 2.39
5.43 9.66 2.39
5.24 9.77 2.39
5.04 9.87 2.39
4.84 9.97 2.39
4.64 10.06 2.39
4.43 10.15 2.39
4.23 10.24 2.39
4.02 10.32 2.39
3.81 10.40 2.39
3.60 10.47 2.39
3.39 10.54 2.39
2.95 9.85 2.22
2.85 10.27 2.30
2.65 10.32 2.30
2.36 10.02 2.22
2.32 10.83 2.39
2.10 10.87 2.39
1.90 11.04 2.42
1.73 11.42 2.49
1.50 11.45 2.49
1.27 11.48 2.49
1.04 11.50 2.49
0.81 11.52 2.49
0.58 11.54 2.49
0.35 11.55 2.49
0.11 11.55 2.49
-0.12 11.55 2.49
-0.35 11.55 2.49
-0.58 11.54 2.49
-0.81 11.53 2.49
-1.05 11.51 2.49
-1.28 11.49 2.49
-1.51 11.46 2.49
-1.74 11.43 2.49
-1.97 11.39 2.49
-2.20 11.35 2.49
-2.42 11.31 2.49
-2.65 11.26 2.49
-2.88 11.21 2.49
-3.10 11.15 2.49
-3.33 11.09 2.49
-3.55 11.02 2.49
-3.77 10.95 2.49
-3.99 10.87 2.49
-4.21 10.79 2.49
-4.43 10.71 2.49
-4.64 10.62 2.49
-4.85 10.53 2.49
-5.07 10.43 2.49
-5.28 10.33 2.49
-5.48 10.22 2.49
-5.69 10.11 2.49
-5.89 10.00 2.49
-6.09 9.88 2.49
-6.14 9.53 2.44
-6.22 9.24 2.39
-6.41 9.11 2.39
-6.59 8.98 2.39
-6.77 8.85 2.39
-6.95 8.72 2.39
-7.13 8.58 2.39
-7.30 8.44 2.39
-7.47 8.29 2.39
-7.64 8.14 2.39
-7.80 7.99 2.39
-7.96 7.83 2.39
-8.12 7.67 2.39
-8.28 7.51 2.39
-8.43 7.35 2.39
-8.58 7.18 2.39
-8.73 7.01 2.39
-8.87 6.83 2.39
-9.01 6.66 2.39
-9.14 6.48 2.39
-9.27 6.30 2.39
-9.40 6.11 2.39
-9.53 5.92 2.39
-9.65 5.73 2.39
-9.77 5.54 2.39
-9.88 5.34 2.39
-9.99 5.15 2.39
-10.09 4.95 2.39
-11.13 5.18 2.61
-11.18 4.94 2.60
-11.23 4.69 2.59
-11.28 4.45 2.58
-11.33 4.21 2.57
-9.90 3.45 2.23
-9.86 3.22 2.20
-9.86 3.00 2.18
-9.86 2.78 2.17
-9.86 2.57 2.16
-9.86 2.36 2.15
-9.87 2.15 2.14
-9.88 1.95 2.13
-9.89 1.75 2.12
-9.90 1.54 2.12
-9.91 1.34 2.11
-9.91 1.14 2.11
-9.91 0.94 2.10
-9.91 0.74 2.10
-9.91 0.54 2.09
-9.91 0.34 2.09
-9.91 0.14 2.09
-9.91 -0.06 2.09
-9.91 -0.26 2.09
-9.91 -0.46 2.09
-9.91 -0.66 2.09
-9.90 -0.86 2.09
-9.90 -1.06 2.09
-9.90 -1.26 2.10
-6.62 -0.98 1.40
-9.90 -1.66 2.11
-9.90 -1.87 2.11
-9.89 -2.07 2.12
-9.88 -2.28 2.13
-9.87 -2.49 2.13
-9.85 -2.69 2.14
-9.84 -2.90 2.15
-9.84 -3.12 2.16
-9.84 -3.34 2.17
-9.84 -3.56 2.19
-9.85 -3.79 2.21
-10.46 -4.27 2.36
-10.47 -4.52 2.38
-8.69 -3.96 1.99
-8.52 -4.09 1.97
-8.52 -4.30 1.99
-8.52 -4.52 2.01
-8.52 -4.74 2.03
-8.53 -4.97 2.06
-8.61 -5.25 2.10
-9.68 -6.17 2.39
-9.56 -6.37 2.39
-9.43 -6.56 2.39
-9.30 -6.75 2.39
-9.16 -6.94 2.39
-9.03 -7.12 2.39
-8.67 -7.13 2.33
-8.74 -7.48 2.39
-8.59 -7.66 2.39
-8.44 -7.83 2.39
-8.28 -8.00 2.39
-8.12 -8.17 2.39
-7.96 -8.33 2.39
-7.79 -8.49 2.39
-7.62 -8.65 2.39
-7.45 -8.80 2.39
-7.27 -8.95 2.39
-7.09 -9.10 2.39
-6.91 -9.24 2.39
-6.72 -9.38 2.39
-6.53 -9.51 2.39
-6.34 -9.64 2.39
-6.15 -9.77 2.39
-6.09 -10.11 2.44
-6.00 -10.45 2.49
-5.79 -10.57 2.49
-5.58 -10.68 2.49
-5.37 -10.79 2.49
-5.15 -10.90 2.49
-4.93 -11.00 2.49
-4.71 -11.10 2.49
-4.49 -11.19 2.49
-4.26 -11.28 2.49
-4.03 -11.37 2.49
-3.81 -11.45 2.49
-3.58 -11.52 2.49
-3.34 -11.59 2.49
-3.11 -11.66 2.49
-2.88 -11.72 2.49
-2.64 -11.77 2.49
-2.41 -11.82 2.49
-2.17 -11.87 2.49
-1.93 -11.91 2.49
-1.69 -11.95 2.49
-1.45 -11.98 2.49
-1.21 -12.00 2.49
-0.97 -12.03 2.49
-0.73 -12.04 2.49
-0.49 -12.05 2.49
-0.24 -12.06 2.49
-0.00 -10.83 2.49
0.22 -10.82 2.49
0.43 -10.82 2.49
0.65 -10.80 2.49
0.87 -10.79 2.49
1.08 -10.77 2.49
1.30 -10.74 2.49
1.51 -10.71 2.49
1.73 -10.68 2.49
1.94 -10.64 2.49
2.06 -10.16 2.39
2.27 -10.12 2.39
2.41 -9.82 2.33
2.48 -9.29 2.22
2.76 -9.58 2.30
2.95 -9.53 2.30
3.03 -9.12 2.22
3.46 -9.76 2.39
3.66 -9.69 2.39
3.85 -9.61 2.39
4.04 -9.53 2.39
4.23 -9.44 2.39
4.42 -9.35 2.39
4.60 -9.26 2.39
4.79 -9.17 2.39
4.97 -9.07 2.39
5.15 -8.96 2.39
5.32 -8.85 2.39
5.50 -8.74 2.39
5.67 -8.63 2.39
5.84 -8.51 2.39
5.99 -8.36 2.38
6.13 -8.20 2.37
6.26 -8.04 2.36
6.39 -7.88 2.35
6.52 -7.72 2.34
6.65 -7.55 2.34
6.77 -7.39 2.33
6.89 -7.22 2.32
7.01 -7.06 2.31
7.12 -6.89 2.30
7.24 -6.72 2.30
7.36 -6.56 2.29
7.66 -6.56 2.35
7.99 -6.57 2.41
8.12 -6.41 2.41
8.24 -6.24 2.41
8.36 -6.07 2.41
8.48 -5.90 2.41
8.57 -5.72 2.40
8.65 -5.52 2.39
8.73 -5.33 2.38
8.80 -5.13 2.38
8.87 -4.94 2.37
8.94 -4.74 2.36
9.00 -4.55 2.36
9.06 -4.35 2.35
9.12 -4.16 2.34
9.19 -3.97 2.34
9.25 -3.77 2.34
9.31 -3.58 2.33
9.36 -3.39 2.33
9.41 -3.19 2.33
9.45 -3.00 2.32
9.20 -2.72 2.25
9.23 -2.53 2.24
9.26 -2.34 2.24
9.29 -2.15 2.24
9.32 -1.96 2.24
9.34 -1.77 2.23
9.36 -1.58 2.23
9.38 -1.39 2.23
9.40 -1.20 2.23
9.41 -1.01 2.23
9.42 -0.82 2.22
9.42 -0.63 2.22
9.43 -0.44 2.22
9.43 -0.25 2.22
9.43 -0.06 2.22
9.42 0.13 2.22
9.42 0.32 2.22
9.41 0.51 2.22
9.39 0.70 2.22
9.38 0.89 2.23
9.36 1.08 2.23
9.34 1.26 2.23
9.32 1.45 2.23
9.29 1.64 2.23
9.56 1.89 2.31
9.54 2.08 2.31
9.51 2.28 2.32
9.48 2.47 2.32
9.45 2.67 2.33
9.25 2.81 2.29
8.73 2.85 2.18
8.06 2.81 2.03
7.66 2.84 1.94
7.12 2.81 1.82
6.80 2.84 1.75
6.62 2.92 1.72
6.62 3.08 1.73
8.95 4.39 2.37
8.88 4.58 2.38
8.81 4.77 2.38
8.73 4.95 2.39
8.65 5.14 2.39
8.56 5.33 2.40
8.48 5.51 2.41
8.36 5.68 2.41
8.24 5.84 2.41
8.12 6.00 2.41
8.00 6.16 2.41
7.87 6.32 2.41
7.74 6.48 2.41
7.61 6.63 2.41
7.47 6.78 2.41
7.33 6.93 2.41
7.19 7.07 2.41
7.04 7.21 2.41
6.89 7.35 2.41
6.74 7.49 2.41
6.59 7.62 2.41
6.43 7.75 2.41
6.28 7.87 2.41
6.12 8.00 2.41
5.91 8.06 2.39
5.75 8.18 2.39
5.58 8.29 2.39
5.41 8.40 2.39
5.24 8.51 2.39
5.07 8.61 2.39
4.90 8.71 2.39
4.72 8.80 2.39
4.54 8.89 2.39
4.36 8.98 2.39
4.18 9.07 2.39
4.00 9.15 2.39
3.81 9.23 2.39
3.62 9.30 2.39
3.44 9.37 2.39
3.01 8.76 2.22
2.94 9.12 2.30
2.76 9.20 2.30
2.48 8.92 2.22
2.35 9.17 2.27
2.28 9.71 2.39
2.09 9.78 2.40
1.91 9.88 2.41
1.77 10.26 2.49
1.56 10.29 2.49
1.35 10.32 2.49
1.15 10.34 2.49
0.94 10.37 2.49
0.73 10.38 2.49
0.52 10.40 2.49
0.31 10.40 2.49
0.10 10.41 2.49
-0.11 10.41 2.49
-0.32 10.41 2.49
-0.52 10.40 2.49
-0.73 10.39 2.49
-0.94 10.37 2.49
-1.15 10.35 2.49
-1.36 10.33 2.49
-1.57 10.30 2.49
-1.77 10.27 2.49
-1.98 10.23 2.49
-2.18 10.19 2.49
-2.39 10.15 2.49
-2.59 10.10 2.49
-2.80 10.04 2.49
-3.00 9.99 2.49
-3.20 9.93 2.49
-3.40 9.86 2.49
-3.60 9.79 2.49
-3.79 9.72 2.49
-3.99 9.65 2.49
-4.18 9.57 2.49
-4.37 9.48 2.49
-4.56 9.39 2.49
-4.75 9.30 2.49
-4.94 9.21 2.49
-5.13 9.11 2.49
-5.31 9.01 2.49
-5.49 8.90 2.49
-5.67 8.79 2.49
-5.85 8.68 2.49
-6.02 8.56 2.49
-6.14 8.37 2.47
-6.15 8.03 2.41
-6.26 7.85 2.39
-6.42 7.72 2.39
-6.57 7.60 2.39
-6.73 7.47 2.39
-6.88 7.33 2.39
-7.03 7.19 2.39
-7.17 7.05 2.39
-7.31 6.91 2.39
-7.45 6.76 2.39
-7.59 6.61 2.39
-7.73 6.46 2.39
-7.86 6.31 2.39
-7.98 6.15 2.39
-8.11 5.99 2.39
-8.23 5.83 2.39
-8.35 5.67 2.39
-8.46 5.50 2.39
-8.58 5.33 2.39
-8.68 5.16 2.39
-8.79 4.99 2.39
-8.89 4.81 2.39
-8.99 4.63 2.39
-9.08 4.45 2.39
-9.17 4.27 2.39
-9.26 4.09 2.39
-9.35 3.90 2.39
-9.43 3.71 2.39
-9.50 3.53 2.39
-9.58 3.34 2.39
-9.64 3.14 2.39
-9.71 2.95 2.39
-9.77 2.76 2.39
-9.83 2.56 2.39
-9.88 2.36 2.39
-9.90 2.16 2.38
-9.98 1.97 2.39
-10.02 1.77 2.39
-10.05 1.57 2.39
-10.09 1.36 2.39
-10.12 1.16 2.39
-10.31 0.97 2.43
-10.30 0.77 2.42
-10.27 0.56 2.41
-10.25 0.35 2.40
-10.22 0.14 2.39
-10.19 -0.06 2.39
-10.16 -0.27 2.38
-10.14 -0.47 2.38
-10.12 -0.67 2.37
-10.10 -0.87 2.37
-10.20 -1.09 2.40
-10.33 -1.31 2.43
-6.62 -0.98 1.56
-10.10 -1.70 2.39
-10.07 -1.90 2.39
-10.03 -2.10 2.39
-9.99 -2.31 2.39
-9.94 -2.51 2.39
-9.90 -2.71 2.39
-9.84 -2.91 2.39
-9.79 -3.10 2.39
-9.73 -3.30 2.39
-9.66 -3.50 2.39
-9.59 -3.69 2.39
-9.52 -3.88 2.39
-9.44 -4.07 2.39
-9.36 -4.26 2.39
-8.75 -4.20 2.25
-9.19 -4.64 2.39
-9.10 -4.82 2.39
-9.00 -5.01 2.39
-8.88 -5.18 2.39
-8.61 -5.25 2.34
-8.69 -5.55 2.39
-8.58 -5.72 2.39
-8.47 -5.89 2.39
-8.35 -6.06 2.39
-8.23 -6.23 2.39
-8.11 -6.40 2.39
-7.98 -6.56 2.39
-7.85 -6.72 2.39
-7.71 -6.88 2.39
-7.57 -7.03 2.39
-7.43 -7.19 2.39
-7.29 -7.34 2.39
-7.14 -7.48 2.39
-6.99 -7.63 2.39
-6.84 -7.77 2.39
-6.68 -7.90 2.39
-6.53 -8.04 2.39
-6.36 -8.17 2.39
-6.20 -8.30 2.39
-6.10 -8.51 2.42
-6.09 -8.87 2.48
-5.94 -9.03 2.49
-5.76 -9.15 2.49
-5.57 -9.27 2.49
-5.39 -9.38 2.49
-5.20 -9.48 2.49
-5.01 -9.59 2.49
-4.82 -9.69 2.49
-4.62 -9.78 2.49
-4.43 -9.88 2.49
-4.23 -9.96 2.49
-4.03 -10.05 2.49
-3.82 -10.13 2.49
-3.62 -10.20 2.49
-3.42 -10.27 2.49
-3.21 -10.34 2.49
-3.00 -10.40 2.49
-2.79 -10.46 2.49
-2.58 -10.52 2.49
-2.37 -10.57 2.49
-2.16 -10.61 2.49
-1.95 -10.65 2.49
-1.73 -10.69 2.49
-1.52 -10.72 2.49
-1.30 -10.75 2.49
-1.09 -10.77 2.49
-0.87 -10.79 2.49
-0.65 -10.81 2.49
-0.44 -10.82 2.49
-0.22 -10.82 2.49
-0.00 -9.81 2.49
0.19 -9.81 2.49
0.39 -9.80 2.49
0.59 -9.79 2.49
0.78 -9.78 2.49
0.98 -9.76 2.49
1.18 -9.74 2.49
1.37 -9.71 2.49
1.56 -9.68 2.49
1.76 -9.64 2.49
1.95 -9.61 2.49
2.05 -9.17 2.39
2.24 -9.12 2.39
2.42 -9.08 2.39
2.60 -9.02 2.39
2.78 -8.97 2.39
2.96 -8.91 2.39
3.14 -8.85 2.39
3.31 -8.78 2.39
3.49 -8.71 2.39
3.66 -8.64 2.39
3.83 -8.56 2.39
4.00 -8.48 2.39
4.17 -8.40 2.39
4.34 -8.31 2.39
4.50 -8.22 2.39
4.67 -8.12 2.39
4.83 -8.03 2.39
4.98 -7.93 2.39
5.14 -7.82 2.39
5.30 -7.72 2.39
5.45 -7.61 2.39
5.60 -7.49 2.39
5.75 -7.38 2.39
5.89 -7.26 2.39
6.01 -7.11 2.38
6.13 -6.96 2.37
6.24 -6.81 2.37
6.36 -6.66 2.36
6.50 -6.54 2.36
6.75 -6.53 2.41
6.88 -6.39 2.41
7.01 -6.25 2.41
7.13 -6.11 2.41
7.25 -5.96 2.41
7.36 -5.81 2.41
7.47 -5.66 2.41
7.58 -5.51 2.41
7.69 -5.36 2.41
7.79 -5.20 2.41
7.89 -5.04 2.41
7.99 -4.88 2.41
8.08 -4.72 2.41
8.17 -4.55 2.41
8.26 -4.38 2.41
8.34 -4.22 2.41
8.42 -4.04 2.41
8.49 -3.87 2.40
8.55 -3.69 2.40
8.60 -3.51 2.40
8.65 -3.33 2.39
8.69 -3.15 2.38
8.48 -2.88 2.31
8.52 -2.70 2.31
8.56 -2.53 2.30
8.59 -2.35 2.30
8.62 -2.17 2.30
8.65 -2.00 2.30
8.68 -1.82 2.29
8.70 -1.64 2.29
8.72 -1.47 2.29
8.74 -1.29 2.29
8.75 -1.11 2.29
8.76 -0.94 2.28
8.77 -0.76 2.28
8.78 -0.58 2.28
8.78 -0.41 2.28
8.78 -0.23 2.28
8.78 -0.05 2.28
8.78 0.12 2.28
8.77 0.30 2.28
8.76 0.47 2.28
8.75 0.65 2.28
8.74 0.83 2.28
8.72 1.00 2.28
8.70 1.18 2.29
8.68 1.35 2.29
8.66 1.53 2.29
8.91 1.76 2.37
8.89 1.94 2.37
8.86 2.12 2.38
8.83 2.30 2.38
8.79 2.48 2.38
8.75 2.66 2.39
8.71 2.84 2.39
8.07 2.81 2.23
7.66 2.84 2.13
7.12 2.81 2.00
6.80 2.84 1.93
6.62 2.92 1.89
6.62 3.08 1.91
8.26 4.05 2.41
8.18 4.21 2.41
8.09 4.38 2.41
8.00 4.54 2.41
7.90 4.69 2.41
7.80 4.85 2.41
7.70 5.01 2.41
7.60 5.16 2.41
7.49 5.31 2.41
7.38 5.46 2.41
7.27 5.60 2.41
7.15 5.74 2.41
7.03 5.89 2.41
6.91 6.02 2.41
6.79 6.16 2.41
6.66 6.29 2.41
6.53 6.43 2.41
6.40 6.55 2.41
6.27 6.68 2.41
6.13 6.80 2.41
5.99 6.92 2.41
5.81 7.00 2.39
5.67 7.11 2.39
5.52 7.22 2.39
5.38 7.33 2.39
5.23 7.43 2.39
5.08 7.54 2.39
4.92 7.64 2.39
4.77 7.73 2.39
4.61 7.83 2.39
4.45 7.92 2.39
4.29 8.00 2.39
4.13 8.09 2.39
3.96 8.17 2.39
3.80 8.24 2.39
3.63 8.32 2.39
3.46 8.39 2.39
3.30 8.46 2.39
2.91 7.93 2.23
2.74 7.96 2.22
2.58 8.02 2.22
2.42 8.07 2.22
2.35 8.47 2.32
2.25 8.79 2.39
2.09 8.90 2.41
1.91 8.93 2.41
1.79 9.29 2.49
1.61 9.32 2.49
1.42 9.35 2.49
1.23 9.38 2.49
1.04 9.40 2.49
0.85 9.42 2.49
0.66 9.44 2.49
0.47 9.45 2.49
0.28 9.46 2.49
0.09 9.46 2.49
-0.10 9.46 2.49
-0.29 9.46 2.49
-0.48 9.45 2.49
-0.67 9.44 2.49
-0.86 9.43 2.49
-1.05 9.41 2.49
-1.24 9.39 2.49
-1.42 9.36 2.49
-1.61 9.33 2.49
-1.80 9.30 2.49
-1.99 9.26 2.49
-2.17 9.22 2.49
-2.36 9.18 2.49
-2.54 9.13 2.49
-2.72 9.08 2.49
-2.91 9.02 2.49
-3.09 8.97 2.49
-3.27 8.90 2.49
-3.45 8.84 2.49
-3.62 8.77 2.49
-3.80 8.69 2.49
-3.98 8.62 2.49
-4.15 8.54 2.49
-4.32 8.45 2.49
-4.49 8.37 2.49
-4.66 8.28 2.49
-4.83 8.18 2.49
-4.99 8.09 2.49
-5.15 7.99 2.49
-5.31 7.88 2.49
-5.47 7.78 2.49
-5.63 7.67 2.49
-5.78 7.56 2.49
-5.94 7.44 2.49
-6.09 7.32 2.49
-6.14 7.09 2.46
-6.15 6.82 2.40
-6.25 6.66 2.39
-6.39 6.54 2.39
-6.52 6.41 2.39
-6.65 6.28 2.39
-6.77 6.14 2.39
-6.90 6.01 2.39
-7.02 5.87 2.39
-7.14 5.73 2.39
-7.25 5.59 2.39
-7.37 5.44 2.39
-7.48 5.30 2.39
-7.58 5.15 2.39
-7.69 4.99 2.39
-7.79 4.84 2.39
-7.89 4.68 2.39
-7.98 4.53 2.39
-8.08 4.37 2.39
-8.16 4.21 2.39
-8.25 4.04 2.39
-8.33 3.88 2.39
-8.41 3.71 2.39
-8.49 3.54 2.39
-8.56 3.37 2.39
-8.63 3.20 2.39
-8.69 3.03 2.39
-8.76 2.85 2.39
-8.82 2.68 2.39
-8.87 2.50 2.39
-8.92 2.32 2.39
-8.97 2.15 2.39
-9.01 1.97 2.39
-9.06 1.78 2.39
-9.09 1.60 2.39
-9.13 1.42 2.39
-9.16 1.24 2.39
-9.18 1.05 2.39
-9.21 0.87 2.39
-9.22 0.69 2.39
-9.24 0.50 2.39
-9.25 0.31 2.39
-9.26 0.13 2.39
-9.26 -0.06 2.39
-9.26 -0.24 2.39
-9.26 -0.43 2.39
-9.25 -0.61 2.39
-9.24 -0.80 2.39
-9.23 -0.99 2.39
-9.21 -1.17 2.39
-6.62 -0.98 1.72
-9.16 -1.54 2.39
-9.13 -1.73 2.39
-9.10 -1.91 2.39
-9.06 -2.09 2.39
-9.02 -2.27 2.39
-8.98 -2.46 2.39
-8.93 -2.64 2.39
-8.88 -2.82 2.39
-8.82 -2.99 2.39
-8.76 -3.17 2.39
-8.70 -3.35 2.39
-8.63 -3.52 2.39
-8.56 -3.70 2.39
-8.49 -3.87 2.39
-8.41 -4.04 2.39
-8.33 -4.21 2.39
-8.25 -4.38 2.39
-8.16 -4.54 2.39
-8.07 -4.71 2.39
-7.98 -4.87 2.39
-7.88 -5.03 2.39
-7.78 -5.19 2.39
-7.68 -5.34 2.39
-7.57 -5.50 2.39
-7.46 -5.65 2.39
-7.35 -5.80 2.39
-7.23 -5.95 2.39
-7.11 -6.09 2.39
-6.99 -6.24 2.39
-6.87 -6.38 2.39
-6.74 -6.51 2.39
-6.61 -6.65 2.39
-6.47 -6.78 2.39
-6.34 -6.91 2.39
-6.20 -7.04 2.39
-6.10 -7.22 2.41
-6.09 -7.50 2.46
-6.02 -7.72 2.49
-5.86 -7.84 2.49
-5.71 -7.96 2.49
-5.55 -8.08 2.49
-5.38 -8.19 2.49
-5.22 -8.29 2.49
-5.05 -8.40 2.49
-4.88 -8.50 2.49
-4.71 -8.60 2.49
-4.54 -8.69 2.49
-4.36 -8.78 2.49
-4.19 -8.87 2.49
-4.01 -8.95 2.49
-3.83 -9.03 2.49
-3.65 -9.10 2.49
-3.47 -9.18 2.49
-3.28 -9.25 2.49
-3.10 -9.31 2.49
-2.91 -9.37 2.49
-2.72 -9.43 2.49
-2.53 -9.48 2.49
-2.34 -9.53 2.49
-2.15 -9.57 2.49
-1.96 -9.62 2.49
-1.76 -9.65 2.49
-1.57 -9.69 2.49
-1.37 -9.72 2.49
-1.18 -9.74 2.49
-0.98 -9.76 2.49
-0.79 -9.78 2.49
-0.59 -9.79 2.49
-0.40 -9.80 2.49
-0.20 -9.81 2.49
-0.00 -8.96 2.49
0.18 -8.96 2.49
0.36 -8.95 2.49
0.54 -8.94 2.49
0.72 -8.93 2.49
0.89 -8.91 2.49
1.07 -8.89 2.49
1.25 -8.87 2.49
1.43 -8.84 2.49
1.61 -8.81 2.49
1.78 -8.77 2.49
1.96 -8.74 2.49
2.04 -8.33 2.39
2.21 -8.29 2.39
2.37 -8.24 2.39
2.54 -8.19 2.39
2.70 -8.14 2.39
2.86 -8.08 2.39
3.03 -8.02 2.39
3.19 -7.96 2.39
3.34 -7.89 2.39
3.50 -7.82 2.39
3.66 -7.75 2.39
3.81 -7.67 2.39
3.96 -7.59 2.39
4.11 -7.51 2.39
4.26 -7.42 2.39
4.41 -7.33 2.39
4.55 -7.24 2.39
4.70 -7.15 2.39
4.84 -7.05 2.39
4.98 -6.95 2.39
5.11 -6.85 2.39
5.25 -6.74 2.39
5.38 -6.63 2.39
5.51 -6.52 2.39
5.64 -6.41 2.39
5.77 -6.29 2.39
5.89 -6.18 2.39
6.05 -6.09 2.41
6.17 -5.97 2.41
6.29 -5.84 2.41
6.40 -5.71 2.41
6.51 -5.58 2.41
6.62 -5.45 2.41
6.73 -5.31 2.41
6.83 -5.18 2.41
6.93 -5.04 2.41
7.03 -4.90 2.41
7.12 -4.75 2.41
7.22 -4.61 2.41
7.30 -4.46 2.41
7.39 -4.31 2.41
7.47 -4.16 2.41
7.55 -4.01 2.41
7.62 -3.85 2.40
7.69 -3.69 2.40
7.76 -3.54 2.40
7.82 -3.38 2.40
7.88 -3.22 2.40
7.75 -2.98 2.34
7.80 -2.82 2.34
7.84 -2.66 2.34
7.89 -2.50 2.34
7.93 -2.34 2.34
7.97 -2.18 2.33
8.00 -2.02 2.33
8.04 -1.86 2.33
8.07 -1.69 2.33
8.09 -1.53 2.33
8.11 -1.37 2.33
8.13 -1.20 2.33
8.15 -1.04 2.33
8.16 -0.87 2.33
8.17 -0.71 2.33
8.18 -0.54 2.32
8.19 -0.38 2.32
8.19 -0.22 2.32
8.19 -0.05 2.32
8.18 0.11 2.32
8.18 0.28 2.32
8.17 0.44 2.32
8.16 0.61 2.32
8.14 0.77 2.32
8.12 0.93 2.33
8.10 1.09 2.33
8.08 1.26 2.33
8.06 1.42 2.33
8.03 1.58 2.33
8.26 1.80 2.41
8.22 1.96 2.41
8.17 2.13 2.41
8.13 2.29 2.41
8.08 2.45 2.41
8.02 2.61 2.41
7.97 2.77 2.41
7.66 2.84 2.33
7.13 2.81 2.19
6.80 2.84 2.11
6.62 2.92 2.07
6.62 3.08 2.09
7.56 3.71 2.41
7.48 3.86 2.41
7.40 4.00 2.41
7.32 4.15 2.41
7.23 4.30 2.41
7.14 4.44 2.41
7.05 4.58 2.41
6.96 4.72 2.41
6.86 4.86 2.41
6.76 4.99 2.41
6.65 5.13 2.41
6.55 5.26 2.41
6.44 5.39 2.41
6.33 5.52 2.41
6.22 5.64 2.41
6.10 5.76 2.41
5.98 5.88 2.41
5.82 5.96 2.39
5.70 6.08 2.39
5.58 6.19 2.39
5.45 6.30 2.39
5.32 6.40 2.39
5.19 6.51 2.39
5.06 6.61 2.39
4.92 6.71 2.39
4.79 6.81 2.39
4.65 6.90 2.39
4.51 6.99 2.39
4.37 7.08 2.39
4.22 7.17 2.39
4.08 7.25 2.39
3.93 7.33 2.39
3.78 7.40 2.39
3.63 7.48 2.39
3.48 7.55 2.39
3.33 7.62 2.39
2.95 7.15 2.22
2.91 7.45 2.30
2.75 7.51 2.30
2.60 7.56 2.30
2.37 7.35 2.22
2.39 7.96 2.39
2.23 8.00 2.39
2.06 8.05 2.39
1.91 8.14 2.41
1.81 8.47 2.49
1.64 8.51 2.49
1.47 8.54 2.49
1.30 8.57 2.49
1.13 8.59 2.49
0.95 8.61 2.49
0.78 8.63 2.49
0.61 8.64 2.49
0.43 8.66 2.49
0.26 8.66 2.49
0.09 8.67 2.49
-0.09 8.67 2.49
-0.26 8.66 2.49
-0.44 8.66 2.49
-0.61 8.65 2.49
-0.78 8.63 2.49
-0.96 8.62 2.49
-1.13 8.60 2.49
-1.30 8.57 2.49
-1.48 8.55 2.49
-1.65 8.52 2.49
-1.82 8.48 2.49
-1.99 8.45 2.49
-2.16 8.40 2.49
-2.33 8.36 2.49
-2.50 8.31 2.49
-2.66 8.26 2.49
-2.83 8.21 2.49
-2.99 8.15 2.49
-3.16 8.09 2.49
-3.32 8.03 2.49
-3.48 7.96 2.49
-3.64 7.89 2.49
-3.80 7.82 2.49
-3.96 7.74 2.49
-4.11 7.66 2.49
-4.27 7.58 2.49
-4.42 7.49 2.49
-4.57 7.40 2.49
-4.72 7.31 2.49
-4.86 7.22 2.49
-5.01 7.12 2.49
-5.15 7.02 2.49
-5.29 6.92 2.49
-5.43 6.81 2.49
-5.57 6.70 2.49
-5.71 6.59 2.49
-5.84 6.48 2.49
-5.97 6.36 2.49
-6.10 6.24 2.49
-6.13 6.03 2.46
-6.14 5.80 2.41
-6.20 5.62 2.39
-6.31 5.50 2.39
-6.42 5.37 2.39
-6.53 5.24 2.39
-6.64 5.11 2.39
-6.74 4.98 2.39
-6.84 4.85 2.39
-6.94 4.71 2.39
-7.04 4.57 2.39
-7.13 4.43 2.39
-7.22 4.29 2.39
-7.31 4.14 2.39
-7.39 4.00 2.39
-7.47 3.85 2.39
-7.55 3.70 2.39
-7.62 3.55 2.39
-7.70 3.39 2.39
-7.77 3.24 2.39
-7.83 3.08 2.39
-7.89 2.93 2.39
-7.95 2.77 2.39
-8.01 2.61 2.39
-8.06 2.45 2.39
-8.11 2.29 2.39
-8.16 2.12 2.39
-8.21 1.96 2.39
-8.25 1.80 2.39
-8.28 1.63 2.39
-8.32 1.47 2.39
-8.35 1.30 2.39
-8.37 1.13 2.39
-8.40 0.96 2.39
-8.42 0.79 2.39
-8.44 0.63 2.39
-8.45 0.46 2.39
-8.46 0.29 2.39
-8.47 0.12 2.39
-8.47 -0.05 2.39
-8.47 -0.22 2.39
-8.47 -0.39 2.39
-8.46 -0.56 2.39
-8.45 -0.73 2.39
-8.44 -0.90 2.39
-8.42 -1.07 2.39
-6.62 -0.98 1.88
-8.38 -1.41 2.39
-8.35 -1.58 2.39
-8.32 -1.75 2.39
-8.28 -1.91 2.39
-8.25 -2.08 2.39
-8.20 -2.25 2.39
-8.16 -2.41 2.39
-8.11 -2.57 2.39
-8.06 -2.74 2.39
-8.01 -2.90 2.39
-7.95 -3.06 2.39
-7.89 -3.22 2.39
-7.83 -3.38 2.39
-7.76 -3.54 2.39
-7.69 -3.69 2.39
-7.62 -3.85 2.39
-7.54 -4.00 2.39
-7.46 -4.15 2.39
-7.38 -4.30 2.39
-7.29 -4.45 2.39
-7.20 -4.60 2.39
-7.11 -4.74 2.39
-7.01 -4.88 2.39
-6.92 -5.02 2.39
-6.82 -5.16 2.39
-6.71 -5.30 2.39
-6.61 -5.43 2.39
-6.50 -5.57 2.39
-6.39 -5.70 2.39
-6.27 -5.83 2.39
-6.16 -5.95 2.39
-6.10 -6.14 2.42
-6.10 -6.39 2.46
-6.04 -6.59 2.49
-5.91 -6.71 2.49
-5.77 -6.83 2.49
-5.64 -6.94 2.49
-5.50 -7.06 2.49
-5.36 -7.17 2.49
-5.21 -7.27 2.49
-5.07 -7.38 2.49
-4.92 -7.48 2.49
-4.77 -7.58 2.49
-4.61 -7.67 2.49
-4.46 -7.76 2.49
-4.30 -7.85 2.49
-4.15 -7.94 2.49
-3.99 -8.02 2.49
-3.83 -8.10 2.49
-3.66 -8.17 2.49
-3.50 -8.25 2.49
-3.33 -8.32 2.49
-3.17 -8.38 2.49
-3.00 -8.44 2.49
-2.83 -8.50 2.49
-2.66 -8.56 2.49
-2.48 -8.61 2.49
-2.31 -8.66 2.49
-2.14 -8.70 2.49
-1.96 -8.75 2.49
-1.79 -8.78 2.49
-1.61 -8.82 2.49
-1.43 -8.85 2.49
-1.26 -8.87 2.49
-1.08 -8.90 2.49
-0.90 -8.92 2.49
-0.72 -8.93 2.49
-0.54 -8.95 2.49
-0.36 -8.95 2.49
-0.18 -8.96 2.49
-0.00 -8.24 2.49
0.16 -8.24 2.49
0.33 -8.23 2.49
0.49 -8.22 2.49
0.66 -8.21 2.49
0.82 -8.19 2.49
0.99 -8.18 2.49
1.15 -8.15 2.49
1.31 -8.13 2.49
1.48 -8.10 2.49
1.64 -8.07 2.49
1.80 -8.03 2.49
1.95 -7.97 2.49
2.03 -7.62 2.39
2.18 -7.58 2.39
2.33 -7.53 2.39
2.48 -7.48 2.39
2.63 -7.43 2.39
2.78 -7.38 2.39
2.93 -7.32 2.39
3.07 -7.26 2.39
3.22 -7.19 2.39
3.36 -7.12 2.39
3.50 -7.05 2.39
3.64 -6.98 2.39
3.78 -6.91 2.39
3.92 -6.83 2.39
4.05 -6.75 2.39
4.19 -6.66 2.39
4.32 -6.57 2.39
4.45 -6.49 2.39
4.58 -6.39 2.39
4.70 -6.30 2.39
4.83 -6.20 2.39
4.95 -6.10 2.39
5.07 -6.00 2.39
5.19 -5.90 2.39
5.30 -5.79 2.39
5.42 -5.68 2.39
5.53 -5.57 2.39
5.64 -5.46 2.39
5.75 -5.34 2.39
5.85 -5.22 2.39
5.95 -5.10 2.39
6.09 -5.01 2.41
6.19 -4.89 2.41
6.28 -4.76 2.41
6.38 -4.63 2.41
6.47 -4.50 2.41
6.55 -4.37 2.41
6.64 -4.24 2.41
6.72 -4.10 2.41
6.79 -3.96 2.41
6.87 -3.82 2.40
6.94 -3.68 2.40
7.01 -3.54 2.40
7.07 -3.40 2.40
7.14 -3.25 2.40
7.06 -3.05 2.36
7.12 -2.91 2.36
7.17 -2.76 2.35
7.21 -2.61 2.35
7.26 -2.47 2.35
7.30 -2.32 2.35
7.34 -2.17 2.35
7.38 -2.02 2.35
7.41 -1.87 2.35
7.45 -1.72 2.35
7.47 -1.57 2.35
7.50 -1.42 2.35
7.52 -1.27 2.35
7.54 -1.12 2.35
7.56 -0.96 2.35
7.57 -0.81 2.34
7.58 -0.66 2.34
7.59 -0.51 2.34
7.60 -0.35 2.34
7.60 -0.20 2.34
7.60 -0.05 2.34
