ply
format ascii 1.0
element vertex 2908
property float32 x
property float32 y
property float32 z
end_header
6.27 32.43 2.39
5.61 32.52 2.39
4.95 32.59 2.39
4.29 32.65 2.39
3.41 30.72 2.25
2.83 31.14 2.27
2.39 33.89 2.47
1.73 34.18 2.49
1.04 34.17 2.49
0.35 34.15 2.49
-0.33 34.12 2.49
-1.02 34.07 2.49
-1.70 34.01 2.49
-2.38 33.93 2.49
-3.06 33.85 2.49
-3.73 33.75 2.49
-4.40 33.63 2.49
-5.07 33.50 2.49
-5.66 32.87 2.46
-6.14 31.83 2.39
-6.77 31.67 2.39
-7.39 31.50 2.39
-8.02 31.31 2.39
-8.64 31.12 2.39
-9.25 30.91 2.39
-6.33 19.71 1.54
-9.42 27.43 2.15
-9.49 25.91 2.05
-9.50 24.41 1.95
-9.47 22.96 1.85
-9.51 21.81 1.77
-9.52 20.68 1.70
-9.53 19.65 1.63
-9.53 18.69 1.57
-9.54 17.81 1.51
-9.54 16.99 1.46
-9.55 16.23 1.41
-9.55 15.51 1.37
-9.55 14.84 1.32
-9.56 14.21 1.29
-9.56 13.62 1.25
-9.56 13.06 1.22
-9.57 12.53 1.19
-9.57 12.02 1.16
-9.57 11.54 1.13
-9.51 11.01 1.10
-9.58 10.65 1.08
-9.58 10.23 1.06
-9.58 9.83 1.04
-9.59 9.45 1.02
-9.59 9.08 1.00
-9.59 8.72 0.98
-9.59 8.38 0.97
-9.59 8.04 0.95
-9.60 7.72 0.94
-9.60 7.41 0.92
-9.53 7.06 0.90
-9.60 6.82 0.90
-9.60 6.53 0.88
-9.60 6.26 0.87
-9.61 5.99 0.86
-9.61 5.72 0.85
-9.61 5.46 0.84
-9.61 5.21 0.83
-9.61 4.97 0.83
-9.61 4.72 0.82
-9.61 4.49 0.81
-9.62 4.26 0.80
-9.62 4.03 0.80
-9.62 3.80 0.79
-9.62 3.58 0.79
-9.62 3.36 0.78
-9.62 3.15 0.78
-9.62 2.94 0.77
-9.63 2.73 0.77
-9.63 2.52 0.76
-9.63 2.31 0.76
-9.63 2.11 0.76
-9.63 1.91 0.75
-9.63 1.71 0.75
-9.63 1.51 0.75
-9.63 1.31 0.75
-9.63 1.12 0.75
-9.64 0.92 0.74
-9.64 0.73 0.74
-9.64 0.53 0.74
-9.64 0.34 0.74
-9.64 0.15 0.74
-9.64 -0.05 0.74
-9.64 -0.24 0.74
-9.64 -0.44 0.74
-9.64 -0.63 0.74
-9.65 -0.82 0.74
-9.59 -1.01 0.74
-9.65 -1.22 0.75
-9.65 -1.41 0.75
-9.65 -1.61 0.75
-9.65 -1.81 0.76
-9.65 -2.02 0.76
-9.65 -2.22 0.76
-9.66 -2.42 0.77
-9.66 -2.63 0.77
-9.66 -2.84 0.77
-9.66 -3.05 0.78
-9.66 -3.27 0.78
-9.66 -3.49 0.79
-9.66 -3.71 0.79
-9.66 -3.93 0.80
-9.67 -4.16 0.81
-9.67 -4.39 0.81
-9.67 -4.63 0.82
-9.67 -5.12 0.84
-9.67 -5.37 0.85
-9.67 -5.63 0.86
-9.68 -5.89 0.87
-9.68 -6.17 0.88
-9.68 -6.44 0.89
-9.68 -6.73 0.90
-9.68 -7.02 0.91
-9.68 -7.32 0.93
-9.69 -7.64 0.94
-9.69 -7.96 0.96
-9.69 -8.29 0.97
-9.69 -8.64 0.99
-9.63 -8.93 1.00
-9.70 -9.36 1.03
-9.70 -9.75 1.05
-9.70 -10.15 1.07
-9.70 -10.57 1.09
-9.71 -11.01 1.11
-9.71 -11.47 1.14
-9.71 -11.95 1.17
-9.71 -12.46 1.20
-9.66 -12.91 1.22
-9.72 -13.56 1.26
-9.72 -14.15 1.30
-9.73 -14.79 1.34
-9.73 -15.46 1.38
-9.74 -16.18 1.42
-9.71 -16.88 1.47
-9.75 -17.77 1.53
-9.75 -18.66 1.58
-9.76 -19.62 1.65
-9.76 -20.66 1.72
-9.77 -21.80 1.79
-9.78 -23.04 1.88
-9.79 -24.42 1.97
-9.79 -25.93 2.07
-9.75 -27.46 2.18
-9.49 -30.59 2.39
-8.88 -30.81 2.39
-8.27 -31.01 2.39
-7.66 -31.20 2.39
-7.03 -31.37 2.39
-6.23 -30.64 2.32
-6.03 -33.05 2.49
-5.37 -33.20 2.49
-4.71 -33.33 2.49
-4.04 -33.45 2.49
-3.37 -33.56 2.49
-2.70 -33.65 2.49
-2.03 -33.73 2.49
-1.35 -33.80 2.49
-0.67 -33.85 2.49
0.00 -13.19 1.27
0.27 -13.19 1.27
0.53 -13.19 1.27
0.80 -13.19 1.27
1.07 -13.19 1.27
1.33 -13.20 1.27
2.47 -20.31 1.96
2.88 -20.31 1.96
4.00 -24.66 2.39
4.50 -24.60 2.39
5.00 -24.52 2.39
5.49 -24.43 2.39
5.99 -24.33 2.39
6.52 -24.39 2.41
7.02 -24.27 2.41
7.51 -24.15 2.41
8.00 -24.01 2.41
8.48 -23.86 2.41
8.84 -23.36 2.37
9.12 -22.73 2.32
9.40 -22.12 2.28
9.69 -21.59 2.24
6.82 -14.41 1.51
6.52 -13.09 1.38
6.52 -12.46 1.33
6.52 -11.88 1.28
6.53 -11.34 1.24
6.49 -10.78 1.19
6.53 -10.36 1.15
6.53 -9.92 1.12
6.51 -9.46 1.08
6.57 -9.16 1.06
6.72 -8.97 1.05
7.05 -9.03 1.08
7.35 -9.03 1.09
7.66 -9.04 1.11
7.97 -9.03 1.13
8.27 -9.01 1.15
8.65 -9.04 1.17
9.00 -9.04 1.20
9.34 -9.01 1.21
9.76 -9.05 1.25
10.13 -9.02 1.27
10.59 -9.05 1.30
11.02 -9.05 1.33
11.50 -9.06 1.37
11.97 -9.05 1.40
11.50 -8.34 1.32
11.54 -8.02 1.31
11.53 -7.67 1.29
11.53 -7.34 1.27
11.53 -7.02 1.26
11.53 -6.71 1.24
11.53 -6.40 1.23
11.56 -6.12 1.22
12.54 -6.31 1.30
12.54 -6.00 1.29
11.55 -5.25 1.18
12.54 -5.40 1.27
12.54 -5.10 1.26
11.56 -4.43 1.15
12.55 -4.52 1.24
12.55 -4.24 1.23
12.55 -3.96 1.22
12.55 -3.69 1.21
11.57 -3.15 1.11
12.55 -3.15 1.20
12.56 -2.88 1.19
12.56 -2.62 1.19
11.58 -2.17 1.09
12.56 -2.10 1.18
2.50 -0.37 0.23
2.48 -0.31 0.23
2.52 -0.27 0.23
21.66 -1.85 2.01
21.63 -1.41 2.00
11.57 -0.52 1.07
21.64 -0.54 2.00
21.67 -0.11 2.00
14.64 0.22 1.35
14.09 0.50 1.30
14.08 0.78 1.30
13.82 1.04 1.28
13.77 1.32 1.28
13.80 1.60 1.28
14.34 1.95 1.34
21.66 3.40 2.03
21.70 3.85 2.04
21.67 4.29 2.04
21.70 4.76 2.05
20.17 4.85 1.92
18.69 4.89 1.79
17.18 4.86 1.65
16.05 4.90 1.55
15.02 4.91 1.46
14.05 4.91 1.38
13.14 4.89 1.30
12.38 4.89 1.23
11.78 4.93 1.18
11.10 4.91 1.12
10.58 4.94 1.08
9.94 4.88 1.03
9.46 4.88 0.99
9.24 5.01 0.97
9.14 5.19 0.97
13.43 7.99 1.45
12.84 7.99 1.40
12.29 8.00 1.36
11.77 8.00 1.32
11.31 8.02 1.29
11.31 8.37 1.31
11.31 8.73 1.33
11.40 9.17 1.36
11.41 9.56 1.38
11.41 9.95 1.41
11.41 10.37 1.44
11.32 10.71 1.45
11.33 11.15 1.48
11.33 11.61 1.51
11.27 12.02 1.54
11.23 12.47 1.57
11.23 12.99 1.60
9.85 11.87 1.44
11.34 14.24 1.70
11.35 14.85 1.75
11.44 15.61 1.81
11.45 16.29 1.87
11.36 16.88 1.91
11.36 17.64 1.97
11.95 19.39 2.14
11.59 19.68 2.15
11.22 19.96 2.15
10.86 20.25 2.16
10.50 20.57 2.17
10.16 20.94 2.19
9.85 21.37 2.22
9.53 21.82 2.25
9.20 22.28 2.27
9.16 23.49 2.38
8.61 23.46 2.36
8.09 23.50 2.35
7.55 23.47 2.33
7.05 23.50 2.32
6.81 24.46 2.41
6.27 24.41 2.39
5.77 24.52 2.39
5.27 24.61 2.39
4.78 24.69 2.39
4.28 24.77 2.39
3.78 24.83 2.39
3.10 23.59 2.27
2.77 24.92 2.39
2.35 25.84 2.48
1.84 26.05 2.49
1.32 26.06 2.49
0.79 26.07 2.49
0.27 26.06 2.49
-0.25 26.04 2.49
-0.77 26.01 2.49
-1.30 25.97 2.49
-1.81 25.92 2.49
-2.33 25.86 2.49
-2.85 25.78 2.49
-3.36 25.70 2.49
-3.88 25.61 2.49
-4.39 25.51 2.49
-4.89 25.40 2.49
-5.40 25.27 2.49
-5.71 24.34 2.41
-6.13 23.96 2.39
-6.61 23.82 2.39
-7.08 23.66 2.39
-6.33 19.71 2.00
-8.01 23.33 2.39
-8.47 23.14 2.39
-8.93 22.95 2.39
-9.38 22.75 2.39
-10.81 24.78 2.63
-9.47 20.59 2.20
-9.51 19.62 2.12
-9.53 18.70 2.04
-9.54 17.81 1.97
-9.54 16.99 1.90
-9.55 16.23 1.84
-9.55 15.52 1.78
-9.55 14.85 1.73
-9.56 14.22 1.68
-9.56 13.62 1.63
-9.56 13.06 1.59
-9.57 12.53 1.54
-9.57 12.03 1.51
-9.57 11.55 1.47
-9.51 11.01 1.43
-9.58 10.65 1.41
-9.58 10.23 1.38
-9.58 9.83 1.35
-9.59 9.45 1.32
-9.59 9.08 1.30
-9.59 8.72 1.28
-9.59 8.38 1.26
-9.59 8.05 1.23
-9.60 7.72 1.22
-9.60 7.41 1.20
-9.53 7.06 1.17
-9.60 6.82 1.16
-9.60 6.53 1.15
-9.60 6.26 1.13
-9.61 5.99 1.12
-9.61 5.72 1.11
-9.61 5.46 1.09
-9.61 5.21 1.08
-9.61 4.97 1.07
-9.61 4.73 1.06
-9.61 4.49 1.05
-9.62 4.26 1.04
-9.62 4.03 1.03
-9.62 3.80 1.03
-9.62 3.58 1.02
-9.62 3.36 1.01
-9.62 3.15 1.01
-9.62 2.94 1.00
-9.63 2.73 0.99
-9.63 2.52 0.99
-9.63 2.32 0.98
-9.63 2.11 0.98
-9.63 1.91 0.98
-9.63 1.71 0.97
-9.63 1.51 0.97
-9.63 1.31 0.97
-9.63 1.12 0.97
-9.64 0.92 0.96
-9.64 0.73 0.96
-9.64 0.53 0.96
-9.64 0.34 0.96
-9.64 0.15 0.96
-9.64 -0.05 0.96
-9.64 -0.24 0.96
-9.64 -0.44 0.96
-9.64 -0.63 0.96
-9.65 -0.82 0.96
-9.59 -1.01 0.96
-9.65 -1.22 0.97
-9.65 -1.41 0.97
-9.65 -1.61 0.97
-9.65 -1.81 0.98
-9.65 -2.02 0.98
-9.65 -2.22 0.99
-9.66 -2.42 0.99
-9.66 -2.63 1.00
-9.66 -2.84 1.00
-9.66 -3.05 1.01
-9.66 -3.27 1.01
-9.66 -3.49 1.02
-9.66 -3.71 1.03
-9.66 -3.93 1.04
-9.67 -4.16 1.05
-9.67 -4.39 1.06
-9.67 -4.63 1.07
-9.67 -5.12 1.09
-9.67 -5.37 1.10
-9.67 -5.63 1.11
-9.68 -5.89 1.12
-9.68 -6.17 1.14
-9.68 -6.44 1.15
-9.68 -6.73 1.17
-9.68 -7.02 1.19
-9.68 -7.33 1.20
-9.69 -7.64 1.22
-9.69 -7.96 1.24
-9.69 -8.29 1.26
-9.69 -8.64 1.28
-9.63 -8.93 1.30
-9.70 -9.37 1.33
-9.70 -9.75 1.36
-9.70 -10.15 1.39
-9.70 -10.57 1.42
-9.71 -11.01 1.45
-9.71 -11.47 1.48
-9.71 -11.95 1.52
-9.71 -12.46 1.56
-9.66 -12.91 1.59
-9.72 -13.56 1.64
-9.72 -14.16 1.69
-9.73 -14.79 1.74
-9.73 -15.46 1.79
-9.74 -16.18 1.85
-9.70 -16.88 1.91
-9.75 -17.77 1.99
-9.75 -18.66 2.06
-9.72 -19.54 2.14
-9.56 -22.54 2.39
-9.11 -22.74 2.39
-8.66 -22.93 2.39
-8.20 -23.12 2.39
-7.74 -23.30 2.39
-7.28 -23.46 2.39
-6.81 -23.62 2.39
-6.34 -23.77 2.39
-5.98 -24.37 2.44
-5.62 -25.08 2.49
-5.12 -25.20 2.49
-4.62 -25.32 2.49
-4.11 -25.42 2.49
-3.60 -25.52 2.49
-3.09 -25.61 2.49
-2.58 -25.68 2.49
-2.06 -25.75 2.49
-1.55 -25.80 2.49
-0.53 -13.18 1.27
-0.26 -13.19 1.27
0.01 -13.04 1.55
0.27 -13.04 1.55
0.53 -13.04 1.55
0.79 -13.03 1.55
1.05 -13.02 1.55
1.32 -13.00 1.55
2.43 -20.01 2.39
2.83 -19.97 2.39
3.24 -19.92 2.39
3.64 -19.86 2.39
4.04 -19.80 2.39
4.44 -19.73 2.39
4.83 -19.64 2.39
5.23 -19.56 2.39
5.63 -19.46 2.39
6.02 -19.35 2.39
6.39 -19.19 2.38
6.72 -18.89 2.36
7.03 -18.57 2.34
7.34 -18.27 2.32
7.64 -17.99 2.30
7.95 -17.72 2.28
6.82 -14.40 1.87
6.52 -13.09 1.72
6.52 -12.46 1.65
6.52 -11.88 1.59
6.53 -11.34 1.53
6.49 -10.77 1.47
6.53 -10.36 1.43
6.53 -9.92 1.39
6.51 -9.46 1.34
6.58 -9.16 1.32
6.76 -9.03 1.32
7.05 -9.03 1.34
7.35 -9.03 1.36
7.66 -9.04 1.38
7.97 -9.03 1.40
8.27 -9.01 1.43
8.65 -9.04 1.46
9.01 -9.04 1.49
9.34 -9.01 1.51
9.76 -9.05 1.55
10.13 -9.02 1.58
10.59 -9.05 1.62
11.02 -9.04 1.66
11.50 -9.06 1.70
11.97 -9.05 1.74
11.50 -8.34 1.65
11.51 -7.99 1.62
11.51 -7.65 1.60
11.51 -7.33 1.58
11.51 -7.01 1.56
11.51 -6.70 1.54
11.52 -6.39 1.52
11.52 -6.09 1.51
11.52 -5.80 1.49
11.52 -5.52 1.48
11.52 -5.23 1.46
11.52 -4.96 1.45
11.53 -4.69 1.44
11.53 -4.42 1.43
11.53 -4.16 1.42
11.53 -3.90 1.41
11.53 -3.64 1.40
11.53 -3.39 1.39
11.54 -3.14 1.38
11.54 -2.89 1.37
11.54 -2.65 1.37
11.54 -2.41 1.36
11.54 -2.17 1.35
11.54 -1.93 1.35
2.50 -0.37 0.29
2.48 -0.31 0.29
2.52 -0.27 0.29
12.50 -1.07 1.45
18.65 -1.22 2.15
11.57 -0.52 1.33
18.98 -0.48 2.19
17.88 -0.09 2.06
14.29 0.22 1.65
13.98 0.49 1.61
13.98 0.77 1.61
13.98 1.05 1.61
13.98 1.34 1.62
13.99 1.62 1.62
13.99 1.91 1.63
17.67 2.77 2.06
17.61 3.12 2.06
17.54 3.48 2.06
17.47 3.83 2.06
17.38 4.18 2.06
18.40 4.81 2.19
17.18 4.86 2.06
16.05 4.90 1.93
15.02 4.91 1.82
14.05 4.91 1.72
13.14 4.89 1.62
12.38 4.89 1.54
11.78 4.93 1.47
11.10 4.91 1.40
10.58 4.94 1.35
10.05 4.94 1.29
9.57 4.94 1.24
9.10 4.93 1.20
8.71 4.95 1.16
8.26 4.92 1.11
7.96 4.95 1.08
7.75 5.05 1.07
11.77 8.00 1.65
11.31 8.02 1.60
11.31 8.37 1.63
11.31 8.73 1.65
11.40 9.17 1.69
11.41 9.55 1.72
11.41 9.95 1.75
11.41 10.37 1.79
11.32 10.71 1.81
11.33 11.15 1.84
11.33 11.61 1.88
11.27 12.02 1.91
11.23 12.47 1.95
11.23 12.99 2.00
9.85 11.87 1.79
11.12 13.96 2.08
11.35 14.84 2.17
11.27 15.36 2.22
9.79 13.94 1.98
10.65 15.81 2.22
10.41 16.15 2.24
10.19 16.54 2.27
9.99 16.96 2.30
9.77 17.37 2.33
9.49 17.70 2.35
9.05 17.72 2.33
8.67 17.85 2.32
8.35 18.11 2.33
8.01 18.34 2.34
7.66 18.54 2.35
7.31 18.74 2.36
6.95 18.93 2.36
6.58 19.11 2.37
6.24 19.38 2.39
5.85 19.49 2.39
5.45 19.59 2.39
5.05 19.69 2.39
4.66 19.77 2.39
4.26 19.85 2.39
3.85 19.92 2.39
3.45 19.98 2.39
3.05 20.03 2.39
2.64 20.08 2.39
2.32 20.84 2.48
1.91 21.01 2.49
1.49 21.03 2.49
1.07 21.05 2.49
0.64 21.05 2.49
0.22 21.05 2.49
-0.20 21.03 2.49
-0.62 21.01 2.49
-1.05 20.98 2.49
-1.47 20.95 2.49
-1.88 20.90 2.49
-2.30 20.84 2.49
-2.72 20.78 2.49
-3.13 20.71 2.49
-3.55 20.63 2.49
-3.96 20.54 2.49
-4.37 20.45 2.49
-4.77 20.34 2.49
-5.18 20.23 2.49
-5.58 20.11 2.49
-5.75 19.21 2.40
-6.11 19.02 2.39
-6.49 18.89 2.39
-6.86 18.74 2.39
-7.23 18.59 2.39
-7.60 18.43 2.39
-7.96 18.26 2.39
-8.32 18.09 2.39
-8.68 17.91 2.39
-8.40 16.48 2.22
-8.29 15.50 2.11
-9.72 17.32 2.39
-10.56 17.96 2.51
-8.21 13.34 1.89
-8.45 13.13 1.88
-9.56 14.22 2.07
-9.56 13.62 2.01
-9.56 13.06 1.95
-9.57 12.53 1.90
-9.57 12.03 1.86
-9.57 11.55 1.81
-9.51 11.01 1.76
-9.58 10.65 1.73
-9.58 10.23 1.70
-9.58 9.83 1.66
-9.59 9.45 1.63
-9.59 9.08 1.60
-9.59 8.72 1.57
-9.59 8.38 1.55
-9.59 8.05 1.52
-9.60 7.72 1.50
-9.60 7.41 1.47
-9.53 7.06 1.44
-9.60 6.82 1.43
-9.60 6.53 1.41
-9.60 6.26 1.39
-9.61 5.99 1.38
-9.61 5.72 1.36
-9.61 5.47 1.35
-9.61 5.21 1.33
-9.61 4.97 1.32
-9.61 4.73 1.31
-9.61 4.49 1.29
-9.62 4.26 1.28
-9.62 4.03 1.27
-9.62 3.80 1.26
-9.62 3.58 1.25
-9.62 3.36 1.24
-9.62 3.15 1.24
-9.62 2.94 1.23
-9.63 2.73 1.22
-9.63 2.52 1.22
-9.63 2.32 1.21
-9.63 2.11 1.21
-9.63 1.91 1.20
-9.63 1.71 1.20
-9.63 1.51 1.19
-9.63 1.31 1.19
-9.63 1.12 1.19
-9.64 0.92 1.18
-9.64 0.73 1.18
-9.64 0.53 1.18
-9.64 0.34 1.18
-9.64 0.15 1.18
-9.64 -0.05 1.18
-9.64 -0.24 1.18
-9.64 -0.44 1.18
-9.64 -0.63 1.18
-9.65 -0.83 1.19
-9.59 -1.01 1.18
-9.65 -1.22 1.19
-9.65 -1.41 1.19
-9.65 -1.61 1.20
-9.65 -1.81 1.20
-9.65 -2.02 1.21
-9.65 -2.22 1.21
-9.66 -2.42 1.22
-9.66 -2.63 1.22
-9.66 -2.84 1.23
-9.66 -3.05 1.24
-9.66 -3.27 1.25
-9.66 -3.49 1.26
-9.66 -3.71 1.27
-9.66 -3.93 1.28
-9.67 -4.16 1.29
-9.67 -4.40 1.30
-9.67 -4.63 1.31
-9.66 -4.87 1.32
-9.67 -5.12 1.34
-9.67 -5.37 1.35
-9.67 -5.63 1.37
-9.68 -5.90 1.38
-9.68 -6.17 1.40
-9.68 -6.44 1.42
-9.68 -6.73 1.44
-9.68 -7.02 1.46
-9.68 -7.33 1.48
-9.69 -7.64 1.50
-9.69 -7.96 1.53
-9.69 -8.29 1.55
-9.69 -8.64 1.58
-9.63 -8.93 1.60
-9.70 -9.37 1.64
-9.70 -9.75 1.67
-9.70 -10.16 1.71
-9.70 -10.58 1.74
-9.71 -11.01 1.78
-9.71 -11.47 1.82
-9.71 -11.96 1.87
-9.71 -12.46 1.92
-9.66 -12.91 1.95
-9.72 -13.56 2.02
-9.72 -14.16 2.08
-9.69 -14.73 2.13
-9.68 -15.37 2.20
-9.70 -16.89 2.35
-9.52 -17.36 2.39
-9.17 -17.56 2.39
-8.82 -17.75 2.39
-8.47 -17.93 2.39
-8.11 -18.11 2.39
-7.75 -18.27 2.39
-7.39 -18.44 2.39
-7.02 -18.59 2.39
-6.65 -18.74 2.39
-6.27 -18.88 2.39
-5.94 -19.17 2.41
-5.75 -19.96 2.49
-5.36 -20.09 2.49
-4.95 -20.20 2.49
-4.55 -20.31 2.49
-4.14 -20.41 2.49
-3.74 -20.50 2.49
-3.33 -20.58 2.49
-2.91 -20.66 2.49
-2.50 -20.72 2.49
-2.08 -20.78 2.49
-1.67 -20.83 2.49
-1.25 -20.87 2.49
-0.52 -13.01 1.55
-0.26 -13.03 1.55
0.01 -12.12 1.72
0.25 -12.12 1.72
0.49 -12.12 1.72
0.74 -12.12 1.72
0.98 -12.12 1.72
1.23 -12.12 1.73
2.09 -17.23 2.46
2.38 -16.74 2.39
2.71 -16.69 2.39
3.05 -16.64 2.39
3.38 -16.59 2.39
3.72 -16.53 2.39
4.05 -16.46 2.39
4.38 -16.38 2.39
4.71 -16.30 2.39
5.04 -16.21 2.39
5.37 -16.11 2.39
5.69 -16.01 2.39
6.02 -15.90 2.39
6.36 -15.83 2.40
6.64 -15.62 2.38
6.92 -15.42 2.37
6.81 -14.40 2.24
6.52 -13.08 2.05
6.52 -12.46 1.97
6.52 -11.88 1.90
6.53 -11.34 1.83
6.49 -10.77 1.76
6.53 -10.36 1.71
6.53 -9.92 1.66
6.51 -9.46 1.61
6.58 -9.16 1.58
6.76 -9.03 1.58
7.05 -9.03 1.60
7.35 -9.03 1.62
7.66 -9.04 1.65
7.97 -9.03 1.68
8.28 -9.01 1.71
8.65 -9.04 1.74
9.01 -9.04 1.78
9.34 -9.01 1.81
9.76 -9.05 1.85
10.13 -9.02 1.89
10.59 -9.05 1.94
11.02 -9.04 1.98
11.50 -9.06 2.04
11.97 -9.04 2.08
11.50 -8.34 1.97
11.51 -7.99 1.95
11.51 -7.65 1.92
11.51 -7.33 1.89
11.51 -7.01 1.87
11.51 -6.70 1.85
11.52 -6.39 1.83
11.52 -6.09 1.81
11.52 -5.80 1.79
11.52 -5.51 1.77
11.52 -5.23 1.75
11.52 -4.96 1.74
11.53 -4.69 1.72
11.53 -4.42 1.71
11.53 -4.16 1.70
11.53 -3.90 1.68
11.53 -3.64 1.67
11.53 -3.39 1.66
11.54 -3.14 1.65
11.54 -2.89 1.64
11.54 -2.65 1.64
11.54 -2.41 1.63
11.54 -2.17 1.62
11.54 -1.93 1.62
2.50 -0.37 0.35
2.48 -0.31 0.35
2.52 -0.27 0.35
11.58 -0.99 1.61
11.57 -0.76 1.60
11.57 -0.52 1.60
14.78 -0.37 2.04
14.78 -0.07 2.04
14.35 0.22 1.98
14.78 0.52 2.04
14.76 0.82 2.04
14.74 1.11 2.04
14.72 1.41 2.04
14.69 1.70 2.04
14.34 1.95 2.00
14.60 2.29 2.04
14.55 2.58 2.04
14.50 2.87 2.04
14.43 3.16 2.04
14.37 3.45 2.04
14.29 3.74 2.04
14.21 4.02 2.04
15.32 4.67 2.21
15.02 4.91 2.18
14.05 4.91 2.06
13.14 4.89 1.94
12.39 4.89 1.84
11.78 4.93 1.77
11.10 4.91 1.68
10.59 4.94 1.62
10.05 4.94 1.55
9.58 4.94 1.49
9.10 4.93 1.43
8.71 4.95 1.39
8.26 4.92 1.33
7.96 4.95 1.30
7.75 5.05 1.28
11.77 8.00 1.97
11.31 8.02 1.92
11.31 8.37 1.95
11.31 8.73 1.98
11.31 9.10 2.01
11.32 9.48 2.05
11.32 9.87 2.08
11.32 10.28 2.12
11.32 10.71 2.16
11.33 11.15 2.21
11.17 11.45 2.22
10.90 11.63 2.22
10.47 11.63 2.18
10.06 11.63 2.14
9.66 11.63 2.10
9.65 12.10 2.15
9.62 12.58 2.21
9.39 12.80 2.21
9.15 13.02 2.22
8.91 13.24 2.23
8.68 13.47 2.23
8.44 13.69 2.24
8.21 13.93 2.26
8.45 15.02 2.41
8.14 15.18 2.41
7.83 15.33 2.41
7.52 15.48 2.41
7.20 15.62 2.41
6.88 15.75 2.41
6.56 15.88 2.41
6.20 15.90 2.39
5.88 16.01 2.39
5.55 16.12 2.39
5.22 16.22 2.39
4.90 16.31 2.39
4.56 16.40 2.39
4.23 16.48 2.39
3.90 16.55 2.39
3.56 16.62 2.39
3.23 16.68 2.39
2.89 16.73 2.39
2.55 16.78 2.39
2.30 17.46 2.48
1.96 17.58 2.49
1.60 17.60 2.49
1.25 17.62 2.49
0.89 17.64 2.49
0.54 17.64 2.49
0.19 17.64 2.49
-0.17 17.63 2.49
-0.52 17.61 2.49
-0.87 17.59 2.49
-1.23 17.56 2.49
-1.58 17.52 2.49
-1.93 17.48 2.49
-2.28 17.43 2.49
-2.63 17.37 2.49
-2.97 17.30 2.49
-3.32 17.23 2.49
-3.66 17.15 2.49
-4.00 17.07 2.49
-4.34 16.98 2.49
-4.68 16.88 2.49
-5.01 16.77 2.49
-5.35 16.66 2.49
-5.68 16.54 2.49
-5.77 15.76 2.40
-6.07 15.61 2.39
-6.38 15.47 2.39
-6.68 15.34 2.39
-6.99 15.19 2.39
-7.29 15.04 2.39
-7.58 14.88 2.39
-7.88 14.72 2.39
-8.17 14.55 2.39
-8.45 14.38 2.39
-8.33 13.55 2.28
-9.02 14.02 2.39
-8.45 12.57 2.17
-9.56 13.63 2.39
-10.01 13.67 2.43
-8.21 10.75 1.94
-8.22 10.33 1.90
-8.35 10.07 1.88
-8.55 9.90 1.88
-9.58 10.65 2.06
-9.58 10.24 2.02
-9.58 9.83 1.98
-9.59 9.45 1.94
-9.59 9.08 1.90
-9.59 8.72 1.87
-9.59 8.38 1.84
-9.59 8.05 1.81
-9.60 7.73 1.78
-9.60 7.41 1.75
-9.53 7.06 1.71
-9.60 6.82 1.70
-9.60 6.53 1.68
-9.60 6.26 1.66
-9.61 5.99 1.64
-9.61 5.72 1.62
-9.61 5.47 1.60
-9.61 5.21 1.58
-9.61 4.97 1.57
-9.61 4.73 1.55
-9.61 4.49 1.54
-9.62 4.26 1.52
-9.62 4.03 1.51
-9.62 3.80 1.50
-9.62 3.58 1.49
-9.62 3.37 1.48
-9.62 3.15 1.47
-9.62 2.94 1.46
-9.63 2.73 1.45
-9.63 2.52 1.44
-9.63 2.32 1.44
-9.63 2.11 1.43
-9.63 1.91 1.43
-9.63 1.71 1.42
-9.63 1.51 1.42
-9.63 1.31 1.41
-9.63 1.12 1.41
-9.64 0.92 1.41
-9.64 0.73 1.40
-9.64 0.53 1.40
-9.64 0.34 1.40
-9.64 0.15 1.40
-9.64 -0.05 1.40
-9.64 -0.24 1.40
-9.64 -0.44 1.40
-9.64 -0.63 1.40
-9.65 -0.83 1.41
-9.59 -1.01 1.40
-9.65 -1.22 1.41
-9.65 -1.41 1.42
-9.65 -1.61 1.42
-9.65 -1.81 1.43
-9.65 -2.02 1.43
-9.65 -2.22 1.44
-9.66 -2.42 1.45
-9.66 -2.63 1.45
-9.66 -2.84 1.46
-9.66 -3.05 1.47
-9.66 -3.27 1.48
-9.66 -3.49 1.49
-9.66 -3.71 1.50
-9.66 -3.93 1.51
-9.67 -4.16 1.53
-9.67 -4.40 1.54
-9.67 -4.63 1.56
-9.66 -4.87 1.57
-9.67 -5.12 1.59
-9.67 -5.37 1.60
-9.67 -5.63 1.62
-9.68 -5.90 1.64
-9.68 -6.17 1.66
-9.68 -6.44 1.68
-9.68 -6.73 1.71
-9.68 -7.02 1.73
-9.68 -7.33 1.76
-9.69 -7.64 1.79
-9.69 -7.96 1.81
-9.69 -8.29 1.84
-9.69 -8.64 1.88
-9.63 -8.93 1.90
-9.70 -9.37 1.95
-9.70 -9.75 1.99
-9.70 -10.16 2.03
-9.70 -10.58 2.07
-9.71 -11.02 2.12
-9.65 -11.41 2.16
-9.68 -11.92 2.21
-9.66 -12.92 2.32
-9.67 -13.49 2.39
-9.40 -13.69 2.39
-9.13 -13.88 2.39
-8.85 -14.07 2.39
-8.57 -14.25 2.39
-8.29 -14.42 2.39
-8.00 -14.59 2.39
-7.71 -14.76 2.39
-7.41 -14.91 2.39
-7.11 -15.07 2.39
-6.81 -15.21 2.39
-6.51 -15.35 2.39
-6.20 -15.49 2.39
-5.95 -15.76 2.41
-5.82 -16.42 2.49
-5.49 -16.54 2.49
-5.16 -16.66 2.49
-4.83 -16.76 2.49
-4.50 -16.87 2.49
-4.16 -16.96 2.49
-3.82 -17.05 2.49
-3.48 -17.13 2.49
-3.13 -17.21 2.49
-2.79 -17.27 2.49
-2.44 -17.33 2.49
-2.10 -17.39 2.49
-1.75 -17.44 2.49
-1.40 -17.48 2.49
-1.05 -17.51 2.49
-0.48 -12.11 1.72
-0.24 -12.11 1.72
0.01 -12.11 2.00
0.25 -12.12 2.00
0.49 -12.12 2.00
0.74 -12.12 2.00
0.98 -12.12 2.00
1.23 -12.12 2.01
1.54 -12.62 2.09
2.11 -14.85 2.47
2.33 -14.35 2.39
2.62 -14.31 2.39
2.91 -14.26 2.39
3.20 -14.21 2.39
3.48 -14.15 2.39
3.77 -14.08 2.39
4.05 -14.01 2.39
4.33 -13.93 2.39
4.61 -13.84 2.39
4.89 -13.76 2.39
5.17 -13.66 2.39
5.45 -13.56 2.39
5.72 -13.45 2.39
5.99 -13.34 2.39
6.30 -13.31 2.41
6.52 -13.08 2.39
6.52 -12.46 2.30
6.52 -11.88 2.21
6.53 -11.34 2.13
6.49 -10.77 2.05
6.53 -10.36 2.00
6.53 -9.92 1.93
6.51 -9.46 1.87
6.58 -9.16 1.84
6.76 -9.03 1.84
7.05 -9.03 1.86
7.35 -9.03 1.89
7.66 -9.04 1.93
7.97 -9.03 1.96
8.28 -9.01 1.99
8.65 -9.04 2.03
9.01 -9.04 2.07
9.34 -9.01 2.11
9.77 -9.05 2.16
10.13 -9.02 2.20
10.30 -8.80 2.20
10.37 -8.51 2.17
10.45 -8.23 2.15
10.55 -7.97 2.14
10.64 -7.71 2.13
10.74 -7.46 2.12
10.94 -7.27 2.13
11.16 -7.10 2.14
11.37 -6.92 2.15
11.51 -6.69 2.15
11.52 -6.39 2.13
11.52 -6.09 2.11
11.52 -5.80 2.08
11.52 -5.51 2.06
11.52 -5.23 2.04
11.52 -4.96 2.03
11.53 -4.69 2.01
11.53 -4.42 1.99
11.53 -4.16 1.98
11.53 -3.90 1.96
11.53 -3.64 1.95
11.53 -3.39 1.94
11.54 -3.14 1.93
11.54 -2.89 1.92
11.54 -2.65 1.91
11.54 -2.41 1.90
11.54 -2.17 1.89
11.54 -1.93 1.89
2.50 -0.37 0.41
2.48 -0.31 0.40
2.52 -0.27 0.41
11.58 -0.99 1.87
13.89 -0.91 2.24
11.57 -0.52 1.86
12.75 -0.32 2.05
12.75 -0.06 2.05
12.75 0.19 2.05
12.75 0.45 2.05
12.74 0.70 2.05
12.72 0.96 2.05
12.70 1.21 2.05
12.68 1.47 2.06
12.65 1.72 2.06
12.61 1.98 2.06
12.57 2.23 2.06
12.53 2.48 2.06
12.48 2.73 2.06
12.43 2.99 2.06
12.37 3.24 2.06
12.32 3.49 2.06
12.26 3.74 2.07
12.20 3.99 2.07
12.98 4.54 2.22
12.91 4.80 2.22
12.39 4.89 2.15
11.78 4.93 2.06
11.10 4.91 1.96
10.59 4.94 1.88
10.05 4.94 1.81
9.58 4.94 1.74
9.10 4.93 1.67
8.71 4.95 1.62
8.26 4.92 1.55
7.96 4.95 1.51
7.75 5.05 1.49
11.43 7.77 2.23
11.26 7.99 2.23
11.08 8.20 2.23
10.90 8.41 2.23
10.76 8.65 2.23
10.62 8.90 2.24
10.48 9.14 2.25
10.34 9.39 2.26
10.19 9.64 2.27
10.05 9.90 2.28
9.91 10.16 2.30
9.77 10.42 2.31
9.63 10.69 2.33
9.49 10.97 2.35
9.32 11.22 2.37
9.15 11.48 2.38
8.97 11.73 2.40
8.77 11.95 2.41
8.22 11.70 2.32
7.88 11.71 2.29
7.63 11.83 2.29
7.43 12.05 2.30
7.23 12.26 2.31
7.02 12.48 2.33
6.81 12.70 2.35
6.60 12.92 2.36
6.38 13.14 2.38
6.14 13.32 2.39
5.87 13.44 2.39
5.60 13.55 2.39
5.33 13.65 2.39
5.05 13.75 2.39
4.77 13.84 2.39
4.49 13.93 2.39
4.21 14.01 2.39
3.92 14.09 2.39
3.64 14.16 2.39
3.35 14.22 2.39
3.06 14.28 2.39
2.78 14.33 2.39
2.49 14.38 2.39
2.29 15.01 2.49
1.99 15.08 2.49
1.68 15.11 2.49
1.38 15.13 2.49
1.08 15.15 2.49
0.77 15.16 2.49
0.47 15.17 2.49
0.16 15.17 2.49
-0.14 15.16 2.49
-0.45 15.15 2.49
-0.75 15.13 2.49
-1.05 15.10 2.49
-1.36 15.07 2.49
-1.66 15.04 2.49
-1.96 14.99 2.49
-2.26 14.94 2.49
-2.56 14.89 2.49
-2.85 14.83 2.49
-3.15 14.76 2.49
-3.44 14.69 2.49
-3.74 14.61 2.49
-4.03 14.52 2.49
-4.32 14.43 2.49
-4.60 14.34 2.49
-4.89 14.24 2.49
-5.17 14.13 2.49
-5.45 14.02 2.49
-5.73 13.90 2.49
-5.78 13.27 2.40
-6.02 13.08 2.39
-6.27 12.95 2.39
-6.53 12.82 2.39
-6.78 12.68 2.39
-7.03 12.54 2.39
-7.28 12.39 2.39
-7.53 12.23 2.39
-7.77 12.08 2.39
-8.01 11.91 2.39
-8.24 11.75 2.39
-8.47 11.57 2.39
-8.70 11.40 2.39
-8.48 10.66 2.27
-9.14 11.03 2.39
-8.35 9.68 2.13
-9.57 10.65 2.39
-9.78 10.45 2.39
-10.11 10.37 2.42
-8.22 8.11 1.93
-8.23 7.80 1.90
-8.32 7.57 1.88
-8.47 7.40 1.88
-8.61 7.22 1.88
-9.60 7.73 2.06
-9.60 7.42 2.03
-9.53 7.06 1.99
-9.60 6.82 1.97
-9.60 6.54 1.95
-9.60 6.26 1.92
-9.61 5.99 1.90
-9.61 5.72 1.88
-9.61 5.47 1.86
-9.61 5.21 1.84
-9.61 4.97 1.82
-9.61 4.73 1.80
-9.61 4.49 1.78
-9.62 4.26 1.77
-9.62 4.03 1.75
-9.62 3.80 1.74
-9.62 3.58 1.73
-9.62 3.37 1.71
-9.62 3.15 1.70
-9.62 2.94 1.69
-9.63 2.73 1.68
-9.63 2.52 1.67
-9.63 2.32 1.67
-9.63 2.11 1.66
-9.63 1.91 1.65
-9.63 1.71 1.65
-9.63 1.51 1.64
-9.63 1.31 1.64
-9.63 1.12 1.63
-9.64 0.92 1.63
-9.64 0.73 1.63
-9.64 0.53 1.63
-9.64 0.34 1.62
-9.64 0.15 1.62
-9.64 -0.05 1.62
-9.64 -0.24 1.62
-9.64 -0.44 1.63
-9.64 -0.63 1.63
-9.65 -0.83 1.63
-9.59 -1.01 1.62
-9.65 -1.22 1.64
-9.65 -1.41 1.64
-9.65 -1.61 1.65
-9.65 -1.81 1.65
-9.65 -2.02 1.66
-9.65 -2.22 1.67
-9.66 -2.42 1.68
-9.66 -2.63 1.69
-9.66 -2.84 1.69
-9.66 -3.05 1.71
-9.66 -3.27 1.72
-9.66 -3.49 1.73
-9.66 -3.71 1.74
-9.66 -3.93 1.76
-9.67 -4.16 1.77
-9.67 -4.40 1.79
-9.67 -4.63 1.80
-9.66 -4.87 1.82
-9.67 -5.12 1.84
-9.67 -5.37 1.86
-9.67 -5.63 1.88
-9.68 -5.90 1.90
-9.68 -6.17 1.93
-9.68 -6.45 1.95
-9.68 -6.73 1.98
-9.68 -7.02 2.01
-9.68 -7.33 2.04
-9.69 -7.64 2.07
-9.69 -7.96 2.10
-9.66 -8.27 2.13
-9.63 -8.59 2.16
-9.63 -8.94 2.20
-9.86 -10.32 2.39
-9.65 -10.52 2.39
-9.44 -10.72 2.39
-9.23 -10.91 2.39
-9.01 -11.10 2.39
-8.79 -11.28 2.39
-8.56 -11.46 2.39
-8.33 -11.63 2.39
-8.10 -11.80 2.39
-7.87 -11.96 2.39
-7.63 -12.12 2.39
-7.38 -12.28 2.39
-7.14 -12.43 2.39
-6.89 -12.57 2.39
-6.64 -12.71 2.39
-6.39 -12.85 2.39
-6.14 -13.00 2.39
-5.93 -13.25 2.42
-5.85 -13.80 2.49
-5.57 -13.92 2.49
-5.29 -14.03 2.49
-5.01 -14.14 2.49
-4.73 -14.25 2.49
-4.45 -14.34 2.49
-4.16 -14.44 2.49
-3.87 -14.52 2.49
-3.58 -14.60 2.49
-3.29 -14.68 2.49
-2.99 -14.75 2.49
-2.70 -14.81 2.49
-2.40 -14.87 2.49
-2.10 -14.92 2.49
-1.80 -14.97 2.49
-1.50 -15.01 2.49
-1.20 -15.04 2.49
-0.75 -12.53 2.07
-0.48 -12.11 2.00
-0.24 -12.11 2.00
0.01 -12.11 2.28
0.25 -12.12 2.28
0.49 -12.12 2.28
0.74 -12.12 2.28
0.98 -12.12 2.29
1.23 -12.12 2.29
1.60 -13.18 2.49
1.87 -13.15 2.49
2.12 -13.03 2.48
2.31 -12.61 2.40
2.55 -12.49 2.39
2.80 -12.45 2.39
3.05 -12.39 2.39
3.30 -12.33 2.39
3.55 -12.27 2.39
3.80 -12.20 2.39
4.04 -12.13 2.39
4.29 -12.05 2.39
4.53 -11.96 2.39
4.77 -11.87 2.39
5.01 -11.78 2.39
5.25 -11.68 2.39
5.48 -11.58 2.39
5.72 -11.47 2.39
5.95 -11.36 2.39
6.22 -11.32 2.41
6.45 -11.19 2.41
6.49 -10.77 2.34
6.53 -10.35 2.28
6.53 -9.91 2.21
6.51 -9.46 2.14
6.58 -9.16 2.10
6.77 -9.03 2.10
7.05 -9.03 2.13
7.35 -9.03 2.16
7.66 -9.04 2.20
7.97 -9.03 2.24
8.28 -9.01 2.27
8.65 -9.04 2.32
9.00 -9.03 2.37
9.11 -8.79 2.35
9.23 -8.55 2.33
9.34 -8.31 2.32
9.44 -8.07 2.30
9.55 -7.83 2.29
9.65 -7.60 2.27
9.75 -7.36 2.26
9.84 -7.13 2.25
9.94 -6.90 2.24
10.03 -6.67 2.23
10.11 -6.43 2.22
10.19 -6.20 2.21
10.26 -5.97 2.20
10.33 -5.73 2.18
10.39 -5.50 2.17
10.45 -5.26 2.16
10.51 -5.03 2.15
10.56 -4.79 2.14
10.61 -4.56 2.13
10.66 -4.33 2.12
10.70 -4.10 2.12
10.74 -3.87 2.11
10.83 -3.66 2.11
10.96 -3.46 2.12
11.08 -3.26 2.13
11.20 -3.05 2.14
11.31 -2.84 2.15
11.42 -2.62 2.16
11.53 -2.40 2.17
11.54 -2.17 2.17
11.54 -1.93 2.16
2.50 -0.37 0.47
2.48 -0.31 0.46
2.52 -0.27 0.47
11.55 -0.99 2.14
11.57 -0.75 2.14
11.44 -0.52 2.11
11.45 -0.29 2.11
11.45 -0.06 2.11
11.45 0.17 2.11
11.45 0.40 2.11
11.44 0.63 2.11
11.43 0.86 2.11
11.41 1.09 2.11
11.39 1.32 2.11
11.37 1.55 2.11
11.34 1.78 2.12
11.31 2.01 2.12
11.28 2.23 2.12
11.24 2.46 2.12
11.20 2.69 2.12
11.16 2.92 2.13
11.12 3.15 2.13
11.07 3.38 2.13
11.02 3.60 2.14
10.96 3.83 2.14
11.15 4.15 2.19
11.06 4.37 2.19
10.99 4.60 2.20
10.93 4.83 2.20
10.59 4.94 2.16
10.05 4.94 2.07
9.58 4.94 1.99
9.10 4.93 1.91
8.71 4.95 1.85
8.27 4.92 1.78
7.96 4.95 1.73
7.75 5.04 1.71
10.24 6.96 2.29
10.12 7.18 2.29
10.01 7.41 2.30
9.90 7.64 2.31
9.78 7.87 2.32
9.67 8.09 2.33
9.54 8.32 2.34
9.41 8.54 2.35
9.27 8.77 2.36
9.14 9.00 2.37
9.01 9.23 2.39
8.87 9.46 2.40
8.69 9.65 2.41
8.50 9.82 2.41
8.29 9.99 2.41
8.09 10.15 2.41
7.88 10.31 2.41
7.67 10.46 2.41
7.46 10.61 2.41
7.24 10.75 2.41
7.02 10.89 2.41
6.80 11.03 2.41
6.57 11.16 2.41
6.35 11.28 2.41
6.08 11.33 2.39
5.85 11.44 2.39
5.61 11.56 2.39
5.38 11.66 2.39
5.14 11.76 2.39
4.90 11.86 2.39
4.66 11.95 2.39
4.42 12.04 2.39
4.18 12.12 2.39
3.93 12.20 2.39
3.42 11.39 2.22
3.24 11.65 2.26
2.99 11.65 2.25
2.73 11.56 2.22
2.68 12.51 2.39
2.43 12.55 2.39
2.27 13.14 2.49
2.01 13.17 2.49
1.74 13.21 2.49
1.48 13.23 2.49
1.21 13.26 2.49
0.94 13.27 2.49
0.68 13.28 2.49
0.41 13.29 2.49
0.14 13.29 2.49
-0.12 13.28 2.49
-0.39 13.27 2.49
-0.66 13.26 2.49
-0.92 13.24 2.49
-1.19 13.21 2.49
-1.45 13.18 2.49
-1.72 13.14 2.49
-1.98 13.10 2.49
-2.24 13.05 2.49
-2.50 13.00 2.49
-2.76 12.94 2.49
-3.02 12.88 2.49
-3.27 12.81 2.49
-3.53 12.74 2.49
-3.78 12.66 2.49
-4.04 12.58 2.49
-4.29 12.49 2.49
-4.53 12.39 2.49
-4.78 12.30 2.49
-5.02 12.19 2.49
-5.27 12.08 2.49
-5.50 11.97 2.49
-5.74 11.86 2.49
-5.79 11.36 2.42
-5.95 11.13 2.39
-6.17 11.00 2.39
-6.39 10.87 2.39
-6.60 10.74 2.39
-6.82 10.60 2.39
-7.02 10.46 2.39
-7.23 10.31 2.39
-7.43 10.16 2.39
-7.63 10.00 2.39
-7.83 9.84 2.39
-8.02 9.68 2.39
-8.21 9.52 2.39
-8.40 9.35 2.39
-8.58 9.17 2.39
-8.76 9.00 2.39
-8.94 8.82 2.39
-8.31 7.88 2.18
-9.28 8.44 2.39
-9.45 8.25 2.39
-8.23 6.91 2.05
-8.26 6.65 2.02
-10.73 8.29 2.59
-9.53 7.07 2.26
-11.12 7.90 2.60
-9.56 6.51 2.21
-8.26 5.39 1.88
-8.36 5.21 1.88
-8.46 5.04 1.88
-8.56 4.87 1.88
-8.65 4.70 1.88
-9.61 4.97 2.07
-9.61 4.73 2.05
-9.61 4.49 2.03
-9.62 4.26 2.01
-9.62 4.03 1.99
-9.62 3.80 1.98
-9.62 3.58 1.96
-9.62 3.37 1.95
-9.62 3.15 1.94
-9.62 2.94 1.93
-9.63 2.73 1.92
-9.63 2.52 1.91
-9.63 2.32 1.90
-9.63 2.11 1.89
-9.63 1.91 1.88
-9.63 1.71 1.87
-9.63 1.51 1.87
-9.63 1.31 1.86
-9.63 1.12 1.86
-9.64 0.92 1.85
-9.64 0.73 1.85
-9.64 0.53 1.85
-9.64 0.34 1.85
-9.64 0.15 1.85
-9.64 -0.05 1.85
-9.64 -0.24 1.85
-9.64 -0.44 1.85
-9.64 -0.63 1.85
-9.65 -0.83 1.86
-9.59 -1.01 1.85
-9.65 -1.22 1.86
-9.65 -1.41 1.87
-9.65 -1.61 1.88
-9.65 -1.81 1.88
-9.65 -2.02 1.89
-9.65 -2.22 1.90
-9.66 -2.42 1.91
-9.66 -2.63 1.92
-9.66 -2.84 1.93
-9.66 -3.05 1.94
-9.66 -3.27 1.95
-9.66 -3.49 1.97
-9.66 -3.71 1.98
-9.66 -3.93 2.00
-9.67 -4.16 2.02
-9.67 -4.40 2.03
-9.67 -4.63 2.05
-9.66 -4.87 2.07
-9.67 -5.12 2.09
-9.67 -5.37 2.12
-9.64 -5.61 2.13
-9.62 -5.86 2.15
-9.62 -6.13 2.18
-9.65 -6.43 2.22
-9.83 -7.75 2.39
-9.67 -7.95 2.39
-9.51 -8.14 2.39
-9.35 -8.33 2.39
-9.18 -8.52 2.39
-9.01 -8.71 2.39
-8.84 -8.89 2.39
-8.66 -9.07 2.39
-8.48 -9.24 2.39
-8.29 -9.41 2.39
-8.10 -9.58 2.39
-7.91 -9.74 2.39
-7.72 -9.90 2.39
-7.52 -10.06 2.39
-7.32 -10.21 2.39
-7.11 -10.36 2.39
-6.90 -10.50 2.39
-6.69 -10.64 2.39
-6.48 -10.78 2.39
-6.27 -10.91 2.39
-6.05 -11.04 2.39
-5.92 -11.34 2.43
-5.85 -11.76 2.49
-5.61 -11.88 2.49
-5.37 -12.00 2.49
-5.13 -12.11 2.49
-4.89 -12.21 2.49
-4.64 -12.31 2.49
-4.40 -12.41 2.49
-4.15 -12.50 2.49
-3.90 -12.58 2.49
-3.65 -12.66 2.49
-3.39 -12.74 2.49
-3.14 -12.81 2.49
-2.88 -12.87 2.49
-2.62 -12.93 2.49
-2.36 -12.99 2.49
-2.10 -13.04 2.49
-1.84 -13.08 2.49
-1.58 -13.12 2.49
-1.32 -13.16 2.49
-1.05 -13.19 2.49
-0.79 -13.21 2.49
-0.48 -12.11 2.28
-0.24 -12.11 2.28
0.01 -11.78 2.49
0.25 -11.79 2.49
0.48 -11.78 2.49
0.72 -11.77 2.49
0.96 -11.76 2.49
1.19 -11.74 2.49
1.43 -11.72 2.49
1.66 -11.70 2.49
1.90 -11.66 2.49
2.13 -11.60 2.49
2.27 -11.11 2.39
2.49 -11.06 2.39
2.58 -10.45 2.27
2.89 -10.78 2.35
3.10 -10.73 2.35
3.20 -10.29 2.27
3.59 -10.78 2.39
3.81 -10.71 2.39
4.03 -10.63 2.39
4.24 -10.55 2.39
4.45 -10.47 2.39
4.66 -10.38 2.39
4.87 -10.29 2.39
5.08 -10.19 2.39
5.29 -10.09 2.39
5.49 -9.99 2.39
5.69 -9.88 2.39
5.89 -9.76 2.39
6.09 -9.65 2.39
6.32 -9.59 2.41
6.51 -9.46 2.41
6.58 -9.16 2.36
6.77 -9.03 2.36
7.06 -9.03 2.40
7.26 -8.92 2.41
7.44 -8.78 2.41
7.62 -8.63 2.41
7.79 -8.48 2.41
7.96 -8.32 2.41
8.13 -8.16 2.41
8.29 -8.00 2.41
8.45 -7.83 2.41
8.61 -7.66 2.41
8.75 -7.48 2.40
8.85 -7.26 2.39
8.95 -7.05 2.38
9.04 -6.83 2.36
9.13 -6.61 2.35
9.22 -6.40 2.34
9.30 -6.18 2.33
9.38 -5.97 2.32
9.45 -5.75 2.31
9.52 -5.53 2.29
9.58 -5.32 2.28
9.65 -5.10 2.27
9.71 -4.89 2.26
9.77 -4.67 2.25
9.82 -4.46 2.24
9.88 -4.25 2.24
9.93 -4.04 2.23
9.98 -3.83 2.22
10.04 -3.62 2.22
10.10 -3.41 2.22
10.15 -3.21 2.21
10.20 -3.00 2.21
10.25 -2.79 2.21
10.30 -2.58 2.21
10.34 -2.37 2.20
10.37 -2.16 2.20
10.40 -1.95 2.20
10.46 -1.75 2.20
2.50 -0.37 0.52
2.48 -0.31 0.52
2.52 -0.27 0.53
10.75 -0.92 2.24
10.49 -0.68 2.18
10.50 -0.47 2.18
10.50 -0.26 2.18
10.50 -0.05 2.18
10.50 0.16 2.18
10.50 0.37 2.18
10.49 0.58 2.18
10.48 0.79 2.18
10.46 1.00 2.18
10.45 1.21 2.18
10.43 1.42 2.19
10.40 1.63 2.19
10.38 1.84 2.19
10.35 2.05 2.19
10.32 2.26 2.19
10.28 2.47 2.20
10.24 2.68 2.20
10.20 2.89 2.20
10.15 3.10 2.21
10.11 3.30 2.21
10.06 3.51 2.21
10.00 3.72 2.22
10.13 4.00 2.26
10.07 4.21 2.27
10.03 4.43 2.28
9.99 4.66 2.29
9.94 4.88 2.30
9.58 4.94 2.24
9.10 4.93 2.15
8.71 4.95 2.08
8.27 4.92 2.00
7.96 4.95 1.95
7.75 5.04 1.92
9.38 6.37 2.36
9.27 6.58 2.37
9.17 6.78 2.37
9.07 6.99 2.38
8.96 7.20 2.39
8.85 7.41 2.40
8.70 7.59 2.41
8.55 7.76 2.41
8.39 7.93 2.41
8.23 8.10 2.41
8.06 8.26 2.41
7.89 8.42 2.41
7.72 8.57 2.41
7.54 8.72 2.41
7.37 8.87 2.41
7.18 9.01 2.41
7.00 9.15 2.41
6.81 9.29 2.41
6.62 9.42 2.41
6.43 9.55 2.41
6.20 9.61 2.39
6.00 9.73 2.39
5.80 9.84 2.39
5.60 9.95 2.39
5.40 10.06 2.39
5.19 10.17 2.39
4.99 10.26 2.39
4.78 10.36 2.39
4.57 10.45 2.39
4.36 10.54 2.39
4.14 10.62 2.39
3.93 10.70 2.39
3.71 10.77 2.39
3.29 10.22 2.25
3.15 10.49 2.30
2.83 10.17 2.22
2.71 10.53 2.29
2.61 11.07 2.39
2.39 11.11 2.39
2.26 11.64 2.49
2.02 11.68 2.49
1.79 11.71 2.49
1.55 11.74 2.49
1.31 11.76 2.49
1.08 11.78 2.49
0.84 11.80 2.49
0.60 11.81 2.49
0.36 11.81 2.49
0.13 11.82 2.49
-0.11 11.81 2.49
-0.35 11.80 2.49
-0.58 11.79 2.49
-0.82 11.77 2.49
-1.06 11.75 2.49
-1.29 11.72 2.49
-1.52 11.69 2.49
-1.76 11.65 2.49
-1.99 11.61 2.49
-2.22 11.56 2.49
-2.45 11.51 2.49
-2.68 11.46 2.49
-2.91 11.40 2.49
-3.14 11.33 2.49
-3.36 11.26 2.49
-3.59 11.19 2.49
-3.81 11.11 2.49
-4.03 11.03 2.49
-4.25 10.94 2.49
-4.47 10.85 2.49
-4.68 10.75 2.49
-4.90 10.65 2.49
-5.11 10.55 2.49
-5.32 10.44 2.49
-5.52 10.33 2.49
-5.73 10.21 2.49
-5.79 9.86 2.44
-5.88 9.56 2.39
-6.07 9.43 2.39
-6.25 9.31 2.39
-6.44 9.18 2.39
-6.62 9.04 2.39
-6.79 8.91 2.39
-6.97 8.76 2.39
-7.14 8.62 2.39
-7.31 8.47 2.39
-7.48 8.32 2.39
-7.64 8.17 2.39
-7.80 8.01 2.39
-7.96 7.85 2.39
-8.11 7.69 2.39
-8.26 7.52 2.39
-8.41 7.35 2.39
-8.31 6.98 2.32
-8.55 6.89 2.35
-8.83 6.83 2.39
-8.97 6.65 2.39
-9.10 6.46 2.39
-9.22 6.28 2.39
-9.34 6.09 2.39
-8.32 5.19 2.10
-8.25 4.92 2.06
-8.24 4.69 2.03
-8.24 4.47 2.01
-8.24 4.26 1.99
-8.25 4.06 1.97
-8.28 3.87 1.96
-9.59 3.79 2.21
-9.56 3.56 2.19
-9.56 3.35 2.18
-9.57 3.13 2.16
-9.57 2.92 2.15
-9.58 2.72 2.14
-9.59 2.51 2.13
-9.61 2.31 2.12
-9.62 2.11 2.12
-9.63 1.91 2.11
-9.63 1.71 2.10
-9.63 1.51 2.10
-9.63 1.31 2.09
-9.63 1.12 2.09
-9.64 0.92 2.08
-9.64 0.73 2.08
-9.64 0.53 2.08
-9.64 0.34 2.07
-9.64 0.15 2.07
-9.64 -0.05 2.07
-9.64 -0.24 2.08
-9.64 -0.44 2.08
-9.64 -0.63 2.08
-9.65 -0.83 2.08
-9.59 -1.01 2.07
-9.65 -1.22 2.09
-9.65 -1.41 2.10
-9.65 -1.61 2.10
-9.65 -1.81 2.11
-9.64 -2.01 2.12
-9.63 -2.21 2.13
-9.62 -2.42 2.13
-9.61 -2.62 2.14
-9.60 -2.83 2.15
-9.60 -3.04 2.17
-9.60 -3.25 2.18
-9.61 -3.47 2.20
-9.64 -3.70 2.22
-9.66 -4.87 2.32
-9.83 -5.21 2.39
-9.73 -5.41 2.39
-9.62 -5.60 2.39
-9.51 -5.79 2.39
-9.39 -5.99 2.39
-9.27 -6.17 2.39
-9.15 -6.36 2.39
-9.02 -6.54 2.39
-8.89 -6.72 2.39
-8.75 -6.90 2.39
-8.61 -7.08 2.39
-8.47 -7.25 2.39
-8.32 -7.42 2.39
-8.18 -7.59 2.39
-8.02 -7.75 2.39
-7.87 -7.92 2.39
-7.71 -8.07 2.39
-7.55 -8.23 2.39
-7.38 -8.38 2.39
-7.21 -8.53 2.39
-7.04 -8.67 2.39
-6.87 -8.82 2.39
-6.69 -8.96 2.39
-6.51 -9.09 2.39
-6.33 -9.22 2.39
-6.15 -9.35 2.39
-5.96 -9.47 2.39
-5.91 -9.82 2.45
-5.82 -10.13 2.49
-5.61 -10.25 2.49
-5.41 -10.36 2.49
-5.20 -10.47 2.49
-4.99 -10.58 2.49
-4.78 -10.68 2.49
-4.57 -10.78 2.49
-4.35 -10.87 2.49
-4.13 -10.96 2.49
-3.91 -11.04 2.49
-3.69 -11.12 2.49
-3.47 -11.20 2.49
-3.24 -11.27 2.49
-3.02 -11.34 2.49
-2.79 -11.40 2.49
-2.56 -11.46 2.49
-2.33 -11.51 2.49
-2.10 -11.56 2.49
-1.87 -11.60 2.49
-1.64 -11.64 2.49
-1.40 -11.67 2.49
-1.17 -11.70 2.49
-0.94 -11.73 2.49
-0.70 -11.75 2.49
-0.46 -11.77 2.49
-0.23 -11.78 2.49
0.01 -10.60 2.49
0.22 -10.60 2.49
0.43 -10.60 2.49
0.65 -10.59 2.49
0.86 -10.58 2.49
1.07 -10.56 2.49
1.28 -10.54 2.49
1.50 -10.52 2.49
1.71 -10.49 2.49
1.92 -10.46 2.49
2.13 -10.42 2.49
2.24 -9.95 2.39
2.44 -9.90 2.39
2.57 -9.59 2.33
2.69 -9.31 2.27
2.99 -9.59 2.35
3.16 -9.46 2.34
3.25 -9.13 2.27
3.62 -9.56 2.39
3.81 -9.49 2.39
4.00 -9.41 2.39
4.19 -9.33 2.39
4.38 -9.25 2.39
4.57 -9.16 2.39
4.75 -9.07 2.39
4.93 -8.97 2.39
5.11 -8.88 2.39
5.29 -8.77 2.39
5.47 -8.67 2.39
5.64 -8.56 2.39
5.82 -8.45 2.39
5.99 -8.33 2.39
6.15 -8.21 2.39
6.36 -8.14 2.41
6.52 -8.02 2.41
6.69 -7.89 2.41
6.84 -7.75 2.41
7.00 -7.62 2.41
7.15 -7.47 2.41
7.30 -7.33 2.41
7.45 -7.19 2.41
7.60 -7.04 2.41
7.74 -6.88 2.41
7.88 -6.73 2.41
8.01 -6.57 2.41
8.14 -6.41 2.41
8.27 -6.25 2.41
8.40 -6.08 2.41
8.52 -5.91 2.41
8.64 -5.74 2.41
8.75 -5.56 2.41
8.82 -5.37 2.39
8.89 -5.17 2.38
8.96 -4.97 2.37
9.02 -4.77 2.37
9.08 -4.57 2.36
9.14 -4.37 2.35
9.19 -4.17 2.34
9.25 -3.98 2.33
9.30 -3.78 2.33
9.36 -3.59 2.32
9.42 -3.39 2.32
9.47 -3.20 2.31
9.51 -3.00 2.31
9.55 -2.81 2.31
9.59 -2.61 2.30
9.63 -2.41 2.30
9.66 -2.22 2.29
9.68 -2.02 2.29
9.72 -1.82 2.29
9.79 -1.63 2.30
2.50 -0.37 0.58
2.48 -0.31 0.58
2.52 -0.27 0.59
10.05 -0.86 2.33
9.70 -0.63 2.25
9.71 -0.44 2.25
9.71 -0.24 2.25
9.71 -0.05 2.25
9.71 0.15 2.25
9.71 0.34 2.25
9.70 0.54 2.25
9.69 0.73 2.25
9.68 0.93 2.25
9.66 1.12 2.25
9.64 1.31 2.25
9.62 1.51 2.25
9.60 1.70 2.25
9.57 1.90 2.26
9.54 2.09 2.26
9.51 2.28 2.26
9.47 2.48 2.26
9.43 2.67 2.27
9.39 2.86 2.27
9.35 3.06 2.27
9.30 3.25 2.28
9.25 3.44 2.28
9.19 3.63 2.29
9.13 3.82 2.29
9.30 4.11 2.35
9.24 4.31 2.36
9.20 4.51 2.37
9.13 4.71 2.38
9.06 4.91 2.39
8.71 4.95 2.32
8.27 4.92 2.23
7.96 4.95 2.17
7.75 5.04 2.14
8.59 5.84 2.41
8.47 6.01 2.41
8.35 6.17 2.41
8.22 6.34 2.41
8.09 6.50 2.41
7.96 6.66 2.41
7.82 6.82 2.41
7.68 6.97 2.41
7.54 7.12 2.41
7.39 7.27 2.41
7.24 7.42 2.41
7.09 7.56 2.41
6.93 7.70 2.41
6.78 7.83 2.41
6.62 7.97 2.41
6.45 8.10 2.41
6.25 8.17 2.39
6.08 8.29 2.39
5.91 8.41 2.39
5.74 8.52 2.39
5.57 8.63 2.39
5.39 8.74 2.39
5.21 8.84 2.39
5.03 8.95 2.39
4.85 9.04 2.39
4.67 9.13 2.39
4.48 9.22 2.39
4.30 9.31 2.39
4.11 9.39 2.39
3.92 9.47 2.39
3.72 9.54 2.39
3.29 8.95 2.23
3.21 9.32 2.30
3.02 9.38 2.30
2.73 9.10 2.22
2.75 9.85 2.39
2.55 9.90 2.39
2.35 9.95 2.39
2.24 10.42 2.49
2.03 10.46 2.49
1.82 10.50 2.49
1.61 10.53 2.49
1.39 10.55 2.49
1.18 10.58 2.49
0.97 10.60 2.49
0.76 10.61 2.49
0.54 10.62 2.49
0.33 10.62 2.49
0.12 10.63 2.49
-0.10 10.62 2.49
-0.31 10.61 2.49
-0.52 10.60 2.49
-0.74 10.59 2.49
-0.95 10.57 2.49
-1.16 10.54 2.49
-1.37 10.51 2.49
-1.58 10.48 2.49
-1.79 10.44 2.49
-2.00 10.40 2.49
-2.21 10.36 2.49
-2.41 10.31 2.49
-2.62 10.25 2.49
-2.82 10.19 2.49
-3.03 10.13 2.49
-3.23 10.07 2.49
-3.43 10.00 2.49
-3.63 9.92 2.49
-3.82 9.84 2.49
-4.02 9.76 2.49
-4.21 9.68 2.49
-4.41 9.59 2.49
-4.60 9.49 2.49
-4.79 9.40 2.49
-4.97 9.30 2.49
-5.16 9.19 2.49
-5.34 9.08 2.49
-5.52 8.97 2.49
-5.69 8.86 2.49
-5.80 8.63 2.46
-5.81 8.29 2.40
-5.96 8.14 2.39
-6.12 8.02 2.39
-6.27 7.89 2.39
-6.43 7.76 2.39
-6.58 7.63 2.39
-6.73 7.49 2.39
-6.88 7.35 2.39
-7.02 7.21 2.39
-7.17 7.07 2.39
-7.30 6.92 2.39
-7.44 6.77 2.39
-7.57 6.62 2.39
-7.70 6.46 2.39
-7.83 6.31 2.39
-7.95 6.15 2.39
-8.07 5.98 2.39
-8.19 5.82 2.39
-8.30 5.65 2.39
-8.41 5.48 2.39
-8.32 5.19 2.34
-8.54 5.09 2.37
-8.72 4.96 2.39
-8.82 4.79 2.39
-8.91 4.61 2.39
-8.35 4.11 2.22
-9.09 4.25 2.39
-9.17 4.06 2.39
-9.25 3.88 2.39
-9.32 3.69 2.39
-9.39 3.50 2.39
-9.46 3.31 2.39
-9.53 3.12 2.39
-9.58 2.93 2.39
-9.64 2.73 2.39
-9.69 2.54 2.39
-9.74 2.34 2.39
-9.78 2.15 2.39
-9.82 1.95 2.39
-9.59 -1.01 2.30
-9.87 -1.65 2.39
-9.84 -1.85 2.39
-9.80 -2.05 2.39
-9.76 -2.24 2.39
-9.71 -2.44 2.39
-9.66 -2.63 2.39
-9.61 -2.83 2.39
-9.55 -3.02 2.39
-9.49 -3.21 2.39
-9.42 -3.40 2.39
-9.35 -3.59 2.39
-9.28 -3.78 2.39
-9.20 -3.96 2.39
-9.12 -4.15 2.39
-9.04 -4.33 2.39
-8.95 -4.51 2.39
-8.86 -4.69 2.39
-8.76 -4.87 2.39
-8.67 -5.05 2.39
-8.56 -5.22 2.39
-8.46 -5.39 2.39
-8.35 -5.56 2.39
-8.24 -5.73 2.39
-8.12 -5.89 2.39
-8.00 -6.06 2.39
-7.88 -6.22 2.39
-7.76 -6.38 2.39
-7.63 -6.53 2.39
-7.50 -6.68 2.39
-7.36 -6.84 2.39
-7.22 -6.98 2.39
-7.08 -7.13 2.39
-6.94 -7.27 2.39
-6.80 -7.41 2.39
-6.65 -7.55 2.39
-6.50 -7.68 2.39
-6.34 -7.81 2.39
-6.18 -7.94 2.39
-6.03 -8.06 2.39
-5.91 -8.24 2.41
-5.90 -8.60 2.47
-5.77 -8.78 2.49
-5.60 -8.90 2.49
-5.42 -9.01 2.49
-5.24 -9.12 2.49
-5.05 -9.23 2.49
-4.87 -9.33 2.49
-4.68 -9.43 2.49
-4.49 -9.52 2.49
-4.30 -9.61 2.49
-4.11 -9.70 2.49
-3.91 -9.78 2.49
-3.72 -9.86 2.49
-3.52 -9.94 2.49
-3.32 -10.01 2.49
-3.12 -10.08 2.49
-2.92 -10.14 2.49
-2.72 -10.20 2.49
-2.51 -10.26 2.49
-2.31 -10.31 2.49
-2.10 -10.36 2.49
-1.89 -10.40 2.49
-1.68 -10.44 2.49
-1.47 -10.47 2.49
-1.26 -10.50 2.49
-1.05 -10.53 2.49
-0.84 -10.55 2.49
-0.63 -10.57 2.49
-0.42 -10.58 2.49
-0.20 -10.59 2.49
0.01 -9.62 2.49
0.20 -9.62 2.49
0.40 -9.62 2.49
0.59 -9.61 2.49
0.78 -9.60 2.49
0.97 -9.59 2.49
1.17 -9.57 2.49
1.36 -9.55 2.49
1.55 -9.52 2.49
1.74 -9.49 2.49
1.93 -9.45 2.49
2.12 -9.42 2.49
2.22 -8.99 2.39
2.40 -8.94 2.39
2.58 -8.90 2.39
2.62 -8.40 2.27
2.89 -8.65 2.35
3.06 -8.59 2.35
3.16 -8.35 2.30
3.28 -8.17 2.27
3.63 -8.54 2.39
3.80 -8.47 2.39
3.98 -8.39 2.39
4.14 -8.31 2.39
4.31 -8.23 2.39
4.48 -8.14 2.39
4.64 -8.05 2.39
4.80 -7.96 2.39
4.96 -7.86 2.39
5.12 -7.77 2.39
5.28 -7.66 2.39
5.43 -7.56 2.39
5.58 -7.45 2.39
5.73 -7.34 2.39
5.88 -7.22 2.39
6.02 -7.10 2.39
6.17 -6.98 2.39
6.35 -6.91 2.41
6.49 -6.78 2.41
6.62 -6.65 2.41
6.76 -6.52 2.41
6.89 -6.38 2.41
7.02 -6.24 2.41
7.14 -6.10 2.41
7.27 -5.96 2.41
7.38 -5.81 2.41
7.50 -5.66 2.41
7.62 -5.51 2.41
7.73 -5.36 2.41
7.83 -5.21 2.41
7.94 -5.05 2.41
8.04 -4.89 2.41
8.14 -4.73 2.41
8.23 -4.56 2.41
8.32 -4.40 2.41
8.41 -4.23 2.41
8.49 -4.06 2.41
8.58 -3.89 2.41
8.65 -3.72 2.41
8.73 -3.55 2.41
8.78 -3.37 2.40
8.83 -3.18 2.40
8.87 -3.00 2.39
8.91 -2.81 2.39
8.95 -2.63 2.38
8.99 -2.45 2.38
9.02 -2.26 2.37
9.05 -2.08 2.37
9.08 -1.89 2.37
9.14 -1.71 2.37
9.20 -1.54 2.38
2.50 -0.37 0.64
2.48 -0.31 0.64
2.52 -0.27 0.65
9.00 -0.77 2.31
9.01 -0.59 2.30
9.02 -0.41 2.30
9.02 -0.23 2.30
9.02 -0.04 2.30
9.02 0.14 2.30
9.02 0.32 2.30
9.01 0.50 2.30
9.00 0.68 2.30
8.99 0.86 2.30
8.98 1.04 2.30
8.96 1.22 2.31
8.94 1.40 2.31
8.91 1.58 2.31
8.89 1.76 2.31
8.86 1.94 2.31
8.82 2.12 2.32
8.79 2.30 2.32
8.75 2.48 2.32
8.71 2.65 2.32
8.66 2.83 2.33
8.62 3.01 2.33
8.57 3.19 2.33
8.51 3.36 2.34
8.46 3.54 2.34
8.40 3.71 2.34
8.54 3.98 2.41
8.46 4.15 2.41
8.37 4.32 2.41
8.28 4.49 2.41
8.19 4.65 2.41
8.10 4.82 2.41
7.96 4.95 2.40
7.75 5.04 2.36
7.79 5.29 2.41
7.68 5.45 2.41
7.57 5.60 2.41
7.45 5.75 2.41
7.33 5.89 2.41
7.21 6.04 2.41
7.09 6.18 2.41
6.96 6.32 2.41
6.83 6.46 2.41
6.70 6.59 2.41
6.57 6.73 2.41
6.43 6.85 2.41
6.25 6.93 2.39
6.11 7.06 2.39
5.96 7.18 2.39
5.82 7.29 2.39
5.67 7.41 2.39
5.52 7.52 2.39
5.36 7.62 2.39
5.21 7.73 2.39
5.05 7.83 2.39
4.89 7.93 2.39
4.73 8.02 2.39
4.57 8.11 2.39
4.40 8.20 2.39
4.24 8.29 2.39
4.07 8.37 2.39
3.90 8.44 2.39
3.73 8.52 2.39
3.30 7.97 2.22
3.24 8.29 2.29
3.05 8.29 2.27
2.81 8.15 2.22
2.69 8.35 2.26
2.67 8.89 2.39
2.49 8.94 2.39
2.31 8.99 2.39
2.22 9.42 2.49
2.03 9.46 2.49
1.84 9.49 2.49
1.65 9.52 2.49
1.46 9.55 2.49
1.27 9.58 2.49
1.07 9.60 2.49
0.88 9.62 2.49
0.69 9.63 2.49
0.49 9.64 2.49
0.30 9.64 2.49
0.11 9.64 2.49
-0.09 9.64 2.49
-0.28 9.63 2.49
-0.47 9.62 2.49
-0.67 9.61 2.49
-0.86 9.59 2.49
-1.05 9.57 2.49
-1.24 9.54 2.49
-1.43 9.51 2.49
-1.62 9.48 2.49
-1.81 9.44 2.49
-2.00 9.40 2.49
-2.19 9.36 2.49
-2.38 9.31 2.49
-2.56 9.26 2.49
-2.75 9.20 2.49
-2.93 9.14 2.49
-3.11 9.08 2.49
-3.29 9.01 2.49
-3.47 8.94 2.49
-3.65 8.87 2.49
-3.83 8.79 2.49
-4.00 8.71 2.49
-4.17 8.62 2.49
-4.34 8.54 2.49
-4.51 8.44 2.49
-4.68 8.35 2.49
-4.85 8.25 2.49
-5.01 8.15 2.49
-5.17 8.05 2.49
-5.33 7.94 2.49
-5.49 7.83 2.49
-5.64 7.71 2.49
-5.79 7.60 2.49
-5.81 7.30 2.44
-5.84 7.05 2.39
-5.98 6.93 2.39
-6.12 6.81 2.39
-6.25 6.68 2.39
-6.38 6.55 2.39
-6.51 6.42 2.39
-6.64 6.29 2.39
-6.76 6.15 2.39
-6.88 6.01 2.39
-7.00 5.87 2.39
-7.11 5.73 2.39
-7.23 5.59 2.39
-7.34 5.44 2.39
-7.44 5.29 2.39
-7.54 5.14 2.39
-7.65 4.98 2.39
-7.74 4.83 2.39
-7.84 4.67 2.39
-7.93 4.51 2.39
-8.02 4.35 2.39
-8.10 4.19 2.39
-8.18 4.02 2.39
-8.26 3.86 2.39
-8.33 3.69 2.39
-8.40 3.52 2.39
-8.47 3.35 2.39
-8.54 3.18 2.39
-8.60 3.01 2.39
-8.66 2.84 2.39
-8.71 2.66 2.39
-8.76 2.48 2.39
-8.81 2.31 2.39
-8.85 2.13 2.39
-8.89 1.95 2.39
-8.93 1.77 2.39
-8.96 1.59 2.39
-8.99 1.41 2.39
-9.02 1.23 2.39
-9.04 1.05 2.39
-9.06 0.87 2.39
-9.07 0.69 2.39
-9.09 0.50 2.39
-9.09 0.32 2.39
-9.10 0.14 2.39
-9.10 -0.05 2.39
-9.10 -0.23 2.39
-9.09 -0.41 2.39
-9.08 -0.59 2.39
-9.07 -0.78 2.39
-9.05 -0.96 2.39
-9.03 -1.14 2.39
-9.00 -1.32 2.39
-8.97 -1.50 2.39
-8.94 -1.68 2.39
-8.91 -1.86 2.39
-8.87 -2.04 2.39
-8.83 -2.22 2.39
-8.78 -2.39 2.39
-8.73 -2.57 2.39
-8.68 -2.75 2.39
-8.62 -2.92 2.39
-8.56 -3.09 2.39
-8.50 -3.26 2.39
-8.43 -3.43 2.39
-8.36 -3.60 2.39
-8.29 -3.77 2.39
-8.21 -3.94 2.39
-8.13 -4.10 2.39
-8.05 -4.26 2.39
-7.96 -4.43 2.39
-7.87 -4.59 2.39
-7.78 -4.74 2.39
-7.69 -4.90 2.39
-7.59 -5.05 2.39
-7.49 -5.21 2.39
-7.38 -5.36 2.39
-7.27 -5.50 2.39
-7.16 -5.65 2.39
-7.05 -5.79 2.39
-6.93 -5.94 2.39
-6.81 -6.07 2.39
-6.69 -6.21 2.39
-6.56 -6.35 2.39
-6.44 -6.48 2.39
-6.31 -6.61 2.39
-6.17 -6.73 2.39
-6.04 -6.86 2.39
-5.90 -6.98 2.39
-5.89 -7.26 2.45
-5.86 -7.52 2.49
-5.71 -7.64 2.49
-5.56 -7.76 2.49
-5.40 -7.87 2.49
-5.24 -7.98 2.49
-5.08 -8.08 2.49
-4.92 -8.19 2.49
-4.76 -8.28 2.49
-4.59 -8.38 2.49
-4.42 -8.47 2.49
-4.25 -8.56 2.49
-4.08 -8.65 2.49
-3.91 -8.73 2.49
-3.73 -8.81 2.49
-3.55 -8.89 2.49
-3.38 -8.96 2.49
-3.20 -9.03 2.49
-3.02 -9.09 2.49
-2.83 -9.15 2.49
-2.65 -9.21 2.49
-2.47 -9.26 2.49
-2.28 -9.31 2.49
-2.09 -9.36 2.49
-1.90 -9.40 2.49
-1.72 -9.44 2.49
-1.53 -9.48 2.49
-1.34 -9.51 2.49
-1.15 -9.54 2.49
-0.95 -9.56 2.49
-0.76 -9.58 2.49
-0.57 -9.60 2.49
-0.38 -9.61 2.49
-0.18 -9.62 2.49
0.01 -8.80 2.49
0.19 -8.80 2.49
0.36 -8.80 2.49
0.54 -8.79 2.49
0.72 -8.78 2.49
0.89 -8.77 2.49
1.07 -8.75 2.49
1.24 -8.73 2.49
1.42 -8.71 2.49
1.59 -8.68 2.49
1.77 -8.65 2.49
1.94 -8.61 2.49
2.12 -8.57 2.49
2.19 -8.18 2.39
2.36 -8.13 2.39
2.52 -8.09 2.39
2.58 -7.73 2.30
2.70 -7.58 2.27
2.96 -7.80 2.35
3.11 -7.74 2.35
3.17 -7.44 2.28
3.30 -7.35 2.27
3.63 -7.67 2.39
3.79 -7.60 2.39
3.94 -7.52 2.39
4.09 -7.44 2.39
4.24 -7.36 2.39
4.39 -7.28 2.39
4.54 -7.19 2.39
4.68 -7.10 2.39
4.82 -7.00 2.39
4.96 -6.91 2.39
5.10 -6.81 2.39
5.24 -6.71 2.39
5.37 -6.60 2.39
5.51 -6.49 2.39
5.64 -6.38 2.39
5.77 -6.27 2.39
5.89 -6.15 2.39
6.02 -6.04 2.39
6.14 -5.92 2.39
6.30 -5.83 2.41
6.41 -5.70 2.41
6.53 -5.58 2.41
6.64 -5.44 2.41
6.75 -5.31 2.41
6.86 -5.18 2.41
6.96 -5.04 2.41
7.06 -4.90 2.41
7.16 -4.76 2.41
7.25 -4.61 2.41
7.35 -4.47 2.41
7.43 -4.32 2.41
7.52 -4.17 2.41
7.60 -4.02 2.41
7.68 -3.87 2.41
7.76 -3.71 2.41
7.84 -3.56 2.41
7.91 -3.40 2.41
7.97 -3.24 2.41
8.04 -3.08 2.41
8.10 -2.92 2.41
8.16 -2.76 2.41
8.21 -2.59 2.41
8.26 -2.43 2.41
8.31 -2.26 2.41
8.36 -2.09 2.41
8.40 -1.93 2.41
8.43 -1.76 2.41
8.47 -1.59 2.41
8.50 -1.42 2.41
2.50 -0.37 0.71
2.48 -0.31 0.70
2.52 -0.27 0.71
8.38 -0.72 2.35
8.39 -0.55 2.35
8.40 -0.38 2.35
8.40 -0.21 2.35
8.40 -0.04 2.35
8.40 0.13 2.35
8.40 0.30 2.35
8.39 0.46 2.35
8.38 0.63 2.35
8.37 0.80 2.35
8.36 0.97 2.35
8.34 1.14 2.35
8.32 1.30 2.35
8.29 1.47 2.35
8.26 1.64 2.35
8.23 1.80 2.35
8.20 1.97 2.36
8.16 2.13 2.36
8.12 2.30 2.36
8.08 2.46 2.36
8.04 2.63 2.36
7.99 2.79 2.36
7.94 2.95 2.37
7.88 3.11 2.37
7.83 3.27 2.37
7.77 3.43 2.37
7.70 3.59 2.38
7.63 3.75 2.38
7.65 3.95 2.41
7.57 4.10 2.41
7.49 4.25 2.41
7.40 4.40 2.41
7.31 4.55 2.41
7.21 4.69 2.41
7.12 4.83 2.41
7.02 4.98 2.41
6.92 5.11 2.41
6.81 5.25 2.41
6.70 5.39 2.41
6.59 5.52 2.41
6.48 5.65 2.41
6.36 5.78 2.41
6.20 5.86 2.39
6.08 5.99 2.39
5.96 6.10 2.39
5.84 6.22 2.39
5.71 6.34 2.39
5.58 6.45 2.39
5.45 6.56 2.39
5.32 6.66 2.39
5.18 6.77 2.39
5.04 6.87 2.39
4.90 6.97 2.39
4.76 7.06 2.39
4.62 7.16 2.39
4.47 7.25 2.39
4.32 7.33 2.39
4.17 7.42 2.39
4.02 7.50 2.39
3.87 7.57 2.39
3.72 7.65 2.39
3.31 7.16 2.22
3.27 7.48 2.30
3.13 7.56 2.30
2.97 7.62 2.30
2.72 7.40 2.22
2.69 7.80 2.32
2.61 8.08 2.39
2.44 8.13 2.39
2.28 8.17 2.39
2.21 8.57 2.49
2.03 8.61 2.49
1.86 8.65 2.49
1.68 8.68 2.49
1.51 8.71 2.49
1.33 8.74 2.49
1.16 8.76 2.49
0.98 8.78 2.49
0.81 8.79 2.49
0.63 8.80 2.49
0.45 8.81 2.49
0.27 8.82 2.49
0.10 8.82 2.49
-0.08 8.82 2.49
-0.26 8.81 2.49
-0.43 8.80 2.49
-0.61 8.79 2.49
-0.79 8.77 2.49
-0.96 8.75 2.49
-1.14 8.73 2.49
-1.31 8.70 2.49
-1.49 8.67 2.49
-1.66 8.64 2.49
-1.83 8.60 2.49
-2.00 8.56 2.49
-2.17 8.52 2.49
-2.34 8.47 2.49
-2.51 8.42 2.49
-2.68 8.36 2.49
-2.85 8.30 2.49
-3.01 8.24 2.49
-3.18 8.18 2.49
-3.34 8.11 2.49
-3.50 8.04 2.49
-3.66 7.97 2.49
-3.82 7.89 2.49
-3.97 7.81 2.49
-4.13 7.73 2.49
-4.28 7.64 2.49
-4.43 7.55 2.49
-4.58 7.46 2.49
-4.73 7.36 2.49
-4.88 7.26 2.49
-5.02 7.16 2.49
-5.16 7.06 2.49
-5.30 6.95 2.49
-5.44 6.84 2.49
-5.58 6.73 2.49
-5.71 6.62 2.49
-5.81 6.47 2.48
-5.82 6.22 2.43
-5.84 6.00 2.39
-5.96 5.88 2.39
-6.07 5.76 2.39
-6.19 5.63 2.39
-6.30 5.51 2.39
-6.41 5.38 2.39
-6.51 5.25 2.39
-6.61 5.11 2.39
-6.71 4.98 2.39
-6.81 4.84 2.39
-6.91 4.70 2.39
-7.00 4.56 2.39
-7.09 4.42 2.39
-7.17 4.28 2.39
-7.26 4.13 2.39
-7.34 3.98 2.39
-7.41 3.83 2.39
-7.49 3.68 2.39
-7.56 3.53 2.39
-7.63 3.38 2.39
-7.69 3.23 2.39
-7.76 3.07 2.39
-7.82 2.91 2.39
-7.87 2.75 2.39
-7.92 2.60 2.39
-7.97 2.44 2.39
-8.02 2.28 2.39
-8.06 2.11 2.39
-8.10 1.95 2.39
-8.14 1.79 2.39
-8.18 1.62 2.39
-8.21 1.46 2.39
-8.23 1.29 2.39
-8.26 1.13 2.39
-8.28 0.96 2.39
-8.29 0.79 2.39
-8.31 0.63 2.39
-8.32 0.46 2.39
-8.33 0.29 2.39
-8.33 0.13 2.39
-8.33 -0.04 2.39
-8.33 -0.21 2.39
-8.32 -0.38 2.39
-8.31 -0.54 2.39
-8.30 -0.71 2.39
-8.28 -0.88 2.39
-8.27 -1.04 2.39
-8.24 -1.21 2.39
-8.22 -1.37 2.39
-8.19 -1.54 2.39
-8.16 -1.70 2.39
-8.12 -1.87 2.39
-8.08 -2.03 2.39
-8.04 -2.19 2.39
-7.99 -2.35 2.39
-7.95 -2.51 2.39
-7.89 -2.67 2.39
-7.84 -2.83 2.39
-7.78 -2.99 2.39
-7.72 -3.14 2.39
-7.66 -3.30 2.39
-7.59 -3.45 2.39
-7.52 -3.60 2.39
-7.45 -3.76 2.39
-7.37 -3.90 2.39
-7.29 -4.05 2.39
-7.21 -4.20 2.39
-7.12 -4.34 2.39
-7.04 -4.49 2.39
-6.95 -4.63 2.39
-6.85 -4.77 2.39
-6.76 -4.90 2.39
-6.66 -5.04 2.39
-6.56 -5.17 2.39
-6.45 -5.30 2.39
-6.34 -5.43 2.39
-6.23 -5.56 2.39
