ply
format ascii 1.0
element vertex 2880
property float32 x
property float32 y
property float32 z
end_header
9.12 -7.49 1.06
9.58 -7.55 1.09
9.98 -7.55 1.12
10.36 -7.52 1.15
10.86 -7.55 1.19
11.29 -7.52 1.22
11.85 -7.55 1.26
12.33 -7.52 1.30
12.95 -7.54 1.35
11.43 -6.35 1.18
11.43 -6.06 1.17
11.43 -5.77 1.16
11.37 -5.45 1.14
11.49 -5.23 1.14
11.49 -4.95 1.13
11.49 -4.68 1.13
11.42 -4.39 1.11
11.43 -4.13 1.11
11.43 -3.87 1.10
11.43 -3.62 1.09
11.43 -3.37 1.09
9.77 -2.67 0.93
11.43 -2.87 1.08
11.43 -2.63 1.07
11.43 -2.39 1.07
11.43 -2.15 1.07
11.43 -1.92 1.07
11.43 -1.68 1.06
11.45 -1.45 1.06
11.45 -1.22 1.06
11.45 -0.99 1.06
11.45 -0.75 1.06
11.39 -0.52 1.06
11.43 -0.29 1.06
11.43 -0.06 1.06
9.77 0.14 0.91
9.77 0.34 0.91
24.03 1.31 2.24
23.96 1.79 2.24
19.61 1.86 1.84
16.43 1.90 1.55
13.70 1.86 1.30
12.11 1.89 1.15
10.36 1.83 0.99
10.16 2.01 0.98
10.11 2.21 0.98
18.91 4.53 1.84
18.91 4.93 1.85
18.99 5.37 1.87
18.99 5.78 1.88
18.99 6.20 1.90
18.99 6.62 1.91
18.90 7.02 1.92
18.90 7.46 1.94
18.90 7.90 1.96
18.90 8.35 1.98
18.81 8.76 1.99
18.80 9.22 2.01
18.65 9.62 2.02
18.43 9.98 2.02
18.20 10.33 2.02
17.35 10.32 1.95
18.90 11.76 2.15
18.90 12.29 2.18
18.90 12.83 2.21
18.86 13.37 2.24
18.56 13.73 2.24
18.26 14.08 2.24
17.95 14.42 2.24
17.63 14.76 2.24
17.09 14.90 2.22
16.41 14.90 2.17
15.72 14.86 2.12
15.14 14.89 2.08
14.51 14.86 2.04
13.97 14.89 2.01
13.39 14.86 1.97
12.88 14.89 1.94
12.37 14.89 1.91
11.87 14.89 1.88
11.39 14.89 1.86
10.92 14.89 1.83
10.45 14.86 1.80
10.03 14.89 1.78
9.58 14.86 1.76
9.18 14.89 1.74
8.75 14.86 1.72
8.38 14.89 1.71
7.97 14.86 1.69
7.61 14.89 1.67
7.22 14.86 1.66
6.87 14.89 1.64
6.49 14.85 1.63
6.15 14.89 1.62
8.11 20.79 2.25
7.77 21.16 2.27
7.42 21.53 2.30
7.06 21.91 2.32
6.69 22.28 2.35
6.38 22.93 2.41
5.88 22.88 2.39
5.41 22.98 2.39
4.94 23.06 2.39
4.48 23.14 2.39
2.41 13.96 1.44
3.54 23.26 2.39
3.07 23.31 2.39
2.60 23.35 2.39
2.18 23.96 2.45
1.73 24.41 2.49
1.23 24.42 2.49
0.74 24.42 2.49
0.25 24.42 2.49
-0.24 24.40 2.49
-0.73 24.38 2.49
-1.22 24.35 2.49
-1.70 24.30 2.49
-2.19 24.25 2.49
-2.68 24.19 2.49
-3.16 24.12 2.49
-3.64 24.04 2.49
-4.12 23.96 2.49
-4.60 23.86 2.49
-5.08 23.75 2.49
-5.55 23.64 2.49
-5.87 22.91 2.43
-6.23 22.42 2.39
-6.67 22.28 2.39
-7.12 22.14 2.39
-7.56 21.99 2.39
-8.00 21.83 2.39
-8.43 21.66 2.39
-8.87 21.48 2.39
-9.29 21.30 2.39
-9.72 21.10 2.39
-11.79 24.31 2.78
-12.01 23.54 2.72
-12.37 23.09 2.70
-12.72 22.63 2.67
-12.96 22.02 2.63
-13.41 21.78 2.63
-13.77 21.38 2.62
-14.04 20.87 2.59
-14.16 20.16 2.53
-14.25 19.45 2.48
-14.08 18.42 2.38
-13.90 17.45 2.29
-13.79 16.62 2.22
-13.65 15.79 2.14
-13.51 15.00 2.07
-13.47 14.38 2.02
-13.49 13.83 1.98
-13.51 13.30 1.94
-13.53 12.79 1.91
-13.59 12.35 1.88
-13.69 11.94 1.86
-13.78 11.54 1.84
-13.87 11.15 1.82
-13.94 10.75 1.80
-14.06 10.40 1.79
-14.19 10.07 1.78
-14.33 9.74 1.77
-14.46 9.41 1.76
-14.54 9.05 1.75
-14.62 8.70 1.73
-14.74 8.37 1.73
-14.88 8.06 1.72
-14.99 7.74 1.71
-15.09 7.41 1.71
-15.18 7.08 1.70
-15.27 6.75 1.69
-15.35 6.42 1.68
-15.41 6.08 1.68
-15.47 5.75 1.67
-15.53 5.42 1.66
-15.58 5.09 1.65
-15.64 4.76 1.65
-15.68 4.43 1.64
-15.64 4.08 1.63
-15.61 3.74 1.61
-15.59 3.41 1.60
-15.57 3.08 1.59
-15.54 2.75 1.58
-15.53 2.43 1.57
-15.59 2.12 1.57
-15.66 1.81 1.57
-15.77 1.50 1.58
-15.89 1.19 1.59
-16.00 0.87 1.59
-16.01 0.55 1.59
-16.06 0.23 1.59
-16.13 -0.09 1.60
-16.19 -0.42 1.60
-16.25 -0.74 1.61
-16.28 -1.07 1.61
-16.28 -1.40 1.61
-16.33 -1.74 1.62
-16.43 -2.08 1.63
-16.53 -2.43 1.64
-16.59 -2.78 1.65
-16.61 -3.13 1.65
-16.63 -3.48 1.66
-16.66 -3.84 1.67
-16.69 -4.20 1.68
-16.72 -4.57 1.69
-16.75 -4.94 1.70
-16.77 -5.31 1.71
-16.79 -5.69 1.72
-16.81 -6.08 1.73
-16.83 -6.47 1.74
-16.85 -6.87 1.76
-16.87 -7.27 1.77
-16.89 -7.69 1.79
-16.95 -8.13 1.81
-17.32 -8.74 1.86
-18.01 -9.55 1.95
-18.25 -10.15 2.00
-18.53 -10.80 2.05
-18.95 -11.56 2.12
-19.15 -12.22 2.17
-19.24 -12.82 2.20
-19.32 -13.44 2.24
-19.36 -14.06 2.27
-19.43 -14.71 2.31
-19.51 -15.39 2.35
-19.79 -16.28 2.42
-20.21 -17.31 2.51
-20.37 -18.16 2.57
-20.31 -18.86 2.61
-20.60 -19.91 2.69
-6.08 -6.12 0.81
-20.95 -21.94 2.84
-20.75 -22.63 2.87
-20.93 -23.77 2.96
-6.17 -7.29 0.89
-20.16 -24.83 2.98
-19.72 -25.31 2.99
-18.53 -24.80 2.88
-17.88 -24.96 2.85
-17.33 -25.24 2.84
-16.82 -25.58 2.83
-16.30 -25.92 2.83
-17.23 -28.64 3.09
-16.44 -28.62 3.04
-15.66 -28.58 3.00
-15.03 -28.78 2.99
-14.33 -28.83 2.96
-13.54 -28.68 2.91
-13.01 -29.05 2.92
-12.47 -29.42 2.92
-11.93 -29.78 2.93
-9.25 -24.50 2.39
-8.76 -24.71 2.39
-8.27 -24.91 2.39
-7.78 -25.10 2.39
-7.28 -25.28 2.39
-6.78 -25.44 2.39
-6.28 -25.60 2.39
-5.77 -25.75 2.39
-5.27 -25.94 2.40
-4.88 -26.79 2.46
-4.40 -27.25 2.49
-3.86 -27.36 2.50
-3.31 -27.46 2.50
-2.76 -27.54 2.50
-2.21 -27.62 2.50
-1.66 -27.68 2.50
-1.11 -27.74 2.50
-0.55 -27.78 2.50
0.01 -22.17 2.50
0.45 -22.18 2.50
0.90 -22.18 2.50
1.34 -22.16 2.50
1.79 -22.14 2.50
2.23 -22.11 2.49
2.60 -21.41 2.42
2.99 -21.11 2.39
3.42 -21.05 2.39
3.84 -20.99 2.39
4.26 -20.91 2.39
4.68 -20.83 2.39
5.10 -20.74 2.39
5.51 -20.64 2.39
5.93 -20.53 2.39
6.39 -20.58 2.41
6.79 -20.41 2.41
7.20 -20.28 2.41
7.61 -20.13 2.41
8.01 -19.98 2.41
8.41 -19.81 2.41
8.81 -19.64 2.41
9.20 -19.46 2.41
9.59 -19.28 2.41
9.98 -19.08 2.41
10.33 -18.83 2.40
10.67 -18.56 2.39
11.02 -18.31 2.39
11.37 -18.05 2.39
11.70 -17.77 2.38
11.89 -17.30 2.35
12.09 -16.85 2.32
12.32 -16.47 2.30
12.54 -16.08 2.28
6.32 -7.78 1.12
6.39 -7.55 1.11
6.63 -7.52 1.12
6.93 -7.55 1.15
7.22 -7.55 1.17
7.48 -7.52 1.19
7.82 -7.55 1.22
8.10 -7.52 1.24
8.47 -7.55 1.27
8.82 -7.55 1.30
9.15 -7.52 1.33
9.57 -7.55 1.37
9.98 -7.55 1.41
10.36 -7.52 1.44
10.86 -7.55 1.49
11.29 -7.52 1.53
11.84 -7.55 1.58
12.33 -7.52 1.63
12.95 -7.54 1.69
11.43 -6.35 1.48
11.43 -6.06 1.46
11.43 -5.77 1.45
11.43 -5.48 1.44
11.43 -5.20 1.42
11.43 -4.93 1.41
11.43 -4.66 1.40
11.43 -4.39 1.39
11.43 -4.13 1.38
11.43 -3.87 1.37
11.43 -3.62 1.37
11.43 -3.37 1.36
9.77 -2.67 1.16
11.43 -2.88 1.35
11.43 -2.63 1.34
11.43 -2.39 1.34
11.43 -2.15 1.33
11.43 -1.92 1.33
11.43 -1.68 1.33
11.45 -1.45 1.33
11.45 -1.22 1.32
11.45 -0.99 1.32
11.45 -0.76 1.32
11.39 -0.52 1.32
11.43 -0.29 1.32
11.43 -0.07 1.32
9.77 0.14 1.13
9.77 0.34 1.13
19.31 1.05 2.24
19.27 1.44 2.24
19.21 1.82 2.24
16.45 1.89 1.93
13.72 1.86 1.61
12.13 1.89 1.43
10.51 1.86 1.25
9.40 1.86 1.12
8.38 1.83 1.00
8.09 1.94 0.98
8.04 2.10 0.98
18.38 5.19 2.24
18.25 5.55 2.24
18.12 5.91 2.24
17.97 6.27 2.24
17.82 6.62 2.24
17.66 6.97 2.24
17.50 7.31 2.24
17.33 7.65 2.24
17.15 7.99 2.24
16.97 8.32 2.24
16.78 8.65 2.24
16.58 8.97 2.24
16.38 9.29 2.24
16.17 9.61 2.24
15.96 9.92 2.24
15.74 10.23 2.24
15.51 10.53 2.24
15.28 10.83 2.24
15.04 11.12 2.24
14.80 11.40 2.24
14.55 11.68 2.24
14.29 11.96 2.24
14.03 12.23 2.24
13.77 12.50 2.24
13.50 12.76 2.24
13.23 13.01 2.24
12.95 13.26 2.24
12.67 13.50 2.24
12.38 13.74 2.24
12.09 13.97 2.24
11.79 14.19 2.24
11.49 14.41 2.24
11.19 14.63 2.24
10.88 14.83 2.24
10.45 14.86 2.22
10.03 14.89 2.19
9.58 14.86 2.16
9.19 14.89 2.14
8.76 14.86 2.11
8.38 14.89 2.10
7.97 14.86 2.07
7.61 14.89 2.05
7.22 14.86 2.03
6.87 14.89 2.02
6.49 14.85 2.00
6.16 14.89 1.99
7.09 18.17 2.41
6.72 18.29 2.41
6.34 18.41 2.41
5.93 18.39 2.39
5.55 18.50 2.39
5.18 18.59 2.39
4.80 18.68 2.39
4.42 18.75 2.39
4.04 18.83 2.39
3.66 18.89 2.39
2.41 13.96 1.76
2.84 18.68 2.35
2.51 19.04 2.39
2.18 19.60 2.46
1.81 19.92 2.49
1.41 19.95 2.49
1.01 19.96 2.49
0.61 19.96 2.49
0.21 19.96 2.49
-0.19 19.95 2.49
-0.59 19.93 2.49
-0.99 19.91 2.49
-1.39 19.88 2.49
-1.79 19.84 2.49
-2.19 19.79 2.49
-2.58 19.73 2.49
-2.98 19.67 2.49
-3.37 19.60 2.49
-3.76 19.52 2.49
-4.15 19.44 2.49
-4.54 19.34 2.49
-4.93 19.24 2.49
-5.31 19.14 2.49
-5.70 19.02 2.49
-5.87 18.26 2.41
-6.19 18.00 2.39
-6.55 17.86 2.39
-6.90 17.73 2.39
-7.26 17.58 2.39
-7.61 17.43 2.39
-7.96 17.28 2.39
-8.30 17.11 2.39
-8.64 16.94 2.39
-8.98 16.76 2.39
-9.32 16.58 2.39
-9.65 16.39 2.39
-12.30 19.96 2.95
-12.56 19.50 2.92
-12.80 19.02 2.88
-13.04 18.56 2.85
-12.99 17.72 2.76
-12.73 16.65 2.63
-12.82 16.09 2.58
-12.75 15.36 2.51
-12.66 14.65 2.43
-12.72 14.13 2.39
-12.77 13.62 2.34
-12.80 13.12 2.30
-12.83 12.63 2.26
-12.91 12.21 2.23
-12.99 11.80 2.20
-13.08 11.41 2.17
-13.16 11.02 2.15
-13.24 10.64 2.13
-13.33 10.28 2.11
-13.49 9.98 2.10
-13.64 9.67 2.09
-13.77 9.36 2.08
-13.90 9.04 2.07
-14.00 8.71 2.06
-14.12 8.40 2.05
-14.25 8.09 2.04
-14.39 7.79 2.04
-14.52 7.49 2.03
-14.61 7.17 2.02
-14.70 6.85 2.02
-14.79 6.53 2.01
-14.85 6.21 2.00
-14.91 5.88 1.99
-14.97 5.56 1.98
-15.02 5.24 1.97
-15.08 4.92 1.96
-15.14 4.61 1.96
-15.15 4.28 1.94
-15.15 3.95 1.93
-15.13 3.63 1.92
-15.11 3.30 1.90
-15.09 2.98 1.89
-15.06 2.66 1.88
-15.07 2.35 1.87
-15.08 2.05 1.87
-15.13 1.74 1.87
-15.19 1.44 1.87
-15.24 1.14 1.87
-15.30 0.83 1.87
-15.35 0.53 1.88
-15.37 0.22 1.88
-15.41 -0.09 1.88
-15.46 -0.40 1.88
-15.50 -0.71 1.89
-15.54 -1.03 1.89
-15.58 -1.34 1.90
-15.63 -1.67 1.91
-15.71 -1.99 1.92
-15.80 -2.33 1.93
-15.88 -2.67 1.95
-15.97 -3.01 1.96
-16.02 -3.36 1.97
-16.04 -3.70 1.98
-16.07 -4.05 1.99
-16.10 -4.40 2.01
-16.13 -4.76 2.02
-16.15 -5.12 2.03
-16.17 -5.48 2.04
-16.18 -5.85 2.06
-16.20 -6.23 2.07
-16.22 -6.61 2.09
-16.23 -7.00 2.11
-16.24 -7.40 2.12
-16.26 -7.81 2.15
-16.31 -8.24 2.17
-16.36 -8.68 2.20
-16.66 -9.27 2.26
-17.00 -9.91 2.33
-17.17 -10.47 2.38
-17.69 -11.28 2.48
-17.91 -11.94 2.54
-18.02 -12.54 2.59
-18.14 -13.17 2.64
-18.19 -13.78 2.68
-18.17 -14.35 2.72
-18.15 -14.93 2.76
-18.15 -15.55 2.80
-18.12 -16.16 2.84
-18.04 -16.76 2.88
-17.96 -17.37 2.92
-6.08 -6.12 1.01
-17.86 -18.71 3.01
-17.57 -19.17 3.02
-17.20 -19.54 3.02
-6.17 -7.29 1.11
-16.44 -20.26 3.02
-16.05 -20.61 3.02
-15.65 -20.95 3.02
-15.24 -21.28 3.02
-14.83 -21.60 3.02
-14.41 -21.92 3.02
-13.98 -22.23 3.02
-13.48 -22.41 3.01
-12.66 -22.04 2.92
-11.94 -21.79 2.85
-9.65 -18.48 2.39
-9.28 -18.69 2.39
-8.92 -18.89 2.39
-8.54 -19.08 2.39
-8.17 -19.27 2.39
-7.79 -19.45 2.39
-7.40 -19.62 2.39
-7.01 -19.78 2.39
-6.62 -19.93 2.39
-6.22 -20.08 2.39
-5.85 -20.32 2.40
-5.66 -21.22 2.49
-5.23 -21.35 2.49
-4.81 -21.47 2.50
-4.38 -21.58 2.50
-3.95 -21.68 2.50
-3.52 -21.77 2.50
-3.08 -21.86 2.50
-2.64 -21.93 2.50
-2.21 -22.00 2.50
-1.77 -22.06 2.50
-1.32 -22.10 2.50
-0.88 -22.13 2.50
-0.44 -22.16 2.50
0.01 -18.42 2.49
0.38 -18.42 2.49
0.75 -18.42 2.49
1.12 -18.41 2.49
1.49 -18.39 2.49
1.86 -18.37 2.49
2.22 -18.33 2.49
2.49 -17.53 2.39
2.69 -16.60 2.27
3.14 -17.14 2.35
3.54 -17.37 2.39
3.89 -17.30 2.39
4.23 -17.22 2.39
4.58 -17.14 2.39
4.92 -17.04 2.39
5.27 -16.95 2.39
5.61 -16.84 2.39
5.94 -16.73 2.39
6.32 -16.72 2.41
6.65 -16.59 2.41
6.99 -16.45 2.41
7.31 -16.31 2.41
7.64 -16.16 2.41
7.96 -16.00 2.41
8.28 -15.84 2.41
8.60 -15.67 2.41
8.88 -15.44 2.40
9.12 -15.14 2.38
9.35 -14.84 2.36
9.57 -14.54 2.35
9.76 -14.21 2.32
9.95 -13.87 2.30
10.14 -13.55 2.28
10.32 -13.24 2.26
6.32 -7.78 1.35
6.39 -7.55 1.33
6.63 -7.52 1.35
6.93 -7.55 1.38
7.22 -7.55 1.41
7.48 -7.52 1.43
7.82 -7.55 1.47
8.10 -7.52 1.49
8.47 -7.55 1.53
8.82 -7.55 1.57
9.15 -7.52 1.60
9.57 -7.55 1.65
9.98 -7.55 1.69
10.36 -7.52 1.73
10.86 -7.55 1.79
11.28 -7.52 1.84
11.84 -7.55 1.91
12.33 -7.52 1.96
12.95 -7.54 2.04
11.43 -6.36 1.78
11.43 -6.06 1.76
11.43 -5.77 1.74
11.43 -5.48 1.73
11.43 -5.20 1.71
11.43 -4.93 1.70
11.43 -4.66 1.68
11.43 -4.39 1.67
11.43 -4.13 1.66
11.43 -3.88 1.65
11.43 -3.62 1.64
11.43 -3.37 1.63
9.77 -2.67 1.39
11.43 -2.88 1.62
11.43 -2.63 1.61
11.43 -2.39 1.60
11.43 -2.16 1.60
11.43 -1.92 1.59
11.43 -1.68 1.59
11.44 -1.45 1.59
11.44 -1.22 1.59
11.44 -0.99 1.58
11.44 -0.76 1.58
11.39 -0.52 1.58
11.43 -0.30 1.58
11.43 -0.07 1.58
9.77 0.14 1.35
9.77 0.33 1.36
16.13 0.88 2.24
16.09 1.20 2.24
16.05 1.52 2.24
16.00 1.84 2.24
13.73 1.86 1.93
12.14 1.89 1.71
10.52 1.86 1.49
9.41 1.86 1.34
8.61 1.88 1.23
7.83 1.87 1.13
7.02 1.83 1.02
6.69 1.89 0.98
6.64 2.02 0.98
6.59 2.15 0.98
15.05 5.24 2.24
14.93 5.54 2.24
14.80 5.83 2.24
14.66 6.12 2.24
14.52 6.41 2.24
14.38 6.69 2.24
14.23 6.97 2.24
14.07 7.25 2.24
13.91 7.52 2.24
13.74 7.79 2.24
13.57 8.06 2.24
13.39 8.32 2.24
13.21 8.58 2.24
13.02 8.84 2.24
12.83 9.09 2.24
12.63 9.33 2.24
12.43 9.57 2.24
12.22 9.81 2.24
12.01 10.05 2.24
11.79 10.28 2.24
11.57 10.50 2.24
11.35 10.72 2.24
11.12 10.94 2.24
10.89 11.15 2.24
10.69 11.39 2.25
10.51 11.66 2.26
10.33 11.94 2.28
10.15 12.21 2.29
9.96 12.48 2.31
9.76 12.76 2.33
9.56 13.03 2.34
9.36 13.30 2.36
9.15 13.57 2.38
8.93 13.84 2.39
8.70 14.10 2.41
8.41 14.26 2.41
8.11 14.41 2.41
7.81 14.56 2.41
7.51 14.70 2.41
7.21 14.84 2.41
6.87 14.89 2.39
6.50 14.85 2.37
6.16 14.89 2.36
5.94 15.22 2.39
5.63 15.33 2.39
5.32 15.43 2.39
5.00 15.52 2.39
4.69 15.61 2.39
4.37 15.69 2.39
4.05 15.76 2.39
3.73 15.83 2.39
3.24 15.08 2.27
3.04 15.69 2.35
2.41 13.96 2.09
2.44 16.04 2.39
2.18 16.57 2.46
1.87 16.80 2.49
1.53 16.83 2.49
1.19 16.85 2.49
0.85 16.86 2.49
0.52 16.87 2.49
0.18 16.87 2.49
-0.16 16.86 2.49
-0.50 16.84 2.49
-0.84 16.82 2.49
-1.18 16.80 2.49
-1.51 16.77 2.49
-1.85 16.73 2.49
-2.18 16.68 2.49
-2.52 16.63 2.49
-2.85 16.57 2.49
-3.18 16.50 2.49
-3.51 16.43 2.49
-3.84 16.35 2.49
-4.17 16.27 2.49
-4.49 16.18 2.49
-4.82 16.08 2.49
-5.14 15.98 2.49
-5.46 15.87 2.49
-5.77 15.76 2.49
-5.87 15.08 2.41
-6.14 14.87 2.39
-6.43 14.74 2.39
-6.73 14.61 2.39
-7.02 14.47 2.39
-7.31 14.33 2.39
-7.60 14.18 2.39
-7.88 14.02 2.39
-8.16 13.86 2.39
-8.44 13.70 2.39
-8.71 13.53 2.39
-8.98 13.35 2.39
-9.25 13.17 2.39
-9.51 12.98 2.39
-9.78 12.79 2.39
-11.92 14.96 2.84
-11.94 14.38 2.78
-12.01 13.89 2.73
-12.08 13.41 2.68
-12.13 12.94 2.63
-12.19 12.49 2.59
-12.27 12.08 2.55
-12.35 11.68 2.52
-12.43 11.29 2.49
-12.52 10.92 2.46
-12.61 10.56 2.44
-12.68 10.20 2.41
-12.76 9.84 2.39
-12.91 9.55 2.37
-13.05 9.26 2.37
-13.20 8.97 2.36
-13.35 8.68 2.35
-13.45 8.37 2.34
-13.66 8.12 2.35
-13.79 7.83 2.34
-13.92 7.54 2.33
-14.05 7.25 2.33
-14.16 6.95 2.32
-14.25 6.64 2.31
-14.32 6.32 2.30
-14.38 6.01 2.29
-14.44 5.70 2.28
-14.49 5.38 2.27
-14.55 5.07 2.26
-14.61 4.77 2.25
-14.65 4.46 2.24
-14.66 4.14 2.23
-14.67 3.83 2.22
-14.67 3.51 2.21
-14.65 3.20 2.19
-14.63 2.89 2.18
-14.61 2.58 2.17
-14.63 2.28 2.16
-14.65 1.98 2.15
-14.66 1.69 2.15
-14.70 1.39 2.15
-14.75 1.10 2.15
-14.80 0.81 2.15
-14.85 0.51 2.16
-14.87 0.21 2.16
-14.89 -0.09 2.16
-14.91 -0.39 2.16
-14.95 -0.69 2.16
-14.99 -0.99 2.17
-15.02 -1.30 2.18
-15.05 -1.61 2.18
-15.06 -1.91 2.19
-15.09 -2.23 2.19
-15.17 -2.55 2.21
-15.25 -2.88 2.23
-15.33 -3.22 2.25
-15.42 -3.56 2.27
-15.43 -3.89 2.28
-15.46 -4.23 2.29
-15.50 -4.57 2.31
-15.53 -4.92 2.33
-15.56 -5.28 2.34
-15.58 -5.64 2.36
-15.59 -6.00 2.38
-15.61 -6.37 2.40
-15.63 -6.75 2.42
-15.64 -7.13 2.44
-15.64 -7.51 2.46
-15.67 -7.91 2.49
-15.71 -8.33 2.52
-15.74 -8.76 2.55
-15.78 -9.20 2.58
-15.93 -9.72 2.63
-15.97 -10.19 2.67
-16.00 -10.67 2.71
-16.04 -11.17 2.75
-16.27 -11.82 2.83
-16.22 -12.29 2.86
-16.16 -12.76 2.89
-16.10 -13.25 2.92
-16.18 -13.87 2.98
-15.99 -14.27 3.00
-15.79 -14.67 3.01
-15.57 -15.06 3.02
-6.08 -6.12 1.20
-14.98 -15.71 3.02
-14.68 -16.02 3.02
-14.37 -16.33 3.02
-6.16 -7.29 1.33
-13.73 -16.92 3.02
-13.19 -16.93 2.98
-12.51 -16.75 2.90
-11.88 -16.58 2.82
-9.78 -14.26 2.39
-9.50 -14.46 2.39
-9.22 -14.66 2.39
-8.93 -14.86 2.39
-8.64 -15.05 2.39
-8.34 -15.23 2.39
-8.04 -15.41 2.39
-7.74 -15.58 2.39
-7.43 -15.74 2.39
-7.12 -15.90 2.39
-6.80 -16.06 2.39
-6.48 -16.20 2.39
-6.16 -16.34 2.39
-5.84 -16.48 2.39
-5.75 -17.31 2.49
-5.40 -17.44 2.49
-5.06 -17.56 2.49
-4.71 -17.67 2.49
-4.35 -17.77 2.49
-4.00 -17.86 2.49
-3.64 -17.95 2.49
-3.28 -18.03 2.49
-2.92 -18.11 2.49
-2.56 -18.17 2.49
-2.20 -18.23 2.49
-1.83 -18.28 2.49
-1.47 -18.32 2.49
-1.10 -18.36 2.49
-0.73 -18.39 2.49
-0.36 -18.41 2.49
0.01 -15.75 2.49
0.32 -15.75 2.49
0.64 -15.74 2.49
0.96 -15.73 2.49
1.27 -15.72 2.49
1.59 -15.69 2.49
1.90 -15.66 2.49
2.22 -15.63 2.49
2.43 -14.94 2.39
2.59 -14.13 2.27
2.97 -14.59 2.35
3.16 -14.07 2.28
3.62 -14.71 2.39
3.91 -14.64 2.39
4.21 -14.56 2.39
4.50 -14.47 2.39
4.79 -14.38 2.39
5.08 -14.29 2.39
5.36 -14.18 2.39
5.65 -14.07 2.39
5.93 -13.96 2.39
6.21 -13.84 2.39
6.53 -13.80 2.41
6.80 -13.67 2.41
7.07 -13.53 2.41
7.34 -13.38 2.41
7.61 -13.23 2.41
7.87 -13.08 2.41
8.13 -12.92 2.41
8.39 -12.75 2.41
8.64 -12.58 2.41
8.86 -12.35 2.40
9.04 -12.09 2.38
9.23 -11.84 2.37
6.32 -7.78 1.58
6.39 -7.55 1.56
6.63 -7.52 1.58
6.93 -7.55 1.62
7.21 -7.55 1.65
7.48 -7.52 1.68
7.82 -7.55 1.72
8.10 -7.52 1.75
8.47 -7.55 1.80
8.82 -7.55 1.84
9.15 -7.52 1.87
9.57 -7.55 1.93
9.98 -7.55 1.98
10.36 -7.52 2.03
10.85 -7.55 2.10
11.28 -7.52 2.15
11.62 -7.41 2.19
11.68 -7.13 2.17
11.74 -6.84 2.16
11.43 -6.36 2.08
11.43 -6.06 2.06
11.43 -5.77 2.04
11.43 -5.48 2.02
11.43 -5.20 2.00
11.43 -4.93 1.98
11.43 -4.66 1.97
11.43 -4.40 1.95
11.43 -4.13 1.94
11.43 -3.88 1.93
11.43 -3.62 1.92
11.43 -3.37 1.91
9.77 -2.67 1.62
11.43 -2.88 1.89
11.43 -2.64 1.88
11.43 -2.40 1.87
11.43 -2.16 1.87
11.43 -1.92 1.86
11.43 -1.69 1.86
11.43 -1.45 1.85
11.43 -1.22 1.85
11.43 -0.99 1.85
11.43 -0.76 1.85
11.39 -0.53 1.84
11.43 -0.30 1.85
11.43 -0.07 1.85
9.77 0.14 1.58
9.77 0.33 1.58
13.84 0.75 2.24
13.81 1.03 2.24
13.77 1.30 2.24
13.73 1.58 2.24
13.69 1.85 2.24
12.15 1.89 2.00
10.53 1.86 1.74
9.42 1.86 1.56
8.61 1.88 1.44
7.83 1.87 1.31
7.12 1.86 1.20
6.58 1.85 1.12
6.10 1.85 1.04
6.10 1.99 1.05
6.10 2.12 1.06
12.83 4.76 2.24
12.72 5.01 2.24
12.61 5.26 2.24
12.49 5.51 2.24
12.36 5.75 2.24
12.24 5.99 2.24
12.10 6.23 2.24
11.96 6.47 2.24
11.82 6.70 2.24
11.68 6.93 2.24
11.52 7.16 2.24
11.37 7.38 2.24
11.21 7.60 2.24
11.04 7.82 2.24
10.88 8.03 2.24
10.72 8.26 2.25
10.60 8.51 2.26
10.46 8.75 2.27
10.33 9.00 2.28
10.19 9.24 2.29
10.04 9.48 2.30
9.89 9.72 2.32
9.74 9.97 2.33
9.58 10.21 2.34
9.42 10.45 2.35
9.25 10.69 2.37
9.08 10.92 2.38
8.91 11.16 2.39
8.72 11.39 2.41
8.48 11.56 2.41
8.24 11.71 2.41
8.00 11.87 2.41
7.76 12.02 2.41
7.51 12.16 2.41
7.26 12.30 2.41
7.00 12.44 2.41
6.75 12.57 2.41
6.49 12.69 2.41
6.19 12.73 2.39
5.93 12.84 2.39
5.66 12.95 2.39
5.40 13.05 2.39
5.13 13.15 2.39
4.86 13.24 2.39
4.59 13.33 2.39
4.32 13.41 2.39
4.05 13.48 2.39
3.78 13.55 2.39
3.50 13.62 2.39
3.14 13.32 2.33
2.90 13.51 2.35
2.55 13.18 2.29
2.40 13.86 2.40
2.18 14.34 2.47
1.91 14.50 2.49
1.62 14.53 2.49
1.33 14.55 2.49
1.03 14.57 2.49
0.74 14.58 2.49
0.45 14.59 2.49
0.15 14.59 2.49
-0.14 14.58 2.49
-0.43 14.57 2.49
-0.72 14.56 2.49
-1.02 14.53 2.49
-1.31 14.50 2.49
-1.60 14.47 2.49
-1.89 14.43 2.49
-2.18 14.39 2.49
-2.47 14.34 2.49
-2.75 14.28 2.49
-3.04 14.22 2.49
-3.32 14.15 2.49
-3.61 14.08 2.49
-3.89 14.00 2.49
-4.17 13.92 2.49
-4.45 13.83 2.49
-4.72 13.74 2.49
-5.00 13.64 2.49
-5.27 13.53 2.49
-5.54 13.43 2.49
-5.81 13.31 2.49
-5.87 12.74 2.41
-6.08 12.53 2.39
-6.33 12.40 2.39
-6.57 12.27 2.39
-6.82 12.14 2.39
-7.06 12.00 2.39
-7.30 11.85 2.39
-7.54 11.71 2.39
-7.78 11.55 2.39
-8.01 11.40 2.39
-8.23 11.23 2.39
-8.46 11.07 2.39
-8.68 10.90 2.39
-8.90 10.72 2.39
-9.12 10.54 2.39
-9.33 10.36 2.39
-9.54 10.17 2.39
-9.74 9.98 2.39
-11.75 11.57 2.83
-11.83 11.19 2.79
-11.92 10.82 2.76
-12.01 10.47 2.73
-12.09 10.12 2.70
-12.17 9.78 2.67
-12.25 9.45 2.65
-12.37 9.15 2.63
-12.51 8.87 2.62
-12.65 8.59 2.61
-12.70 8.26 2.59
-12.74 7.93 2.56
-12.89 7.67 2.56
-13.13 7.45 2.58
-13.37 7.24 2.59
-13.61 7.02 2.61
-13.73 6.74 2.61
-13.81 6.43 2.59
-13.87 6.13 2.58
-13.93 5.82 2.57
-13.99 5.52 2.56
-14.05 5.22 2.55
-14.11 4.92 2.54
-14.16 4.62 2.53
-14.18 4.31 2.51
-14.20 4.01 2.50
-14.21 3.70 2.49
-14.21 3.40 2.47
-14.22 3.10 2.46
-14.20 2.80 2.45
-14.19 2.50 2.43
-14.21 2.22 2.43
-14.23 1.93 2.42
-14.25 1.64 2.42
-14.26 1.35 2.41
-14.29 1.06 2.41
-14.34 0.78 2.42
-14.39 0.49 2.42
-14.40 0.20 2.42
-14.42 -0.09 2.42
-14.43 -0.38 2.42
-14.44 -0.67 2.42
-14.47 -0.96 2.43
-14.51 -1.26 2.44
-14.54 -1.55 2.44
-14.54 -1.85 2.45
-14.54 -2.15 2.45
-14.54 -2.45 2.46
-14.57 -2.75 2.47
-14.64 -3.07 2.49
-14.71 -3.40 2.51
-14.75 -3.72 2.53
-14.74 -4.03 2.54
-14.72 -4.35 2.55
-14.73 -4.67 2.56
-14.75 -5.01 2.58
-14.77 -5.35 2.60
-14.77 -5.69 2.62
-14.72 -6.01 2.63
-14.67 -6.33 2.64
-14.62 -6.66 2.65
-14.62 -7.02 2.67
-14.62 -7.39 2.70
-14.59 -7.75 2.72
-14.52 -8.09 2.73
-14.45 -8.43 2.75
-14.37 -8.77 2.76
-14.37 -9.17 2.80
-14.43 -9.63 2.84
-14.36 -10.00 2.86
-14.26 -10.36 2.88
-14.15 -10.73 2.90
-14.04 -11.09 2.92
-13.98 -11.51 2.96
-13.87 -11.89 2.98
-13.68 -12.21 2.99
-13.39 -12.45 2.98
-13.03 -12.61 2.95
-6.06 -6.10 1.40
-12.24 -12.83 2.88
-11.02 -12.03 2.65
-9.75 -11.08 2.39
-6.16 -7.29 1.55
-9.31 -11.48 2.39
-9.08 -11.67 2.39
-8.86 -11.86 2.39
-8.62 -12.04 2.39
-8.39 -12.22 2.39
-8.14 -12.40 2.39
-7.90 -12.57 2.39
-7.65 -12.74 2.39
-7.40 -12.90 2.39
-7.15 -13.05 2.39
-6.89 -13.20 2.39
-6.63 -13.35 2.39
-6.36 -13.49 2.39
-6.10 -13.64 2.40
-5.84 -13.79 2.40
-5.79 -14.47 2.49
-5.50 -14.59 2.49
-5.21 -14.71 2.49
-4.92 -14.82 2.49
-4.62 -14.93 2.49
-4.32 -15.02 2.49
-4.02 -15.12 2.49
-3.72 -15.20 2.49
-3.42 -15.28 2.49
-3.11 -15.36 2.49
-2.81 -15.43 2.49
-2.50 -15.49 2.49
-2.19 -15.54 2.49
-1.88 -15.59 2.49
-1.56 -15.63 2.49
-1.25 -15.67 2.49
-0.94 -15.70 2.49
-0.62 -15.72 2.49
-0.31 -15.74 2.49
0.01 -13.74 2.49
0.28 -13.74 2.49
0.56 -13.73 2.49
0.83 -13.72 2.49
1.11 -13.71 2.49
1.38 -13.69 2.49
1.66 -13.66 2.49
1.93 -13.63 2.49
2.21 -13.59 2.49
2.38 -12.99 2.39
2.57 -12.63 2.33
2.77 -12.31 2.28
3.03 -12.31 2.29
3.24 -12.12 2.27
3.67 -12.70 2.39
3.92 -12.62 2.39
4.18 -12.54 2.39
4.43 -12.46 2.39
4.68 -12.37 2.39
4.92 -12.27 2.39
5.17 -12.17 2.39
5.41 -12.07 2.39
5.65 -11.95 2.39
5.89 -11.84 2.39
6.13 -11.72 2.39
6.40 -11.67 2.41
6.64 -11.54 2.41
6.87 -11.40 2.41
7.09 -11.26 2.41
7.32 -11.12 2.41
7.54 -10.97 2.41
7.75 -10.81 2.41
7.97 -10.65 2.41
8.18 -10.49 2.41
6.32 -7.78 1.81
6.39 -7.55 1.79
6.63 -7.52 1.81
6.93 -7.55 1.86
7.21 -7.55 1.89
7.48 -7.52 1.92
7.82 -7.55 1.97
8.10 -7.52 2.00
8.43 -7.52 2.05
8.82 -7.55 2.11
9.14 -7.52 2.15
9.57 -7.55 2.21
9.98 -7.55 2.27
10.17 -7.38 2.28
10.27 -7.15 2.27
10.33 -6.88 2.26
10.38 -6.62 2.24
10.43 -6.36 2.22
10.47 -6.10 2.21
10.51 -5.84 2.19
10.54 -5.59 2.17
10.61 -5.36 2.17
10.69 -5.13 2.16
10.77 -4.91 2.16
10.91 -4.70 2.17
11.05 -4.51 2.18
11.19 -4.30 2.19
11.32 -4.10 2.20
11.41 -3.87 2.20
11.43 -3.62 2.19
10.21 -3.01 1.95
9.77 -2.67 1.86
10.31 -2.60 1.95
10.35 -2.39 1.95
10.39 -2.18 1.95
10.43 -1.97 1.95
10.46 -1.76 1.95
10.49 -1.55 1.95
10.51 -1.34 1.95
10.53 -1.12 1.95
10.54 -0.91 1.95
10.55 -0.70 1.95
10.55 -0.49 1.95
10.55 -0.28 1.95
10.55 -0.06 1.95
9.77 0.14 1.81
9.77 0.33 1.81
12.10 0.65 2.24
12.08 0.90 2.24
12.05 1.14 2.24
12.02 1.38 2.24
11.98 1.62 2.24
11.93 1.86 2.24
10.54 1.86 1.99
9.43 1.86 1.79
8.61 1.88 1.64
7.83 1.87 1.50
7.13 1.86 1.37
6.58 1.85 1.28
6.22 1.89 1.21
6.10 1.99 1.20
6.10 2.12 1.21
10.91 4.04 2.18
10.82 4.26 2.18
10.73 4.48 2.18
10.94 4.82 2.24
10.84 5.04 2.24
10.74 5.26 2.25
10.66 5.49 2.25
10.57 5.71 2.26
10.48 5.94 2.27
10.38 6.16 2.28
10.29 6.39 2.28
10.18 6.61 2.29
10.08 6.84 2.30
9.97 7.06 2.31
9.86 7.28 2.32
9.74 7.50 2.33
9.62 7.72 2.34
9.50 7.94 2.35
9.37 8.16 2.36
9.24 8.38 2.37
9.10 8.59 2.38
8.97 8.81 2.39
8.82 9.03 2.40
8.66 9.22 2.41
8.46 9.38 2.41
8.27 9.54 2.41
8.07 9.70 2.41
7.87 9.86 2.41
7.66 10.00 2.41
7.45 10.15 2.41
7.24 10.29 2.41
7.03 10.43 2.41
6.82 10.56 2.41
6.60 10.69 2.41
6.38 10.81 2.41
6.12 10.86 2.39
5.89 10.97 2.39
5.67 11.08 2.39
5.44 11.19 2.39
5.21 11.29 2.39
4.98 11.38 2.39
4.75 11.47 2.39
4.51 11.56 2.39
4.28 11.64 2.39
4.04 11.72 2.39
3.80 11.79 2.39
3.56 11.86 2.39
3.16 11.32 2.27
3.03 11.78 2.35
2.79 11.84 2.35
2.56 11.90 2.35
2.35 12.13 2.39
2.19 12.63 2.48
1.94 12.73 2.49
1.68 12.76 2.49
1.43 12.79 2.49
1.17 12.81 2.49
0.91 12.82 2.49
0.65 12.83 2.49
0.39 12.84 2.49
0.14 12.84 2.49
-0.12 12.84 2.49
-0.38 12.83 2.49
-0.64 12.81 2.49
-0.89 12.79 2.49
-1.15 12.77 2.49
-1.41 12.74 2.49
-1.66 12.71 2.49
-1.92 12.67 2.49
-2.17 12.62 2.49
-2.42 12.58 2.49
-2.67 12.52 2.49
-2.93 12.46 2.49
-3.17 12.40 2.49
-3.42 12.33 2.49
-3.67 12.26 2.49
-3.91 12.18 2.49
-4.16 12.10 2.49
-4.40 12.01 2.49
-4.64 11.92 2.49
-4.88 11.82 2.49
-5.12 11.72 2.49
-5.35 11.62 2.49
-5.58 11.51 2.49
-5.81 11.39 2.49
-5.86 10.94 2.42
-6.01 10.69 2.39
-6.22 10.57 2.39
-6.43 10.44 2.39
-6.64 10.31 2.39
-6.85 10.17 2.39
-7.05 10.04 2.39
-7.25 9.89 2.39
-7.45 9.75 2.39
-7.65 9.60 2.39
-7.84 9.44 2.39
-8.03 9.28 2.39
-8.21 9.12 2.39
-8.40 8.96 2.39
-8.58 8.79 2.39
-8.75 8.62 2.39
-8.93 8.44 2.39
-9.10 8.26 2.39
-9.27 8.08 2.39
-9.43 7.89 2.39
-9.59 7.71 2.39
-9.74 7.51 2.39
-11.87 8.78 2.87
-11.98 8.49 2.85
-12.03 8.17 2.82
-12.09 7.86 2.80
-12.14 7.55 2.77
-12.18 7.24 2.75
-12.38 7.03 2.76
-12.61 6.82 2.78
-12.83 6.61 2.80
-12.87 6.31 2.78
-12.90 6.01 2.75
-13.04 5.76 2.76
-13.26 5.54 2.78
-13.48 5.31 2.80
-13.63 5.06 2.81
-13.68 4.77 2.80
-13.73 4.48 2.79
-13.74 4.18 2.77
-13.76 3.88 2.76
-13.77 3.59 2.74
-13.78 3.30 2.73
-13.79 3.01 2.72
-13.80 2.72 2.70
-13.79 2.43 2.69
-13.81 2.15 2.69
-13.83 1.87 2.68
-13.85 1.59 2.67
-13.87 1.31 2.67
-13.88 1.03 2.67
-13.90 0.75 2.67
-13.94 0.47 2.67
-13.96 0.19 2.67
-13.97 -0.09 2.67
-13.98 -0.37 2.67
-14.00 -0.65 2.67
-14.01 -0.93 2.68
-14.02 -1.22 2.68
-14.05 -1.50 2.69
-14.05 -1.79 2.70
-14.05 -2.08 2.70
-14.05 -2.37 2.71
-14.05 -2.66 2.72
-14.04 -2.95 2.72
-14.06 -3.25 2.74
-14.13 -3.56 2.76
-14.11 -3.86 2.77
-14.10 -4.17 2.78
-14.08 -4.47 2.79
-14.07 -4.78 2.81
-14.05 -5.09 2.82
-14.05 -5.41 2.84
-14.03 -5.73 2.86
-13.98 -6.04 2.87
-13.92 -6.35 2.88
-13.86 -6.66 2.89
-13.80 -6.97 2.91
-13.73 -7.29 2.92
-13.67 -7.61 2.94
-13.60 -7.93 2.95
-12.37 -7.55 2.72
-11.55 -7.38 2.57
-11.31 -7.54 2.54
-11.08 -7.72 2.52
-10.87 -7.90 2.51
-10.66 -8.08 2.50
-10.44 -8.25 2.48
-10.22 -8.42 2.47
-9.75 -8.36 2.39
-9.58 -8.56 2.39
-9.42 -8.76 2.39
-9.25 -8.95 2.39
-6.05 -6.10 1.60
-8.89 -9.33 2.39
-8.71 -9.51 2.39
-8.52 -9.69 2.39
-6.16 -7.29 1.77
-8.14 -10.04 2.39
-7.94 -10.21 2.39
-7.74 -10.37 2.39
-7.54 -10.53 2.39
-7.33 -10.69 2.39
-7.12 -10.84 2.39
-6.90 -10.99 2.39
-6.69 -11.13 2.39
-6.47 -11.27 2.39
-6.24 -11.41 2.39
-6.02 -11.54 2.39
-5.83 -11.76 2.41
-5.80 -12.29 2.49
-5.55 -12.41 2.49
-5.30 -12.53 2.49
-5.06 -12.64 2.49
-4.80 -12.75 2.49
-4.55 -12.85 2.49
-4.29 -12.94 2.49
-4.03 -13.03 2.49
-3.77 -13.12 2.49
-3.51 -13.20 2.49
-3.25 -13.27 2.49
-2.98 -13.34 2.49
-2.72 -13.41 2.49
-2.45 -13.46 2.49
-2.18 -13.52 2.49
-1.91 -13.56 2.49
-1.64 -13.61 2.49
-1.36 -13.64 2.49
-1.09 -13.67 2.49
-0.82 -13.70 2.49
-0.54 -13.72 2.49
-0.27 -13.73 2.49
0.01 -12.17 2.49
0.25 -12.17 2.49
0.50 -12.17 2.49
0.74 -12.16 2.49
0.98 -12.15 2.49
1.23 -12.13 2.49
1.47 -12.10 2.49
1.71 -12.07 2.49
1.96 -12.04 2.49
2.20 -12.00 2.49
2.34 -11.46 2.39
2.57 -11.41 2.39
2.65 -10.78 2.27
2.97 -11.12 2.35
3.16 -10.93 2.32
3.47 -11.18 2.39
3.70 -11.11 2.39
3.92 -11.03 2.39
4.14 -10.95 2.39
4.36 -10.87 2.39
4.58 -10.78 2.39
4.79 -10.69 2.39
5.01 -10.59 2.39
5.22 -10.49 2.39
5.43 -10.38 2.39
5.63 -10.27 2.39
5.84 -10.15 2.39
6.04 -10.03 2.39
6.24 -9.91 2.39
6.48 -9.85 2.41
6.67 -9.71 2.41
6.87 -9.58 2.41
7.06 -9.44 2.41
7.24 -9.29 2.41
6.32 -7.78 2.05
6.39 -7.55 2.02
6.63 -7.52 2.05
6.93 -7.55 2.10
7.21 -7.55 2.14
7.47 -7.52 2.17
7.82 -7.55 2.22
8.10 -7.52 2.26
8.43 -7.52 2.31
8.82 -7.55 2.38
9.00 -7.40 2.39
9.11 -7.19 2.38
9.21 -6.97 2.37
9.31 -6.76 2.36
9.41 -6.55 2.35
9.50 -6.33 2.34
9.55 -6.09 2.33
9.60 -5.86 2.31
9.65 -5.62 2.29
9.71 -5.40 2.28
9.78 -5.18 2.27
9.84 -4.97 2.27
9.90 -4.75 2.26
9.97 -4.54 2.25
10.04 -4.33 2.25
10.11 -4.12 2.25
10.17 -3.91 2.25
10.24 -3.71 2.24
10.29 -3.49 2.24
10.34 -3.28 2.24
9.70 -2.86 2.09
9.70 -2.65 2.08
9.70 -2.45 2.07
9.70 -2.24 2.06
9.70 -2.04 2.05
9.70 -1.83 2.04
9.70 -1.63 2.04
9.70 -1.43 2.03
9.70 -1.24 2.03
9.70 -1.04 2.02
9.70 -0.84 2.02
9.70 -0.65 2.02
9.70 -0.45 2.02
9.70 -0.26 2.02
9.70 -0.06 2.02
9.70 0.13 2.02
9.70 0.33 2.02
10.76 0.58 2.25
10.74 0.80 2.25
10.72 1.01 2.25
10.70 1.23 2.25
10.68 1.44 2.25
10.65 1.66 2.25
10.55 1.86 2.24
9.43 1.86 2.01
8.61 1.88 1.85
7.83 1.87 1.69
7.13 1.86 1.55
6.58 1.85 1.44
6.22 1.89 1.37
6.10 1.99 1.35
6.10 2.12 1.36
9.72 3.60 2.18
9.65 3.80 2.19
9.58 4.00 2.19
9.51 4.19 2.19
9.43 4.38 2.20
9.85 4.82 2.32
9.78 5.03 2.32
9.69 5.24 2.33
9.61 5.44 2.34
9.52 5.65 2.35
9.43 5.85 2.35
9.33 6.06 2.36
9.23 6.26 2.37
9.13 6.46 2.38
9.03 6.66 2.39
8.92 6.86 2.39
8.81 7.06 2.40
8.67 7.25 2.41
8.52 7.42 2.41
8.36 7.58 2.41
8.20 7.74 2.41
8.04 7.90 2.41
7.88 8.05 2.41
7.71 8.21 2.41
7.54 8.35 2.41
7.36 8.50 2.41
7.19 8.64 2.41
7.01 8.78 2.41
6.83 8.91 2.41
6.64 9.04 2.41
6.45 9.17 2.41
6.27 9.29 2.41
6.03 9.34 2.39
5.84 9.46 2.39
5.65 9.57 2.39
5.45 9.67 2.39
5.25 9.78 2.39
5.05 9.87 2.39
4.85 9.97 2.39
4.65 10.06 2.39
4.44 10.14 2.39
4.23 10.23 2.39
4.03 10.30 2.39
3.82 10.38 2.39
3.61 10.45 2.39
3.22 9.98 2.27
3.13 10.40 2.35
2.92 10.46 2.35
2.61 10.14 2.27
2.53 10.73 2.39
2.32 10.78 2.39
2.19 11.27 2.49
1.96 11.32 2.49
1.73 11.35 2.49
1.50 11.38 2.49
1.27 11.41 2.49
1.04 11.42 2.49
0.81 11.44 2.49
0.58 11.45 2.49
0.35 11.45 2.49
0.12 11.46 2.49
-0.11 11.45 2.49
-0.34 11.45 2.49
-0.57 11.43 2.49
-0.80 11.42 2.49
-1.03 11.39 2.49
-1.25 11.37 2.49
-1.48 11.34 2.49
-1.71 11.30 2.49
-1.94 11.27 2.49
-2.16 11.22 2.49
-2.39 11.17 2.49
-2.61 11.12 2.49
-2.83 11.07 2.49
-3.05 11.01 2.49
-3.27 10.94 2.49
-3.49 10.87 2.49
-3.71 10.80 2.49
-3.93 10.72 2.49
-4.14 10.64 2.49
-4.35 10.55 2.49
-4.57 10.46 2.49
-4.77 10.37 2.49
-4.98 10.27 2.49
-5.19 10.17 2.49
-5.39 10.06 2.49
-5.59 9.95 2.49
-5.79 9.84 2.49
-5.86 9.51 2.44
-5.93 9.20 2.39
-6.11 9.08 2.39
-6.29 8.96 2.39
-6.47 8.83 2.39
-6.65 8.70 2.39
-6.82 8.56 2.39
-7.00 8.43 2.39
-7.16 8.29 2.39
-7.33 8.14 2.39
-7.49 7.99 2.39
-7.66 7.84 2.39
-7.81 7.69 2.39
-7.97 7.53 2.39
-8.12 7.37 2.39
-8.27 7.21 2.39
-8.41 7.04 2.39
-8.56 6.87 2.39
-8.69 6.70 2.39
-8.83 6.53 2.39
-8.96 6.35 2.39
-9.09 6.17 2.39
-9.22 5.99 2.39
-9.34 5.81 2.39
-9.46 5.62 2.39
-9.57 5.43 2.39
-9.68 5.24 2.39
-9.79 5.04 2.39
-11.86 5.82 2.87
-11.89 5.54 2.85
-11.92 5.26 2.83
-11.94 4.98 2.80
-12.09 4.76 2.82
-12.27 4.55 2.83
-12.29 4.28 2.82
-12.30 4.01 2.80
-12.31 3.74 2.78
-12.31 3.47 2.76
-12.31 3.21 2.75
-12.37 2.96 2.75
-12.43 2.71 2.75
-12.47 2.46 2.74
-12.51 2.20 2.74
-12.54 1.95 2.74
-12.56 1.70 2.73
-12.60 1.45 2.73
-12.72 1.20 2.75
-12.83 0.95 2.77
-12.93 0.70 2.78
-13.01 0.44 2.80
-13.02 0.18 2.80
-13.02 -0.08 2.79
-13.15 -0.35 2.82
-13.26 -0.62 2.85
-13.37 -0.89 2.87
-13.45 -1.17 2.89
-13.52 -1.45 2.91
-13.56 -1.73 2.92
-13.55 -2.00 2.93
-13.52 -2.28 2.93
-13.48 -2.55 2.93
-13.43 -2.82 2.93
-13.37 -3.09 2.92
-13.29 -3.36 2.92
-13.18 -3.61 2.91
-12.95 -3.83 2.87
-12.72 -4.04 2.84
-12.48 -4.24 2.80
-12.24 -4.44 2.76
-12.00 -4.62 2.73
-11.75 -4.80 2.69
-11.51 -4.97 2.65
-11.29 -5.15 2.63
-11.07 -5.32 2.60
-10.84 -5.48 2.57
-10.62 -5.64 2.54
-10.43 -5.81 2.52
-9.79 -5.72 2.39
-9.68 -5.92 2.39
-9.57 -6.11 2.39
-9.45 -6.31 2.39
-9.33 -6.50 2.39
-9.20 -6.69 2.39
-9.07 -6.88 2.39
-8.94 -7.06 2.39
-8.80 -7.25 2.39
-8.66 -7.43 2.39
-8.51 -7.60 2.39
-8.36 -7.78 2.39
-8.21 -7.95 2.39
-6.05 -6.10 1.80
-7.90 -8.28 2.39
-7.73 -8.45 2.39
-7.57 -8.61 2.39
-6.16 -7.29 1.99
-7.23 -8.91 2.39
-7.05 -9.06 2.39
-6.87 -9.21 2.39
-6.69 -9.35 2.39
-6.50 -9.49 2.39
-6.32 -9.62 2.39
-6.13 -9.75 2.39
-5.93 -9.88 2.39
-5.83 -10.16 2.43
-5.78 -10.56 2.49
-5.57 -10.68 2.49
-5.35 -10.79 2.49
-5.14 -10.90 2.49
-4.92 -11.01 2.49
-4.70 -11.11 2.49
-4.48 -11.21 2.49
-4.26 -11.30 2.49
-4.03 -11.39 2.49
-3.81 -11.48 2.49
-3.58 -11.56 2.49
-3.35 -11.63 2.49
-3.11 -11.70 2.49
-2.88 -11.77 2.49
-2.64 -11.83 2.49
-2.41 -11.88 2.49
-2.17 -11.94 2.49
-1.93 -11.98 2.49
-1.69 -12.02 2.49
-1.45 -12.06 2.49
-1.21 -12.09 2.49
-0.97 -12.12 2.49
-0.72 -12.14 2.49
-0.48 -12.15 2.49
-0.24 -12.16 2.49
0.01 -10.92 2.49
0.23 -10.92 2.49
0.45 -10.91 2.49
0.66 -10.90 2.49
0.88 -10.89 2.49
1.10 -10.87 2.49
1.32 -10.85 2.49
1.54 -10.83 2.49
1.75 -10.79 2.49
1.97 -10.76 2.49
2.19 -10.72 2.49
2.30 -10.23 2.39
2.51 -10.19 2.39
2.58 -9.64 2.27
2.87 -9.92 2.35
3.06 -9.86 2.35
3.16 -9.49 2.28
3.51 -9.89 2.39
3.71 -9.82 2.39
3.91 -9.74 2.39
4.10 -9.66 2.39
4.30 -9.58 2.39
4.49 -9.49 2.39
4.68 -9.40 2.39
4.86 -9.30 2.39
5.05 -9.20 2.39
5.23 -9.10 2.39
5.41 -8.99 2.39
5.59 -8.88 2.39
5.77 -8.77 2.39
5.94 -8.65 2.39
6.12 -8.53 2.39
6.33 -8.47 2.41
6.50 -8.34 2.41
6.32 -7.78 2.29
6.39 -7.55 2.26
6.63 -7.52 2.29
6.93 -7.55 2.34
7.21 -7.55 2.38
7.44 -7.48 2.41
7.59 -7.33 2.41
7.73 -7.18 2.41
7.87 -7.02 2.41
8.01 -6.86 2.41
8.14 -6.69 2.41
8.27 -6.53 2.41
8.40 -6.36 2.41
8.52 -6.19 2.41
8.64 -6.01 2.41
8.76 -5.84 2.41
8.84 -5.64 2.40
8.91 -5.43 2.39
8.98 -5.23 2.38
9.04 -5.03 2.37
9.11 -4.83 2.36
9.17 -4.63 2.35
9.23 -4.43 2.35
9.28 -4.23 2.34
9.34 -4.03 2.33
9.40 -3.84 2.33
9.47 -3.64 2.33
9.52 -3.45 2.33
9.56 -3.25 2.32
9.46 -3.00 2.28
9.46 -2.79 2.27
9.46 -2.59 2.26
9.27 -2.34 2.20
9.31 -2.15 2.20
9.34 -1.96 2.20
9.37 -1.77 2.20
9.39 -1.58 2.20
9.41 -1.39 2.20
9.43 -1.20 2.20
9.45 -1.01 2.20
9.46 -0.82 2.19
9.46 -0.63 2.19
9.46 -0.44 2.19
9.46 -0.25 2.19
9.46 -0.06 2.19
9.46 0.13 2.19
9.45 0.32 2.19
9.94 0.53 2.31
9.93 0.73 2.31
9.91 0.93 2.31
9.89 1.13 2.32
9.87 1.33 2.32
9.85 1.53 2.32
9.82 1.73 2.32
9.44 1.86 2.24
8.61 1.87 2.06
7.83 1.87 1.88
7.13 1.86 1.72
6.59 1.85 1.60
6.22 1.89 1.52
6.10 1.98 1.50
6.10 2.12 1.51
8.89 3.29 2.22
8.83 3.47 2.22
8.76 3.65 2.23
8.70 3.83 2.23
8.62 4.01 2.23
8.55 4.18 2.24
8.47 4.36 2.24
8.35 4.51 2.23
8.87 5.02 2.40
8.78 5.21 2.41
8.68 5.39 2.41
8.57 5.56 2.41
8.45 5.72 2.41
8.32 5.89 2.41
8.20 6.05 2.41
8.07 6.21 2.41
7.94 6.37 2.41
7.81 6.52 2.41
7.67 6.67 2.41
7.53 6.82 2.41
7.39 6.97 2.41
7.24 7.11 2.41
7.09 7.25 2.41
6.94 7.39 2.41
6.79 7.52 2.41
6.63 7.65 2.41
6.47 7.78 2.41
6.31 7.90 2.41
6.11 7.97 2.39
5.94 8.09 2.39
5.78 8.20 2.39
5.61 8.31 2.39
5.44 8.42 2.39
5.26 8.52 2.39
5.09 8.62 2.39
4.91 8.71 2.39
4.73 8.81 2.39
4.55 8.90 2.39
4.37 8.98 2.39
4.19 9.06 2.39
4.00 9.14 2.39
3.82 9.22 2.39
3.63 9.29 2.39
3.27 8.88 2.27
3.14 9.11 2.31
3.01 9.32 2.35
2.82 9.38 2.35
2.56 9.17 2.29
2.48 9.63 2.39
2.28 9.67 2.39
2.18 10.13 2.49
1.97 10.17 2.49
1.77 10.21 2.49
1.56 10.24 2.49
1.36 10.26 2.49
1.15 10.28 2.49
0.94 10.30 2.49
0.73 10.31 2.49
0.53 10.32 2.49
0.32 10.33 2.49
0.11 10.33 2.49
-0.10 10.33 2.49
-0.30 10.32 2.49
-0.51 10.31 2.49
-0.72 10.30 2.49
-0.92 10.28 2.49
-1.13 10.25 2.49
-1.34 10.23 2.49
-1.54 10.20 2.49
-1.75 10.16 2.49
-1.95 10.12 2.49
-2.15 10.08 2.49
-2.35 10.03 2.49
-2.56 9.98 2.49
-2.76 9.93 2.49
-2.95 9.87 2.49
-3.15 9.81 2.49
-3.35 9.74 2.49
-3.54 9.67 2.49
-3.74 9.60 2.49
-3.93 9.52 2.49
-4.12 9.44 2.49
-4.31 9.35 2.49
-4.49 9.26 2.49
-4.68 9.17 2.49
-4.86 9.08 2.49
-5.04 8.98 2.49
-5.22 8.87 2.49
-5.40 8.77 2.49
-5.58 8.66 2.49
-5.75 8.54 2.49
-5.86 8.34 2.47
-5.87 8.00 2.40
-6.00 7.85 2.39
-6.16 7.73 2.39
-6.31 7.60 2.39
-6.46 7.47 2.39
-6.61 7.34 2.39
-6.76 7.21 2.39
-6.91 7.07 2.39
-7.05 6.93 2.39
-7.19 6.79 2.39
-7.32 6.65 2.39
-7.46 6.50 2.39
-7.59 6.35 2.39
-7.72 6.20 2.39
-7.84 6.04 2.39
-7.96 5.89 2.39
-8.08 5.73 2.39
-8.20 5.57 2.39
-8.31 5.40 2.39
-8.42 5.23 2.39
-8.53 5.07 2.39
-8.63 4.90 2.39
-8.73 4.72 2.39
-8.83 4.55 2.39
-8.92 4.37 2.39
-9.01 4.19 2.39
-9.09 4.01 2.39
-9.18 3.83 2.39
-9.26 3.65 2.39
-9.33 3.46 2.39
-9.40 3.27 2.39
-9.47 3.09 2.39
-9.53 2.90 2.39
-9.59 2.71 2.39
-9.65 2.51 2.39
-9.70 2.32 2.39
-9.75 2.13 2.39
-9.80 1.93 2.39
-9.84 1.73 2.39
-10.56 1.64 2.56
-10.61 1.43 2.56
-10.63 1.22 2.56
-10.65 1.00 2.55
-10.65 0.79 2.55
-10.65 0.57 2.54
-10.67 0.36 2.55
-10.69 0.15 2.55
-10.71 -0.07 2.55
-10.72 -0.28 2.55
-10.71 -0.50 2.55
-10.69 -0.71 2.55
-10.66 -0.93 2.54
-10.63 -1.14 2.54
-10.58 -1.35 2.53
-10.53 -1.56 2.53
-10.48 -1.77 2.52
-10.42 -1.98 2.51
-10.36 -2.18 2.51
-9.84 -2.28 2.39
-9.80 -2.48 2.39
-9.75 -2.67 2.39
-9.70 -2.87 2.39
-9.65 -3.07 2.39
-9.59 -3.26 2.39
-9.53 -3.46 2.39
-9.47 -3.65 2.39
-9.40 -3.84 2.39
-9.32 -4.03 2.39
-9.25 -4.22 2.39
-9.17 -4.41 2.39
-9.08 -4.59 2.39
-8.99 -4.78 2.39
-8.90 -4.96 2.39
-8.80 -5.14 2.39
-8.70 -5.32 2.39
-8.60 -5.50 2.39
-8.49 -5.67 2.39
-8.38 -5.85 2.39
-8.27 -6.02 2.39
-8.15 -6.18 2.39
-8.03 -6.35 2.39
-7.91 -6.51 2.39
-7.78 -6.68 2.39
-7.65 -6.84 2.39
-7.52 -6.99 2.39
-7.38 -7.15 2.39
-6.05 -6.10 2.00
-7.09 -7.44 2.39
-6.95 -7.59 2.39
-6.80 -7.73 2.39
-6.16 -7.29 2.22
-6.49 -8.01 2.39
-6.33 -8.14 2.39
-6.17 -8.27 2.39
-6.01 -8.40 2.39
-5.86 -8.54 2.40
-5.85 -8.91 2.47
-5.74 -9.14 2.49
-5.55 -9.25 2.49
-5.37 -9.37 2.49
-5.18 -9.48 2.49
-5.00 -9.59 2.49
-4.81 -9.69 2.49
-4.61 -9.79 2.49
-4.42 -9.88 2.49
-4.22 -9.97 2.49
-4.02 -10.06 2.49
-3.82 -10.15 2.49
-3.62 -10.22 2.49
-3.41 -10.30 2.49
-3.21 -10.37 2.49
-3.00 -10.44 2.49
-2.79 -10.50 2.49
-2.58 -10.56 2.49
-2.37 -10.61 2.49
-2.16 -10.66 2.49
-1.95 -10.71 2.49
-1.73 -10.75 2.49
-1.52 -10.78 2.49
-1.30 -10.82 2.49
-1.08 -10.84 2.49
-0.87 -10.87 2.49
-0.65 -10.89 2.49
-0.43 -10.90 2.49
-0.21 -10.91 2.49
0.01 -9.89 2.49
0.21 -9.89 2.49
0.40 -9.88 2.49
0.60 -9.87 2.49
0.80 -9.86 2.49
1.00 -9.85 2.49
1.20 -9.83 2.49
1.39 -9.80 2.49
1.59 -9.77 2.49
1.78 -9.74 2.49
1.98 -9.71 2.49
2.17 -9.67 2.49
2.27 -9.22 2.39
2.45 -9.18 2.39
2.57 -8.89 2.33
2.68 -8.61 2.27
2.95 -8.87 2.35
3.13 -8.81 2.35
3.19 -8.44 2.27
3.54 -8.82 2.39
3.72 -8.75 2.39
3.89 -8.67 2.39
4.06 -8.59 2.39
4.23 -8.51 2.39
4.40 -8.42 2.39
4.57 -8.33 2.39
4.74 -8.24 2.39
4.90 -8.14 2.39
5.06 -8.04 2.39
5.22 -7.94 2.39
5.38 -7.83 2.39
5.54 -7.72 2.39
5.69 -7.61 2.39
5.84 -7.49 2.39
5.99 -7.37 2.39
6.13 -7.25 2.39
6.33 -7.19 2.41
6.47 -7.05 2.41
6.60 -6.92 2.41
6.74 -6.78 2.41
6.87 -6.64 2.41
7.00 -6.50 2.41
7.13 -6.36 2.41
7.25 -6.21 2.41
7.37 -6.06 2.41
7.49 -5.91 2.41
7.61 -5.76 2.41
7.72 -5.60 2.41
7.83 -5.45 2.41
7.93 -5.29 2.41
8.03 -5.13 2.41
8.13 -4.96 2.41
8.23 -4.80 2.41
8.32 -4.63 2.41
8.41 -4.46 2.41
8.49 -4.29 2.41
8.57 -4.12 2.41
8.65 -3.94 2.41
8.73 -3.77 2.41
8.78 -3.59 2.40
8.83 -3.40 2.40
8.88 -3.22 2.39
8.92 -3.03 2.39
8.96 -2.84 2.39
9.00 -2.66 2.38
8.50 -2.33 2.24
8.53 -2.15 2.24
8.57 -1.98 2.24
8.59 -1.81 2.23
8.62 -1.63 2.23
8.64 -1.46 2.23
8.66 -1.28 2.23
8.68 -1.11 2.23
8.70 -0.93 2.23
8.71 -0.76 2.23
8.71 -0.58 2.23
8.72 -0.41 2.23
8.72 -0.23 2.23
9.26 -0.06 2.37
9.26 0.12 2.37
9.25 0.31 2.37
9.24 0.50 2.37
9.23 0.68 2.37
9.21 0.87 2.37
9.19 1.05 2.37
9.17 1.23 2.37
9.15 1.42 2.38
9.12 1.60 2.38
9.09 1.79 2.38
8.61 1.87 2.27
7.83 1.87 2.07
7.14 1.86 1.90
6.71 1.89 1.80
6.23 1.89 1.68
6.10 1.98 1.65
6.10 2.12 1.67
8.15 3.02 2.24
8.10 3.18 2.25
8.04 3.35 2.25
7.99 3.52 2.26
7.93 3.68 2.26
7.86 3.85 2.27
7.80 4.01 2.27
7.73 4.17 2.28
7.66 4.33 2.28
7.58 4.50 2.29
7.88 4.89 2.41
7.78 5.04 2.41
7.67 5.20 2.41
7.56 5.35 2.41
7.45 5.49 2.41
7.33 5.64 2.41
7.21 5.78 2.41
7.09 5.92 2.41
6.97 6.06 2.41
6.84 6.20 2.41
6.71 6.33 2.41
6.58 6.46 2.41
6.44 6.59 2.41
6.31 6.71 2.41
6.13 6.79 2.39
5.99 6.90 2.39
5.84 7.02 2.39
5.70 7.13 2.39
5.55 7.24 2.39
5.40 7.35 2.39
5.25 7.45 2.39
5.10 7.55 2.39
4.94 7.65 2.39
4.78 7.74 2.39
4.63 7.83 2.39
4.47 7.92 2.39
4.30 8.01 2.39
4.14 8.09 2.39
3.98 8.16 2.39
3.81 8.24 2.39
3.64 8.31 2.39
3.47 8.38 2.39
3.15 8.05 2.28
3.08 8.36 2.35
2.91 8.42 2.35
2.64 8.18 2.27
2.56 8.50 2.35
2.43 8.71 2.39
2.26 8.76 2.39
2.17 9.18 2.49
1.98 9.22 2.49
1.80 9.25 2.49
1.61 9.28 2.49
1.42 9.31 2.49
1.23 9.33 2.49
1.05 9.35 2.49
0.86 9.37 2.49
0.67 9.38 2.49
0.48 9.39 2.49
0.29 9.40 2.49
0.10 9.40 2.49
-0.09 9.40 2.49
-0.28 9.39 2.49
-0.46 9.38 2.49
-0.65 9.37 2.49
-0.84 9.35 2.49
-1.03 9.33 2.49
-1.22 9.31 2.49
-1.40 9.28 2.49
-1.59 9.25 2.49
-1.77 9.21 2.49
-1.96 9.17 2.49
-2.14 9.13 2.49
-2.32 9.08 2.49
-2.51 9.03 2.49
-2.69 8.98 2.49
-2.87 8.92 2.49
-3.05 8.86 2.49
-3.22 8.80 2.49
-3.40 8.73 2.49
-3.57 8.66 2.49
-3.75 8.59 2.49
-3.92 8.51 2.49
-4.09 8.43 2.49
-4.26 8.35 2.49
-4.43 8.26 2.49
-4.59 8.17 2.49
-4.75 8.08 2.49
-4.92 7.98 2.49
-5.08 7.88 2.49
-5.23 7.77 2.49
-5.39 7.67 2.49
-5.54 7.56 2.49
-5.69 7.45 2.49
-5.84 7.33 2.49
-5.86 7.05 2.44
-5.88 6.80 2.39
-6.02 6.68 2.39
-6.15 6.56 2.39
-6.28 6.44 2.39
-6.41 6.31 2.39
-6.54 6.18 2.39
-6.66 6.05 2.39
-6.79 5.91 2.39
-6.90 5.78 2.39
-7.02 5.64 2.39
-7.13 5.50 2.39
-7.25 5.36 2.39
-7.35 5.21 2.39
-7.46 5.06 2.39
-7.56 4.91 2.39
-7.66 4.76 2.39
-7.76 4.61 2.39
-7.85 4.45 2.39
-7.94 4.29 2.39
-8.03 4.14 2.39
-8.11 3.97 2.39
-8.19 3.81 2.39
-8.27 3.65 2.39
-8.35 3.48 2.39
-8.42 3.31 2.39
-8.48 3.15 2.39
-8.55 2.98 2.39
-8.61 2.80 2.39
-8.67 2.63 2.39
-8.72 2.46 2.39
-8.78 2.28 2.39
-8.82 2.11 2.39
-8.87 1.93 2.39
-8.91 1.75 2.39
-8.95 1.57 2.39
-8.98 1.39 2.39
-9.01 1.21 2.39
-9.04 1.03 2.39
-9.06 0.85 2.39
-9.08 0.67 2.39
-9.10 0.49 2.39
-9.11 0.31 2.39
-9.12 0.12 2.39
-9.12 -0.06 2.39
-9.12 -0.24 2.39
-9.12 -0.43 2.39
-9.12 -0.61 2.39
-9.11 -0.79 2.39
-9.09 -0.98 2.39
-9.08 -1.16 2.39
-9.06 -1.34 2.39
-9.03 -1.53 2.39
-9.01 -1.71 2.39
-8.97 -1.89 2.39
-8.94 -2.07 2.39
-8.90 -2.25 2.39
-8.86 -2.43 2.39
-8.81 -2.61 2.39
-8.76 -2.79 2.39
-8.71 -2.96 2.39
-8.65 -3.14 2.39
-8.59 -3.31 2.39
-8.53 -3.49 2.39
-8.46 -3.66 2.39
-8.39 -3.83 2.39
-8.32 -4.00 2.39
-8.24 -4.17 2.39
-8.16 -4.34 2.39
-8.08 -4.50 2.39
-7.99 -4.67 2.39
-7.90 -4.83 2.39
-7.80 -4.99 2.39
-7.71 -5.15 2.39
-7.61 -5.31 2.39
-7.50 -5.46 2.39
-7.40 -5.61 2.39
-7.29 -5.76 2.39
-7.17 -5.91 2.39
-7.06 -6.06 2.39
-6.94 -6.20 2.39
-6.82 -6.34 2.39
-6.69 -6.48 2.39
-6.05 -6.10 2.20
-6.43 -6.75 2.39
-6.30 -6.88 2.39
-6.16 -7.01 2.39
-6.04 -7.15 2.40
-5.88 -7.26 2.39
-5.85 -7.52 2.44
-5.83 -7.82 2.49
-5.68 -7.94 2.49
-5.52 -8.06 2.49
-5.36 -8.17 2.49
-5.20 -8.28 2.49
-5.03 -8.39 2.49
-4.87 -8.49 2.49
-4.70 -8.59 2.49
-4.53 -8.69 2.49
-4.35 -8.78 2.49
-4.18 -8.87 2.49
-4.00 -8.96 2.49
-3.82 -9.04 2.49
-3.64 -9.12 2.49
-3.46 -9.19 2.49
-3.28 -9.27 2.49
-3.09 -9.33 2.49
-2.91 -9.40 2.49
-2.72 -9.46 2.49
-2.53 -9.51 2.49
-2.34 -9.57 2.49
-2.15 -9.61 2.49
-1.95 -9.66 2.49
-1.76 -9.70 2.49
-1.57 -9.74 2.49
-1.37 -9.77 2.49
-1.18 -9.80 2.49
-0.98 -9.82 2.49
-0.78 -9.84 2.49
-0.59 -9.86 2.49
-0.39 -9.87 2.49
-0.19 -9.88 2.49
0.01 -9.02 2.49
0.19 -9.02 2.49
0.37 -9.02 2.49
0.55 -9.01 2.49
0.73 -9.00 2.49
0.91 -8.99 2.49
1.09 -8.97 2.49
1.27 -8.95 2.49
1.45 -8.92 2.49
1.63 -8.89 2.49
1.81 -8.86 2.49
1.98 -8.82 2.49
2.16 -8.78 2.49
2.24 -8.38 2.39
2.41 -8.35 2.40
2.57 -8.28 2.39
2.60 -7.81 2.27
2.76 -7.76 2.27
2.91 -7.70 2.27
3.07 -7.64 2.27
3.23 -7.60 2.28
3.55 -7.91 2.39
3.71 -7.84 2.39
3.86 -7.77 2.39
4.02 -7.69 2.39
4.17 -7.61 2.39
4.32 -7.52 2.39
4.47 -7.43 2.39
4.62 -7.34 2.39
4.77 -7.25 2.39
4.91 -7.15 2.39
5.05 -7.05 2.39
5.19 -6.94 2.39
5.33 -6.84 2.39
5.47 -6.73 2.39
5.60 -6.62 2.39
5.73 -6.50 2.39
5.86 -6.39 2.39
5.98 -6.27 2.39
6.11 -6.14 2.39
6.28 -6.07 2.41
6.40 -5.94 2.41
6.51 -5.81 2.41
6.62 -5.67 2.41
6.73 -5.53 2.41
6.84 -5.40 2.41
6.94 -5.26 2.41
7.04 -5.12 2.41
7.14 -4.97 2.41
7.24 -4.83 2.41
7.33 -4.68 2.41
7.42 -4.53 2.41
7.51 -4.38 2.41
7.60 -4.23 2.41
7.68 -4.07 2.41
7.75 -3.92 2.41
7.83 -3.76 2.41
7.90 -3.60 2.41
7.97 -3.44 2.41
8.03 -3.28 2.41
8.09 -3.12 2.41
8.15 -2.95 2.41
8.21 -2.79 2.41
7.78 -2.47 2.27
7.82 -2.31 2.27
7.85 -2.15 2.26
7.88 -1.99 2.26
7.91 -1.83 2.26
7.94 -1.67 2.26
7.96 -1.51 2.26
7.98 -1.35 2.26
8.00 -1.19 2.26
8.02 -1.02 2.25
8.03 -0.86 2.25
8.04 -0.70 2.25
8.05 -0.54 2.25
8.05 -0.38 2.25
8.05 -0.22 2.25
8.61 -0.06 2.41
8.60 0.11 2.41
8.59 0.29 2.41
8.58 0.46 2.41
8.57 0.63 2.41
8.55 0.80 2.41
8.53 0.97 2.41
8.50 1.14 2.41
8.47 1.31 2.41
8.44 1.48 2.41
8.40 1.65 2.41
8.37 1.82 2.41
7.83 1.87 2.26
7.14 1.86 2.08
6.72 1.89 1.97
6.23 1.89 1.84
6.10 1.98 1.81
6.10 2.12 1.82
7.59 2.81 2.28
7.54 2.96 2.29
7.49 3.12 2.29
7.43 3.27 2.30
7.38 3.42 2.30
7.32 3.58 2.30
7.25 3.73 2.31
7.19 3.88 2.31
7.12 4.03 2.32
7.05 4.18 2.32
6.98 4.33 2.33
6.90 4.48 2.34
7.02 4.75 2.41
6.92 4.89 2.41
6.81 5.03 2.41
6.71 5.16 2.41
6.60 5.29 2.41
6.49 5.42 2.41
6.38 5.54 2.41
6.26 5.67 2.41
6.10 5.75 2.39
5.98 5.87 2.39
5.86 5.99 2.39
5.74 6.10 2.39
5.61 6.21 2.39
5.48 6.32 2.39
5.35 6.42 2.39
5.22 6.53 2.39
5.08 6.63 2.39
4.95 6.73 2.39
4.81 6.82 2.39
4.67 6.91 2.39
4.53 7.00 2.39
4.38 7.09 2.39
4.24 7.17 2.39
4.09 7.25 2.39
3.94 7.33 2.39
3.79 7.40 2.39
3.64 7.48 2.39
3.49 7.54 2.39
3.17 7.22 2.27
3.13 7.55 2.35
2.97 7.61 2.35
2.82 7.66 2.35
2.57 7.44 2.27
2.55 7.89 2.39
2.40 7.97 2.40
2.23 7.98 2.39
2.16 8.37 2.49
1.99 8.41 2.49
1.82 8.44 2.49
1.65 8.48 2.49
1.48 8.50 2.49
1.30 8.53 2.49
1.13 8.55 2.49
0.96 8.57 2.49
0.79 8.58 2.49
0.61 8.60 2.49
0.44 8.60 2.49
0.27 8.61 2.49
0.09 8.61 2.49
-0.08 8.61 2.49
-0.25 8.60 2.49
-0.42 8.60 2.49
-0.60 8.58 2.49
-0.77 8.57 2.49
-0.94 8.55 2.49
-1.11 8.53 2.49
-1.28 8.50 2.49
-1.45 8.47 2.49
-1.62 8.44 2.49
-1.79 8.41 2.49
-1.96 8.37 2.49
-2.13 8.32 2.49
-2.30 8.28 2.49
-2.46 8.23 2.49
-2.63 8.18 2.49
-2.79 8.12 2.49
-2.95 8.06 2.49
-3.12 8.00 2.49
-3.28 7.94 2.49
-3.43 7.87 2.49
-3.59 7.80 2.49
-3.75 7.73 2.49
-3.90 7.65 2.49
-4.06 7.57 2.49
-4.21 7.49 2.49
-4.36 7.40 2.49
-4.51 7.31 2.49
-4.65 7.22 2.49
-4.80 7.13 2.49
-4.94 7.03 2.49
-5.08 6.93 2.49
-5.22 6.82 2.49
-5.35 6.72 2.49
-5.49 6.61 2.49
-5.62 6.50 2.49
-5.75 6.39 2.49
-5.86 6.24 2.48
-5.86 6.00 2.43
-5.88 5.78 2.39
-5.99 5.66 2.39
-6.11 5.54 2.39
-6.22 5.42 2.39
-6.33 5.29 2.39
-6.43 5.17 2.39
-6.54 5.04 2.39
-6.64 4.91 2.39
-6.74 4.77 2.39
-6.83 4.64 2.39
-6.93 4.50 2.39
-7.02 4.36 2.39
-7.11 4.22 2.39
-7.19 4.08 2.39
-7.27 3.93 2.39
-7.35 3.79 2.39
-7.43 3.64 2.39
-7.51 3.49 2.39
-7.58 3.34 2.39
-7.65 3.19 2.39
-7.71 3.04 2.39
-7.77 2.88 2.39
-7.83 2.73 2.39
-7.89 2.57 2.39
-7.94 2.41 2.39
-7.99 2.25 2.39
-8.04 2.09 2.39
-8.08 1.93 2.39
-8.12 1.77 2.39
-8.16 1.60 2.39
-8.19 1.44 2.39
-8.22 1.28 2.39
-8.25 1.11 2.39
-8.27 0.95 2.39
-8.30 0.78 2.39
-8.31 0.61 2.39
-8.33 0.45 2.39
-8.34 0.28 2.39
-8.35 0.11 2.39
-8.35 -0.06 2.39
-8.35 -0.22 2.39
-8.35 -0.39 2.39
-8.34 -0.56 2.39
-8.34 -0.73 2.39
-8.32 -0.90 2.39
-8.31 -1.06 2.39
-8.29 -1.23 2.39
-8.27 -1.40 2.39
-8.24 -1.56 2.39
-8.21 -1.73 2.39
-8.18 -1.90 2.39
-8.14 -2.06 2.39
-8.11 -2.22 2.39
-8.06 -2.39 2.39
-8.02 -2.55 2.39
-7.97 -2.71 2.39
-7.92 -2.87 2.39
-7.86 -3.03 2.39
-7.80 -3.19 2.39
-7.74 -3.35 2.39
-7.68 -3.51 2.39
-7.61 -3.66 2.39
-7.54 -3.82 2.39
-7.46 -3.97 2.39
-7.39 -4.12 2.39
-7.31 -4.27 2.39
-7.22 -4.42 2.39
-7.14 -4.56 2.39
-7.05 -4.71 2.39
-6.95 -4.85 2.39
-6.86 -4.99 2.39
-6.76 -5.13 2.39
-6.66 -5.27 2.39
-6.56 -5.41 2.39
-6.45 -5.54 2.39
-6.34 -5.67 2.39
-6.23 -5.80 2.39
-6.11 -5.93 2.39
-6.00 -6.05 2.39
-5.88 -6.17 2.39
-5.85 -6.39 2.43
-5.85 -6.65 2.48
-5.74 -6.81 2.49
-5.61 -6.92 2.49
-5.47 -7.04 2.49
-5.33 -7.15 2.49
-5.19 -7.26 2.49
-5.04 -7.36 2.49
-4.90 -7.47 2.49
-4.75 -7.57 2.49
-4.60 -7.66 2.49
-4.45 -7.76 2.49
-4.29 -7.85 2.49
-4.13 -7.94 2.49
-3.98 -8.02 2.49
-3.82 -8.10 2.49
-3.65 -8.18 2.49
-3.49 -8.26 2.49
-3.33 -8.33 2.49
-3.16 -8.40 2.49
-2.99 -8.46 2.49
-2.82 -8.52 2.49
-2.65 -8.58 2.49
-2.48 -8.64 2.49
-2.31 -8.69 2.49
-2.13 -8.73 2.49
-1.96 -8.78 2.49
-1.78 -8.82 2.49
-1.61 -8.86 2.49
-1.43 -8.89 2.49
-1.25 -8.92 2.49
-1.07 -8.94 2.49
-0.89 -8.97 2.49
-0.71 -8.99 2.49
-0.53 -9.00 2.49
-0.35 -9.01 2.49
-0.17 -9.02 2.49
0.01 -8.29 2.49
0.17 -8.29 2.49
0.34 -8.29 2.49
0.51 -8.28 2.49
0.67 -8.27 2.49
0.84 -8.26 2.49
1.00 -8.24 2.49
1.17 -8.22 2.49
1.33 -8.20 2.49
1.50 -8.17 2.49
1.66 -8.14 2.49
1.82 -8.11 2.49
1.99 -8.07 2.49
2.15 -8.03 2.49
2.21 -7.65 2.39
2.37 -7.61 2.39
2.52 -7.56 2.39
2.57 -7.23 2.30
2.68 -7.07 2.27
2.92 -7.27 2.35
3.06 -7.22 2.35
3.16 -7.03 2.31
3.23 -6.84 2.27
3.55 -7.14 2.39
3.69 -7.06 2.39
3.83 -6.99 2.39
3.97 -6.91 2.39
4.11 -6.83 2.39
4.25 -6.74 2.39
4.38 -6.66 2.39
4.51 -6.57 2.39
4.64 -6.48 2.39
4.77 -6.38 2.39
4.90 -6.28 2.39
5.02 -6.18 2.39
5.14 -6.08 2.39
5.26 -5.98 2.39
5.38 -5.87 2.39
5.50 -5.76 2.39
5.61 -5.65 2.39
5.72 -5.53 2.39
5.83 -5.42 2.39
5.94 -5.30 2.39
6.04 -5.18 2.39
6.14 -5.05 2.39
6.29 -4.97 2.41
6.39 -4.84 2.41
6.48 -4.71 2.41
6.57 -4.57 2.41
6.65 -4.44 2.41
6.74 -4.30 2.41
6.82 -4.17 2.41
6.90 -4.03 2.41
6.98 -3.89 2.41
7.05 -3.74 2.41
7.13 -3.60 2.41
7.19 -3.46 2.41
7.26 -3.31 2.41
7.32 -3.16 2.41
7.38 -3.02 2.41
7.44 -2.87 2.41
7.49 -2.72 2.41
7.23 -2.46 2.31
7.27 -2.31 2.31
7.31 -2.16 2.30
7.34 -2.01 2.30
7.37 -1.86 2.30
7.40 -1.71 2.30
7.42 -1.56 2.30
7.44 -1.41 2.30
7.46 -1.26 2.29
7.48 -1.11 2.29
7.49 -0.96 2.29
7.51 -0.81 2.29
7.52 -0.66 2.29
7.52 -0.51 2.29
7.53 -0.35 2.29
7.53 -0.20 2.29
7.92 -0.05 2.41
7.91 0.10 2.41
7.90 0.26 2.41
7.89 0.42 2.41
7.88 0.58 2.41
7.86 0.74 2.41
7.84 0.89 2.41
7.82 1.05 2.41
7.79 1.21 2.41
7.76 1.36 2.41
7.73 1.52 2.41
7.70 1.67 2.41
7.66 1.82 2.41
7.15 1.86 2.26
6.72 1.89 2.14
6.24 1.89 2.00
6.10 1.98 1.97
6.10 2.12 1.98
7.09 2.62 2.32
7.05 2.77 2.32
7.00 2.91 2.33
6.95 3.06 2.33
6.89 3.20 2.34
6.83 3.34 2.34
6.78 3.48 2.34
6.71 3.62 2.35
6.65 3.76 2.35
6.59 3.90 2.36
6.52 4.04 2.36
