ply
format ascii 1.0
element vertex 2918
property float32 x
property float32 y
property float32 z
end_header
-3.09 -21.74 2.47
-2.68 -22.01 2.49
-2.23 -22.03 2.49
-1.79 -22.05 2.50
-1.35 -22.07 2.50
-0.90 -22.07 2.50
-0.46 -22.06 2.50
-0.02 -18.35 2.50
0.35 -18.33 2.50
0.72 -18.30 2.50
1.08 -18.26 2.50
1.45 -18.21 2.50
1.81 -18.16 2.50
2.17 -18.10 2.50
2.53 -18.03 2.50
2.89 -17.96 2.50
3.25 -17.88 2.50
3.60 -17.79 2.50
3.95 -17.69 2.50
4.30 -17.59 2.49
4.46 -16.76 2.39
4.79 -16.64 2.39
5.11 -16.53 2.39
5.19 -15.65 2.28
5.76 -16.27 2.39
6.08 -16.13 2.39
6.39 -15.99 2.39
6.70 -15.84 2.39
7.01 -15.69 2.39
7.32 -15.52 2.39
7.62 -15.36 2.39
7.92 -15.18 2.39
8.21 -15.00 2.39
8.50 -14.82 2.39
8.78 -14.63 2.39
10.66 -16.97 2.81
9.40 -14.32 2.41
9.68 -14.11 2.41
9.95 -13.90 2.41
10.21 -13.68 2.41
10.47 -13.46 2.41
10.73 -13.23 2.41
10.98 -13.00 2.41
11.22 -12.76 2.41
11.46 -12.51 2.41
11.70 -12.27 2.41
11.93 -12.02 2.41
12.14 -11.75 2.41
12.34 -11.47 2.40
12.53 -11.19 2.40
12.71 -10.90 2.39
12.89 -10.61 2.39
13.05 -10.31 2.38
13.22 -10.02 2.38
13.33 -9.69 2.37
13.40 -9.34 2.35
13.46 -8.98 2.33
13.52 -8.63 2.31
13.57 -8.28 2.29
13.61 -7.94 2.28
13.73 -7.64 2.27
13.86 -7.35 2.27
13.98 -7.06 2.27
14.07 -6.76 2.26
14.12 -6.44 2.25
14.17 -6.12 2.24
14.21 -5.80 2.23
14.28 -5.50 2.23
14.34 -5.19 2.22
14.42 -4.90 2.22
14.50 -4.60 2.22
14.57 -4.30 2.22
14.64 -4.00 2.22
14.71 -3.71 2.22
14.78 -3.41 2.22
14.85 -3.11 2.23
14.90 -2.81 2.23
14.96 -2.51 2.23
15.01 -2.21 2.23
15.06 -1.91 2.24
15.08 -1.61 2.24
15.09 -1.30 2.23
15.09 -1.00 2.23
15.09 -0.69 2.23
15.08 -0.39 2.23
6.59 -0.04 0.98
6.58 0.09 0.98
6.58 0.23 0.98
15.00 0.82 2.23
14.98 1.12 2.23
14.05 1.33 2.10
11.44 1.32 1.71
11.44 1.55 1.72
11.44 1.79 1.72
11.43 2.02 1.73
11.43 2.26 1.74
11.42 2.50 1.74
11.42 2.74 1.75
11.41 2.98 1.76
11.41 3.22 1.77
11.40 3.47 1.78
11.40 3.72 1.79
11.39 3.98 1.80
11.39 4.23 1.82
11.38 4.49 1.83
11.38 4.76 1.85
11.37 5.03 1.86
11.37 5.30 1.88
11.36 5.58 1.90
9.77 5.04 1.65
11.35 6.15 1.93
11.30 6.42 1.95
11.17 6.64 1.95
11.03 6.87 1.95
10.89 7.08 1.95
10.74 7.30 1.95
10.59 7.51 1.95
10.44 7.72 1.95
10.28 7.93 1.95
9.87 7.94 1.90
9.65 8.08 1.89
11.15 9.73 2.22
10.69 9.72 2.17
10.26 9.71 2.12
9.85 9.70 2.08
9.42 9.66 2.03
9.07 9.69 1.99
8.68 9.65 1.95
8.36 9.67 1.92
8.02 9.67 1.88
7.68 9.64 1.85
7.37 9.65 1.82
7.04 9.61 1.79
6.77 9.64 1.77
6.48 9.64 1.74
6.18 9.60 1.71
5.95 9.67 1.70
8.15 13.86 2.41
7.87 14.03 2.41
7.59 14.19 2.41
7.31 14.34 2.41
7.02 14.49 2.41
6.73 14.64 2.41
6.44 14.78 2.41
6.15 14.91 2.41
5.81 14.94 2.39
5.51 15.06 2.39
5.21 15.18 2.39
4.91 15.29 2.39
4.60 15.39 2.39
4.29 15.49 2.39
3.98 15.59 2.39
3.67 15.67 2.39
3.36 15.75 2.39
2.90 15.06 2.28
2.68 15.64 2.35
2.30 15.24 2.28
2.09 16.02 2.39
1.84 16.76 2.49
1.51 16.81 2.49
1.17 16.85 2.49
0.83 16.88 2.49
0.49 16.91 2.49
0.16 16.93 2.49
-0.19 16.95 2.49
-0.53 16.95 2.49
-0.87 16.96 2.49
-1.21 16.95 2.49
-1.55 16.94 2.49
-1.89 16.92 2.49
-2.23 16.89 2.49
-2.58 16.86 2.49
-2.92 16.82 2.49
-3.26 16.78 2.49
-3.60 16.73 2.49
-3.94 16.67 2.49
-4.27 16.60 2.49
-4.61 16.53 2.49
-4.95 16.45 2.49
-5.28 16.37 2.49
-5.62 16.28 2.49
-5.95 16.18 2.49
-6.13 15.68 2.43
-6.33 15.30 2.39
-6.65 15.19 2.39
-6.96 15.07 2.39
-7.27 14.94 2.39
-7.58 14.81 2.39
-7.88 14.67 2.39
-8.18 14.53 2.39
-8.48 14.38 2.39
-8.78 14.22 2.39
-9.07 14.06 2.39
-9.37 13.89 2.39
-9.65 13.71 2.39
-9.94 13.53 2.39
-12.23 15.97 2.86
-12.33 15.45 2.81
-12.43 14.95 2.76
-12.61 14.56 2.73
-12.94 14.34 2.73
-13.26 14.12 2.74
-13.53 13.85 2.73
-13.81 13.58 2.73
-13.93 13.16 2.70
-14.04 12.73 2.67
-14.14 12.31 2.64
-14.23 11.90 2.61
-14.27 11.46 2.57
-14.31 11.02 2.53
-14.34 10.60 2.50
-14.35 10.16 2.46
-14.37 9.75 2.42
-14.41 9.36 2.40
-14.46 8.98 2.37
-14.50 8.61 2.35
-14.59 8.27 2.33
-14.67 7.94 2.32
-14.73 7.59 2.30
-14.78 7.24 2.28
-14.82 6.90 2.26
-14.89 6.57 2.25
-14.96 6.24 2.24
-15.02 5.92 2.23
-15.07 5.59 2.21
-15.10 5.26 2.20
-15.20 4.96 2.20
-15.31 4.66 2.20
-15.42 4.35 2.20
-15.53 4.05 2.20
-15.64 3.74 2.20
-6.08 1.33 0.85
-15.74 3.11 2.19
-15.79 2.79 2.19
-15.84 2.47 2.18
-15.88 2.15 2.18
-15.92 1.83 2.18
-15.95 1.51 2.18
-15.99 1.19 2.18
-16.02 0.87 2.18
-6.09 0.21 0.83
-16.08 0.23 2.18
-16.11 -0.09 2.18
-16.14 -0.42 2.18
-16.19 -0.74 2.19
-16.24 -1.07 2.20
-16.29 -1.40 2.21
-16.43 -1.75 2.23
-16.72 -2.12 2.27
-16.95 -2.49 2.31
-17.01 -2.85 2.32
-17.26 -3.25 2.36
-17.55 -3.67 2.41
-17.72 -4.08 2.44
-17.90 -4.50 2.48
-17.99 -4.91 2.50
-18.09 -5.33 2.53
-18.18 -5.75 2.55
-18.23 -6.18 2.58
-18.27 -6.60 2.60
-18.27 -7.02 2.62
-18.27 -7.44 2.64
-18.28 -7.87 2.66
-18.32 -8.33 2.69
-18.31 -8.77 2.71
-18.27 -9.21 2.73
-18.22 -9.65 2.75
-19.12 -10.62 2.92
-18.97 -11.04 2.93
-18.83 -11.47 2.94
-18.68 -11.90 2.95
-18.53 -12.33 2.97
-18.35 -12.75 2.98
-18.15 -13.16 2.99
-17.94 -13.57 3.00
-17.72 -13.97 3.01
-17.50 -14.37 3.02
-17.25 -14.75 3.02
-16.95 -15.10 3.02
-16.64 -15.43 3.02
-16.33 -15.76 3.02
-16.01 -16.08 3.02
-15.68 -16.40 3.02
-15.31 -16.68 3.02
-14.97 -16.97 3.02
-14.63 -17.27 3.02
-14.29 -17.57 3.02
-13.94 -17.86 3.02
-13.58 -18.14 3.02
-13.21 -18.41 3.02
-12.53 -18.22 2.95
-11.86 -18.01 2.88
-10.65 -16.90 2.67
-9.24 -15.33 2.39
-8.92 -15.50 2.39
-8.61 -15.67 2.39
-8.29 -15.83 2.39
-7.96 -15.99 2.39
-7.64 -16.14 2.39
-7.31 -16.28 2.39
-6.98 -16.41 2.39
-6.64 -16.54 2.39
-6.31 -16.66 2.39
-5.97 -16.77 2.39
-5.63 -16.88 2.39
-5.28 -16.98 2.39
-5.08 -17.57 2.46
-4.79 -17.89 2.49
-4.43 -17.97 2.49
-4.06 -18.05 2.50
-3.70 -18.11 2.50
-3.33 -18.17 2.50
-2.97 -18.22 2.50
-2.60 -18.27 2.50
-2.23 -18.30 2.50
-1.86 -18.33 2.50
-1.49 -18.35 2.50
-1.12 -18.36 2.50
-0.75 -18.37 2.50
-0.38 -18.36 2.50
-0.02 -15.69 2.50
0.30 -15.67 2.50
0.61 -15.65 2.50
0.93 -15.62 2.50
1.24 -15.58 2.50
1.55 -15.54 2.50
1.86 -15.49 2.50
2.17 -15.44 2.50
2.47 -15.38 2.50
2.78 -15.31 2.49
3.08 -15.23 2.49
3.24 -14.53 2.39
3.53 -14.45 2.39
3.82 -14.36 2.39
4.10 -14.27 2.39
4.38 -14.17 2.39
4.66 -14.06 2.39
4.94 -13.95 2.39
5.21 -13.84 2.39
5.48 -13.72 2.39
5.75 -13.59 2.39
6.01 -13.46 2.39
6.28 -13.32 2.39
6.54 -13.18 2.39
6.84 -13.13 2.41
7.09 -12.97 2.41
7.34 -12.81 2.41
7.59 -12.65 2.41
7.84 -12.48 2.41
8.08 -12.31 2.41
8.31 -12.13 2.41
8.55 -11.95 2.41
8.78 -11.76 2.41
9.00 -11.57 2.41
9.22 -11.38 2.41
9.44 -11.18 2.41
9.65 -10.97 2.41
9.86 -10.76 2.41
10.04 -10.53 2.40
10.22 -10.30 2.40
10.39 -10.06 2.39
10.57 -9.83 2.39
10.72 -9.57 2.38
10.78 -9.24 2.36
10.83 -8.92 2.33
10.88 -8.60 2.31
10.92 -8.28 2.28
10.96 -7.97 2.26
11.06 -7.71 2.25
11.19 -7.47 2.25
11.31 -7.23 2.24
11.43 -6.98 2.24
11.54 -6.74 2.24
11.65 -6.49 2.24
11.77 -6.25 2.24
11.88 -6.01 2.24
12.00 -5.77 2.24
12.14 -5.54 2.24
12.27 -5.30 2.25
12.37 -5.05 2.25
12.43 -4.79 2.25
12.49 -4.52 2.24
12.55 -4.26 2.24
12.60 -4.00 2.24
12.65 -3.74 2.23
12.72 -3.48 2.23
12.79 -3.22 2.24
12.85 -2.97 2.24
12.91 -2.71 2.24
12.97 -2.45 2.24
13.02 -2.19 2.25
13.07 -1.93 2.25
13.07 -1.66 2.24
13.01 -1.39 2.23
12.95 -1.12 2.22
12.89 -0.85 2.20
12.83 -0.59 2.19
12.76 -0.33 2.18
6.36 -0.04 1.09
6.36 0.09 1.09
6.58 0.23 1.13
12.55 0.68 2.15
12.60 0.94 2.17
12.65 1.20 2.18
11.44 1.32 1.98
11.44 1.55 1.98
11.44 1.78 1.99
11.43 2.02 2.00
11.43 2.26 2.00
11.42 2.50 2.01
11.42 2.74 2.02
11.41 2.98 2.03
11.41 3.22 2.04
11.40 3.47 2.06
11.40 3.72 2.07
11.39 3.97 2.08
11.39 4.23 2.10
11.38 4.49 2.11
11.38 4.76 2.13
10.89 4.81 2.06
10.30 4.80 1.96
10.12 4.97 1.95
9.77 5.04 1.90
9.90 5.37 1.95
9.79 5.56 1.95
9.68 5.76 1.95
9.62 5.99 1.96
9.62 6.26 1.99
9.61 6.53 2.01
9.61 6.82 2.04
9.60 7.11 2.07
9.59 7.41 2.10
9.59 7.71 2.13
9.54 8.00 2.16
9.38 8.19 2.16
9.86 8.96 2.31
9.72 9.20 2.32
9.58 9.44 2.33
9.42 9.66 2.34
9.07 9.69 2.30
8.68 9.65 2.25
8.36 9.67 2.21
8.02 9.67 2.17
7.68 9.64 2.13
7.37 9.65 2.10
7.04 9.61 2.06
6.77 9.64 2.04
6.48 9.64 2.01
6.18 9.60 1.97
5.95 9.67 1.96
6.82 11.61 2.33
6.63 11.82 2.34
6.43 12.02 2.36
6.24 12.24 2.37
6.08 12.55 2.41
5.79 12.59 2.39
5.54 12.71 2.39
5.29 12.83 2.39
5.03 12.94 2.39
4.77 13.04 2.39
4.51 13.14 2.39
4.25 13.24 2.39
3.98 13.33 2.39
3.72 13.41 2.39
3.45 13.49 2.39
3.02 12.87 2.27
2.86 13.41 2.35
2.59 13.47 2.35
2.33 13.61 2.37
2.08 13.81 2.39
1.88 14.46 2.49
1.59 14.50 2.49
1.30 14.54 2.49
1.01 14.57 2.49
0.72 14.60 2.49
0.43 14.62 2.49
0.13 14.64 2.49
-0.16 14.65 2.49
-0.46 14.65 2.49
-0.75 14.65 2.49
-1.05 14.65 2.49
-1.34 14.63 2.49
-1.64 14.62 2.49
-1.93 14.59 2.49
-2.23 14.56 2.49
-2.52 14.53 2.49
-2.81 14.49 2.49
-3.11 14.44 2.49
-3.40 14.39 2.49
-3.69 14.33 2.49
-3.98 14.27 2.49
-4.27 14.20 2.49
-4.56 14.12 2.49
-4.85 14.04 2.49
-5.13 13.95 2.49
-5.42 13.86 2.49
-5.70 13.76 2.49
-5.98 13.66 2.49
-6.08 13.15 2.42
-6.27 12.88 2.39
-6.53 12.76 2.39
-6.79 12.64 2.39
-7.05 12.51 2.39
-7.31 12.38 2.39
-7.56 12.24 2.39
-7.82 12.10 2.39
-8.07 11.96 2.39
-8.31 11.80 2.39
-8.56 11.65 2.39
-8.80 11.48 2.39
-9.04 11.32 2.39
-9.27 11.14 2.39
-9.50 10.97 2.39
-9.73 10.79 2.39
-9.96 10.60 2.39
-11.98 12.25 2.82
-12.27 12.05 2.82
-12.56 11.85 2.83
-12.73 11.54 2.81
-12.89 11.23 2.80
-13.14 10.98 2.80
-13.44 10.78 2.81
-13.73 10.57 2.83
-13.81 10.20 2.80
-13.84 9.80 2.76
-13.90 9.42 2.73
-13.95 9.06 2.70
-14.00 8.69 2.67
-14.04 8.34 2.65
-14.11 8.00 2.63
-14.18 7.66 2.61
-14.23 7.33 2.59
-14.27 6.99 2.57
-14.32 6.66 2.55
-14.37 6.34 2.53
-14.44 6.02 2.52
-14.50 5.71 2.51
-14.53 5.39 2.49
-14.57 5.07 2.48
-14.60 4.76 2.46
-14.69 4.46 2.46
-14.80 4.17 2.46
-14.90 3.88 2.46
-14.96 3.58 2.46
-6.08 1.33 0.99
-15.04 2.97 2.45
-15.11 2.67 2.45
-15.17 2.36 2.45
-15.24 2.06 2.45
-15.30 1.76 2.45
-15.30 1.45 2.44
-15.35 1.14 2.44
-15.41 0.84 2.45
-6.09 0.21 0.97
-15.52 0.22 2.46
-15.58 -0.09 2.47
-15.62 -0.41 2.47
-15.66 -0.72 2.48
-15.71 -1.04 2.49
-15.76 -1.36 2.50
-15.80 -1.68 2.51
-15.84 -2.01 2.52
-16.07 -2.37 2.56
-16.13 -2.71 2.58
-16.19 -3.05 2.59
-16.24 -3.40 2.61
-16.35 -3.77 2.64
-16.61 -4.18 2.69
-16.75 -4.57 2.73
-16.75 -4.94 2.74
-16.82 -5.32 2.77
-17.00 -5.76 2.82
-17.18 -6.21 2.87
-17.24 -6.62 2.90
-17.20 -7.01 2.91
-17.18 -7.40 2.93
-17.15 -7.80 2.95
-17.12 -8.20 2.97
-17.04 -8.59 2.99
-16.89 -8.94 2.99
-16.74 -9.30 3.00
-16.60 -9.67 3.01
-16.46 -10.03 3.01
-16.30 -10.39 3.02
-16.10 -10.72 3.02
-15.89 -11.04 3.02
-15.67 -11.36 3.02
-15.44 -11.67 3.02
-15.20 -11.98 3.02
-14.96 -12.28 3.02
-14.71 -12.58 3.02
-14.45 -12.87 3.02
-14.19 -13.16 3.02
-13.93 -13.44 3.02
-13.65 -13.72 3.02
-13.37 -13.99 3.02
-12.93 -14.08 2.99
-12.42 -14.08 2.94
-11.92 -14.07 2.88
-11.49 -14.12 2.85
-9.41 -12.05 2.39
-9.16 -12.24 2.39
-8.91 -12.42 2.39
-8.66 -12.59 2.39
-8.40 -12.76 2.39
-8.14 -12.92 2.39
-7.88 -13.07 2.39
-7.61 -13.23 2.39
-7.34 -13.37 2.39
-7.07 -13.51 2.39
-6.80 -13.64 2.39
-6.52 -13.77 2.39
-6.24 -13.89 2.39
-5.96 -14.01 2.39
-5.67 -14.12 2.39
-5.50 -14.52 2.44
-5.32 -14.94 2.49
-5.01 -15.04 2.49
-4.71 -15.13 2.50
-4.40 -15.21 2.50
-4.09 -15.29 2.50
-3.79 -15.36 2.50
-3.48 -15.42 2.50
-3.16 -15.48 2.50
-2.85 -15.53 2.50
-2.54 -15.58 2.50
-2.22 -15.62 2.50
-1.91 -15.65 2.50
-1.59 -15.67 2.50
-1.28 -15.69 2.50
-0.96 -15.70 2.50
-0.65 -15.70 2.50
-0.33 -15.70 2.50
-0.02 -13.69 2.50
0.26 -13.68 2.50
0.53 -13.66 2.50
0.81 -13.63 2.50
1.08 -13.60 2.50
1.35 -13.57 2.50
1.62 -13.53 2.50
1.89 -13.48 2.49
2.16 -13.43 2.49
2.42 -13.37 2.49
2.58 -12.79 2.40
2.83 -12.70 2.39
3.08 -12.63 2.39
3.33 -12.55 2.39
3.58 -12.47 2.39
3.83 -12.39 2.39
4.07 -12.30 2.39
4.31 -12.20 2.39
4.55 -12.10 2.39
4.79 -12.00 2.39
5.03 -11.89 2.39
5.26 -11.78 2.39
5.49 -11.66 2.39
5.72 -11.54 2.39
5.94 -11.41 2.39
6.17 -11.28 2.39
6.38 -11.14 2.39
6.65 -11.09 2.41
6.86 -10.93 2.41
7.07 -10.78 2.41
7.28 -10.62 2.41
7.48 -10.47 2.41
7.69 -10.30 2.41
7.88 -10.14 2.41
8.08 -9.97 2.41
8.27 -9.80 2.41
8.46 -9.62 2.41
8.64 -9.44 2.41
8.82 -9.26 2.41
8.99 -9.07 2.41
9.16 -8.87 2.41
9.32 -8.67 2.40
9.48 -8.47 2.40
9.54 -8.19 2.38
9.61 -7.92 2.36
9.72 -7.69 2.35
9.83 -7.45 2.34
9.93 -7.22 2.33
10.03 -6.99 2.32
10.11 -6.75 2.31
10.19 -6.51 2.30
10.26 -6.27 2.29
10.33 -6.03 2.28
10.39 -5.79 2.27
10.47 -5.56 2.26
10.55 -5.33 2.26
10.63 -5.11 2.26
10.71 -4.89 2.25
10.79 -4.66 2.25
10.87 -4.44 2.25
10.95 -4.22 2.25
11.05 -4.01 2.26
11.11 -3.78 2.26
11.18 -3.55 2.26
11.24 -3.32 2.26
11.29 -3.09 2.26
11.34 -2.86 2.26
11.39 -2.63 2.26
11.43 -2.40 2.26
11.48 -2.17 2.26
11.53 -1.94 2.26
11.55 -1.71 2.26
11.55 -1.47 2.26
11.55 -1.24 2.25
11.54 -1.00 2.25
11.53 -0.77 2.24
11.51 -0.53 2.24
11.47 -0.30 2.23
6.36 -0.04 1.24
6.36 0.09 1.24
6.58 0.22 1.28
11.25 0.61 2.19
11.20 0.83 2.19
11.13 1.05 2.18
11.07 1.27 2.17
11.00 1.49 2.17
10.93 1.70 2.16
10.86 1.92 2.15
10.78 2.13 2.15
10.74 2.35 2.15
10.72 2.57 2.16
10.70 2.79 2.16
10.67 3.01 2.17
10.64 3.24 2.18
10.61 3.46 2.19
10.58 3.69 2.19
10.54 3.92 2.20
10.50 4.14 2.21
10.45 4.37 2.22
10.38 4.59 2.23
10.30 4.80 2.23
9.76 4.79 2.13
9.64 4.98 2.13
9.64 5.22 2.15
9.55 5.42 2.16
9.44 5.61 2.16
9.38 5.84 2.17
9.37 6.09 2.19
9.26 6.29 2.20
9.15 6.49 2.20
9.04 6.69 2.21
8.92 6.89 2.21
8.80 7.08 2.22
8.68 7.27 2.23
8.55 7.47 2.23
8.42 7.66 2.24
8.84 8.36 2.39
8.70 8.58 2.40
8.55 8.77 2.41
8.38 8.94 2.41
8.19 9.11 2.41
8.01 9.27 2.41
7.82 9.43 2.41
7.63 9.59 2.41
7.37 9.65 2.39
7.04 9.61 2.34
6.77 9.64 2.31
6.48 9.64 2.28
6.18 9.60 2.24
5.95 9.67 2.23
6.15 10.46 2.38
5.97 10.64 2.39
5.76 10.76 2.39
5.54 10.88 2.39
5.32 10.99 2.39
5.10 11.10 2.39
4.88 11.20 2.39
4.66 11.30 2.39
4.43 11.40 2.39
4.20 11.49 2.39
3.97 11.58 2.39
3.74 11.66 2.39
3.51 11.74 2.39
3.27 11.81 2.39
3.03 11.88 2.39
2.80 11.94 2.39
2.56 12.00 2.39
2.32 12.06 2.39
2.07 12.11 2.39
1.91 12.68 2.49
1.66 12.72 2.49
1.40 12.76 2.49
1.15 12.80 2.49
0.89 12.82 2.49
0.63 12.85 2.49
0.37 12.87 2.49
0.11 12.88 2.49
-0.14 12.89 2.49
-0.40 12.89 2.49
-0.66 12.89 2.49
-0.92 12.88 2.49
-1.18 12.87 2.49
-1.44 12.85 2.49
-1.70 12.83 2.49
-1.96 12.80 2.49
-2.22 12.77 2.49
-2.48 12.73 2.49
-2.73 12.69 2.49
-2.99 12.64 2.49
-3.25 12.59 2.49
-3.50 12.53 2.49
-3.76 12.47 2.49
-4.01 12.40 2.49
-4.26 12.33 2.49
-4.51 12.25 2.49
-4.76 12.17 2.49
-5.01 12.08 2.49
-5.25 11.99 2.49
-5.50 11.89 2.49
-5.74 11.79 2.49
-5.98 11.68 2.49
-6.04 11.24 2.42
-6.19 10.98 2.39
-6.42 10.86 2.39
-6.64 10.74 2.39
-6.86 10.62 2.39
-7.08 10.49 2.39
-7.29 10.35 2.39
-7.51 10.21 2.39
-7.72 10.07 2.39
-7.92 9.92 2.39
-8.13 9.77 2.39
-8.33 9.61 2.39
-8.53 9.45 2.39
-8.73 9.29 2.39
-8.92 9.12 2.39
-9.11 8.94 2.39
-9.29 8.77 2.39
-9.48 8.59 2.39
-9.66 8.40 2.39
-9.83 8.22 2.39
-10.63 8.52 2.54
-10.94 8.42 2.57
-11.25 8.31 2.60
-11.56 8.18 2.63
-11.82 8.01 2.65
-12.17 7.90 2.69
-12.50 7.76 2.73
-12.82 7.60 2.76
-13.13 7.44 2.80
-13.60 7.35 2.86
-13.75 7.08 2.86
-13.80 6.76 2.84
-13.85 6.44 2.82
-13.89 6.12 2.80
-13.95 5.82 2.78
-13.99 5.51 2.77
-14.03 5.20 2.75
-14.06 4.89 2.74
-14.09 4.59 2.72
-14.13 4.29 2.71
-14.22 4.01 2.71
-14.31 3.72 2.71
-14.34 3.43 2.70
-6.08 1.33 1.14
-14.40 2.84 2.68
-14.43 2.54 2.68
-14.49 2.26 2.68
-14.55 1.97 2.68
-14.60 1.68 2.68
-14.59 1.38 2.67
-14.59 1.08 2.66
-14.58 0.79 2.66
-6.09 0.21 1.11
-14.67 0.21 2.66
-14.71 -0.09 2.67
-14.74 -0.38 2.68
-14.73 -0.68 2.67
-14.72 -0.98 2.67
-14.75 -1.28 2.68
-14.87 -1.59 2.71
-14.98 -1.90 2.73
-15.08 -2.22 2.76
-15.12 -2.54 2.77
-15.15 -2.86 2.78
-15.27 -3.20 2.82
-15.38 -3.55 2.85
-15.49 -3.90 2.88
-15.55 -4.25 2.91
-15.58 -4.59 2.93
-15.57 -4.93 2.94
-15.56 -5.28 2.96
-15.55 -5.62 2.98
-15.53 -5.97 2.99
-15.51 -6.32 3.01
-15.45 -6.66 3.02
-15.31 -6.97 3.02
-15.17 -7.27 3.02
-15.03 -7.58 3.02
-14.88 -7.88 3.02
-14.72 -8.18 3.02
-14.56 -8.47 3.02
-14.39 -8.77 3.02
-14.21 -9.05 3.02
-14.03 -9.34 3.02
-13.84 -9.62 3.02
-13.64 -9.89 3.02
-13.44 -10.17 3.02
-13.11 -10.33 3.00
-12.68 -10.42 2.94
-12.49 -10.68 2.95
-12.27 -10.93 2.95
-12.02 -11.14 2.94
-9.59 -9.26 2.39
-9.40 -9.45 2.39
-9.21 -9.63 2.39
-9.01 -9.81 2.39
-8.81 -9.99 2.39
-8.61 -10.17 2.39
-8.40 -10.33 2.39
-8.19 -10.50 2.39
-7.98 -10.66 2.39
-7.76 -10.81 2.39
-7.54 -10.97 2.39
-7.32 -11.11 2.39
-7.10 -11.25 2.39
-6.87 -11.39 2.39
-6.63 -11.52 2.39
-6.40 -11.65 2.39
-6.16 -11.77 2.39
-5.92 -11.89 2.39
-5.68 -12.00 2.39
-5.56 -12.37 2.44
-5.42 -12.74 2.49
-5.16 -12.84 2.49
-4.90 -12.93 2.49
-4.64 -13.02 2.49
-4.37 -13.11 2.49
-4.11 -13.19 2.50
-3.84 -13.26 2.50
-3.57 -13.33 2.50
-3.30 -13.39 2.50
-3.03 -13.45 2.50
-2.76 -13.50 2.50
-2.49 -13.54 2.50
-2.21 -13.58 2.50
-1.94 -13.61 2.50
-1.67 -13.64 2.50
-1.39 -13.66 2.50
-1.12 -13.68 2.50
-0.84 -13.69 2.50
-0.57 -13.70 2.50
-0.29 -13.70 2.50
-0.02 -12.13 2.49
0.23 -12.12 2.49
0.47 -12.10 2.49
0.71 -12.08 2.49
0.95 -12.06 2.49
1.19 -12.03 2.49
1.43 -12.00 2.49
1.67 -11.96 2.49
1.91 -11.91 2.49
2.15 -11.86 2.49
2.38 -11.81 2.49
2.51 -11.26 2.39
2.73 -11.20 2.39
2.96 -11.14 2.39
3.18 -11.07 2.39
3.39 -10.99 2.39
3.61 -10.92 2.39
3.83 -10.83 2.39
4.04 -10.75 2.39
4.25 -10.65 2.39
4.46 -10.56 2.39
4.67 -10.46 2.39
4.87 -10.35 2.39
5.08 -10.25 2.39
5.28 -10.13 2.39
5.47 -10.02 2.39
5.67 -9.90 2.39
5.86 -9.77 2.39
6.05 -9.65 2.39
6.24 -9.52 2.39
6.42 -9.38 2.39
6.65 -9.30 2.41
6.83 -9.16 2.41
7.01 -9.01 2.41
7.18 -8.87 2.41
7.35 -8.71 2.41
7.52 -8.56 2.41
7.68 -8.40 2.41
7.84 -8.23 2.41
8.00 -8.07 2.41
8.15 -7.90 2.41
8.30 -7.73 2.41
8.45 -7.55 2.41
8.59 -7.38 2.41
8.73 -7.20 2.41
8.87 -7.01 2.41
8.98 -6.82 2.40
9.08 -6.61 2.40
9.18 -6.40 2.39
9.26 -6.19 2.38
9.34 -5.97 2.37
9.42 -5.76 2.36
9.49 -5.54 2.35
9.56 -5.33 2.35
9.63 -5.12 2.34
9.70 -4.91 2.33
9.77 -4.70 2.33
9.84 -4.49 2.33
9.92 -4.29 2.32
9.99 -4.08 2.32
10.06 -3.88 2.32
10.11 -3.66 2.32
10.15 -3.45 2.31
10.20 -3.24 2.31
10.24 -3.03 2.31
10.28 -2.82 2.30
10.32 -2.61 2.30
10.36 -2.40 2.30
10.39 -2.18 2.30
10.42 -1.97 2.30
10.44 -1.76 2.30
10.46 -1.55 2.29
10.47 -1.33 2.29
10.47 -1.12 2.29
10.46 -0.91 2.28
10.46 -0.70 2.28
10.45 -0.49 2.28
10.43 -0.27 2.27
6.36 -0.04 1.39
6.36 0.09 1.39
6.58 0.22 1.44
10.38 0.56 2.27
10.35 0.77 2.26
10.31 0.97 2.26
10.26 1.18 2.26
10.22 1.38 2.25
10.17 1.59 2.25
10.12 1.79 2.25
10.07 1.99 2.25
10.01 2.19 2.24
9.98 2.39 2.25
9.94 2.59 2.25
9.90 2.80 2.26
9.86 3.00 2.26
9.82 3.21 2.27
9.79 3.41 2.27
9.75 3.62 2.28
9.71 3.83 2.29
9.67 4.04 2.30
9.62 4.25 2.31
9.56 4.45 2.32
9.49 4.66 2.32
9.40 4.85 2.32
9.35 5.06 2.34
9.27 5.27 2.34
8.89 5.29 2.27
8.61 5.36 2.23
8.51 5.54 2.23
8.42 5.72 2.24
8.27 5.86 2.23
8.17 6.05 2.24
8.07 6.23 2.24
7.97 6.41 2.25
7.87 6.59 2.26
7.76 6.77 2.27
7.65 6.95 2.27
7.53 7.13 2.28
7.42 7.31 2.29
7.30 7.48 2.30
7.17 7.66 2.31
7.32 8.14 2.41
7.15 8.28 2.41
6.99 8.43 2.41
6.82 8.57 2.41
6.64 8.70 2.41
6.47 8.84 2.41
6.29 8.97 2.41
6.07 9.03 2.39
5.89 9.15 2.39
5.70 9.27 2.39
5.52 9.39 2.39
5.33 9.50 2.39
5.14 9.61 2.39
4.95 9.71 2.39
4.72 9.74 2.37
4.52 9.84 2.37
4.33 9.93 2.37
4.13 10.02 2.37
3.93 10.11 2.38
3.75 10.26 2.39
3.54 10.33 2.39
3.34 10.41 2.39
3.13 10.48 2.39
2.92 10.54 2.39
2.71 10.60 2.39
2.49 10.66 2.39
2.28 10.71 2.39
2.07 10.76 2.39
1.93 11.27 2.49
1.70 11.32 2.49
1.48 11.35 2.49
1.25 11.39 2.49
1.02 11.42 2.49
0.79 11.44 2.49
0.56 11.46 2.49
0.33 11.48 2.49
0.10 11.49 2.49
-0.13 11.49 2.49
-0.36 11.50 2.49
-0.59 11.49 2.49
-0.82 11.49 2.49
-1.06 11.48 2.49
-1.29 11.46 2.49
-1.52 11.44 2.49
-1.75 11.41 2.49
-1.98 11.38 2.49
-2.21 11.35 2.49
-2.44 11.31 2.49
-2.67 11.27 2.49
-2.89 11.22 2.49
-3.12 11.17 2.49
-3.35 11.11 2.49
-3.57 11.05 2.49
-3.80 10.98 2.49
-4.02 10.91 2.49
-4.24 10.84 2.49
-4.46 10.76 2.49
-4.68 10.68 2.49
-4.90 10.59 2.49
-5.11 10.50 2.49
-5.33 10.40 2.49
-5.54 10.30 2.49
-5.75 10.19 2.49
-5.96 10.08 2.49
-6.01 9.72 2.43
-6.10 9.44 2.39
-6.30 9.33 2.39
-6.49 9.21 2.39
-6.68 9.08 2.39
-6.87 8.95 2.39
-7.05 8.82 2.39
-7.23 8.69 2.39
-7.41 8.55 2.39
-7.59 8.40 2.39
-7.76 8.25 2.39
-7.93 8.10 2.39
-8.10 7.95 2.39
-8.26 7.79 2.39
-8.42 7.63 2.39
-8.58 7.47 2.39
-8.74 7.30 2.39
-8.89 7.13 2.39
-9.04 6.95 2.39
-9.18 6.78 2.39
-9.32 6.60 2.39
-9.46 6.41 2.39
-9.60 6.23 2.39
-9.73 6.04 2.39
-9.86 5.85 2.39
-10.50 5.95 2.52
-10.70 5.78 2.54
-10.91 5.61 2.55
-11.11 5.44 2.57
-11.42 5.30 2.62
-11.77 5.18 2.67
-12.14 5.06 2.73
-12.53 4.93 2.79
-12.86 4.76 2.84
-13.14 4.57 2.88
-13.43 4.37 2.92
-13.65 4.14 2.95
-13.68 3.85 2.94
-13.73 3.57 2.93
-13.76 3.29 2.92
-6.09 1.33 1.28
-13.82 2.72 2.90
-13.85 2.44 2.90
-13.88 2.16 2.89
-13.92 1.88 2.89
-13.94 1.60 2.89
-13.94 1.32 2.88
-13.94 1.03 2.87
-13.93 0.75 2.86
-6.09 0.21 1.25
-13.92 0.19 2.85
-13.93 -0.09 2.85
-13.96 -0.37 2.86
-13.95 -0.65 2.86
-13.94 -0.93 2.86
-13.92 -1.20 2.86
-13.91 -1.48 2.86
-13.89 -1.76 2.86
-13.89 -2.05 2.87
-13.97 -2.35 2.89
-13.96 -2.63 2.90
-13.95 -2.92 2.91
-13.93 -3.21 2.91
-13.91 -3.50 2.92
-13.88 -3.79 2.93
-13.89 -4.10 2.95
-13.93 -4.41 2.97
-13.86 -4.70 2.98
-13.79 -4.98 2.98
-13.71 -5.27 2.99
-13.62 -5.55 2.99
-13.53 -5.83 2.99
-13.44 -6.12 3.00
-13.27 -6.36 2.99
-13.04 -6.58 2.97
-12.81 -6.78 2.94
-12.57 -6.99 2.92
-12.33 -7.18 2.90
-12.09 -7.37 2.87
-11.84 -7.54 2.85
-11.59 -7.72 2.82
-11.30 -7.85 2.79
-9.55 -6.92 2.39
-9.41 -7.11 2.39
-9.26 -7.30 2.39
-9.11 -7.49 2.39
-8.96 -7.67 2.39
-8.81 -7.85 2.39
-8.65 -8.02 2.39
-8.49 -8.19 2.39
-8.32 -8.36 2.39
-8.15 -8.52 2.39
-7.98 -8.68 2.39
-7.80 -8.84 2.39
-7.62 -9.00 2.39
-7.44 -9.15 2.39
-7.25 -9.29 2.39
-7.06 -9.43 2.39
-6.87 -9.57 2.39
-6.68 -9.70 2.39
-6.48 -9.83 2.39
-6.28 -9.96 2.39
-6.08 -10.08 2.39
-5.87 -10.20 2.39
-5.67 -10.31 2.39
-5.58 -10.65 2.44
-5.47 -10.98 2.49
-5.25 -11.08 2.49
-5.02 -11.18 2.49
-4.80 -11.27 2.49
-4.57 -11.36 2.49
-4.34 -11.45 2.49
-4.11 -11.53 2.49
-3.87 -11.60 2.49
-3.64 -11.67 2.49
-3.40 -11.74 2.49
-3.16 -11.80 2.49
-2.92 -11.86 2.49
-2.69 -11.91 2.49
-2.44 -11.95 2.49
-2.20 -11.99 2.49
-1.96 -12.03 2.49
-1.72 -12.06 2.49
-1.48 -12.08 2.49
-1.23 -12.10 2.49
-0.99 -12.12 2.49
-0.75 -12.13 2.49
-0.50 -12.13 2.49
-0.26 -12.13 2.49
-0.02 -10.88 2.49
0.20 -10.87 2.49
0.42 -10.86 2.49
0.64 -10.84 2.49
0.85 -10.82 2.49
1.07 -10.80 2.49
1.29 -10.77 2.49
1.50 -10.73 2.49
1.71 -10.69 2.49
1.93 -10.65 2.49
2.14 -10.60 2.49
2.35 -10.55 2.49
2.47 -10.14 2.41
2.65 -10.00 2.39
2.80 -9.76 2.35
2.89 -9.37 2.27
3.19 -9.63 2.35
3.37 -9.56 2.35
3.44 -9.16 2.27
3.82 -9.57 2.39
4.01 -9.49 2.39
4.19 -9.40 2.39
4.38 -9.30 2.39
4.56 -9.21 2.39
4.74 -9.11 2.39
4.92 -9.00 2.39
5.09 -8.90 2.39
5.27 -8.79 2.39
5.44 -8.67 2.39
5.61 -8.56 2.39
5.77 -8.43 2.39
5.94 -8.31 2.39
6.10 -8.18 2.39
6.26 -8.05 2.39
6.41 -7.92 2.39
6.61 -7.84 2.41
6.76 -7.70 2.41
6.91 -7.55 2.41
7.05 -7.41 2.41
7.19 -7.26 2.41
7.33 -7.11 2.41
7.47 -6.95 2.41
7.60 -6.80 2.41
7.73 -6.64 2.41
7.86 -6.48 2.41
7.98 -6.31 2.41
8.10 -6.15 2.41
8.21 -5.98 2.41
8.33 -5.81 2.41
8.44 -5.64 2.41
8.54 -5.46 2.41
8.64 -5.29 2.41
8.74 -5.11 2.41
8.84 -4.93 2.41
8.92 -4.74 2.40
8.98 -4.55 2.40
9.04 -4.35 2.39
9.10 -4.16 2.39
9.17 -3.97 2.38
9.23 -3.77 2.38
9.28 -3.58 2.38
9.33 -3.38 2.37
9.37 -3.19 2.37
9.42 -2.99 2.37
9.46 -2.80 2.36
9.49 -2.60 2.36
9.53 -2.41 2.36
9.56 -2.21 2.36
9.59 -2.02 2.35
9.62 -1.82 2.35
9.64 -1.63 2.35
9.66 -1.43 2.35
9.67 -1.23 2.35
9.69 -1.04 2.35
9.70 -0.84 2.35
9.70 -0.65 2.34
9.69 -0.45 2.34
9.68 -0.26 2.34
6.36 -0.04 1.54
6.36 0.09 1.54
6.58 0.22 1.59
9.63 0.52 2.33
9.62 0.71 2.33
9.60 0.91 2.33
9.58 1.10 2.34
9.56 1.29 2.34
9.53 1.48 2.34
9.49 1.67 2.34
9.44 1.86 2.33
9.39 2.05 2.33
9.34 2.24 2.33
9.30 2.43 2.33
9.27 2.62 2.34
9.23 2.81 2.34
9.19 3.00 2.35
9.14 3.19 2.35
9.10 3.38 2.36
9.05 3.57 2.37
8.99 3.76 2.37
8.94 3.95 2.38
8.89 4.14 2.39
8.83 4.33 2.39
8.76 4.52 2.40
8.69 4.71 2.41
8.59 4.88 2.41
8.49 5.05 2.41
8.39 5.22 2.41
8.28 5.39 2.41
7.78 5.28 2.29
7.62 5.41 2.28
7.53 5.57 2.28
7.44 5.74 2.29
7.34 5.91 2.30
7.24 6.07 2.30
7.14 6.23 2.31
7.04 6.40 2.32
6.93 6.56 2.33
6.82 6.72 2.33
6.71 6.88 2.34
6.59 7.04 2.35
6.48 7.20 2.36
6.36 7.36 2.37
6.23 7.52 2.38
6.16 7.74 2.41
5.96 7.80 2.39
5.80 7.92 2.39
5.64 8.04 2.39
5.48 8.15 2.39
5.31 8.26 2.39
5.15 8.37 2.39
4.98 8.47 2.39
4.81 8.57 2.39
4.64 8.67 2.39
4.46 8.76 2.39
4.29 8.85 2.39
4.11 8.94 2.39
3.93 9.03 2.39
3.75 9.11 2.39
3.57 9.18 2.39
3.38 9.25 2.39
3.20 9.32 2.39
3.01 9.39 2.39
2.82 9.45 2.39
2.63 9.51 2.39
2.44 9.57 2.39
2.26 9.64 2.40
2.06 9.66 2.39
1.94 10.13 2.49
1.74 10.17 2.49
1.54 10.21 2.49
1.33 10.24 2.49
1.12 10.27 2.49
0.92 10.30 2.49
0.71 10.32 2.49
0.50 10.33 2.49
0.30 10.35 2.49
0.09 10.36 2.49
-0.12 10.36 2.49
-0.33 10.36 2.49
-0.54 10.36 2.49
-0.74 10.35 2.49
-0.95 10.34 2.49
-1.16 10.33 2.49
-1.37 10.31 2.49
-1.58 10.29 2.49
-1.79 10.26 2.49
-1.99 10.23 2.49
-2.20 10.19 2.49
-2.40 10.15 2.49
-2.61 10.11 2.49
-2.81 10.06 2.49
-3.02 10.01 2.49
-3.22 9.95 2.49
-3.42 9.89 2.49
-3.62 9.83 2.49
-3.82 9.76 2.49
-4.02 9.69 2.49
-4.22 9.61 2.49
-4.41 9.53 2.49
-4.61 9.45 2.49
-4.80 9.36 2.49
-4.99 9.27 2.49
-5.18 9.17 2.49
-5.36 9.07 2.49
-5.55 8.97 2.49
-5.73 8.86 2.49
-5.91 8.75 2.49
-5.98 8.48 2.45
-6.01 8.17 2.39
-6.18 8.05 2.39
-6.34 7.93 2.39
-6.51 7.81 2.39
-6.67 7.68 2.39
-6.82 7.55 2.39
-6.98 7.42 2.39
-7.13 7.29 2.39
-7.28 7.15 2.39
-7.43 7.00 2.39
-7.57 6.86 2.39
-7.72 6.71 2.39
-7.86 6.56 2.39
-7.99 6.40 2.39
-8.12 6.25 2.39
-8.25 6.09 2.39
-8.38 5.93 2.39
-8.50 5.76 2.39
-8.62 5.59 2.39
-8.74 5.42 2.39
-8.85 5.25 2.39
-8.96 5.07 2.39
-9.07 4.90 2.39
-9.17 4.72 2.39
-9.27 4.54 2.39
-9.37 4.35 2.39
-9.46 4.17 2.39
-9.55 3.98 2.39
-9.63 3.79 2.39
-9.71 3.60 2.39
-9.79 3.40 2.39
-9.86 3.21 2.39
-10.74 3.26 2.59
-10.89 3.06 2.60
-10.96 2.85 2.61
-6.09 1.45 1.44
-6.06 1.32 1.43
-11.13 2.19 2.61
-11.17 1.97 2.60
-11.22 1.74 2.60
-11.29 1.52 2.61
-11.28 1.29 2.60
-11.27 1.06 2.59
-11.24 0.83 2.58
-11.22 0.60 2.57
-6.09 0.21 1.39
-11.14 0.15 2.55
-11.09 -0.07 2.53
-11.06 -0.29 2.53
-11.05 -0.51 2.53
-11.04 -0.73 2.52
-11.02 -0.96 2.52
-11.00 -1.18 2.52
-10.97 -1.39 2.52
-10.93 -1.61 2.52
-10.88 -1.83 2.51
-10.83 -2.05 2.51
-10.78 -2.26 2.50
-10.72 -2.47 2.50
-10.66 -2.68 2.50
-10.59 -2.89 2.49
-10.51 -3.10 2.49
-10.47 -3.32 2.49
-10.56 -3.58 2.53
-10.64 -3.85 2.57
-10.70 -4.11 2.60
-10.66 -4.34 2.61
-9.69 -4.18 2.39
-9.60 -4.37 2.39
-9.51 -4.56 2.39
-9.42 -4.75 2.39
-9.33 -4.94 2.39
-9.23 -5.13 2.39
-9.13 -5.31 2.39
-9.02 -5.50 2.39
-8.91 -5.68 2.39
-8.79 -5.85 2.39
-8.67 -6.03 2.39
-8.55 -6.20 2.39
-8.43 -6.37 2.39
-8.30 -6.54 2.39
-8.17 -6.71 2.39
-8.03 -6.87 2.39
-7.89 -7.03 2.39
-7.75 -7.19 2.39
-7.60 -7.34 2.39
-7.45 -7.49 2.39
-7.30 -7.64 2.39
-7.15 -7.78 2.39
-6.99 -7.92 2.39
-6.83 -8.06 2.39
-6.66 -8.19 2.39
-6.50 -8.32 2.39
-6.33 -8.45 2.39
-6.16 -8.58 2.39
-5.98 -8.70 2.39
-5.81 -8.81 2.39
-5.63 -8.93 2.39
-5.60 -9.28 2.46
-5.49 -9.53 2.49
-5.30 -9.64 2.49
-5.10 -9.74 2.49
-4.90 -9.84 2.49
-4.70 -9.93 2.49
-4.50 -10.02 2.49
-4.30 -10.10 2.49
-4.10 -10.19 2.49
-3.89 -10.26 2.49
-3.68 -10.33 2.49
-3.47 -10.40 2.49
-3.26 -10.46 2.49
-3.05 -10.52 2.49
-2.84 -10.58 2.49
-2.62 -10.63 2.49
-2.41 -10.67 2.49
-2.19 -10.72 2.49
-1.98 -10.75 2.49
-1.76 -10.78 2.49
-1.54 -10.81 2.49
-1.33 -10.84 2.49
-1.11 -10.85 2.49
-0.89 -10.87 2.49
-0.67 -10.88 2.49
-0.45 -10.88 2.49
-0.23 -10.88 2.49
-0.02 -9.86 2.49
0.18 -9.85 2.49
0.38 -9.84 2.49
0.58 -9.82 2.49
0.77 -9.81 2.49
0.97 -9.78 2.49
1.16 -9.76 2.49
1.36 -9.72 2.49
1.55 -9.69 2.49
1.74 -9.65 2.49
1.94 -9.61 2.49
2.13 -9.56 2.49
2.32 -9.51 2.49
2.45 -9.25 2.44
2.58 -9.01 2.39
2.76 -8.95 2.39
2.79 -8.44 2.27
3.06 -8.68 2.35
3.23 -8.61 2.35
3.36 -8.43 2.32
3.45 -8.16 2.27
3.80 -8.52 2.39
3.97 -8.44 2.39
4.13 -8.35 2.39
4.30 -8.26 2.39
4.46 -8.17 2.39
4.62 -8.07 2.39
4.78 -7.97 2.39
4.93 -7.87 2.39
5.09 -7.76 2.39
5.24 -7.65 2.39
5.39 -7.54 2.39
5.53 -7.43 2.39
5.68 -7.31 2.39
5.82 -7.19 2.39
5.96 -7.07 2.39
6.09 -6.94 2.39
6.23 -6.81 2.39
6.36 -6.68 2.39
6.53 -6.59 2.41
6.66 -6.46 2.41
6.78 -6.32 2.41
6.90 -6.17 2.41
7.02 -6.03 2.41
7.13 -5.88 2.41
7.25 -5.74 2.41
7.35 -5.59 2.41
7.46 -5.43 2.41
7.56 -5.28 2.41
7.66 -5.12 2.41
7.76 -4.96 2.41
7.85 -4.80 2.41
7.94 -4.64 2.41
8.03 -4.48 2.41
8.11 -4.31 2.41
8.19 -4.15 2.41
8.27 -3.98 2.41
8.34 -3.81 2.41
8.41 -3.64 2.41
8.48 -3.47 2.41
8.54 -3.30 2.41
8.60 -3.12 2.41
8.66 -2.95 2.41
8.71 -2.77 2.41
8.76 -2.59 2.41
8.80 -2.42 2.41
8.84 -2.24 2.41
8.87 -2.06 2.40
8.90 -1.87 2.40
8.92 -1.69 2.40
8.94 -1.51 2.40
8.96 -1.33 2.40
8.98 -1.15 2.40
8.99 -0.97 2.40
9.00 -0.78 2.39
9.01 -0.60 2.39
9.01 -0.42 2.39
9.01 -0.24 2.39
6.36 -0.04 1.69
6.36 0.09 1.69
6.58 0.22 1.75
8.98 0.48 2.39
8.97 0.66 2.39
8.95 0.84 2.39
8.93 1.02 2.39
8.91 1.20 2.40
8.89 1.38 2.40
8.87 1.56 2.40
8.84 1.74 2.40
8.81 1.92 2.40
8.77 2.10 2.41
8.73 2.28 2.41
8.68 2.45 2.41
8.63 2.62 2.41
8.57 2.80 2.41
8.51 2.97 2.41
8.45 3.14 2.41
8.38 3.31 2.41
8.31 3.47 2.41
8.24 3.64 2.41
8.16 3.80 2.41
8.08 3.96 2.41
8.00 4.13 2.41
7.91 4.29 2.41
7.82 4.44 2.41
7.73 4.60 2.41
7.64 4.75 2.41
7.54 4.91 2.41
7.44 5.06 2.41
7.33 5.20 2.41
7.14 5.28 2.38
6.89 5.32 2.33
6.80 5.47 2.34
6.71 5.62 2.34
6.61 5.77 2.35
6.51 5.92 2.36
6.42 6.07 2.37
6.31 6.22 2.37
6.21 6.37 2.38
6.10 6.52 2.39
5.97 6.64 2.39
5.84 6.76 2.39
5.70 6.88 2.39
5.56 6.99 2.39
5.42 7.10 2.39
5.28 7.21 2.39
5.13 7.32 2.39
4.99 7.42 2.39
4.84 7.52 2.39
4.69 7.62 2.39
4.53 7.71 2.39
4.38 7.80 2.39
2.87 5.36 1.62
4.06 7.98 2.39
3.90 8.06 2.39
3.74 8.14 2.39
3.58 8.21 2.39
3.41 8.29 2.39
3.24 8.36 2.39
3.08 8.42 2.39
2.91 8.49 2.39
2.74 8.55 2.39
2.57 8.60 2.39
2.39 8.65 2.39
2.22 8.70 2.39
2.07 8.84 2.42
1.95 9.17 2.49
1.77 9.21 2.49
1.58 9.25 2.49
1.40 9.29 2.49
1.21 9.32 2.49
1.02 9.34 2.49
0.83 9.37 2.49
0.65 9.38 2.49
0.46 9.40 2.49
0.27 9.41 2.49
0.08 9.42 2.49
-0.11 9.42 2.49
-0.30 9.43 2.49
-0.49 9.42 2.49
-0.68 9.42 2.49
-0.87 9.41 2.49
-1.06 9.39 2.49
-1.25 9.37 2.49
-1.44 9.35 2.49
-1.62 9.33 2.49
-1.81 9.30 2.49
-2.00 9.26 2.49
-2.19 9.23 2.49
-2.37 9.19 2.49
-2.56 9.14 2.49
-2.74 9.10 2.49
-2.93 9.04 2.49
-3.11 8.99 2.49
-3.29 8.93 2.49
-3.47 8.87 2.49
-3.65 8.80 2.49
-3.83 8.73 2.49
-4.01 8.66 2.49
-4.19 8.58 2.49
-4.36 8.50 2.49
-4.53 8.42 2.49
-4.70 8.33 2.49
-4.87 8.24 2.49
-5.04 8.15 2.49
-5.21 8.05 2.49
-5.37 7.95 2.49
-5.53 7.84 2.49
-5.69 7.74 2.49
-5.85 7.63 2.49
-5.96 7.45 2.47
-5.96 7.15 2.41
-6.05 6.97 2.39
-6.20 6.86 2.39
-6.34 6.73 2.39
-6.47 6.61 2.39
-6.61 6.48 2.39
-6.74 6.35 2.39
-6.87 6.22 2.39
-7.00 6.09 2.39
-7.13 5.95 2.39
-7.25 5.81 2.39
-7.37 5.67 2.39
-7.49 5.52 2.39
-7.60 5.37 2.39
-7.71 5.22 2.39
-7.82 5.07 2.39
-7.93 4.92 2.39
-8.03 4.76 2.39
-8.13 4.60 2.39
-8.23 4.44 2.39
-8.32 4.28 2.39
-8.41 4.11 2.39
-8.49 3.94 2.39
-8.58 3.78 2.39
-8.66 3.60 2.39
-8.73 3.43 2.39
-8.80 3.26 2.39
-8.87 3.08 2.39
-8.94 2.91 2.39
-9.00 2.73 2.39
-9.06 2.55 2.39
-9.11 2.37 2.39
-6.08 1.45 1.59
-6.06 1.32 1.57
-9.26 1.82 2.39
-9.29 1.63 2.39
-9.33 1.45 2.39
-9.36 1.26 2.39
-9.39 1.07 2.39
-9.42 0.89 2.39
-9.44 0.70 2.39
-9.45 0.51 2.39
-6.09 0.21 1.54
-9.47 0.13 2.39
-9.48 -0.06 2.39
-9.48 -0.25 2.39
-9.48 -0.44 2.39
-9.47 -0.63 2.39
-9.46 -0.82 2.39
-9.45 -1.01 2.39
-9.43 -1.20 2.39
-9.41 -1.39 2.39
-9.38 -1.58 2.39
-9.35 -1.77 2.39
-9.32 -1.95 2.39
-9.28 -2.14 2.39
-9.24 -2.33 2.39
-9.19 -2.51 2.39
-9.14 -2.70 2.39
-9.09 -2.88 2.39
-9.03 -3.06 2.39
-8.97 -3.24 2.39
-8.91 -3.42 2.39
-8.84 -3.60 2.39
-8.77 -3.78 2.39
-8.69 -3.96 2.39
-8.61 -4.13 2.39
-8.53 -4.30 2.39
-8.44 -4.47 2.39
-8.35 -4.64 2.39
-8.26 -4.81 2.39
-8.16 -4.97 2.39
-8.06 -5.14 2.39
-7.96 -5.30 2.39
-7.85 -5.46 2.39
-7.74 -5.61 2.39
-7.63 -5.77 2.39
-7.51 -5.92 2.39
-7.39 -6.07 2.39
-7.27 -6.22 2.39
-7.14 -6.36 2.39
-7.01 -6.50 2.39
-6.88 -6.64 2.39
-6.74 -6.78 2.39
-6.61 -6.91 2.39
-6.47 -7.04 2.39
-6.32 -7.17 2.39
-6.18 -7.29 2.39
-6.03 -7.41 2.39
-5.91 -7.58 2.41
-5.73 -7.65 2.39
-5.64 -7.86 2.42
-5.62 -8.16 2.48
-5.48 -8.32 2.49
-5.31 -8.42 2.49
-5.14 -8.53 2.49
-4.97 -8.63 2.49
-4.79 -8.72 2.49
-4.62 -8.81 2.49
-4.44 -8.90 2.49
-4.26 -8.99 2.49
-4.08 -9.07 2.49
-3.89 -9.15 2.49
-3.71 -9.22 2.49
-3.52 -9.29 2.49
-3.33 -9.35 2.49
-3.14 -9.42 2.49
-2.95 -9.47 2.49
-2.76 -9.53 2.49
-2.57 -9.58 2.49
-2.38 -9.62 2.49
-2.18 -9.66 2.49
-1.99 -9.70 2.49
-1.79 -9.74 2.49
-1.60 -9.77 2.49
-1.40 -9.79 2.49
-1.20 -9.81 2.49
-1.00 -9.83 2.49
-0.81 -9.84 2.49
-0.61 -9.85 2.49
-0.41 -9.86 2.49
-0.21 -9.86 2.49
-0.02 -9.00 2.49
0.16 -8.99 2.49
0.34 -8.98 2.49
0.52 -8.97 2.49
0.70 -8.95 2.49
0.88 -8.93 2.49
1.06 -8.91 2.49
1.24 -8.88 2.49
1.42 -8.85 2.49
1.59 -8.82 2.49
1.77 -8.78 2.49
1.94 -8.73 2.49
2.12 -8.69 2.49
2.29 -8.64 2.49
2.43 -8.49 2.47
2.52 -8.18 2.39
2.68 -8.12 2.39
2.76 -7.83 2.32
2.85 -7.59 2.27
3.11 -7.80 2.35
3.26 -7.73 2.35
3.34 -7.50 2.30
3.44 -7.32 2.27
3.78 -7.63 2.39
3.93 -7.55 2.39
4.08 -7.47 2.39
4.22 -7.38 2.39
4.37 -7.29 2.39
4.51 -7.20 2.39
4.65 -7.10 2.39
4.79 -7.00 2.39
4.92 -6.90 2.39
5.06 -6.79 2.39
5.19 -6.69 2.39
5.32 -6.58 2.39
5.45 -6.46 2.39
5.57 -6.35 2.39
5.70 -6.23 2.39
5.82 -6.11 2.39
5.93 -5.99 2.39
6.05 -5.87 2.39
6.16 -5.74 2.39
6.27 -5.61 2.39
6.38 -5.48 2.39
6.53 -5.39 2.41
6.63 -5.25 2.41
6.73 -5.11 2.41
6.83 -4.97 2.41
6.92 -4.83 2.41
7.01 -4.69 2.41
7.10 -4.54 2.41
7.19 -4.40 2.41
7.27 -4.25 2.41
7.35 -4.10 2.41
7.42 -3.95 2.41
7.50 -3.80 2.41
7.57 -3.65 2.41
7.64 -3.49 2.41
7.70 -3.33 2.41
7.76 -3.18 2.41
7.82 -3.02 2.41
7.87 -2.86 2.41
7.93 -2.70 2.41
7.97 -2.54 2.41
8.02 -2.38 2.41
8.06 -2.21 2.41
8.10 -2.05 2.41
8.13 -1.89 2.41
8.17 -1.72 2.41
8.20 -1.56 2.41
8.22 -1.39 2.41
8.24 -1.22 2.41
8.26 -1.06 2.41
8.28 -0.89 2.41
8.29 -0.72 2.41
8.30 -0.56 2.41
8.31 -0.39 2.41
8.31 -0.22 2.41
6.36 -0.04 1.84
6.36 0.09 1.84
6.58 0.22 1.91
8.29 0.45 2.41
8.27 0.61 2.41
8.26 0.78 2.41
8.24 0.94 2.41
8.21 1.11 2.41
8.18 1.27 2.41
8.16 1.44 2.41
8.12 1.60 2.41
8.09 1.76 2.41
8.05 1.92 2.41
8.00 2.09 2.41
7.96 2.25 2.41
7.91 2.40 2.41
7.86 2.56 2.41
7.80 2.72 2.41
7.74 2.87 2.41
7.68 3.03 2.41
7.62 3.18 2.41
7.55 3.33 2.41
7.48 3.49 2.41
7.41 3.63 2.41
7.33 3.78 2.41
7.25 3.93 2.41
7.17 4.07 2.41
7.09 4.22 2.41
7.00 4.36 2.41
6.91 4.50 2.41
6.82 4.63 2.41
6.72 4.77 2.41
6.63 4.91 2.41
6.53 5.04 2.41
6.43 5.17 2.41
6.30 5.28 2.40
6.16 5.37 2.39
6.06 5.51 2.39
5.95 5.63 2.39
5.83 5.75 2.39
5.72 5.86 2.39
5.60 5.98 2.39
5.48 6.09 2.39
5.35 6.20 2.39
5.23 6.31 2.39
5.10 6.41 2.39
4.97 6.51 2.39
4.84 6.61 2.39
4.71 6.71 2.39
4.57 6.80 2.39
4.43 6.90 2.39
4.30 6.98 2.39
4.15 7.07 2.39
2.97 5.29 1.77
2.84 5.30 1.75
2.78 5.45 1.78
3.58 7.39 2.39
3.43 7.46 2.39
3.28 7.53 2.39
3.13 7.60 2.39
2.97 7.66 2.39
2.82 7.72 2.39
2.66 7.78 2.39
2.51 7.83 2.39
2.35 7.88 2.39
2.19 7.93 2.39
2.07 8.14 2.44
1.95 8.37 2.49
1.79 8.41 2.49
1.62 8.44 2.49
1.45 8.48 2.49
1.28 8.51 2.49
1.11 8.54 2.49
0.94 8.56 2.49
0.76 8.58 2.49
0.59 8.60 2.49
0.42 8.61 2.49
0.24 8.62 2.49
0.07 8.63 2.49
-0.10 8.63 2.49
-0.28 8.63 2.49
-0.45 8.63 2.49
-0.62 8.62 2.49
-0.80 8.61 2.49
-0.97 8.60 2.49
-1.14 8.58 2.49
-1.32 8.56 2.49
-1.49 8.54 2.49
-1.66 8.51 2.49
-1.83 8.48 2.49
-2.00 8.45 2.49
-2.17 8.41 2.49
-2.34 8.37 2.49
-2.51 8.33 2.49
-2.68 8.28 2.49
-2.85 8.23 2.49
-3.02 8.17 2.49
-3.18 8.12 2.49
-3.35 8.06 2.49
-3.51 7.99 2.49
-3.67 7.92 2.49
-3.83 7.85 2.49
-3.99 7.78 2.49
-4.15 7.70 2.49
-4.31 7.62 2.49
-4.46 7.54 2.49
-4.61 7.45 2.49
-4.77 7.36 2.49
-4.92 7.27 2.49
-5.06 7.18 2.49
-5.21 7.08 2.49
-5.35 6.97 2.49
-5.50 6.87 2.49
-5.64 6.76 2.49
-5.78 6.65 2.49
-5.91 6.54 2.49
-5.94 6.31 2.45
-5.94 6.07 2.40
-6.05 5.93 2.39
-6.17 5.81 2.39
-6.29 5.69 2.39
-6.40 5.56 2.39
-6.52 5.44 2.39
-6.63 5.31 2.39
-6.74 5.18 2.39
-6.85 5.05 2.39
-6.95 4.91 2.39
-7.05 4.77 2.39
-7.15 4.63 2.39
-7.25 4.49 2.39
-7.34 4.35 2.39
-7.43 4.20 2.39
-7.52 4.05 2.39
-7.60 3.91 2.39
-7.68 3.75 2.39
-7.76 3.60 2.39
-7.84 3.45 2.39
-7.91 3.29 2.39
-7.98 3.13 2.39
-8.04 2.98 2.39
-8.11 2.81 2.39
-8.17 2.65 2.39
-8.22 2.49 2.39
-8.27 2.33 2.39
-8.32 2.16 2.39
-6.07 1.45 1.74
-6.06 1.32 1.72
-8.45 1.66 2.39
-8.49 1.49 2.39
-8.52 1.32 2.39
-8.55 1.15 2.39
-8.57 0.98 2.39
-8.60 0.81 2.39
-8.61 0.64 2.39
-8.63 0.46 2.39
-6.09 0.20 1.69
-8.65 0.12 2.39
-8.65 -0.06 2.39
-8.65 -0.23 2.39
-8.65 -0.40 2.39
-8.64 -0.58 2.39
-8.64 -0.75 2.39
-8.62 -0.92 2.39
-8.60 -1.10 2.39
-8.58 -1.27 2.39
-8.56 -1.44 2.39
-8.53 -1.61 2.39
-8.50 -1.78 2.39
-8.47 -1.95 2.39
-8.43 -2.12 2.39
-8.39 -2.29 2.39
-8.34 -2.46 2.39
-8.29 -2.63 2.39
-8.24 -2.80 2.39
-8.18 -2.96 2.39
-8.12 -3.12 2.39
-8.06 -3.29 2.39
-8.00 -3.45 2.39
-7.93 -3.61 2.39
-7.85 -3.77 2.39
-7.78 -3.93 2.39
-7.70 -4.08 2.39
-7.62 -4.23 2.39
-7.53 -4.39 2.39
-7.44 -4.54 2.39
-7.35 -4.69 2.39
-7.26 -4.83 2.39
-7.16 -4.98 2.39
-7.06 -5.12 2.39
-6.96 -5.26 2.39
-6.85 -5.40 2.39
-6.74 -5.54 2.39
-6.63 -5.67 2.39
-6.51 -5.80 2.39
-6.40 -5.93 2.39
-6.28 -6.06 2.39
-6.15 -6.18 2.39
-6.03 -6.30 2.39
-5.94 -6.46 2.41
-5.77 -6.54 2.39
-5.67 -6.69 2.41
-5.65 -6.94 2.45
-5.60 -7.17 2.49
-5.45 -7.28 2.49
-5.30 -7.38 2.49
-5.15 -7.49 2.49
-5.00 -7.59 2.49
-4.85 -7.69 2.49
-4.69 -7.78 2.49
-4.53 -7.87 2.49
-4.37 -7.96 2.49
-4.21 -8.04 2.49
-4.05 -8.12 2.49
-3.89 -8.20 2.49
-3.72 -8.27 2.49
-3.55 -8.34 2.49
-3.38 -8.41 2.49
-3.21 -8.48 2.49
-3.04 -8.54 2.49
-2.87 -8.59 2.49
-2.70 -8.64 2.49
-2.52 -8.69 2.49
-2.35 -8.74 2.49
-2.17 -8.78 2.49
-1.99 -8.82 2.49
-1.81 -8.85 2.49
-1.64 -8.89 2.49
-1.46 -8.91 2.49
-1.28 -8.94 2.49
-1.10 -8.96 2.49
-0.92 -8.97 2.49
-0.74 -8.99 2.49
-0.56 -9.00 2.49
-0.38 -9.00 2.49
-0.20 -9.00 2.49
-0.02 -8.27 2.49
0.15 -8.27 2.49
0.32 -8.26 2.49
0.48 -8.25 2.49
0.65 -8.23 2.49
0.81 -8.21 2.49
0.97 -8.19 2.49
1.14 -8.16 2.49
1.30 -8.14 2.49
1.46 -8.10 2.49
1.62 -8.07 2.49
1.78 -8.03 2.49
1.94 -7.99 2.49
2.10 -7.94 2.49
2.26 -7.90 2.49
2.41 -7.84 2.49
2.47 -7.47 2.39
2.61 -7.41 2.39
2.75 -7.33 2.38
2.76 -6.92 2.27
3.00 -7.11 2.35
3.14 -7.05 2.35
3.28 -6.98 2.35
3.33 -6.73 2.29
3.43 -6.59 2.27
3.75 -6.87 2.39
3.88 -6.79 2.39
4.02 -6.71 2.39
4.15 -6.62 2.39
4.28 -6.53 2.39
4.40 -6.44 2.39
4.53 -6.35 2.39
4.65 -6.25 2.39
4.78 -6.15 2.39
4.89 -6.05 2.39
5.01 -5.95 2.39
5.13 -5.85 2.39
5.24 -5.74 2.39
5.35 -5.63 2.39
5.46 -5.52 2.39
5.57 -5.40 2.39
5.67 -5.29 2.39
5.77 -5.17 2.39
5.87 -5.05 2.39
5.97 -4.93 2.39
6.06 -4.80 2.39
6.15 -4.68 2.39
6.24 -4.55 2.39
6.33 -4.42 2.39
6.46 -4.32 2.41
6.54 -4.19 2.41
6.62 -4.05 2.41
6.69 -3.92 2.41
6.77 -3.78 2.41
6.84 -3.64 2.41
6.91 -3.50 2.41
6.97 -3.36 2.41
7.03 -3.22 2.41
7.09 -3.07 2.41
7.15 -2.93 2.41
7.20 -2.78 2.41
7.25 -2.64 2.41
7.30 -2.49 2.41
7.35 -2.34 2.41
7.39 -2.19 2.41
7.43 -2.04 2.41
7.46 -1.89 2.41
7.50 -1.74 2.41
7.53 -1.59 2.41
7.55 -1.43 2.41
7.58 -1.28 2.41
7.60 -1.13 2.41
7.62 -0.98 2.41
7.63 -0.82 2.41
7.64 -0.67 2.41
7.65 -0.51 2.41
7.66 -0.36 2.41
7.66 -0.21 2.41
6.36 -0.04 2.00
6.36 0.08 2.00
6.58 0.22 2.07
7.64 0.41 2.41
7.63 0.56 2.41
7.61 0.72 2.41
7.59 0.87 2.41
7.57 1.02 2.41
7.55 1.17 2.41
7.52 1.32 2.41
7.49 1.47 2.41
7.46 1.62 2.41
7.42 1.77 2.41
7.38 1.92 2.41
7.34 2.07 2.41
7.29 2.22 2.41
7.25 2.36 2.41
7.19 2.51 2.41
7.14 2.65 2.41
7.09 2.79 2.41
7.03 2.93 2.41
6.96 3.07 2.41
6.90 3.21 2.41
6.83 3.35 2.41
6.76 3.49 2.41
6.69 3.62 2.41
6.62 3.76 2.41
6.54 3.89 2.41
6.46 4.02 2.41
6.38 4.15 2.41
6.30 4.28 2.41
6.16 4.37 2.39
6.07 4.49 2.39
5.98 4.61 2.39
5.89 4.73 2.39
5.79 4.85 2.39
5.69 4.97 2.39
5.59 5.08 2.39
5.49 5.19 2.39
5.38 5.30 2.39
5.27 5.41 2.39
5.16 5.51 2.39
5.05 5.62 2.39
4.94 5.72 2.39
4.82 5.82 2.39
4.70 5.91 2.39
4.58 6.01 2.39
4.46 6.10 2.39
4.34 6.19 2.39
4.22 6.27 2.39
4.09 6.36 2.39
3.96 6.44 2.39
3.13 5.33 1.96
2.96 5.28 1.91
2.83 5.29 1.90
2.72 5.35 1.90
3.30 6.81 2.39
3.16 6.88 2.39
3.02 6.94 2.39
2.88 7.00 2.39
2.74 7.06 2.39
2.60 7.12 2.39
2.46 7.17 2.39
2.31 7.22 2.39
2.17 7.27 2.39
2.09 7.55 2.47
1.96 7.67 2.49
1.80 7.71 2.49
1.65 7.75 2.49
1.49 7.78 2.49
1.33 7.82 2.49
1.18 7.84 2.49
1.02 7.87 2.49
0.86 7.89 2.49
0.70 7.91 2.49
0.54 7.93 2.49
0.38 7.94 2.49
0.22 7.95 2.49
0.06 7.95 2.49
-0.10 7.96 2.49
-0.26 7.96 2.49
-0.42 7.95 2.49
-0.58 7.95 2.49
-0.74 7.94 2.49
-0.90 7.93 2.49
-1.05 7.91 2.49
-1.21 7.89 2.49
-1.37 7.87 2.49
-1.53 7.84 2.49
-1.69 7.82 2.49
-1.85 7.78 2.49
-2.00 7.75 2.49
-2.16 7.71 2.49
-2.32 7.67 2.49
-2.47 7.63 2.49
-2.63 7.58 2.49
-2.78 7.53 2.49
-2.93 7.48 2.49
-3.08 7.42 2.49
-3.23 7.36 2.49
-3.38 7.30 2.49
-3.53 7.23 2.49
-3.68 7.16 2.49
-3.82 7.09 2.49
-3.97 7.02 2.49
-4.11 6.94 2.49
-4.25 6.86 2.49
-4.39 6.78 2.49
-4.53 6.69 2.49
-4.66 6.60 2.49
-4.80 6.51 2.49
-4.93 6.42 2.49
-5.06 6.32 2.49
-5.19 6.22 2.49
-5.32 6.12 2.49
-5.44 6.02 2.49
-5.57 5.91 2.49
-5.69 5.80 2.49
-5.80 5.69 2.49
-5.92 5.57 2.49
-5.92 5.35 2.45
-5.92 5.14 2.40
-6.00 5.00 2.39
-6.10 4.88 2.39
-6.20 4.76 2.39
-6.30 4.64 2.39
-6.40 4.52 2.39
-6.49 4.39 2.39
-6.58 4.26 2.39
-6.67 4.13 2.39
-6.75 4.00 2.39
-6.83 3.86 2.39
-6.91 3.73 2.39
-6.99 3.59 2.39
-7.07 3.45 2.39
-7.14 3.31 2.39
-7.21 3.17 2.39
-7.27 3.03 2.39
-7.34 2.88 2.39
-7.40 2.73 2.39
-7.45 2.59 2.39
-7.51 2.44 2.39
-7.56 2.29 2.39
-7.61 2.14 2.39
-7.65 1.99 2.39
-6.07 1.44 1.89
-6.06 1.32 1.87
-7.77 1.52 2.39
-7.80 1.37 2.39
-7.83 1.21 2.39
-7.86 1.06 2.39
-7.88 0.90 2.39
-7.90 0.74 2.39
-7.92 0.58 2.39
-7.93 0.42 2.39
-6.09 0.20 1.84
-7.95 0.11 2.39
-7.95 -0.05 2.39
-7.95 -0.21 2.39
-7.95 -0.37 2.39
-7.94 -0.53 2.39
-7.93 -0.69 2.39
-7.92 -0.85 2.39
-7.91 -1.01 2.39
-7.89 -1.17 2.39
-7.86 -1.32 2.39
-7.84 -1.48 2.39
-7.81 -1.64 2.39
-7.78 -1.80 2.39
-7.74 -1.95 2.39
-7.70 -2.11 2.39
-7.66 -2.26 2.39
-7.62 -2.42 2.39
-7.57 -2.57 2.39
-7.52 -2.72 2.39
-7.46 -2.87 2.39
-7.40 -3.02 2.39
-7.34 -3.17 2.39
-7.28 -3.32 2.39
-7.21 -3.46 2.39
-7.14 -3.61 2.39
-7.07 -3.75 2.39
-7.00 -3.89 2.39
-6.92 -4.03 2.39
-6.84 -4.17 2.39
-6.75 -4.30 2.39
-6.67 -4.44 2.39
-6.58 -4.57 2.39
-6.48 -4.70 2.39
-6.39 -4.83 2.39
-6.29 -4.96 2.39
-6.19 -5.08 2.39
-6.09 -5.21 2.39
-5.98 -5.33 2.39
-5.87 -5.45 2.39
-5.76 -5.56 2.39
-5.69 -5.72 2.41
-5.67 -5.93 2.45
-5.65 -6.15 2.49
-5.53 -6.26 2.49
-5.40 -6.37 2.49
-5.27 -6.48 2.49
-5.14 -6.58 2.49
-5.01 -6.68 2.49
-4.87 -6.78 2.49
-4.73 -6.88 2.49
-4.59 -6.97 2.49
-4.45 -7.06 2.49
-4.31 -7.14 2.49
-4.17 -7.23 2.49
-4.02 -7.31 2.49
-3.87 -7.39 2.49
-3.72 -7.46 2.49
-3.57 -7.53 2.49
-3.42 -7.60 2.49
-3.26 -7.67 2.49
-3.11 -7.73 2.49
-2.95 -7.79 2.49
-2.80 -7.84 2.49
-2.64 -7.89 2.49
-2.48 -7.94 2.49
-2.32 -7.99 2.49
-2.16 -8.03 2.49
-1.99 -8.07 2.49
-1.83 -8.10 2.49
-1.67 -8.14 2.49
-1.50 -8.16 2.49
-1.34 -8.19 2.49
-1.18 -8.21 2.49
-1.01 -8.23 2.49
-0.84 -8.25 2.49
-0.68 -8.26 2.49
-0.51 -8.27 2.49
-0.35 -8.27 2.49
-0.18 -8.27 2.49
-0.02 -7.64 2.49
0.14 -7.64 2.49
0.29 -7.63 2.49
0.44 -7.62 2.49
0.60 -7.61 2.49
0.75 -7.59 2.49
0.90 -7.57 2.49
1.05 -7.55 2.49
1.20 -7.52 2.49
1.35 -7.49 2.49
1.50 -7.46 2.49
1.65 -7.43 2.49
1.80 -7.39 2.49
1.94 -7.35 2.49
2.09 -7.30 2.49
2.23 -7.25 2.49
2.38 -7.20 2.49
2.42 -6.86 2.39
2.55 -6.80 2.39
2.69 -6.75 2.39
2.73 -6.49 2.32
2.80 -6.29 2.27
3.03 -6.45 2.35
3.16 -6.39 2.35
3.28 -6.32 2.35
3.31 -6.08 2.29
3.41 -5.96 2.27
3.71 -6.20 2.39
3.83 -6.13 2.39
3.95 -6.04 2.39
4.07 -5.96 2.39
4.19 -5.87 2.39
4.30 -5.79 2.39
4.42 -5.69 2.39
4.53 -5.60 2.39
4.64 -5.51 2.39
4.74 -5.41 2.39
4.85 -5.31 2.39
4.95 -5.21 2.39
5.05 -5.11 2.39
5.15 -5.00 2.39
5.25 -4.89 2.39
5.34 -4.78 2.39
5.43 -4.67 2.39
5.52 -4.56 2.39
5.61 -4.45 2.39
5.70 -4.33 2.39
5.78 -4.21 2.39
5.86 -4.09 2.39
5.94 -3.97 2.39
6.01 -3.85 2.39
6.09 -3.73 2.39
6.16 -3.60 2.39
6.22 -3.48 2.39
6.29 -3.35 2.39
6.39 -3.24 2.41
6.45 -3.11 2.41
6.51 -2.98 2.41
6.57 -2.85 2.41
6.62 -2.71 2.41
6.67 -2.58 2.41
6.72 -2.44 2.41
6.76 -2.31 2.41
6.80 -2.17 2.41
6.84 -2.03 2.41
6.88 -1.89 2.41
6.91 -1.75 2.41
6.94 -1.61 2.41
6.97 -1.47 2.41
7.00 -1.33 2.41
7.02 -1.19 2.41
7.04 -1.05 2.41
7.05 -0.90 2.41
7.07 -0.76 2.41
7.08 -0.62 2.41
7.09 -0.48 2.41
7.09 -0.33 2.41
7.10 -0.19 2.41
6.36 -0.04 2.16
6.36 0.08 2.16
6.58 0.22 2.23
7.08 0.38 2.41
7.07 0.52 2.41
7.05 0.66 2.41
7.04 0.80 2.41
7.02 0.95 2.41
6.99 1.09 2.41
6.97 1.23 2.41
6.94 1.37 2.41
6.91 1.50 2.41
6.88 1.64 2.41
6.84 1.78 2.41
6.80 1.92 2.41
6.76 2.05 2.41
6.72 2.19 2.41
6.67 2.32 2.41
6.62 2.46 2.41
6.57 2.59 2.41
6.52 2.72 2.41
6.46 2.85 2.41
6.40 2.98 2.41
6.34 3.11 2.41
6.28 3.24 2.41
6.16 3.34 2.39
6.09 3.46 2.39
6.02 3.58 2.39
5.95 3.70 2.39
5.87 3.82 2.39
5.79 3.94 2.39
5.71 4.05 2.39
5.63 4.16 2.39
5.54 4.28 2.39
5.46 4.39 2.39
5.37 4.50 2.39
5.27 4.60 2.39
5.18 4.71 2.39
5.08 4.81 2.39
4.99 4.91 2.39
4.89 5.01 2.39
4.79 5.11 2.39
4.68 5.21 2.39
4.58 5.30 2.39
4.47 5.39 2.39
4.36 5.48 2.39
4.25 5.57 2.39
4.14 5.65 2.39
4.02 5.74 2.39
3.91 5.82 2.39
3.79 5.89 2.39
3.67 5.97 2.39
3.55 6.04 2.39
2.96 5.28 2.06
2.83 5.29 2.05
2.79 5.48 2.10
3.06 6.32 2.39
2.93 6.38 2.39
2.80 6.44 2.39
2.67 6.49 2.39
2.54 6.55 2.39
2.41 6.60 2.39
2.28 6.65 2.39
2.14 6.69 2.39
2.09 7.03 2.49
1.95 7.07 2.49
1.81 7.11 2.49
1.67 7.15 2.49
1.52 7.18 2.49
1.38 7.21 2.49
1.23 7.24 2.49
1.09 7.27 2.49
0.94 7.29 2.49
0.80 7.31 2.49
0.65 7.33 2.49
0.50 7.34 2.49
0.35 7.35 2.49
0.21 7.36 2.49
0.06 7.37 2.49
-0.09 7.37 2.49
-0.24 7.37 2.49
-0.39 7.37 2.49
-0.53 7.36 2.49
-0.68 7.35 2.49
-0.83 7.34 2.49
-0.98 7.33 2.49
-1.13 7.31 2.49
-1.27 7.29 2.49
-1.42 7.26 2.49
-1.57 7.24 2.49
-1.71 7.21 2.49
-1.86 7.18 2.49
-2.00 7.14 2.49
-2.15 7.10 2.49
-2.29 7.06 2.49
-2.43 7.02 2.49
-2.57 6.97 2.49
-2.72 6.92 2.49
-2.86 6.87 2.49
-2.99 6.81 2.49
-3.13 6.76 2.49
-3.27 6.69 2.49
-3.41 6.63 2.49
-3.54 6.56 2.49
-3.67 6.50 2.49
-3.80 6.42 2.49
-3.93 6.35 2.49
-4.06 6.27 2.49
-4.19 6.19 2.49
-4.32 6.11 2.49
-4.44 6.03 2.49
-4.56 5.94 2.49
-4.68 5.85 2.49
-4.80 5.76 2.49
-4.92 5.66 2.49
-5.04 5.57 2.49
-5.15 5.47 2.49
-5.26 5.37 2.49
-5.37 5.26 2.49
-5.48 5.16 2.49
-5.58 5.05 2.49
-5.69 4.94 2.49
-5.79 4.83 2.49
-5.89 4.71 2.49
-5.90 4.53 2.46
-5.90 4.35 2.42
-5.92 4.18 2.39
-6.00 4.06 2.39
-6.09 3.94 2.39
-6.17 3.82 2.39
-6.24 3.70 2.39
-6.32 3.57 2.39
-6.39 3.45 2.39
-6.47 3.32 2.39
-6.53 3.19 2.39
-6.60 3.06 2.39
-6.66 2.93 2.39
-6.72 2.80 2.39
-6.78 2.66 2.39
-6.84 2.53 2.39
-6.89 2.39 2.39
-6.94 2.25 2.39
-6.99 2.11 2.39
-7.03 1.97 2.39
-7.07 1.83 2.39
-6.06 1.44 2.04
-6.06 1.31 2.03
-7.18 1.41 2.39
-7.21 1.26 2.39
-7.24 1.12 2.39
-7.26 0.97 2.39
-7.28 0.83 2.39
-7.30 0.68 2.39
-7.32 0.54 2.39
-7.33 0.39 2.39
-6.09 0.20 1.99
-7.34 0.10 2.39
-7.35 -0.05 2.39
-7.35 -0.20 2.39
-7.34 -0.34 2.39
-7.34 -0.49 2.39
-7.33 -0.64 2.39
-7.32 -0.79 2.39
-7.30 -0.93 2.39
-7.29 -1.08 2.39
-7.26 -1.22 2.39
-7.24 -1.37 2.39
-7.21 -1.52 2.39
-7.18 -1.66 2.39
-7.15 -1.80 2.39
-7.12 -1.95 2.39
-7.08 -2.09 2.39
-7.04 -2.23 2.39
-6.99 -2.37 2.39
-6.94 -2.51 2.39
-6.89 -2.65 2.39
-6.84 -2.79 2.39
-6.78 -2.93 2.39
-6.72 -3.06 2.39
-6.66 -3.20 2.39
-6.60 -3.33 2.39
-6.53 -3.46 2.39
-6.46 -3.59 2.39
-6.39 -3.72 2.39
-6.31 -3.85 2.39
-6.24 -3.98 2.39
-6.16 -4.10 2.39
-6.07 -4.22 2.39
-5.99 -4.34 2.39
-5.90 -4.46 2.39
-5.81 -4.58 2.39
-5.72 -4.70 2.39
-5.70 -4.88 2.42
-5.68 -5.06 2.46
-5.66 -5.25 2.49
-5.55 -5.36 2.49
-5.44 -5.47 2.49
-5.33 -5.58 2.49
-5.22 -5.68 2.49
-5.11 -5.79 2.49
-4.99 -5.89 2.49
-4.87 -5.98 2.49
-4.75 -6.08 2.49
-4.62 -6.17 2.49
-4.50 -6.26 2.49
-4.37 -6.35 2.49
-4.24 -6.44 2.49
-4.11 -6.52 2.49
-3.98 -6.60 2.49
-3.85 -6.68 2.49
-3.71 -6.75 2.49
-3.58 -6.82 2.49
-3.44 -6.89 2.49
-3.30 -6.96 2.49
-3.16 -7.02 2.49
-3.02 -7.08 2.49
-2.87 -7.14 2.49
-2.73 -7.19 2.49
-2.58 -7.24 2.49
-2.44 -7.29 2.49
-2.29 -7.34 2.49
-2.14 -7.38 2.49
-1.99 -7.42 2.49
-1.84 -7.45 2.49
-1.69 -7.49 2.49
-1.54 -7.52 2.49
-1.39 -7.54 2.49
-1.24 -7.57 2.49
-1.09 -7.59 2.49
-0.93 -7.61 2.49
-0.78 -7.62 2.49
-0.63 -7.63 2.49
-0.48 -7.64 2.49
-0.32 -7.64 2.49
-0.17 -7.65 2.49
-0.02 -7.10 2.49
0.13 -7.09 2.49
0.27 -7.09 2.49
0.41 -7.08 2.49
0.55 -7.06 2.49
0.69 -7.05 2.49
0.83 -7.03 2.49
0.97 -7.01 2.49
1.11 -6.99 2.49
1.25 -6.96 2.49
1.39 -6.93 2.49
1.53 -6.90 2.49
1.67 -6.86 2.49
1.80 -6.82 2.49
1.94 -6.78 2.49
2.07 -6.74 2.49
2.21 -6.69 2.49
2.34 -6.64 2.49
2.39 -6.38 2.42
2.49 -6.27 2.39
2.62 -6.21 2.39
2.73 -6.13 2.38
2.72 -5.81 2.28
2.83 -5.73 2.27
3.05 -5.87 2.35
3.17 -5.81 2.35
3.28 -5.74 2.35
3.30 -5.52 2.29
3.38 -5.40 2.27
3.67 -5.62 2.39
3.78 -5.54 2.39
3.89 -5.46 2.39
4.00 -5.38 2.39
4.10 -5.29 2.39
4.21 -5.21 2.39
4.31 -5.12 2.39
4.41 -5.03 2.39
4.51 -4.94 2.39
4.60 -4.84 2.39
4.70 -4.75 2.39
4.79 -4.65 2.39
4.88 -4.55 2.39
4.97 -4.45 2.39
5.05 -4.35 2.39
5.13 -4.24 2.39
5.22 -4.14 2.39
5.30 -4.03 2.39
5.37 -3.92 2.39
5.45 -3.81 2.39
5.52 -3.70 2.39
5.59 -3.58 2.39
5.66 -3.47 2.39
5.72 -3.35 2.39
5.79 -3.23 2.39
5.85 -3.12 2.39
5.91 -3.00 2.39
5.96 -2.88 2.39
6.02 -2.75 2.39
6.07 -2.63 2.39
6.12 -2.51 2.39
6.16 -2.38 2.39
6.21 -2.26 2.39
6.25 -2.13 2.39
6.29 -2.00 2.39
6.37 -1.89 2.41
6.40 -1.76 2.41
6.44 -1.63 2.41
6.47 -1.50 2.41
6.49 -1.37 2.41
6.51 -1.24 2.41
6.54 -1.11 2.41
6.55 -0.98 2.41
6.57 -0.84 2.41
6.58 -0.71 2.41
6.59 -0.58 2.41
6.60 -0.45 2.41
6.60 -0.31 2.41
6.61 -0.18 2.41
6.36 -0.04 2.32
6.36 0.08 2.32
6.58 0.22 2.40
6.59 0.35 2.41
6.58 0.48 2.41
6.57 0.62 2.41
6.55 0.75 2.41
6.54 0.88 2.41
6.52 1.01 2.41
6.49 1.14 2.41
6.47 1.27 2.41
6.44 1.40 2.41
6.41 1.53 2.41
6.38 1.66 2.41
6.34 1.79 2.41
6.30 1.91 2.41
