ply
format ascii 1.0
element vertex 2876
property float32 x
property float32 y
property float32 z
end_header
12.37 9.15 1.48
12.39 9.56 1.50
12.42 9.98 1.53
12.44 10.42 1.56
12.38 10.80 1.58
12.40 11.27 1.61
12.43 11.76 1.65
12.39 12.20 1.67
12.38 12.69 1.71
12.41 13.24 1.75
12.51 13.90 1.80
12.59 14.57 1.86
12.63 15.22 1.91
12.77 16.03 1.98
12.81 16.76 2.04
12.76 17.41 2.09
12.55 17.86 2.11
12.09 17.96 2.10
11.77 18.27 2.11
11.37 18.45 2.10
11.17 18.97 2.14
11.16 19.85 2.21
11.58 21.60 2.38
11.04 21.63 2.36
10.51 21.66 2.34
10.30 22.35 2.39
9.84 22.54 2.39
9.38 22.72 2.39
8.92 22.89 2.39
8.46 23.05 2.39
7.99 23.21 2.39
7.52 23.35 2.39
7.03 23.46 2.39
6.56 23.59 2.39
6.08 23.70 2.39
5.60 23.81 2.39
5.12 23.90 2.39
4.64 23.99 2.39
4.15 24.07 2.39
3.67 24.14 2.39
3.32 25.24 2.49
2.81 25.29 2.49
2.30 25.33 2.49
1.79 25.36 2.49
1.28 25.38 2.49
0.77 25.39 2.49
0.26 25.40 2.49
-0.25 25.39 2.49
-0.76 25.37 2.49
-1.27 25.34 2.49
-1.78 25.30 2.49
-2.28 25.25 2.49
-2.79 25.19 2.49
-3.29 25.12 2.49
-3.80 25.04 2.49
-4.30 24.96 2.49
-4.71 24.42 2.45
-5.07 23.73 2.39
-5.55 23.61 2.39
-6.02 23.49 2.39
-6.49 23.36 2.39
-6.95 23.22 2.39
-7.42 23.07 2.39
-7.88 22.91 2.39
-8.33 22.75 2.39
-8.79 22.57 2.39
-9.30 22.54 2.41
-9.64 22.09 2.38
-9.98 21.68 2.36
-10.18 20.99 2.30
-10.48 20.55 2.28
-10.71 20.00 2.24
-10.92 19.45 2.20
-11.18 19.00 2.18
-11.44 18.57 2.16
-11.66 18.10 2.13
-11.83 17.59 2.09
-11.99 17.08 2.06
-12.15 16.58 2.03
-12.35 16.16 2.01
-12.49 15.68 1.98
-12.62 15.21 1.95
-12.74 14.74 1.93
-12.81 14.23 1.89
-12.88 13.75 1.86
-12.96 13.28 1.83
-13.00 12.81 1.80
-12.96 12.27 1.76
-12.84 11.67 1.71
-12.72 11.10 1.67
-12.57 10.53 1.62
-12.54 10.09 1.59
-12.54 9.68 1.56
-12.53 9.28 1.54
-12.53 8.89 1.52
-12.52 8.51 1.49
-12.54 8.16 1.48
-12.59 7.84 1.46
-12.65 7.53 1.45
-12.70 7.22 1.44
-12.75 6.91 1.43
-12.80 6.61 1.42
-12.85 6.31 1.41
-12.89 6.01 1.40
-12.92 5.72 1.39
-12.95 5.42 1.38
-12.98 5.13 1.37
-13.01 4.84 1.37
-13.04 4.56 1.36
-13.07 4.27 1.35
-13.12 4.00 1.35
-13.16 3.72 1.34
-13.20 3.45 1.34
-13.24 3.18 1.34
-13.28 2.91 1.33
-13.31 2.64 1.33
-13.34 2.37 1.33
-13.35 2.09 1.33
-13.35 1.82 1.32
-13.36 1.55 1.32
-13.36 1.28 1.32
-13.37 1.01 1.31
-13.37 0.74 1.31
-13.38 0.47 1.31
-13.40 0.20 1.31
-13.43 -0.07 1.31
-13.46 -0.34 1.32
-13.49 -0.61 1.32
-13.51 -0.89 1.32
-13.54 -1.16 1.33
-13.57 -1.44 1.33
-13.58 -1.72 1.33
-13.60 -2.00 1.34
-13.62 -2.28 1.34
-13.64 -2.57 1.35
-13.67 -2.86 1.36
-13.69 -3.15 1.37
-13.71 -3.44 1.37
-13.74 -3.75 1.38
-13.82 -4.07 1.40
-13.89 -4.39 1.41
-13.97 -4.73 1.43
-14.04 -5.07 1.45
-14.10 -5.42 1.46
-14.15 -5.76 1.48
-14.17 -6.10 1.49
-14.18 -6.45 1.51
-14.19 -6.80 1.52
-14.21 -7.16 1.54
-14.26 -7.55 1.56
-14.28 -7.94 1.58
-14.27 -8.31 1.59
-14.26 -8.69 1.61
-14.25 -9.08 1.63
-14.24 -9.48 1.65
-14.25 -9.91 1.67
-14.28 -10.36 1.70
-14.30 -10.82 1.72
-14.32 -11.29 1.75
-14.31 -11.76 1.78
-14.35 -12.28 1.81
-14.40 -12.83 1.85
-14.45 -13.41 1.89
-14.44 -13.95 1.92
-14.42 -14.50 1.96
-14.40 -15.07 1.99
-14.38 -15.67 2.03
-14.36 -16.29 2.07
-14.30 -16.90 2.11
-14.23 -17.52 2.15
-14.07 -18.05 2.18
-13.89 -18.57 2.21
-13.69 -19.09 2.24
-13.48 -19.62 2.26
-13.27 -20.17 2.30
-13.08 -20.78 2.33
-12.88 -21.40 2.37
-12.65 -22.01 2.41
-12.42 -22.65 2.45
-12.13 -23.22 2.48
-11.23 -22.59 2.39
-10.78 -22.82 2.39
-10.33 -23.04 2.39
-9.87 -23.26 2.39
-9.40 -23.46 2.39
-8.94 -23.66 2.39
-8.46 -23.85 2.39
-7.99 -24.02 2.39
-7.56 -24.37 2.41
-7.33 -25.40 2.49
-6.82 -25.55 2.49
-6.31 -25.70 2.49
-5.79 -25.83 2.49
-5.28 -25.96 2.49
-4.76 -26.07 2.49
-4.23 -26.17 2.49
-3.71 -26.26 2.49
-3.18 -26.34 2.49
-2.65 -26.41 2.49
-2.13 -26.47 2.49
-1.59 -26.52 2.49
-1.06 -26.56 2.49
-0.53 -26.58 2.49
0.00 -21.40 2.49
0.43 -21.40 2.49
0.83 -20.51 2.39
1.24 -20.50 2.39
1.65 -20.47 2.39
2.06 -20.44 2.39
2.47 -20.40 2.39
2.88 -20.35 2.39
3.29 -20.30 2.39
3.70 -20.23 2.39
4.10 -20.16 2.39
4.51 -20.08 2.39
4.92 -20.01 2.39
5.32 -19.91 2.39
5.72 -19.80 2.39
6.12 -19.69 2.39
6.51 -19.56 2.39
6.90 -19.43 2.39
7.29 -19.29 2.39
7.68 -19.14 2.39
8.06 -18.99 2.39
8.44 -18.83 2.39
8.82 -18.66 2.39
9.19 -18.48 2.39
9.56 -18.29 2.39
9.93 -18.10 2.39
10.29 -17.89 2.39
10.65 -17.69 2.39
11.00 -17.47 2.39
11.35 -17.25 2.39
11.70 -17.02 2.39
12.04 -16.78 2.39
12.37 -16.53 2.39
2.06 -2.64 0.39
2.11 -2.60 0.39
12.15 -14.35 2.18
12.35 -14.01 2.17
12.89 -14.04 2.21
14.27 -14.93 2.39
14.56 -14.64 2.39
14.85 -14.34 2.39
15.13 -14.04 2.39
15.41 -13.73 2.39
15.68 -13.42 2.39
12.91 -10.60 1.94
12.97 -10.22 1.92
16.46 -12.44 2.39
16.70 -12.11 2.39
16.94 -11.77 2.39
17.17 -11.43 2.39
17.39 -11.08 2.39
17.61 -10.73 2.39
17.82 -10.37 2.39
18.02 -10.01 2.39
18.21 -9.64 2.39
18.40 -9.27 2.39
18.58 -8.90 2.39
18.75 -8.52 2.39
18.91 -8.14 2.39
19.06 -7.76 2.39
19.21 -7.37 2.39
19.35 -6.99 2.39
19.48 -6.59 2.39
19.60 -6.20 2.39
19.72 -5.80 2.39
19.83 -5.41 2.39
19.92 -5.01 2.39
20.02 -4.60 2.39
20.10 -4.20 2.39
20.17 -3.79 2.39
20.24 -3.39 2.39
20.29 -2.98 2.39
20.34 -2.57 2.39
20.38 -2.16 2.39
20.42 -1.75 2.39
20.44 -1.34 2.39
20.45 -0.93 2.39
20.46 -0.52 2.39
20.46 -0.11 2.39
20.45 0.30 2.39
20.43 0.71 2.39
20.40 1.12 2.39
20.37 1.53 2.39
20.33 1.94 2.39
20.28 2.35 2.39
20.22 2.75 2.39
20.15 3.15 2.39
20.07 3.56 2.39
19.99 3.96 2.39
19.90 4.36 2.39
19.80 4.75 2.39
19.69 5.15 2.39
19.57 5.54 2.39
19.45 5.93 2.39
19.32 6.31 2.39
19.18 6.70 2.39
19.03 7.08 2.39
18.88 7.45 2.39
18.71 7.83 2.39
17.88 7.90 2.31
17.05 7.95 2.22
16.29 8.00 2.14
15.57 8.04 2.07
14.91 8.08 2.01
14.28 8.11 1.94
13.69 8.15 1.89
13.14 8.18 1.83
12.61 8.21 1.78
12.23 8.31 1.75
12.25 8.69 1.78
12.37 9.15 1.83
12.39 9.56 1.86
12.42 9.98 1.89
12.44 10.42 1.93
12.38 10.80 1.95
12.40 11.27 1.99
12.43 11.76 2.04
12.39 12.20 2.07
12.38 12.69 2.11
12.36 13.19 2.15
12.09 13.43 2.15
11.81 13.66 2.15
11.53 13.89 2.15
11.24 14.11 2.15
10.95 14.33 2.15
11.84 16.15 2.39
11.51 16.38 2.39
11.17 16.60 2.39
10.83 16.81 2.39
10.49 17.02 2.39
10.14 17.22 2.39
9.79 17.41 2.39
9.43 17.59 2.39
9.07 17.77 2.39
8.71 17.94 2.39
8.35 18.11 2.39
7.98 18.26 2.39
7.61 18.41 2.39
7.23 18.55 2.39
6.85 18.66 2.39
6.47 18.79 2.39
6.09 18.91 2.39
5.70 19.02 2.39
5.32 19.12 2.39
4.93 19.22 2.39
4.54 19.31 2.39
4.15 19.39 2.39
3.76 19.46 2.39
3.37 19.52 2.39
3.10 20.43 2.49
2.69 20.48 2.49
2.28 20.52 2.49
1.87 20.55 2.49
1.45 20.58 2.49
1.04 20.60 2.49
0.63 20.61 2.49
0.21 20.61 2.49
-0.20 20.61 2.49
-0.62 20.59 2.49
-1.03 20.57 2.49
-1.44 20.54 2.49
-1.85 20.50 2.49
-2.26 20.45 2.49
-2.67 20.40 2.49
-3.08 20.34 2.49
-3.49 20.27 2.49
-3.89 20.19 2.49
-4.30 20.10 2.49
-4.70 20.01 2.49
-5.00 19.51 2.44
-5.27 18.98 2.39
-5.65 18.86 2.39
-6.02 18.74 2.39
-6.40 18.61 2.39
-6.77 18.48 2.39
-7.14 18.34 2.39
-7.50 18.19 2.39
-7.87 18.03 2.39
-8.23 17.87 2.39
-8.58 17.70 2.39
-8.94 17.52 2.39
-9.63 17.97 2.48
-9.93 17.68 2.47
-10.22 17.36 2.45
-10.44 16.95 2.42
-10.63 16.51 2.39
-10.84 16.11 2.36
-11.04 15.73 2.34
-11.25 15.36 2.32
-11.52 15.08 2.31
-11.79 14.80 2.30
-12.05 14.53 2.30
-12.23 14.15 2.28
-12.44 13.82 2.26
-12.51 13.36 2.23
-12.59 12.91 2.19
-12.64 12.45 2.16
-12.48 11.81 2.09
-12.17 11.06 2.00
-11.90 10.39 1.92
-11.95 10.02 1.90
-11.99 9.65 1.87
-12.00 9.26 1.84
-12.00 8.88 1.81
-12.00 8.52 1.79
-12.02 8.17 1.77
-12.05 7.84 1.75
-12.08 7.52 1.73
-12.14 7.23 1.72
-12.20 6.93 1.70
-12.25 6.64 1.69
-12.30 6.35 1.68
-12.37 6.08 1.67
-12.43 5.80 1.66
-12.47 5.51 1.65
-12.51 5.23 1.64
-12.54 4.95 1.64
-12.58 4.68 1.63
-12.61 4.41 1.62
-12.64 4.13 1.61
-12.69 3.87 1.61
-12.74 3.61 1.60
-12.79 3.35 1.60
-12.85 3.08 1.60
-12.90 2.82 1.60
-12.95 2.56 1.60
-12.99 2.30 1.60
-13.00 2.04 1.59
-13.00 1.77 1.59
-13.00 1.50 1.58
-13.00 1.24 1.58
-13.00 0.98 1.57
-12.99 0.71 1.57
-12.99 0.45 1.57
-12.99 0.19 1.57
-13.01 -0.07 1.57
-13.04 -0.33 1.57
-13.07 -0.59 1.58
-13.10 -0.86 1.58
-13.14 -1.13 1.59
-13.17 -1.40 1.59
-13.20 -1.67 1.60
-13.20 -1.94 1.60
-13.22 -2.21 1.61
-13.25 -2.49 1.62
-13.27 -2.77 1.63
-13.29 -3.06 1.64
-13.31 -3.35 1.65
-13.33 -3.64 1.66
-13.36 -3.94 1.67
-13.51 -4.28 1.70
-13.58 -4.60 1.72
-13.65 -4.93 1.74
-13.72 -5.27 1.76
-13.79 -5.61 1.78
-13.81 -5.95 1.80
-13.82 -6.29 1.81
-13.83 -6.63 1.83
-13.84 -6.98 1.85
-13.85 -7.33 1.87
-13.86 -7.70 1.89
-13.86 -8.07 1.91
-13.85 -8.44 1.93
-13.83 -8.81 1.95
-13.81 -9.20 1.97
-13.78 -9.58 2.00
-13.72 -9.96 2.02
-13.72 -10.38 2.04
-13.71 -10.81 2.07
-13.70 -11.26 2.11
-13.69 -11.71 2.14
-13.67 -12.19 2.17
-13.73 -12.74 2.22
-13.79 -13.32 2.27
-13.84 -13.92 2.32
-13.73 -14.38 2.35
-13.61 -14.83 2.38
-13.47 -15.29 2.41
-13.33 -15.76 2.44
-13.21 -16.26 2.48
-13.10 -16.80 2.52
-12.97 -17.34 2.56
-12.79 -17.85 2.59
-12.61 -18.36 2.63
-11.15 -16.94 2.39
-10.81 -17.17 2.39
-10.47 -17.39 2.39
-10.12 -17.61 2.39
-9.77 -17.82 2.39
-9.41 -18.02 2.39
-9.05 -18.21 2.39
-8.69 -18.40 2.39
-8.32 -18.58 2.39
-7.95 -18.75 2.39
-7.58 -18.91 2.39
-7.26 -19.23 2.41
-7.11 -20.05 2.49
-6.71 -20.19 2.49
-6.31 -20.33 2.49
-5.90 -20.46 2.49
-5.49 -20.58 2.49
-5.08 -20.70 2.49
-4.66 -20.80 2.49
-4.25 -20.90 2.49
-3.83 -20.99 2.49
-3.41 -21.07 2.49
-2.99 -21.14 2.49
-2.56 -21.21 2.49
-2.14 -21.26 2.49
-1.71 -21.31 2.49
-1.28 -21.34 2.49
-0.85 -21.37 2.49
-0.42 -21.39 2.49
0.00 -17.89 2.49
0.36 -17.89 2.49
0.72 -17.88 2.49
1.04 -17.13 2.39
1.38 -17.11 2.39
1.72 -17.08 2.39
2.07 -17.05 2.39
2.41 -17.01 2.39
2.75 -16.96 2.39
3.09 -16.90 2.39
3.43 -16.84 2.39
3.77 -16.77 2.39
4.10 -16.70 2.39
4.44 -16.61 2.39
4.77 -16.52 2.39
5.11 -16.45 2.39
4.28 -12.87 1.89
4.54 -12.78 1.89
4.84 -12.80 1.90
6.42 -15.99 2.39
6.74 -15.86 2.39
7.05 -15.72 2.39
7.37 -15.58 2.39
7.68 -15.43 2.39
7.99 -15.28 2.39
8.29 -15.11 2.39
8.60 -14.94 2.39
8.89 -14.77 2.39
7.24 -11.49 1.89
7.47 -11.34 1.89
9.77 -14.21 2.39
10.05 -14.01 2.39
10.33 -13.81 2.39
2.06 -2.64 0.46
2.11 -2.60 0.46
11.14 -13.16 2.39
11.40 -12.93 2.39
11.66 -12.70 2.39
11.91 -12.47 2.39
12.16 -12.22 2.39
12.40 -11.98 2.39
12.64 -11.72 2.39
12.87 -11.47 2.39
12.37 -10.59 2.26
12.40 -10.18 2.23
12.99 -10.24 2.30
13.75 -10.39 2.39
13.95 -10.12 2.39
14.15 -9.83 2.39
14.34 -9.55 2.39
14.53 -9.25 2.39
14.71 -8.96 2.39
14.88 -8.66 2.39
15.05 -8.36 2.39
12.60 -6.67 1.98
13.00 -6.55 2.02
15.52 -7.44 2.39
15.66 -7.12 2.39
15.80 -6.80 2.39
15.93 -6.48 2.39
16.05 -6.16 2.39
16.17 -5.84 2.39
16.28 -5.51 2.39
16.38 -5.18 2.39
16.48 -4.85 2.39
13.22 -3.61 1.91
13.79 -3.47 1.98
16.73 -3.85 2.39
16.80 -3.51 2.39
16.86 -3.17 2.39
16.92 -2.83 2.39
16.97 -2.49 2.39
17.01 -2.15 2.39
17.04 -1.81 2.39
17.07 -1.46 2.39
17.09 -1.12 2.39
17.10 -0.78 2.39
17.11 -0.43 2.39
13.99 -0.07 1.96
14.01 0.21 1.96
17.09 0.60 2.39
17.07 0.94 2.39
17.04 1.28 2.39
17.01 1.62 2.39
16.96 1.96 2.39
16.92 2.30 2.39
16.86 2.64 2.39
16.80 2.98 2.39
16.73 3.31 2.39
16.65 3.64 2.39
16.57 3.98 2.39
13.62 3.56 1.98
13.20 3.73 1.93
16.28 4.96 2.39
16.17 5.28 2.39
16.06 5.61 2.39
15.94 5.92 2.39
15.81 6.24 2.39
15.67 6.55 2.39
15.53 6.86 2.39
15.38 7.17 2.39
15.23 7.48 2.39
15.07 7.78 2.39
14.91 8.08 2.39
14.28 8.11 2.32
13.70 8.15 2.25
13.14 8.18 2.19
12.62 8.21 2.13
12.23 8.31 2.09
12.25 8.69 2.13
12.28 9.08 2.16
12.30 9.49 2.20
12.32 9.91 2.24
12.35 10.34 2.28
12.38 10.79 2.33
12.40 11.26 2.38
12.25 11.59 2.39
12.01 11.83 2.39
11.61 11.90 2.36
11.18 11.92 2.32
10.76 11.94 2.29
10.78 12.47 2.34
10.75 12.94 2.39
10.48 13.15 2.39
10.21 13.35 2.39
9.94 13.55 2.39
9.66 13.74 2.39
9.38 13.93 2.39
9.09 14.11 2.39
8.80 14.28 2.39
8.51 14.45 2.39
8.22 14.61 2.39
7.92 14.77 2.39
7.62 14.92 2.39
7.32 15.07 2.39
7.01 15.20 2.39
6.69 15.32 2.39
6.38 15.44 2.39
6.07 15.56 2.39
5.75 15.68 2.39
5.43 15.78 2.39
5.11 15.89 2.39
4.79 15.98 2.39
4.47 16.07 2.39
4.14 16.15 2.39
3.82 16.22 2.39
3.49 16.29 2.39
3.16 16.35 2.39
2.91 16.84 2.45
2.61 17.17 2.49
2.26 17.21 2.49
1.92 17.25 2.49
1.57 17.28 2.49
1.22 17.30 2.49
0.87 17.32 2.49
0.53 17.33 2.49
0.18 17.33 2.49
-0.17 17.33 2.49
-0.52 17.31 2.49
-0.86 17.30 2.49
-1.21 17.27 2.49
-1.56 17.24 2.49
-1.90 17.20 2.49
-2.25 17.16 2.49
-2.59 17.10 2.49
-2.93 17.05 2.49
-3.27 16.98 2.49
-3.61 16.91 2.49
-3.95 16.83 2.49
-4.29 16.74 2.49
-4.62 16.65 2.49
-4.96 16.55 2.49
-5.19 16.15 2.45
-5.38 15.66 2.39
-5.70 15.55 2.39
-6.01 15.43 2.39
-6.31 15.30 2.39
-6.62 15.17 2.39
-6.92 15.03 2.39
-7.22 14.89 2.39
-7.52 14.74 2.39
-7.81 14.58 2.39
-8.10 14.42 2.39
-8.39 14.26 2.39
-8.67 14.09 2.39
-8.96 13.91 2.39
-9.23 13.72 2.39
-10.24 14.58 2.58
-10.47 14.29 2.56
-10.63 13.92 2.53
-10.79 13.55 2.50
-10.94 13.19 2.48
-11.11 12.85 2.46
-11.30 12.56 2.44
-11.48 12.25 2.43
-11.65 11.94 2.41
-11.75 11.58 2.38
-11.49 10.87 2.29
-11.32 10.29 2.21
-11.37 9.93 2.18
-11.43 9.58 2.15
-11.48 9.23 2.13
-11.50 8.87 2.10
-11.51 8.52 2.07
-11.53 8.18 2.04
-11.56 7.86 2.02
-11.59 7.54 2.00
-11.62 7.23 1.98
-11.67 6.94 1.96
-11.72 6.66 1.95
-11.78 6.38 1.93
-11.85 6.12 1.92
-11.91 5.85 1.92
-11.98 5.59 1.91
-12.04 5.32 1.90
-12.07 5.05 1.89
-12.11 4.78 1.88
-12.15 4.52 1.87
-12.18 4.25 1.86
-12.21 3.99 1.85
-12.25 3.73 1.84
-12.28 3.48 1.84
-12.33 3.22 1.84
-12.39 2.97 1.83
-12.43 2.72 1.83
-12.48 2.47 1.83
-12.52 2.22 1.83
-12.53 1.96 1.82
-12.54 1.71 1.82
-12.54 1.45 1.81
-12.54 1.20 1.81
-12.54 0.94 1.81
-12.54 0.69 1.80
-12.54 0.44 1.80
-12.53 0.18 1.80
-12.54 -0.07 1.80
-12.54 -0.32 1.80
-12.55 -0.57 1.80
-12.58 -0.83 1.81
-12.61 -1.08 1.81
-12.63 -1.34 1.82
-12.66 -1.60 1.83
-12.67 -1.86 1.83
-12.65 -2.12 1.84
-12.64 -2.38 1.84
-12.63 -2.64 1.85
-12.65 -2.91 1.86
-12.67 -3.18 1.87
-12.68 -3.46 1.88
-12.69 -3.74 1.89
-12.68 -4.01 1.90
-12.67 -4.29 1.91
-12.65 -4.57 1.92
-12.77 -4.90 1.95
-12.95 -5.28 1.99
-13.14 -5.66 2.04
-13.19 -6.00 2.06
-13.15 -6.31 2.08
-13.12 -6.62 2.09
-13.09 -6.93 2.11
-13.05 -7.25 2.12
-13.01 -7.58 2.14
-12.96 -7.90 2.16
-12.89 -8.21 2.17
-12.81 -8.53 2.18
-12.72 -8.85 2.20
-12.63 -9.16 2.21
-12.52 -9.48 2.23
-12.41 -9.79 2.24
-12.41 -10.20 2.28
-12.48 -10.69 2.33
-12.55 -11.19 2.38
-12.53 -11.63 2.42
-12.49 -12.07 2.46
-12.44 -12.51 2.49
-12.39 -12.97 2.53
-12.33 -13.44 2.58
-12.31 -13.97 2.63
-12.20 -14.42 2.67
-10.69 -13.16 2.39
-10.42 -13.37 2.39
-10.16 -13.59 2.39
-9.89 -13.79 2.39
-9.61 -13.99 2.39
-9.33 -14.19 2.39
-9.05 -14.38 2.39
-8.76 -14.56 2.39
-8.47 -14.74 2.39
-8.18 -14.92 2.39
-7.88 -15.08 2.39
-7.58 -15.24 2.39
-7.27 -15.40 2.39
-7.06 -15.75 2.42
-6.94 -16.37 2.49
-6.61 -16.51 2.49
-6.28 -16.64 2.49
-5.95 -16.77 2.49
-5.61 -16.89 2.49
-5.28 -17.01 2.49
-4.94 -17.12 2.49
-4.59 -17.22 2.49
-4.25 -17.31 2.49
-3.90 -17.40 2.49
-3.55 -17.48 2.49
-3.20 -17.55 2.49
-2.85 -17.62 2.49
-2.50 -17.68 2.49
-2.14 -17.73 2.49
-1.79 -17.77 2.49
-1.43 -17.81 2.49
-1.07 -17.84 2.49
-0.71 -17.86 2.49
-0.35 -17.88 2.49
0.00 -15.35 2.49
0.31 -15.35 2.49
0.62 -15.35 2.49
0.93 -15.33 2.49
1.19 -14.68 2.39
1.48 -14.66 2.39
1.77 -14.63 2.39
2.07 -14.59 2.39
2.36 -14.55 2.39
2.65 -14.50 2.39
2.94 -14.45 2.39
3.23 -14.39 2.39
3.52 -14.32 2.39
3.81 -14.25 2.39
4.09 -14.18 2.39
4.38 -14.09 2.39
4.03 -12.12 2.07
4.94 -13.91 2.39
5.23 -13.82 2.39
5.50 -13.72 2.39
5.78 -13.61 2.39
6.05 -13.49 2.39
6.32 -13.36 2.39
6.59 -13.24 2.39
6.85 -13.10 2.39
7.11 -12.96 2.39
7.37 -12.82 2.39
7.63 -12.67 2.39
6.96 -11.05 2.11
8.13 -12.35 2.39
8.38 -12.19 2.39
8.62 -12.02 2.39
8.86 -11.84 2.39
2.06 -2.64 0.54
2.11 -2.60 0.54
9.56 -11.29 2.39
9.78 -11.09 2.39
10.00 -10.89 2.39
10.22 -10.69 2.39
10.43 -10.48 2.39
10.64 -10.27 2.39
10.84 -10.06 2.39
11.04 -9.84 2.39
11.24 -9.61 2.39
11.42 -9.38 2.39
11.61 -9.15 2.39
11.79 -8.92 2.39
11.97 -8.68 2.39
12.14 -8.43 2.39
12.30 -8.19 2.39
12.46 -7.94 2.39
12.62 -7.69 2.39
12.77 -7.43 2.39
12.91 -7.17 2.39
12.62 -6.68 2.31
13.05 -6.58 2.37
13.31 -6.38 2.39
13.44 -6.11 2.39
13.56 -5.84 2.39
13.67 -5.56 2.39
13.77 -5.29 2.39
13.87 -5.01 2.39
13.97 -4.73 2.39
14.06 -4.45 2.39
14.14 -4.16 2.39
12.78 -3.49 2.15
12.80 -3.22 2.14
14.36 -3.30 2.39
14.42 -3.01 2.39
14.47 -2.72 2.39
14.52 -2.43 2.39
14.56 -2.14 2.39
14.60 -1.85 2.39
14.63 -1.55 2.39
14.65 -1.26 2.39
14.67 -0.96 2.39
14.69 -0.67 2.39
14.69 -0.37 2.39
12.98 -0.07 2.12
13.00 0.19 2.12
14.68 0.51 2.39
14.66 0.80 2.39
14.63 1.10 2.39
14.61 1.39 2.39
14.57 1.68 2.39
14.53 1.97 2.39
14.48 2.27 2.39
14.43 2.55 2.39
14.37 2.84 2.39
14.31 3.13 2.39
14.24 3.42 2.39
13.69 3.58 2.32
13.20 3.73 2.25
13.99 4.26 2.39
13.90 4.54 2.39
13.80 4.82 2.39
13.69 5.09 2.39
13.59 5.36 2.39
13.47 5.63 2.39
13.35 5.90 2.39
13.22 6.16 2.39
13.09 6.43 2.39
12.96 6.69 2.39
12.82 6.94 2.39
12.67 7.19 2.39
12.52 7.44 2.39
12.36 7.69 2.39
12.20 7.94 2.39
12.04 8.18 2.39
11.86 8.41 2.39
11.69 8.65 2.39
11.51 8.88 2.39
11.32 9.10 2.39
11.14 9.32 2.39
10.94 9.54 2.39
10.74 9.76 2.39
10.54 9.97 2.39
10.34 10.17 2.39
10.13 10.38 2.39
9.91 10.57 2.39
9.70 10.77 2.39
9.47 10.95 2.39
9.25 11.14 2.39
9.02 11.32 2.39
8.79 11.49 2.39
8.55 11.66 2.39
8.32 11.83 2.39
8.07 11.99 2.39
7.83 12.15 2.39
7.58 12.30 2.39
7.33 12.44 2.39
7.08 12.58 2.39
6.82 12.72 2.39
6.55 12.83 2.39
6.29 12.96 2.39
6.03 13.08 2.39
5.76 13.19 2.39
5.50 13.30 2.39
5.23 13.40 2.39
4.95 13.50 2.39
4.68 13.60 2.39
4.41 13.68 2.39
4.13 13.76 2.39
3.85 13.84 2.39
3.57 13.91 2.39
3.29 13.98 2.39
3.01 14.04 2.39
2.76 14.28 2.42
2.55 14.75 2.49
2.25 14.79 2.49
1.95 14.83 2.49
1.65 14.86 2.49
1.35 14.89 2.49
1.05 14.91 2.49
0.75 14.92 2.49
0.45 14.93 2.49
0.15 14.94 2.49
-0.15 14.93 2.49
-0.45 14.92 2.49
-0.74 14.91 2.49
-1.04 14.89 2.49
-1.34 14.86 2.49
-1.64 14.83 2.49
-1.94 14.79 2.49
-2.23 14.75 2.49
-2.53 14.70 2.49
-2.82 14.64 2.49
-3.12 14.58 2.49
-3.41 14.51 2.49
-3.70 14.44 2.49
-3.99 14.36 2.49
-4.27 14.27 2.49
-4.56 14.18 2.49
-4.84 14.09 2.49
-5.12 13.98 2.49
-5.34 13.71 2.46
-5.44 13.19 2.39
-5.71 13.08 2.39
-5.97 12.96 2.39
-6.23 12.84 2.39
-6.48 12.71 2.39
-6.74 12.58 2.39
-6.99 12.44 2.39
-7.24 12.30 2.39
-7.48 12.15 2.39
-7.72 11.99 2.39
-7.96 11.84 2.39
-8.20 11.67 2.39
-8.43 11.51 2.39
-8.66 11.33 2.39
-8.89 11.16 2.39
-9.11 10.98 2.39
-9.33 10.79 2.39
-9.54 10.60 2.39
-10.44 11.14 2.56
-10.63 10.90 2.55
-10.78 10.62 2.54
-10.76 10.18 2.48
-10.83 9.84 2.45
-10.89 9.50 2.42
-10.94 9.17 2.39
-11.00 8.85 2.36
-11.04 8.52 2.34
-11.06 8.19 2.31
-11.10 7.88 2.28
-11.13 7.57 2.26
-11.17 7.27 2.23
-11.20 6.97 2.21
-11.23 6.68 2.19
-11.29 6.41 2.17
-11.35 6.15 2.16
-11.42 5.90 2.15
-11.49 5.64 2.14
-11.56 5.39 2.13
-11.62 5.14 2.13
-11.67 4.88 2.12
-11.71 4.62 2.11
-11.74 4.37 2.10
-11.78 4.11 2.09
-11.81 3.86 2.08
-11.84 3.61 2.07
-11.87 3.36 2.06
-11.90 3.11 2.06
-11.95 2.87 2.05
-12.00 2.63 2.05
-12.05 2.39 2.05
-12.08 2.14 2.05
-12.09 1.89 2.04
-12.10 1.65 2.04
-12.11 1.40 2.03
-12.11 1.15 2.03
-12.11 0.91 2.02
-12.11 0.67 2.02
-12.11 0.42 2.02
-12.11 0.18 2.02
-12.11 -0.07 2.02
-12.11 -0.31 2.02
-12.11 -0.55 2.02
-12.11 -0.80 2.02
-12.12 -1.04 2.02
-12.14 -1.29 2.03
-12.16 -1.54 2.04
-12.19 -1.79 2.05
-12.17 -2.04 2.05
-12.15 -2.29 2.05
-12.13 -2.54 2.06
-12.11 -2.79 2.06
-12.09 -3.04 2.07
-12.09 -3.30 2.08
-12.10 -3.56 2.09
-12.10 -3.83 2.10
-12.08 -4.09 2.11
-12.06 -4.36 2.12
-12.04 -4.63 2.14
-12.02 -4.90 2.15
-11.99 -5.17 2.16
-11.98 -5.45 2.18
-12.13 -5.82 2.22
-12.11 -6.11 2.24
-12.07 -6.39 2.26
-12.02 -6.68 2.27
-11.97 -6.97 2.29
-11.91 -7.26 2.30
-11.85 -7.56 2.32
-11.80 -7.86 2.34
-11.72 -8.15 2.35
-11.62 -8.44 2.37
-11.53 -8.72 2.38
-11.42 -9.01 2.40
-11.32 -9.30 2.41
-11.21 -9.59 2.43
-11.09 -9.89 2.45
-10.65 -9.89 2.39
-10.46 -10.10 2.39
-10.25 -10.32 2.39
-10.05 -10.52 2.39
-9.84 -10.73 2.39
-9.62 -10.92 2.39
-9.41 -11.12 2.39
-9.18 -11.31 2.39
-8.96 -11.50 2.39
-8.73 -11.68 2.39
-8.50 -11.85 2.39
-8.26 -12.03 2.39
-8.02 -12.19 2.39
-7.78 -12.36 2.39
-7.53 -12.51 2.39
-7.28 -12.67 2.39
-7.02 -12.82 2.39
-6.90 -13.22 2.44
-6.79 -13.66 2.49
-6.52 -13.80 2.49
-6.24 -13.93 2.49
-5.96 -14.06 2.49
-5.68 -14.18 2.49
-5.40 -14.29 2.49
-5.11 -14.40 2.49
-4.82 -14.51 2.49
-4.53 -14.61 2.49
-4.24 -14.70 2.49
-3.94 -14.78 2.49
-3.65 -14.87 2.49
-3.35 -14.94 2.49
-3.05 -15.01 2.49
-2.75 -15.07 2.49
-2.44 -15.13 2.49
-2.14 -15.18 2.49
-1.84 -15.22 2.49
-1.53 -15.26 2.49
-1.23 -15.29 2.49
-0.92 -15.31 2.49
-0.61 -15.33 2.49
-0.30 -15.35 2.49
0.00 -13.43 2.49
0.27 -13.43 2.49
0.54 -13.43 2.49
0.81 -13.42 2.49
1.08 -13.40 2.49
1.30 -12.82 2.39
1.55 -12.80 2.39
1.81 -12.77 2.39
2.07 -12.73 2.39
2.32 -12.69 2.39
2.58 -12.64 2.39
2.83 -12.59 2.39
3.08 -12.53 2.39
3.33 -12.47 2.39
3.58 -12.40 2.39
3.81 -12.25 2.38
4.03 -12.12 2.37
4.32 -12.17 2.39
4.57 -12.08 2.39
4.81 -11.99 2.39
5.05 -11.89 2.39
5.29 -11.80 2.39
5.53 -11.69 2.39
5.76 -11.58 2.39
5.99 -11.46 2.39
6.22 -11.34 2.39
6.45 -11.21 2.39
6.67 -11.08 2.39
6.89 -10.94 2.39
7.11 -10.80 2.39
7.33 -10.66 2.39
7.54 -10.51 2.39
7.75 -10.36 2.39
2.06 -2.64 0.62
2.11 -2.60 0.62
8.36 -9.87 2.39
8.56 -9.70 2.39
8.75 -9.53 2.39
8.94 -9.35 2.39
9.12 -9.17 2.39
7.33 -7.08 1.89
7.47 -6.93 1.89
7.60 -6.78 1.89
9.83 -8.41 2.39
9.99 -8.21 2.39
10.15 -8.01 2.39
10.31 -7.80 2.39
10.47 -7.59 2.39
10.62 -7.38 2.39
10.76 -7.16 2.39
10.90 -6.95 2.39
11.04 -6.72 2.39
11.17 -6.50 2.39
11.30 -6.27 2.39
11.42 -6.05 2.39
11.53 -5.81 2.39
11.65 -5.58 2.39
11.76 -5.35 2.39
11.86 -5.11 2.39
11.96 -4.87 2.39
12.05 -4.63 2.39
12.14 -4.38 2.39
12.22 -4.14 2.39
12.30 -3.89 2.39
12.37 -3.64 2.39
12.44 -3.39 2.39
12.51 -3.14 2.39
12.56 -2.89 2.39
12.62 -2.64 2.39
12.66 -2.38 2.39
12.71 -2.13 2.39
12.74 -1.87 2.39
12.78 -1.62 2.39
12.80 -1.36 2.39
12.83 -1.10 2.39
12.84 -0.84 2.39
12.85 -0.59 2.39
12.86 -0.33 2.39
12.86 -0.07 2.39
12.86 0.19 2.39
12.85 0.45 2.39
12.83 0.70 2.39
12.81 0.96 2.39
12.79 1.22 2.39
12.76 1.47 2.39
12.72 1.73 2.39
12.68 1.98 2.39
12.63 2.24 2.39
12.58 2.49 2.39
12.53 2.74 2.39
12.47 2.99 2.39
12.40 3.24 2.39
12.33 3.49 2.39
12.25 3.73 2.39
12.17 3.98 2.39
12.09 4.22 2.39
12.00 4.46 2.39
11.90 4.70 2.39
11.80 4.93 2.39
11.70 5.17 2.39
11.59 5.40 2.39
11.47 5.63 2.39
11.35 5.86 2.39
11.23 6.08 2.39
11.10 6.30 2.39
10.97 6.52 2.39
10.83 6.74 2.39
10.69 6.95 2.39
10.55 7.16 2.39
10.40 7.37 2.39
10.24 7.58 2.39
10.09 7.78 2.39
9.93 7.98 2.39
9.76 8.17 2.39
9.59 8.36 2.39
9.42 8.55 2.39
9.24 8.74 2.39
9.06 8.92 2.39
8.88 9.10 2.39
8.69 9.27 2.39
8.50 9.44 2.39
8.31 9.60 2.39
8.11 9.77 2.39
7.91 9.92 2.39
7.71 10.08 2.39
7.50 10.23 2.39
7.29 10.37 2.39
7.08 10.51 2.39
6.87 10.65 2.39
6.65 10.78 2.39
6.42 10.90 2.39
6.20 11.02 2.39
5.98 11.14 2.39
5.75 11.26 2.39
5.52 11.37 2.39
5.29 11.47 2.39
5.06 11.57 2.39
4.82 11.67 2.39
4.59 11.76 2.39
4.35 11.85 2.39
4.11 11.93 2.39
3.87 12.01 2.39
3.62 12.08 2.39
3.38 12.15 2.39
3.13 12.21 2.39
2.89 12.27 2.39
2.66 12.39 2.41
2.50 12.90 2.49
2.24 12.94 2.49
1.97 12.98 2.49
1.71 13.02 2.49
1.45 13.05 2.49
1.19 13.07 2.49
0.93 13.09 2.49
0.66 13.10 2.49
0.40 13.11 2.49
0.14 13.11 2.49
-0.13 13.11 2.49
-0.39 13.10 2.49
-0.65 13.09 2.49
-0.92 13.07 2.49
-1.18 13.05 2.49
-1.44 13.02 2.49
-1.70 12.99 2.49
-1.96 12.95 2.49
-2.22 12.90 2.49
-2.48 12.85 2.49
-2.74 12.80 2.49
-2.99 12.74 2.49
-3.25 12.68 2.49
-3.50 12.61 2.49
-3.75 12.53 2.49
-4.00 12.45 2.49
-4.25 12.37 2.49
-4.50 12.28 2.49
-4.74 12.19 2.49
-4.99 12.09 2.49
-5.23 11.98 2.49
-5.44 11.83 2.48
-5.49 11.31 2.40
-5.70 11.17 2.39
-5.92 11.05 2.39
-6.14 10.92 2.39
-6.35 10.80 2.39
-6.57 10.67 2.39
-6.78 10.53 2.39
-6.99 10.39 2.39
-7.20 10.25 2.39
-7.40 10.11 2.39
-7.61 9.95 2.39
-7.80 9.80 2.39
-8.00 9.64 2.39
-8.19 9.48 2.39
-8.38 9.31 2.39
-8.57 9.14 2.39
-8.75 8.97 2.39
-8.93 8.79 2.39
-9.10 8.61 2.39
-9.27 8.43 2.39
-9.44 8.24 2.39
-9.60 8.05 2.39
-10.22 8.22 2.50
-10.40 8.02 2.51
-10.50 7.77 2.49
-10.58 7.50 2.47
-10.65 7.24 2.46
-10.72 6.98 2.44
-10.79 6.72 2.42
-10.83 6.45 2.40
-10.88 6.18 2.39
-10.95 5.94 2.38
-11.02 5.69 2.36
-11.09 5.45 2.35
-11.16 5.20 2.35
-11.22 4.96 2.34
-11.28 4.72 2.33
-11.33 4.47 2.32
-11.36 4.23 2.31
-11.40 3.98 2.30
-11.43 3.74 2.29
-11.46 3.49 2.28
-11.49 3.25 2.27
-11.52 3.01 2.27
-11.55 2.77 2.26
-11.60 2.54 2.26
-11.64 2.30 2.26
-11.66 2.07 2.25
-11.67 1.83 2.25
-11.68 1.59 2.24
-11.69 1.35 2.24
-11.70 1.11 2.23
-11.71 0.88 2.23
-11.71 0.64 2.23
-11.71 0.41 2.22
-11.71 0.17 2.22
-11.71 -0.06 2.22
-11.71 -0.30 2.22
-11.71 -0.53 2.22
-11.71 -0.77 2.22
-11.70 -1.01 2.23
-11.70 -1.24 2.23
-11.70 -1.48 2.24
-11.72 -1.72 2.24
-11.72 -1.96 2.25
-11.70 -2.20 2.25
-11.68 -2.44 2.26
-11.66 -2.68 2.26
-11.64 -2.93 2.27
-11.61 -3.17 2.28
-11.59 -3.41 2.28
-11.56 -3.66 2.29
-11.55 -3.91 2.30
-11.52 -4.16 2.31
-11.50 -4.42 2.33
-11.47 -4.67 2.34
-11.40 -4.92 2.34
-11.33 -5.16 2.35
-11.25 -5.40 2.35
-11.17 -5.64 2.36
-11.09 -5.87 2.36
-11.02 -6.12 2.37
-10.95 -6.38 2.39
-10.87 -6.63 2.40
-10.79 -6.88 2.41
-10.71 -7.13 2.42
-10.43 -7.26 2.39
-10.29 -7.47 2.39
-10.14 -7.67 2.39
-9.99 -7.88 2.39
-9.83 -8.08 2.39
-9.67 -8.28 2.39
-9.50 -8.47 2.39
-9.33 -8.67 2.39
-9.16 -8.85 2.39
-8.98 -9.04 2.39
-8.80 -9.22 2.39
-8.62 -9.40 2.39
-8.43 -9.57 2.39
-8.24 -9.74 2.39
-8.05 -9.91 2.39
-7.85 -10.07 2.39
-7.65 -10.23 2.39
-7.44 -10.38 2.39
-7.23 -10.54 2.39
-7.02 -10.68 2.39
-6.81 -10.82 2.39
-6.79 -11.29 2.46
-6.65 -11.57 2.49
-6.42 -11.71 2.49
-6.18 -11.84 2.49
-5.95 -11.96 2.49
-5.71 -12.08 2.49
-5.46 -12.20 2.49
-5.22 -12.31 2.49
-4.97 -12.41 2.49
-4.72 -12.52 2.49
-4.47 -12.61 2.49
-4.22 -12.70 2.49
-3.96 -12.79 2.49
-3.71 -12.87 2.49
-3.45 -12.94 2.49
-3.19 -13.01 2.49
-2.93 -13.08 2.49
-2.67 -13.14 2.49
-2.40 -13.19 2.49
-2.14 -13.24 2.49
-1.87 -13.28 2.49
-1.61 -13.32 2.49
-1.34 -13.35 2.49
-1.07 -13.38 2.49
-0.80 -13.40 2.49
-0.53 -13.42 2.49
-0.27 -13.43 2.49
0.00 -11.93 2.49
0.24 -11.93 2.49
0.48 -11.92 2.49
0.72 -11.91 2.49
0.96 -11.90 2.49
1.20 -11.88 2.49
1.38 -11.36 2.39
1.61 -11.34 2.39
1.83 -11.30 2.39
2.06 -11.27 2.39
2.29 -11.22 2.39
2.51 -11.18 2.39
2.74 -11.13 2.39
2.96 -11.07 2.39
3.18 -11.01 2.39
3.40 -10.94 2.39
3.62 -10.88 2.39
3.84 -10.80 2.39
4.05 -10.72 2.39
4.27 -10.64 2.39
4.48 -10.55 2.39
4.69 -10.46 2.39
4.90 -10.37 2.39
5.11 -10.27 2.39
5.32 -10.16 2.39
4.36 -7.95 1.89
4.51 -7.84 1.89
4.67 -7.75 1.89
6.12 -9.72 2.39
6.31 -9.59 2.39
6.51 -9.46 2.39
6.69 -9.33 2.39
6.88 -9.20 2.39
2.06 -2.64 0.70
2.11 -2.60 0.70
7.42 -8.76 2.39
7.60 -8.61 2.39
7.77 -8.46 2.39
7.93 -8.30 2.39
8.10 -8.14 2.39
8.26 -7.98 2.39
8.42 -7.81 2.39
8.57 -7.64 2.39
8.72 -7.46 2.39
8.87 -7.29 2.39
9.02 -7.11 2.39
9.16 -6.92 2.39
9.29 -6.74 2.39
9.42 -6.55 2.39
9.55 -6.36 2.39
9.68 -6.17 2.39
9.80 -5.97 2.39
9.92 -5.77 2.39
10.03 -5.57 2.39
10.14 -5.37 2.39
10.24 -5.16 2.39
10.34 -4.96 2.39
10.44 -4.75 2.39
10.53 -4.54 2.39
10.62 -4.32 2.39
10.70 -4.11 2.39
10.78 -3.89 2.39
10.85 -3.68 2.39
10.92 -3.46 2.39
10.99 -3.24 2.39
11.05 -3.01 2.39
11.11 -2.79 2.39
11.16 -2.57 2.39
11.20 -2.34 2.39
11.25 -2.12 2.39
11.29 -1.89 2.39
11.32 -1.66 2.39
11.35 -1.44 2.39
11.37 -1.21 2.39
11.39 -0.98 2.39
11.41 -0.75 2.39
11.42 -0.52 2.39
11.42 -0.29 2.39
11.42 -0.06 2.39
11.42 0.17 2.39
11.41 0.40 2.39
11.40 0.62 2.39
11.38 0.85 2.39
11.36 1.08 2.39
11.33 1.31 2.39
11.30 1.53 2.39
11.27 1.76 2.39
11.23 1.99 2.39
11.18 2.21 2.39
11.13 2.43 2.39
11.08 2.66 2.39
11.02 2.88 2.39
10.96 3.10 2.39
10.89 3.32 2.39
10.82 3.53 2.39
10.74 3.75 2.39
10.66 3.96 2.39
10.58 4.17 2.39
10.49 4.38 2.39
10.40 4.59 2.39
10.30 4.80 2.39
10.20 5.00 2.39
10.09 5.21 2.39
9.98 5.41 2.39
9.87 5.60 2.39
9.75 5.80 2.39
9.63 5.99 2.39
9.51 6.18 2.39
9.38 6.37 2.39
9.25 6.55 2.39
9.11 6.74 2.39
8.97 6.92 2.39
8.83 7.09 2.39
8.68 7.27 2.39
8.53 7.44 2.39
8.38 7.61 2.39
8.22 7.77 2.39
8.06 7.93 2.39
7.90 8.09 2.39
7.73 8.24 2.39
7.56 8.39 2.39
7.39 8.54 2.39
7.22 8.69 2.39
7.04 8.83 2.39
6.86 8.96 2.39
6.67 9.10 2.39
6.48 9.22 2.39
6.29 9.34 2.39
6.10 9.47 2.39
5.91 9.58 2.39
5.71 9.70 2.39
5.52 9.81 2.39
5.32 9.91 2.39
5.12 10.02 2.39
4.91 10.11 2.39
4.71 10.21 2.39
4.50 10.30 2.39
4.29 10.38 2.39
4.08 10.47 2.39
3.87 10.54 2.39
3.66 10.62 2.39
3.44 10.68 2.39
3.23 10.75 2.39
3.01 10.81 2.39
2.79 10.87 2.39
2.57 10.93 2.39
2.45 11.44 2.49
2.22 11.48 2.49
1.99 11.52 2.49
1.76 11.56 2.49
1.53 11.59 2.49
1.29 11.61 2.49
1.06 11.63 2.49
0.82 11.65 2.49
0.59 11.66 2.49
0.36 11.67 2.49
0.12 11.67 2.49
-0.11 11.67 2.49
-0.35 11.66 2.49
-0.58 11.65 2.49
-0.82 11.64 2.49
-1.05 11.62 2.49
-1.28 11.59 2.49
-1.51 11.56 2.49
-1.75 11.53 2.49
-1.98 11.49 2.49
-2.21 11.45 2.49
-2.44 11.40 2.49
-2.66 11.34 2.49
-2.89 11.29 2.49
-3.12 11.23 2.49
-3.34 11.16 2.49
-3.56 11.09 2.49
-3.79 11.01 2.49
-4.01 10.94 2.49
-4.22 10.85 2.49
-4.44 10.76 2.49
-4.66 10.67 2.49
-4.87 10.58 2.49
-5.08 10.48 2.49
-5.29 10.37 2.49
-5.50 10.26 2.49
-5.56 9.90 2.43
-5.66 9.62 2.39
-5.85 9.50 2.39
-6.04 9.38 2.39
-6.23 9.26 2.39
-6.41 9.13 2.39
-6.59 9.00 2.39
-6.77 8.87 2.39
-6.95 8.73 2.39
-7.12 8.59 2.39
-7.29 8.44 2.39
-7.46 8.29 2.39
-7.63 8.14 2.39
-7.79 7.99 2.39
-7.95 7.83 2.39
-8.11 7.67 2.39
-8.26 7.50 2.39
-8.41 7.34 2.39
-8.55 7.17 2.39
-8.70 6.99 2.39
-8.84 6.82 2.39
-8.97 6.64 2.39
-9.10 6.46 2.39
-9.23 6.28 2.39
-9.36 6.09 2.39
-9.48 5.90 2.39
-9.60 5.71 2.39
-9.71 5.52 2.39
-9.82 5.32 2.39
-10.31 5.32 2.48
-10.45 5.13 2.49
-10.58 4.94 2.50
-10.72 4.74 2.51
-10.85 4.54 2.52
-10.96 4.33 2.52
-11.00 4.09 2.51
-11.04 3.85 2.50
-11.07 3.62 2.49
-11.10 3.38 2.48
-11.14 3.15 2.47
-11.16 2.92 2.47
-11.19 2.69 2.46
-11.22 2.45 2.45
-11.26 2.23 2.45
-11.27 2.00 2.44
-11.28 1.76 2.44
-11.29 1.53 2.43
-11.30 1.31 2.43
-11.31 1.08 2.43
-11.32 0.85 2.42
-11.32 0.62 2.42
-11.33 0.39 2.42
-11.33 0.17 2.42
-11.33 -0.06 2.42
-11.33 -0.29 2.42
-11.33 -0.52 2.42
-11.33 -0.75 2.42
-11.32 -0.97 2.42
-11.32 -1.20 2.42
-11.31 -1.43 2.43
-11.31 -1.66 2.43
-11.27 -1.89 2.43
-11.23 -2.12 2.43
-11.18 -2.34 2.43
-11.12 -2.56 2.43
-11.07 -2.78 2.43
-11.01 -3.00 2.42
-10.94 -3.23 2.42
-10.88 -3.45 2.42
-10.81 -3.66 2.42
-10.74 -3.88 2.42
-10.67 -4.10 2.43
-10.59 -4.31 2.43
-10.35 -4.46 2.39
-10.26 -4.67 2.39
-10.17 -4.88 2.39
-10.07 -5.08 2.39
-9.97 -5.28 2.39
-9.86 -5.48 2.39
-9.75 -5.68 2.39
-9.64 -5.88 2.39
-9.52 -6.07 2.39
-9.40 -6.27 2.39
-9.28 -6.45 2.39
-9.15 -6.64 2.39
-9.02 -6.83 2.39
-8.88 -7.01 2.39
-8.74 -7.19 2.39
-8.60 -7.36 2.39
-8.45 -7.54 2.39
-8.30 -7.71 2.39
-8.14 -7.87 2.39
-7.99 -8.04 2.39
-7.83 -8.20 2.39
-7.66 -8.36 2.39
-7.50 -8.51 2.39
-7.32 -8.66 2.39
-7.15 -8.81 2.39
-6.98 -8.95 2.39
-6.80 -9.09 2.39
-6.68 -9.33 2.42
-6.70 -9.76 2.49
-6.51 -9.90 2.49
-6.31 -10.03 2.49
-6.11 -10.16 2.49
-5.91 -10.29 2.49
-5.70 -10.40 2.49
-5.49 -10.52 2.49
-5.28 -10.63 2.49
-5.07 -10.74 2.49
-4.85 -10.84 2.49
-4.64 -10.94 2.49
-4.42 -11.03 2.49
-4.20 -11.12 2.49
-3.97 -11.20 2.49
-3.75 -11.28 2.49
-3.52 -11.36 2.49
-3.29 -11.43 2.49
-3.06 -11.50 2.49
-2.83 -11.56 2.49
-2.60 -11.62 2.49
-2.37 -11.67 2.49
-2.13 -11.72 2.49
-1.90 -11.76 2.49
-1.66 -11.80 2.49
-1.43 -11.83 2.49
-1.19 -11.86 2.49
-0.95 -11.88 2.49
-0.71 -11.90 2.49
-0.47 -11.92 2.49
-0.23 -11.93 2.49
0.00 -10.72 2.49
0.22 -10.72 2.49
0.43 -10.71 2.49
0.65 -10.70 2.49
0.86 -10.69 2.49
1.08 -10.67 2.49
1.29 -10.65 2.49
1.44 -10.18 2.39
1.65 -10.15 2.39
1.85 -10.12 2.39
2.05 -10.08 2.39
2.26 -10.04 2.39
2.46 -9.99 2.39
2.66 -9.94 2.39
2.86 -9.89 2.39
3.06 -9.83 2.39
3.25 -9.77 2.39
3.45 -9.70 2.39
3.64 -9.63 2.39
3.84 -9.56 2.39
4.03 -9.48 2.39
4.22 -9.40 2.39
4.40 -9.31 2.39
4.59 -9.22 2.39
4.77 -9.13 2.39
4.96 -9.03 2.39
5.14 -8.93 2.39
5.32 -8.83 2.39
5.50 -8.73 2.39
5.67 -8.62 2.39
5.84 -8.50 2.39
6.01 -8.38 2.39
6.18 -8.26 2.39
2.06 -2.64 0.78
2.11 -2.60 0.78
6.67 -7.87 2.39
6.82 -7.74 2.39
6.98 -7.60 2.39
7.13 -7.46 2.39
7.28 -7.31 2.39
7.42 -7.17 2.39
7.56 -7.01 2.39
7.70 -6.86 2.39
7.84 -6.71 2.39
7.97 -6.55 2.39
8.10 -6.38 2.39
8.22 -6.22 2.39
8.35 -6.05 2.39
8.47 -5.88 2.39
8.58 -5.71 2.39
8.69 -5.54 2.39
8.80 -5.36 2.39
8.91 -5.19 2.39
9.01 -5.01 2.39
9.11 -4.82 2.39
9.20 -4.64 2.39
9.29 -4.45 2.39
9.38 -4.27 2.39
9.46 -4.08 2.39
9.54 -3.88 2.39
9.61 -3.69 2.39
9.68 -3.50 2.39
9.75 -3.30 2.39
7.73 -2.45 1.89
7.77 -2.29 1.89
7.82 -2.13 1.89
7.86 -1.98 1.89
10.02 -2.31 2.39
10.07 -2.11 2.39
10.11 -1.90 2.39
10.14 -1.70 2.39
10.17 -1.50 2.39
10.20 -1.29 2.39
10.22 -1.09 2.39
10.24 -0.88 2.39
10.25 -0.67 2.39
10.26 -0.47 2.39
10.27 -0.26 2.39
10.27 -0.06 2.39
10.26 0.15 2.39
10.26 0.36 2.39
10.25 0.56 2.39
10.23 0.77 2.39
10.21 0.97 2.39
10.19 1.18 2.39
10.16 1.38 2.39
10.13 1.58 2.39
10.09 1.78 2.39
8.26 1.63 1.97
10.01 2.19 2.39
9.96 2.39 2.39
7.93 2.07 1.92
7.83 2.21 1.90
7.72 2.35 1.89
7.66 2.50 1.89
7.61 2.65 1.89
7.59 2.82 1.90
9.51 3.75 2.39
9.43 3.94 2.39
9.35 4.13 2.39
9.26 4.31 2.39
9.17 4.50 2.39
9.07 4.68 2.39
8.98 4.86 2.39
8.88 5.04 2.39
8.77 5.21 2.39
8.66 5.39 2.39
8.55 5.56 2.39
8.43 5.73 2.39
8.32 5.89 2.39
8.19 6.06 2.39
8.07 6.22 2.39
7.94 6.38 2.39
7.81 6.54 2.39
7.67 6.69 2.39
7.54 6.84 2.39
7.39 6.99 2.39
7.25 7.13 2.39
7.10 7.28 2.39
6.96 7.42 2.39
6.80 7.55 2.39
6.65 7.68 2.39
6.49 7.81 2.39
6.32 7.93 2.39
6.16 8.06 2.39
6.00 8.18 2.39
5.83 8.29 2.39
5.66 8.41 2.39
5.49 8.52 2.39
5.32 8.62 2.39
5.14 8.73 2.39
4.97 8.82 2.39
4.79 8.92 2.39
4.60 9.01 2.39
4.42 9.10 2.39
4.24 9.19 2.39
4.05 9.27 2.39
3.86 9.34 2.39
3.67 9.42 2.39
3.48 9.49 2.39
3.29 9.55 2.39
3.10 9.62 2.39
2.90 9.67 2.39
2.71 9.73 2.39
2.51 9.78 2.39
2.41 10.25 2.49
2.21 10.29 2.49
2.00 10.33 2.49
1.79 10.37 2.49
1.58 10.40 2.49
1.37 10.43 2.49
1.16 10.45 2.49
0.95 10.47 2.49
0.74 10.49 2.49
0.53 10.50 2.49
0.32 10.51 2.49
0.11 10.51 2.49
-0.10 10.51 2.49
-0.31 10.50 2.49
-0.52 10.49 2.49
-0.73 10.48 2.49
-0.94 10.46 2.49
-1.15 10.44 2.49
-1.36 10.41 2.49
-1.57 10.38 2.49
-1.78 10.34 2.49
-1.99 10.31 2.49
-2.19 10.26 2.49
-2.40 10.22 2.49
-2.60 10.16 2.49
-2.81 10.11 2.49
-3.01 10.05 2.49
-3.21 9.99 2.49
-3.41 9.92 2.49
-3.61 9.85 2.49
-3.80 9.77 2.49
-4.00 9.69 2.49
-4.19 9.61 2.49
-4.38 9.52 2.49
-4.57 9.43 2.49
-4.76 9.34 2.49
-4.95 9.24 2.49
-5.13 9.14 2.49
-5.32 9.03 2.49
-5.50 8.92 2.49
-5.62 8.74 2.47
-5.65 8.40 2.41
-5.77 8.22 2.39
-5.94 8.10 2.39
-6.10 7.98 2.39
-6.26 7.86 2.39
-6.42 7.73 2.39
-6.57 7.60 2.39
-6.72 7.47 2.39
-6.87 7.33 2.39
-7.02 7.19 2.39
-7.16 7.05 2.39
-7.30 6.91 2.39
-7.44 6.76 2.39
-7.57 6.61 2.39
-7.70 6.45 2.39
-7.83 6.30 2.39
-7.96 6.14 2.39
-8.08 5.98 2.39
-8.20 5.82 2.39
-8.31 5.65 2.39
-8.43 5.48 2.39
-8.54 5.31 2.39
-8.64 5.14 2.39
-8.74 4.97 2.39
-8.84 4.79 2.39
-8.94 4.61 2.39
-9.03 4.43 2.39
-9.12 4.25 2.39
-9.20 4.07 2.39
-9.28 3.88 2.39
-9.36 3.70 2.39
-9.43 3.51 2.39
-9.50 3.32 2.39
-9.57 3.13 2.39
-9.63 2.93 2.39
-9.69 2.74 2.39
-9.75 2.55 2.39
-9.80 2.35 2.39
-9.84 2.15 2.39
-9.89 1.96 2.39
-9.92 1.76 2.39
-9.96 1.56 2.39
-9.99 1.36 2.39
-10.02 1.16 2.39
-10.04 0.96 2.39
-10.06 0.75 2.39
-10.07 0.55 2.39
-10.09 0.35 2.39
-10.09 0.15 2.39
-10.09 -0.06 2.39
-10.09 -0.26 2.39
-10.09 -0.46 2.39
-10.08 -0.66 2.39
-10.07 -0.87 2.39
-10.05 -1.07 2.39
-10.03 -1.27 2.39
-10.00 -1.47 2.39
-9.97 -1.67 2.39
-9.94 -1.87 2.39
-9.90 -2.07 2.39
-9.86 -2.27 2.39
-9.82 -2.47 2.39
-9.77 -2.67 2.39
-9.71 -2.86 2.39
-9.66 -3.06 2.39
-9.59 -3.25 2.39
-9.53 -3.45 2.39
-9.46 -3.64 2.39
-9.39 -3.83 2.39
-9.31 -4.02 2.39
-9.23 -4.20 2.39
-9.15 -4.39 2.39
-9.06 -4.57 2.39
-8.97 -4.75 2.39
-8.87 -4.93 2.39
-8.77 -5.11 2.39
-8.67 -5.29 2.39
-8.57 -5.46 2.39
-8.46 -5.64 2.39
-8.34 -5.81 2.39
-8.23 -5.97 2.39
-8.11 -6.14 2.39
-7.99 -6.30 2.39
-7.86 -6.46 2.39
-7.73 -6.62 2.39
-7.60 -6.78 2.39
-7.46 -6.93 2.39
-7.32 -7.08 2.39
-7.18 -7.23 2.39
-7.04 -7.37 2.39
-6.89 -7.51 2.39
-6.74 -7.65 2.39
-6.60 -7.80 2.40
-6.61 -8.14 2.46
-6.54 -8.40 2.49
-6.37 -8.53 2.49
-6.20 -8.66 2.49
-6.03 -8.78 2.49
-5.85 -8.90 2.49
-5.67 -9.02 2.49
-5.49 -9.14 2.49
-5.31 -9.25 2.49
-5.12 -9.35 2.49
-4.94 -9.46 2.49
-4.75 -9.56 2.49
-4.56 -9.65 2.49
-4.36 -9.74 2.49
-4.17 -9.83 2.49
-3.97 -9.91 2.49
-3.77 -9.99 2.49
-3.57 -10.07 2.49
-3.37 -10.14 2.49
-3.16 -10.21 2.49
-2.96 -10.27 2.49
-2.75 -10.33 2.49
-2.55 -10.39 2.49
-2.34 -10.44 2.49
-2.13 -10.49 2.49
-1.92 -10.53 2.49
-1.71 -10.57 2.49
-1.49 -10.60 2.49
-1.28 -10.63 2.49
-1.07 -10.66 2.49
-0.85 -10.68 2.49
-0.64 -10.69 2.49
-0.43 -10.71 2.49
-0.21 -10.72 2.49
0.00 -9.72 2.49
0.20 -9.72 2.49
0.39 -9.72 2.49
0.59 -9.71 2.49
0.78 -9.70 2.49
0.98 -9.68 2.49
1.17 -9.66 2.49
1.37 -9.63 2.49
1.50 -9.21 2.39
1.68 -9.18 2.39
1.86 -9.14 2.39
2.05 -9.11 2.39
2.23 -9.06 2.39
2.41 -9.02 2.39
2.59 -8.97 2.39
2.77 -8.92 2.39
2.95 -8.86 2.39
3.13 -8.80 2.39
3.30 -8.73 2.39
3.48 -8.67 2.39
3.65 -8.60 2.39
3.82 -8.52 2.39
3.99 -8.44 2.39
4.16 -8.36 2.39
4.33 -8.28 2.39
4.50 -8.19 2.39
4.66 -8.10 2.39
4.82 -8.00 2.39
4.98 -7.91 2.39
5.14 -7.80 2.39
5.29 -7.70 2.39
5.45 -7.59 2.39
5.60 -7.49 2.39
2.06 -2.64 0.86
2.11 -2.60 0.86
6.04 -7.14 2.39
6.19 -7.02 2.39
6.33 -6.89 2.39
6.46 -6.76 2.39
6.60 -6.63 2.39
6.73 -6.50 2.39
6.86 -6.36 2.39
6.98 -6.22 2.39
7.11 -6.08 2.39
7.23 -5.94 2.39
7.34 -5.79 2.39
7.46 -5.64 2.39
7.57 -5.49 2.39
7.68 -5.34 2.39
7.78 -5.18 2.39
7.88 -5.02 2.39
7.98 -4.86 2.39
8.08 -4.70 2.39
8.17 -4.54 2.39
8.26 -4.37 2.39
8.34 -4.21 2.39
8.43 -4.04 2.39
8.50 -3.87 2.39
8.58 -3.70 2.39
8.65 -3.52 2.39
8.72 -3.35 2.39
8.78 -3.17 2.39
8.84 -3.00 2.39
8.90 -2.82 2.39
8.95 -2.64 2.39
9.00 -2.46 2.39
7.25 -1.82 1.92
7.30 -1.68 1.92
9.13 -1.91 2.39
9.17 -1.73 2.39
9.20 -1.54 2.39
9.23 -1.36 2.39
9.25 -1.17 2.39
9.27 -0.99 2.39
9.29 -0.80 2.39
9.30 -0.61 2.39
9.31 -0.43 2.39
9.31 -0.24 2.39
9.31 -0.05 2.39
9.31 0.13 2.39
9.30 0.32 2.39
9.29 0.51 2.39
9.28 0.69 2.39
9.26 0.88 2.39
9.24 1.07 2.39
9.22 1.25 2.39
9.19 1.44 2.39
9.15 1.62 2.39
9.12 1.80 2.39
9.08 1.98 2.39
9.04 2.17 2.39
8.99 2.35 2.39
8.94 2.52 2.39
8.88 2.70 2.39
8.82 2.88 2.39
7.75 2.70 2.12
8.70 3.23 2.39
8.63 3.40 2.39
8.56 3.58 2.39
8.48 3.75 2.39
8.40 3.91 2.39
8.32 4.08 2.39
8.24 4.25 2.39
8.15 4.41 2.39
8.06 4.57 2.39
7.96 4.73 2.39
7.86 4.89 2.39
7.76 5.04 2.39
7.66 5.20 2.39
7.55 5.35 2.39
7.44 5.50 2.39
7.32 5.65 2.39
7.21 5.79 2.39
7.09 5.93 2.39
6.97 6.07 2.39
6.84 6.21 2.39
6.71 6.34 2.39
6.58 6.48 2.39
6.45 6.60 2.39
6.31 6.72 2.39
6.17 6.85 2.39
6.03 6.97 2.39
5.89 7.09 2.39
5.74 7.20 2.39
5.60 7.31 2.39
5.45 7.42 2.39
5.30 7.53 2.39
5.14 7.63 2.39
4.99 7.73 2.39
4.83 7.83 2.39
4.67 7.92 2.39
4.51 8.01 2.39
4.35 8.10 2.39
4.18 8.18 2.39
4.02 8.27 2.39
3.85 8.34 2.39
3.68 8.42 2.39
3.51 8.49 2.39
3.34 8.55 2.39
3.16 8.62 2.39
2.99 8.68 2.39
2.81 8.73 2.39
2.64 8.79 2.39
2.46 8.84 2.39
2.38 9.27 2.49
2.19 9.31 2.49
2.01 9.35 2.49
1.82 9.39 2.49
1.63 9.42 2.49
1.44 9.45 2.49
1.25 9.47 2.49
1.06 9.50 2.49
0.87 9.51 2.49
0.68 9.53 2.49
0.48 9.54 2.49
0.29 9.54 2.49
0.10 9.55 2.49
-0.09 9.55 2.49
-0.28 9.54 2.49
-0.47 9.53 2.49
-0.67 9.52 2.49
-0.86 9.50 2.49
-1.05 9.48 2.49
-1.24 9.46 2.49
-1.43 9.43 2.49
-1.62 9.40 2.49
-1.80 9.36 2.49
-1.99 9.32 2.49
-2.18 9.28 2.49
-2.36 9.23 2.49
-2.55 9.18 2.49
-2.73 9.13 2.49
-2.92 9.07 2.49
-3.10 9.01 2.49
-3.28 8.95 2.49
-3.46 8.88 2.49
-3.63 8.81 2.49
-3.81 8.73 2.49
-3.98 8.65 2.49
-4.16 8.57 2.49
-4.33 8.49 2.49
-4.50 8.40 2.49
-4.66 8.30 2.49
-4.83 8.21 2.49
-4.99 8.11 2.49
-5.16 8.01 2.49
-5.32 7.90 2.49
-5.47 7.79 2.49
-5.63 7.68 2.49
-5.70 7.46 2.46
-5.72 7.19 2.41
-5.83 7.03 2.39
-5.97 6.91 2.39
-6.11 6.79 2.39
-6.24 6.66 2.39
-6.37 6.54 2.39
-6.50 6.41 2.39
-6.63 6.27 2.39
-6.76 6.14 2.39
-6.88 6.00 2.39
-7.00 5.86 2.39
-7.12 5.72 2.39
-7.23 5.58 2.39
-7.34 5.43 2.39
-7.45 5.28 2.39
-7.55 5.13 2.39
-7.66 4.98 2.39
-7.76 4.83 2.39
-7.85 4.67 2.39
-7.94 4.51 2.39
-8.03 4.35 2.39
-8.12 4.19 2.39
-8.20 4.03 2.39
-8.28 3.86 2.39
-8.36 3.70 2.39
-8.43 3.53 2.39
-8.50 3.36 2.39
-8.57 3.19 2.39
-8.63 3.01 2.39
-8.69 2.84 2.39
-8.75 2.67 2.39
-8.80 2.49 2.39
-8.85 2.31 2.39
-8.90 2.13 2.39
-8.94 1.96 2.39
-8.98 1.78 2.39
-9.02 1.60 2.39
-9.05 1.41 2.39
-9.08 1.23 2.39
-9.10 1.05 2.39
-9.12 0.87 2.39
-9.14 0.68 2.39
-9.15 0.50 2.39
-9.16 0.32 2.39
-9.17 0.13 2.39
-9.17 -0.05 2.39
-9.17 -0.24 2.39
-9.16 -0.42 2.39
-9.15 -0.60 2.39
-9.14 -0.79 2.39
-9.13 -0.97 2.39
-9.11 -1.15 2.39
-9.08 -1.34 2.39
-9.06 -1.52 2.39
-9.03 -1.70 2.39
-8.99 -1.88 2.39
-8.95 -2.06 2.39
-8.91 -2.24 2.39
-8.87 -2.42 2.39
-8.82 -2.60 2.39
-8.77 -2.78 2.39
-8.71 -2.95 2.39
-8.65 -3.13 2.39
-8.59 -3.30 2.39
-8.52 -3.48 2.39
-8.45 -3.65 2.39
-8.38 -3.82 2.39
-8.30 -3.98 2.39
-8.23 -4.15 2.39
-8.14 -4.32 2.39
-8.06 -4.48 2.39
-7.97 -4.64 2.39
-7.87 -4.80 2.39
-7.78 -4.96 2.39
-7.68 -5.12 2.39
-7.57 -5.27 2.39
-7.47 -5.42 2.39
-7.36 -5.57 2.39
-7.25 -5.72 2.39
-7.13 -5.87 2.39
-7.02 -6.01 2.39
-6.90 -6.15 2.39
-6.77 -6.29 2.39
-6.65 -6.43 2.39
-6.53 -6.57 2.39
-6.53 -6.84 2.45
-6.52 -7.11 2.49
-6.38 -7.25 2.49
-6.23 -7.37 2.49
-6.09 -7.50 2.49
-5.94 -7.62 2.49
-5.78 -7.74 2.49
-5.63 -7.86 2.49
-5.47 -7.97 2.49
-5.31 -8.08 2.49
-5.15 -8.19 2.49
-4.98 -8.29 2.49
-4.82 -8.39 2.49
-4.65 -8.49 2.49
-4.48 -8.58 2.49
-4.31 -8.67 2.49
-4.13 -8.76 2.49
-3.96 -8.84 2.49
-3.78 -8.92 2.49
-3.60 -9.00 2.49
-3.42 -9.07 2.49
-3.24 -9.14 2.49
-3.06 -9.20 2.49
-2.87 -9.26 2.49
-2.68 -9.32 2.49
-2.50 -9.37 2.49
-2.31 -9.42 2.49
-2.12 -9.47 2.49
-1.93 -9.51 2.49
-1.74 -9.55 2.49
-1.55 -9.59 2.49
-1.36 -9.62 2.49
-1.16 -9.64 2.49
-0.97 -9.67 2.49
-0.77 -9.69 2.49
-0.58 -9.70 2.49
-0.39 -9.71 2.49
-0.19 -9.72 2.49
0.00 -8.89 2.49
0.18 -8.89 2.49
0.36 -8.88 2.49
0.54 -8.87 2.49
0.72 -8.86 2.49
0.89 -8.85 2.49
1.07 -8.83 2.49
1.25 -8.81 2.49
1.42 -8.73 2.48
1.54 -8.39 2.39
1.70 -8.36 2.39
1.87 -8.32 2.39
2.04 -8.28 2.39
2.20 -8.24 2.39
2.37 -8.20 2.39
2.53 -8.15 2.39
2.70 -8.10 2.39
2.86 -8.04 2.39
3.02 -7.98 2.39
3.18 -7.92 2.39
3.34 -7.86 2.39
3.49 -7.79 2.39
3.65 -7.72 2.39
3.80 -7.64 2.39
3.96 -7.56 2.39
4.11 -7.48 2.39
4.26 -7.40 2.39
4.40 -7.31 2.39
4.55 -7.22 2.39
4.69 -7.13 2.39
4.84 -7.04 2.39
4.98 -6.94 2.39
5.12 -6.84 2.39
2.06 -2.64 0.94
2.11 -2.60 0.94
5.52 -6.52 2.39
5.65 -6.41 2.39
5.78 -6.30 2.39
5.91 -6.18 2.39
6.03 -6.06 2.39
6.15 -5.94 2.39
6.27 -5.81 2.39
6.38 -5.69 2.39
6.49 -5.56 2.39
6.60 -5.42 2.39
6.71 -5.29 2.39
6.81 -5.15 2.39
6.92 -5.02 2.39
7.02 -4.88 2.39
7.11 -4.73 2.39
7.20 -4.59 2.39
7.29 -4.45 2.39
7.38 -4.30 2.39
7.47 -4.15 2.39
7.55 -4.00 2.39
7.62 -3.84 2.39
7.70 -3.69 2.39
7.77 -3.54 2.39
7.84 -3.38 2.39
7.91 -3.22 2.39
7.97 -3.06 2.39
8.03 -2.90 2.39
8.08 -2.74 2.39
8.13 -2.57 2.39
8.18 -2.41 2.39
8.23 -2.25 2.39
8.27 -2.08 2.39
8.31 -1.91 2.39
8.35 -1.75 2.39
8.38 -1.58 2.39
8.41 -1.41 2.39
8.43 -1.24 2.39
8.45 -1.07 2.39
8.47 -0.90 2.39
8.49 -0.73 2.39
8.50 -0.56 2.39
8.51 -0.39 2.39
8.51 -0.22 2.39
8.51 -0.05 2.39
8.51 0.12 2.39
8.51 0.29 2.39
8.50 0.46 2.39
8.48 0.63 2.39
8.47 0.80 2.39
8.45 0.97 2.39
8.43 1.14 2.39
8.40 1.31 2.39
8.37 1.48 2.39
8.24 1.63 2.37
8.30 1.81 2.39
8.26 1.98 2.39
8.22 2.14 2.39
8.17 2.31 2.39
8.12 2.47 2.39
8.07 2.63 2.39
7.75 2.70 2.32
7.95 2.95 2.39
7.89 3.11 2.39
7.83 3.27 2.39
7.76 3.42 2.39
7.68 3.58 2.39
7.61 3.73 2.39
7.53 3.88 2.39
7.45 4.03 2.39
7.37 4.18 2.39
7.28 4.33 2.39
7.19 4.47 2.39
7.10 4.61 2.39
7.00 4.75 2.39
6.90 4.89 2.39
6.80 5.03 2.39
6.70 5.16 2.39
6.59 5.30 2.39
6.48 5.43 2.39
6.37 5.55 2.39
6.25 5.67 2.39
6.13 5.80 2.39
6.02 5.92 2.39
5.89 6.03 2.39
5.77 6.15 2.39
5.64 6.26 2.39
5.52 6.37 2.39
5.39 6.48 2.39
5.25 6.59 2.39
5.12 6.69 2.39
4.98 6.79 2.39
4.84 6.89 2.39
4.70 6.98 2.39
4.56 7.07 2.39
4.42 7.16 2.39
4.27 7.25 2.39
4.13 7.33 2.39
3.98 7.41 2.39
3.83 7.49 2.39
3.68 7.56 2.39
3.52 7.63 2.39
3.37 7.70 2.39
3.21 7.76 2.39
3.05 7.83 2.39
2.90 7.88 2.39
2.74 7.94 2.39
2.58 8.02 2.40
2.41 8.04 2.39
2.35 8.43 2.49
2.18 8.48 2.49
2.01 8.52 2.49
1.84 8.56 2.49
1.66 8.59 2.49
1.49 8.62 2.49
1.32 8.65 2.49
1.14 8.67 2.49
0.97 8.69 2.49
0.79 8.71 2.49
0.62 8.72 2.49
0.44 8.73 2.49
0.27 8.74 2.49
0.09 8.74 2.49
-0.08 8.74 2.49
-0.26 8.73 2.49
-0.43 8.72 2.49
-0.61 8.71 2.49
-0.78 8.70 2.49
-0.96 8.68 2.49
-1.13 8.66 2.49
-1.31 8.63 2.49
-1.48 8.60 2.49
-1.65 8.57 2.49
-1.82 8.53 2.49
-1.99 8.50 2.49
-2.16 8.45 2.49
-2.33 8.41 2.49
-2.50 8.36 2.49
-2.67 8.31 2.49
-2.83 8.25 2.49
-3.00 8.19 2.49
-3.16 8.13 2.49
-3.33 8.06 2.49
-3.49 7.99 2.49
-3.65 7.92 2.49
-3.80 7.85 2.49
-3.96 7.77 2.49
-4.12 7.69 2.49
-4.27 7.60 2.49
-4.42 7.51 2.49
-4.57 7.42 2.49
-4.72 7.33 2.49
-4.87 7.23 2.49
-5.01 7.13 2.49
-5.15 7.03 2.49
-5.29 6.93 2.49
-5.43 6.82 2.49
-5.57 6.71 2.49
-5.70 6.60 2.49
-5.76 6.40 2.46
-5.78 6.17 2.42
-5.84 5.98 2.39
-5.95 5.86 2.39
-6.07 5.74 2.39
-6.19 5.62 2.39
-6.30 5.50 2.39
-6.41 5.37 2.39
-6.51 5.24 2.39
-6.62 5.11 2.39
-6.72 4.97 2.39
-6.82 4.84 2.39
-6.91 4.70 2.39
-7.01 4.56 2.39
-7.10 4.42 2.39
-7.19 4.28 2.39
-7.27 4.13 2.39
-7.35 3.98 2.39
-7.43 3.84 2.39
-7.51 3.69 2.39
-7.58 3.53 2.39
-7.65 3.38 2.39
-7.72 3.23 2.39
-7.78 3.07 2.39
-7.84 2.92 2.39
-7.90 2.76 2.39
-7.96 2.60 2.39
-8.01 2.44 2.39
-8.06 2.28 2.39
-8.10 2.12 2.39
-8.14 1.95 2.39
-8.18 1.79 2.39
-8.22 1.62 2.39
-8.25 1.46 2.39
-8.28 1.29 2.39
-8.31 1.13 2.39
-8.33 0.96 2.39
-8.35 0.79 2.39
-8.36 0.63 2.39
-8.37 0.46 2.39
-8.38 0.29 2.39
-8.39 0.12 2.39
-8.39 -0.05 2.39
-8.39 -0.22 2.39
-8.38 -0.38 2.39
-8.38 -0.55 2.39
-8.37 -0.72 2.39
-8.35 -0.89 2.39
-8.33 -1.06 2.39
-8.31 -1.22 2.39
-8.29 -1.39 2.39
-8.26 -1.56 2.39
-8.23 -1.72 2.39
-8.19 -1.89 2.39
-8.15 -2.05 2.39
-8.11 -2.22 2.39
-8.07 -2.38 2.39
-8.02 -2.54 2.39
-7.97 -2.70 2.39
-7.92 -2.86 2.39
-7.86 -3.02 2.39
-7.80 -3.18 2.39
-7.73 -3.34 2.39
-7.67 -3.49 2.39
-7.60 -3.65 2.39
-7.52 -3.80 2.39
-7.45 -3.95 2.39
-7.37 -4.10 2.39
-7.29 -4.25 2.39
-7.20 -4.39 2.39
-7.11 -4.54 2.39
-7.02 -4.68 2.39
-6.93 -4.82 2.39
-6.83 -4.96 2.39
-6.73 -5.10 2.39
-6.65 -5.25 2.40
-6.52 -5.37 2.39
-6.46 -5.54 2.41
-6.47 -5.77 2.45
-6.46 -6.00 2.49
-6.34 -6.13 2.49
-6.22 -6.26 2.49
-6.09 -6.38 2.49
-5.96 -6.51 2.49
-5.83 -6.63 2.49
-5.70 -6.74 2.49
-5.57 -6.86 2.49
-5.43 -6.97 2.49
-5.29 -7.08 2.49
-5.15 -7.18 2.49
-5.00 -7.29 2.49
-4.86 -7.39 2.49
-4.71 -7.49 2.49
-4.56 -7.58 2.49
-4.40 -7.67 2.49
-4.25 -7.76 2.49
-4.09 -7.85 2.49
-3.94 -7.93 2.49
-3.78 -8.01 2.49
-3.62 -8.08 2.49
-3.46 -8.15 2.49
-3.29 -8.22 2.49
-3.13 -8.29 2.49
-2.96 -8.35 2.49
-2.79 -8.41 2.49
-2.62 -8.47 2.49
-2.45 -8.52 2.49
-2.28 -8.57 2.49
-2.11 -8.61 2.49
-1.94 -8.66 2.49
-1.76 -8.70 2.49
-1.59 -8.73 2.49
-1.41 -8.76 2.49
-1.24 -8.79 2.49
-1.06 -8.81 2.49
-0.88 -8.84 2.49
-0.71 -8.85 2.49
-0.53 -8.87 2.49
-0.35 -8.88 2.49
-0.17 -8.88 2.49
0.00 -8.17 2.49
0.17 -8.17 2.49
0.33 -8.17 2.49
0.50 -8.16 2.49
0.66 -8.15 2.49
0.82 -8.14 2.49
0.99 -8.12 2.49
1.15 -8.10 2.49
1.31 -8.08 2.49
1.46 -7.98 2.47
1.57 -7.69 2.39
1.72 -7.65 2.39
1.87 -7.62 2.39
2.03 -7.58 2.39
2.18 -7.54 2.39
2.33 -7.49 2.39
2.48 -7.45 2.39
2.63 -7.40 2.39
2.78 -7.34 2.39
2.92 -7.28 2.39
3.07 -7.23 2.39
3.21 -7.16 2.39
3.36 -7.10 2.39
3.50 -7.03 2.39
3.64 -6.96 2.39
3.78 -6.88 2.39
3.92 -6.81 2.39
4.05 -6.73 2.39
4.19 -6.64 2.39
4.32 -6.56 2.39
4.45 -6.47 2.39
4.58 -6.38 2.39
4.70 -6.29 2.39
2.06 -2.64 1.02
2.11 -2.60 1.02
5.07 -5.99 2.39
5.19 -5.89 2.39
5.31 -5.78 2.39
5.43 -5.68 2.39
5.54 -5.57 2.39
5.65 -5.46 2.39
5.76 -5.35 2.39
5.87 -5.23 2.39
5.97 -5.11 2.39
6.07 -4.99 2.39
6.17 -4.87 2.39
4.94 -3.74 1.89
5.04 -3.65 1.89
5.14 -3.57 1.91
5.15 -3.43 1.89
5.22 -3.33 1.89
6.71 -4.09 2.39
6.79 -3.95 2.39
6.87 -3.82 2.39
6.94 -3.68 2.39
7.01 -3.54 2.39
7.08 -3.40 2.39
7.15 -3.25 2.39
7.21 -3.11 2.39
7.27 -2.96 2.39
7.33 -2.82 2.39
7.38 -2.67 2.39
7.43 -2.52 2.39
7.48 -2.37 2.39
7.53 -2.22 2.39
7.57 -2.07 2.39
7.61 -1.91 2.39
7.55 -1.74 2.37
7.64 -1.60 2.38
7.71 -1.45 2.39
7.73 -1.30 2.39
7.76 -1.14 2.39
7.78 -0.99 2.39
7.79 -0.83 2.39
7.81 -0.67 2.39
7.82 -0.52 2.39
7.83 -0.36 2.39
7.83 -0.20 2.39
7.83 -0.04 2.39
7.83 0.11 2.39
7.82 0.27 2.39
7.82 0.43 2.39
7.81 0.58 2.39
7.79 0.74 2.39
7.77 0.90 2.39
7.75 1.05 2.39
7.73 1.21 2.39
7.70 1.36 2.39
7.67 1.51 2.39
7.64 1.67 2.39
7.60 1.82 2.39
7.56 1.97 2.39
7.52 2.12 2.39
7.47 2.27 2.39
7.42 2.42 2.39
7.37 2.57 2.39
7.32 2.72 2.39
7.26 2.86 2.39
7.20 3.01 2.39
7.14 3.15 2.39
7.07 3.29 2.39
7.00 3.43 2.39
6.93 3.57 2.39
6.86 3.71 2.39
6.78 3.85 2.39
6.70 3.98 2.39
6.62 4.11 2.39
6.53 4.24 2.39
6.44 4.37 2.39
6.35 4.50 2.39
6.26 4.63 2.39
6.16 4.75 2.39
6.06 4.87 2.39
5.96 4.99 2.39
5.86 5.11 2.39
5.75 5.22 2.39
5.65 5.33 2.39
5.54 5.45 2.39
5.43 5.55 2.39
5.31 5.66 2.39
5.20 5.77 2.39
5.08 5.87 2.39
4.96 5.97 2.39
4.84 6.06 2.39
4.71 6.16 2.39
4.59 6.25 2.39
4.46 6.34 2.39
4.33 6.43 2.39
4.20 6.51 2.39
4.07 6.59 2.39
3.93 6.67 2.39
3.80 6.75 2.39
3.66 6.82 2.39
3.52 6.89 2.39
3.38 6.96 2.39
3.24 7.03 2.39
3.10 7.09 2.39
2.96 7.15 2.39
2.81 7.21 2.39
2.67 7.26 2.39
2.52 7.31 2.39
2.37 7.36 2.39
2.32 7.72 2.49
2.16 7.77 2.49
2.01 7.81 2.49
1.85 7.84 2.49
1.69 7.88 2.49
1.53 7.91 2.49
1.37 7.94 2.49
1.21 7.96 2.49
1.05 7.98 2.49
0.89 8.00 2.49
0.73 8.02 2.49
0.57 8.03 2.49
0.41 8.04 2.49
0.25 8.04 2.49
0.09 8.05 2.49
-0.08 8.05 2.49
-0.24 8.04 2.49
-0.40 8.03 2.49
-0.56 8.02 2.49
-0.72 8.01 2.49
-0.88 7.99 2.49
-1.04 7.97 2.49
-1.20 7.95 2.49
-1.36 7.92 2.49
-1.52 7.89 2.49
-1.68 7.86 2.49
-1.84 7.82 2.49
