ply
format ascii 1.0
element vertex 2855
property float32 x
property float32 y
property float32 z
end_header
-12.82 -2.94 0.98
-12.80 -3.21 0.99
-12.78 -3.48 0.99
-12.77 -3.75 0.99
-12.75 -4.03 1.00
-12.73 -4.30 1.01
-12.73 -4.59 1.01
-12.95 -4.97 1.04
-13.24 -5.38 1.07
-13.52 -5.82 1.11
-13.68 -6.21 1.13
-13.83 -6.62 1.15
-13.98 -7.04 1.18
-29.27 -15.49 2.49
-28.93 -16.06 2.49
-28.59 -16.63 2.49
-28.23 -17.19 2.49
-27.86 -17.74 2.49
-27.49 -18.28 2.49
-27.10 -18.82 2.49
-26.70 -19.35 2.49
-26.29 -19.87 2.49
-25.87 -20.38 2.49
-25.44 -20.89 2.49
-25.01 -21.38 2.49
-24.56 -21.87 2.49
-23.90 -22.16 2.47
-22.91 -22.12 2.42
-22.21 -22.31 2.39
-21.75 -22.75 2.39
-21.28 -23.17 2.39
-20.80 -23.58 2.39
-20.31 -23.98 2.39
-19.82 -24.38 2.39
-19.32 -24.76 2.39
-18.81 -25.13 2.39
-18.30 -25.50 2.39
-15.93 -23.18 2.14
-13.42 -22.28 1.98
-13.41 -25.65 2.21
-12.74 -25.60 2.18
-12.09 -25.57 2.16
-11.46 -25.55 2.14
-10.85 -25.55 2.12
-8.58 -21.40 1.76
-9.64 -25.50 2.08
-9.05 -25.48 2.07
-8.47 -25.45 2.05
-7.89 -25.42 2.03
-7.33 -25.39 2.02
-6.77 -25.36 2.01
-6.22 -25.34 1.99
-5.68 -25.31 1.98
-5.14 -25.28 1.97
-4.61 -25.26 1.96
-4.09 -25.23 1.95
-3.57 -25.21 1.95
-3.05 -25.18 1.94
-2.53 -25.16 1.93
-2.02 -25.13 1.93
-1.51 -25.11 1.92
-1.01 -25.08 1.92
-0.50 -25.06 1.91
0.00 -24.13 2.39
0.49 -24.13 2.39
0.84 -20.95 2.08
1.26 -20.92 2.08
1.01 -12.52 1.24
1.24 -12.27 1.22
1.46 -12.03 1.20
1.67 -11.79 1.18
1.88 -11.57 1.16
2.07 -11.35 1.14
2.27 -11.16 1.13
2.57 -11.42 1.16
2.88 -11.70 1.19
3.21 -12.00 1.23
3.56 -12.32 1.27
3.93 -12.65 1.31
4.52 -13.58 1.41
4.76 -13.41 1.40
5.23 -13.82 1.46
9.03 -22.49 2.39
9.48 -22.32 2.39
9.93 -22.13 2.39
10.37 -21.93 2.39
10.82 -21.73 2.39
11.26 -21.52 2.39
11.69 -21.30 2.39
2.62 -4.56 0.52
12.55 -20.83 2.39
12.97 -20.58 2.39
13.39 -20.33 2.39
13.95 -20.29 2.42
8.77 -12.22 1.48
9.13 -12.20 1.49
15.65 -20.05 2.49
16.05 -19.74 2.49
16.46 -19.43 2.49
16.85 -19.10 2.49
17.24 -18.77 2.49
17.62 -18.43 2.49
18.00 -18.08 2.49
18.37 -17.72 2.49
18.73 -17.36 2.49
19.09 -16.99 2.49
19.43 -16.61 2.49
19.77 -16.23 2.49
20.11 -15.84 2.49
20.43 -15.44 2.49
20.75 -15.04 2.49
21.06 -14.63 2.49
21.36 -14.21 2.49
21.66 -13.78 2.49
21.94 -13.36 2.49
22.22 -12.92 2.49
22.49 -12.48 2.49
21.81 -11.53 2.39
22.05 -11.10 2.39
22.28 -10.66 2.39
22.50 -10.22 2.39
22.72 -9.77 2.39
22.93 -9.32 2.39
23.12 -8.86 2.39
23.31 -8.40 2.39
23.49 -7.94 2.39
21.75 -6.87 2.20
20.72 -6.09 2.08
19.64 -5.34 1.96
19.65 -4.93 1.95
20.32 -4.66 2.00
20.37 -4.25 2.00
20.01 -3.75 1.95
19.44 -3.24 1.89
19.46 -2.85 1.88
19.25 -2.42 1.86
18.66 -1.97 1.80
18.01 -1.53 1.73
17.41 -1.13 1.67
16.85 -0.76 1.61
16.57 -0.41 1.58
16.33 -0.08 1.56
16.09 0.25 1.53
15.86 0.56 1.51
15.64 0.87 1.49
15.42 1.17 1.47
15.29 1.47 1.46
15.19 1.77 1.45
15.08 2.06 1.45
14.98 2.35 1.44
14.88 2.65 1.43
14.79 2.94 1.43
14.68 3.22 1.42
14.68 3.53 1.43
14.68 3.85 1.44
14.68 4.16 1.44
14.67 4.48 1.45
14.67 4.80 1.46
14.67 5.13 1.47
14.58 5.43 1.47
14.57 5.76 1.48
14.55 6.10 1.49
14.54 6.44 1.50
14.53 6.78 1.51
14.46 7.11 1.52
14.44 7.46 1.53
14.42 7.82 1.54
14.41 8.20 1.56
14.40 8.57 1.57
14.38 8.96 1.59
14.30 9.32 1.60
14.30 9.73 1.62
14.29 10.15 1.64
14.29 10.58 1.67
14.23 10.99 1.68
14.22 11.45 1.71
14.22 11.92 1.74
14.16 12.37 1.76
14.14 12.85 1.79
14.11 13.36 1.82
14.09 13.88 1.85
14.01 14.37 1.87
13.98 14.93 1.91
13.95 15.51 1.95
13.87 16.06 1.98
13.84 16.69 2.02
13.75 17.27 2.06
13.70 17.94 2.10
13.60 18.57 2.14
13.69 19.49 2.22
14.35 21.33 2.39
13.92 21.62 2.39
13.49 21.90 2.39
13.05 22.17 2.39
12.60 22.44 2.39
12.15 22.69 2.39
11.70 22.93 2.39
11.24 23.17 2.39
10.77 23.39 2.39
10.30 23.61 2.39
9.83 23.81 2.39
9.35 24.01 2.39
8.86 24.19 2.39
8.38 24.37 2.39
7.89 24.53 2.39
7.40 24.69 2.39
6.90 24.83 2.39
6.40 24.97 2.39
5.90 25.09 2.39
5.39 25.20 2.39
4.89 25.31 2.39
4.37 25.37 2.39
3.86 25.45 2.39
3.35 25.52 2.39
2.84 25.58 2.39
2.32 25.63 2.39
1.81 25.67 2.39
1.29 25.70 2.39
0.78 25.72 2.39
0.27 26.83 2.49
-0.27 26.83 2.49
-0.81 26.81 2.49
-1.34 26.79 2.49
-1.88 26.75 2.49
-2.42 26.70 2.49
-2.95 26.64 2.49
-3.48 26.57 2.49
-4.02 26.49 2.49
-4.55 26.40 2.49
-5.07 26.30 2.49
-5.60 26.18 2.49
-6.12 26.06 2.49
-6.64 25.92 2.49
-7.16 25.78 2.49
-7.38 24.63 2.40
-7.84 24.40 2.39
-8.33 24.23 2.39
-8.81 24.05 2.39
-9.29 23.86 2.39
-9.76 23.66 2.39
-10.23 23.45 2.39
-10.69 23.23 2.39
-10.86 22.39 2.33
-10.96 21.50 2.26
-11.07 20.66 2.19
-11.15 19.86 2.13
-11.23 19.09 2.07
-11.50 18.68 2.06
-11.77 18.28 2.04
-11.98 17.82 2.01
-12.14 17.29 1.98
-12.21 16.68 1.94
-12.29 16.09 1.90
-12.33 15.49 1.86
-12.36 14.90 1.82
-12.39 14.34 1.78
-12.41 13.80 1.75
-12.42 13.26 1.71
-12.42 12.74 1.68
-12.43 12.25 1.65
-12.46 11.80 1.62
-12.50 11.37 1.59
-12.54 10.95 1.57
-12.57 10.55 1.55
-12.61 10.15 1.53
-12.64 9.77 1.51
-12.70 9.41 1.50
-12.76 9.06 1.48
-12.84 8.74 1.47
-12.93 8.42 1.46
-13.02 8.11 1.46
-13.11 7.81 1.45
-13.11 7.46 1.43
-13.15 7.13 1.42
-13.23 6.84 1.42
-13.30 6.54 1.41
-13.37 6.25 1.41
-13.45 5.95 1.40
-13.50 5.66 1.40
-13.52 5.35 1.39
-13.53 5.04 1.38
-13.54 4.74 1.37
-13.55 4.44 1.36
-13.56 4.14 1.36
-13.57 3.85 1.35
-13.55 3.55 1.34
-13.53 3.26 1.33
-13.50 2.96 1.33
-13.48 2.68 1.32
-13.45 2.39 1.31
-13.43 2.11 1.31
-13.40 1.83 1.30
-13.38 1.56 1.30
-13.35 1.28 1.29
-13.32 1.01 1.29
-13.28 0.74 1.28
-13.24 0.47 1.28
-13.21 0.20 1.28
-13.17 -0.06 1.27
-13.13 -0.33 1.27
-13.07 -0.59 1.27
-12.99 -0.84 1.26
-12.91 -1.10 1.26
-12.82 -1.35 1.25
-12.74 -1.60 1.25
-12.66 -1.85 1.24
-12.57 -2.10 1.24
-12.49 -2.34 1.24
-12.48 -2.60 1.24
-12.48 -2.86 1.25
-12.47 -3.13 1.25
-12.45 -3.39 1.26
-12.43 -3.65 1.26
-12.41 -3.92 1.27
-12.39 -4.19 1.28
-12.38 -4.46 1.28
-12.38 -4.75 1.30
-12.42 -5.05 1.31
-12.76 -5.49 1.36
-13.09 -5.94 1.41
-13.29 -6.36 1.44
-13.43 -6.76 1.47
-13.58 -7.18 1.51
-13.73 -7.62 1.54
-21.07 -12.25 2.39
-20.81 -12.67 2.39
-20.54 -13.07 2.39
-20.26 -13.48 2.39
-19.98 -13.88 2.39
-20.54 -14.88 2.49
-20.23 -15.29 2.49
-19.91 -15.68 2.49
-19.58 -16.07 2.49
-19.25 -16.46 2.49
-18.90 -16.83 2.49
-18.55 -17.20 2.49
-18.20 -17.56 2.49
-17.84 -17.92 2.49
-17.47 -18.27 2.49
-17.09 -18.61 2.49
-16.71 -18.94 2.49
-16.32 -19.27 2.49
-15.92 -19.59 2.49
-15.52 -19.90 2.49
-15.12 -20.20 2.49
-14.70 -20.49 2.49
-14.29 -20.78 2.49
-13.86 -21.06 2.49
-13.43 -21.32 2.49
-13.00 -21.59 2.49
-12.42 -21.59 2.46
-11.83 -21.56 2.43
-11.26 -21.53 2.41
-10.75 -21.61 2.39
-10.32 -21.82 2.39
-9.88 -22.02 2.39
-9.43 -22.21 2.39
-8.98 -22.39 2.39
-8.53 -22.56 2.39
-8.07 -22.73 2.39
-7.61 -22.88 2.39
-7.15 -23.03 2.39
-6.69 -23.17 2.39
-5.72 -21.41 2.20
-5.75 -23.42 2.39
-5.28 -23.53 2.39
-4.81 -23.63 2.39
-3.89 -21.32 2.15
-3.86 -23.80 2.39
-3.38 -23.88 2.39
-2.90 -23.94 2.39
-2.42 -23.99 2.39
-1.93 -24.04 2.39
-1.45 -24.08 2.39
-0.97 -24.10 2.39
-0.48 -24.12 2.39
0.00 -20.46 2.49
0.41 -20.46 2.49
0.82 -20.45 2.49
1.23 -20.43 2.49
0.99 -12.26 1.50
1.21 -12.02 1.47
1.43 -11.78 1.45
1.64 -11.55 1.42
1.84 -11.33 1.40
2.03 -11.12 1.38
2.27 -11.13 1.38
2.56 -11.39 1.42
2.87 -11.67 1.46
3.20 -11.96 1.51
3.55 -12.27 1.55
3.92 -12.61 1.60
4.32 -12.96 1.66
4.74 -13.34 1.72
5.20 -13.76 1.79
7.65 -19.06 2.49
8.03 -18.91 2.49
4.98 -11.10 1.48
5.21 -11.01 1.48
9.16 -18.41 2.49
9.53 -18.23 2.49
9.90 -18.04 2.49
2.62 -4.56 0.64
10.63 -17.64 2.49
7.77 -12.32 1.76
11.33 -17.21 2.49
11.68 -16.98 2.49
12.02 -16.75 2.49
12.36 -16.51 2.49
12.70 -16.27 2.49
13.03 -16.02 2.49
13.35 -15.76 2.49
13.67 -15.49 2.49
11.12 -12.10 1.98
14.29 -14.94 2.49
14.60 -14.66 2.49
14.89 -14.37 2.49
15.19 -14.08 2.49
15.47 -13.77 2.49
15.75 -13.47 2.49
16.03 -13.15 2.49
16.30 -12.84 2.49
15.87 -11.99 2.39
16.12 -11.68 2.39
16.36 -11.36 2.39
16.59 -11.03 2.39
16.82 -10.70 2.39
17.04 -10.37 2.39
17.25 -10.03 2.39
17.46 -9.68 2.39
17.66 -9.34 2.39
17.85 -8.99 2.39
18.04 -8.63 2.39
18.21 -8.27 2.39
18.41 -7.92 2.39
18.58 -7.55 2.39
18.73 -7.18 2.39
18.88 -6.81 2.39
19.03 -6.43 2.39
19.16 -6.05 2.39
19.29 -5.67 2.39
19.41 -5.28 2.39
19.52 -4.89 2.39
19.63 -4.50 2.39
19.72 -4.11 2.39
19.81 -3.71 2.39
19.89 -3.32 2.39
19.97 -2.92 2.39
19.25 -2.42 2.30
18.66 -1.97 2.22
18.01 -1.53 2.14
17.41 -1.13 2.06
16.84 -0.76 1.99
16.57 -0.41 1.96
16.33 -0.08 1.93
16.09 0.25 1.90
15.86 0.56 1.87
15.64 0.87 1.85
15.42 1.17 1.82
15.29 1.47 1.81
15.19 1.77 1.80
15.08 2.06 1.79
14.98 2.36 1.79
14.88 2.65 1.78
14.78 2.94 1.77
14.68 3.22 1.77
14.68 3.53 1.77
14.68 3.85 1.78
14.68 4.16 1.79
14.67 4.48 1.80
14.67 4.80 1.81
14.67 5.13 1.82
14.58 5.43 1.82
14.57 5.76 1.83
14.55 6.10 1.85
14.54 6.44 1.86
14.53 6.78 1.87
14.46 7.11 1.88
14.44 7.46 1.90
14.42 7.83 1.92
14.41 8.20 1.93
14.40 8.58 1.95
14.38 8.96 1.98
14.30 9.32 1.99
14.30 9.73 2.02
14.29 10.15 2.04
14.29 10.58 2.07
14.23 10.99 2.09
14.22 11.45 2.12
14.22 11.92 2.16
14.16 12.37 2.19
14.14 12.86 2.22
14.11 13.36 2.26
14.09 13.88 2.30
14.01 14.37 2.33
13.98 14.93 2.37
13.79 15.33 2.39
13.48 15.61 2.39
13.17 15.88 2.39
12.85 16.15 2.39
12.53 16.41 2.39
12.20 16.66 2.39
11.87 16.90 2.39
11.53 17.14 2.39
11.18 17.37 2.39
10.84 17.60 2.39
10.48 17.81 2.39
10.12 18.02 2.39
9.76 18.23 2.39
9.40 18.42 2.39
9.03 18.61 2.39
8.65 18.79 2.39
8.27 18.96 2.39
7.89 19.13 2.39
7.51 19.28 2.39
7.12 19.43 2.39
6.73 19.57 2.39
6.34 19.70 2.39
5.94 19.83 2.39
5.54 19.94 2.39
5.14 20.05 2.39
4.73 20.12 2.39
4.32 20.21 2.39
3.92 20.30 2.39
3.51 20.37 2.39
3.10 20.44 2.39
2.69 20.50 2.39
2.28 20.54 2.39
1.87 20.58 2.39
1.45 20.62 2.39
1.04 20.64 2.39
0.65 21.55 2.49
0.22 21.55 2.49
-0.21 21.55 2.49
-0.65 21.54 2.49
-1.08 21.52 2.49
-1.51 21.49 2.49
-1.94 21.45 2.49
-2.37 21.40 2.49
-2.80 21.35 2.49
-3.23 21.29 2.49
-3.65 21.21 2.49
-4.08 21.13 2.49
-4.50 21.04 2.49
-4.92 20.94 2.49
-5.34 20.83 2.49
-5.75 20.72 2.49
-6.17 20.59 2.49
-6.58 20.46 2.49
-6.98 20.32 2.49
-7.12 19.44 2.40
-7.47 19.18 2.39
-7.85 19.02 2.39
-8.22 18.85 2.39
-8.60 18.68 2.39
-8.97 18.50 2.39
-9.33 18.31 2.39
-9.70 18.11 2.39
-10.05 17.91 2.39
-10.41 17.69 2.39
-10.65 17.31 2.37
-10.76 16.72 2.32
-11.00 16.36 2.30
-11.23 16.01 2.28
-11.38 15.54 2.25
-11.55 15.12 2.22
-11.72 14.72 2.20
-11.88 14.33 2.17
-11.94 13.83 2.14
-11.96 13.30 2.09
-11.98 12.79 2.05
-11.99 12.30 2.01
-12.02 11.84 1.98
-12.06 11.42 1.95
-12.11 11.01 1.92
-12.15 10.62 1.89
-12.19 10.23 1.87
-12.23 9.85 1.84
-12.29 9.50 1.82
-12.36 9.15 1.81
-12.41 8.82 1.79
-12.49 8.50 1.78
-12.58 8.19 1.77
-12.67 7.89 1.76
-12.69 7.56 1.74
-12.70 7.23 1.72
-12.71 6.90 1.70
-12.79 6.61 1.70
-12.86 6.32 1.69
-12.93 6.04 1.68
-13.00 5.76 1.68
-13.00 5.45 1.67
-13.00 5.14 1.65
-13.03 4.85 1.64
-13.05 4.57 1.64
-13.07 4.28 1.63
-13.10 4.00 1.62
-13.12 3.72 1.62
-13.08 3.43 1.60
-13.05 3.14 1.59
-13.03 2.86 1.58
-13.00 2.58 1.57
-12.97 2.31 1.57
-12.94 2.03 1.56
-12.91 1.76 1.55
-12.90 1.50 1.55
-12.90 1.24 1.54
-12.87 0.98 1.54
-12.84 0.71 1.53
-12.80 0.45 1.53
-12.77 0.20 1.52
-12.73 -0.06 1.52
-12.69 -0.31 1.52
-12.66 -0.57 1.52
-12.63 -0.82 1.51
-12.57 -1.07 1.51
-12.49 -1.32 1.50
-12.41 -1.56 1.50
-12.33 -1.80 1.49
-12.25 -2.04 1.49
-12.17 -2.28 1.49
-12.15 -2.53 1.49
-12.15 -2.79 1.50
-12.14 -3.04 1.50
-12.14 -3.30 1.51
-12.12 -3.56 1.52
-12.09 -3.82 1.53
-12.07 -4.08 1.53
-12.05 -4.34 1.54
-12.05 -4.62 1.55
-12.05 -4.90 1.57
-12.05 -5.18 1.58
-12.23 -5.56 1.62
-12.57 -6.01 1.68
-12.87 -6.48 1.74
-13.05 -6.90 1.78
-13.19 -7.32 1.82
-13.32 -7.75 1.86
-14.39 -8.76 2.04
-16.67 -10.61 2.39
-16.45 -10.94 2.39
-16.22 -11.26 2.39
-15.98 -11.58 2.39
-15.74 -11.90 2.39
-15.49 -12.21 2.39
-15.24 -12.51 2.39
-14.98 -12.81 2.39
-14.72 -13.10 2.39
-14.45 -13.39 2.39
-14.78 -14.27 2.49
-14.49 -14.56 2.49
-14.19 -14.84 2.49
-13.88 -15.12 2.49
-13.57 -15.39 2.49
-13.26 -15.65 2.49
-12.94 -15.91 2.49
-12.61 -16.17 2.49
-12.28 -16.41 2.49
-11.95 -16.65 2.49
-11.61 -16.89 2.49
-11.27 -17.11 2.49
-10.92 -17.33 2.49
-10.57 -17.54 2.49
-10.21 -17.75 2.49
-9.85 -17.95 2.49
-9.49 -18.14 2.49
-9.12 -18.32 2.49
-8.75 -18.50 2.49
-8.37 -18.67 2.49
-8.00 -18.83 2.49
-7.62 -18.99 2.49
-7.23 -19.14 2.49
-6.85 -19.27 2.49
-6.46 -19.41 2.49
-6.07 -19.53 2.49
-5.67 -19.65 2.49
-5.28 -19.76 2.49
-4.88 -19.86 2.49
-4.48 -19.95 2.49
-4.08 -20.04 2.49
-3.67 -20.12 2.49
-3.27 -20.19 2.49
-2.86 -20.25 2.49
-2.46 -20.30 2.49
-2.05 -20.35 2.49
-1.64 -20.39 2.49
-1.23 -20.42 2.49
-0.82 -20.44 2.49
-0.41 -20.45 2.49
0.00 -17.22 2.49
0.35 -17.22 2.49
0.69 -17.21 2.49
1.04 -17.20 2.49
0.98 -12.10 1.76
1.21 -12.01 1.75
1.43 -11.78 1.72
1.64 -11.55 1.69
1.84 -11.33 1.66
2.03 -11.11 1.63
2.26 -11.08 1.64
2.55 -11.34 1.68
2.86 -11.62 1.73
3.18 -11.91 1.78
3.53 -12.22 1.84
3.90 -12.55 1.90
4.24 -12.74 1.94
4.72 -13.28 2.04
5.18 -13.69 2.11
6.43 -16.03 2.49
6.76 -15.90 2.49
7.08 -15.77 2.49
5.21 -11.00 1.76
7.71 -15.48 2.49
8.02 -15.33 2.49
8.33 -15.17 2.49
2.62 -4.56 0.76
8.94 -14.83 2.49
7.77 -12.32 2.10
9.53 -14.47 2.49
9.82 -14.28 2.49
10.11 -14.08 2.49
6.44 -8.60 1.54
6.77 -8.68 1.58
7.05 -8.67 1.61
7.27 -8.58 1.61
7.42 -8.41 1.61
7.51 -8.18 1.59
7.49 -7.83 1.55
9.27 -9.31 1.88
9.46 -9.12 1.88
12.23 -11.34 2.39
12.46 -11.09 2.39
12.69 -10.84 2.39
12.91 -10.59 2.39
13.12 -10.33 2.39
13.33 -10.07 2.39
13.54 -9.81 2.39
13.74 -9.54 2.39
13.93 -9.26 2.39
14.12 -8.98 2.39
14.30 -8.70 2.39
14.48 -8.42 2.39
14.67 -8.14 2.39
14.84 -7.85 2.39
15.00 -7.55 2.39
15.16 -7.25 2.39
15.31 -6.95 2.39
15.45 -6.64 2.39
15.59 -6.33 2.39
15.72 -6.02 2.39
15.84 -5.71 2.39
15.96 -5.39 2.39
16.07 -5.07 2.39
16.18 -4.75 2.39
16.28 -4.43 2.39
16.37 -4.10 2.39
16.46 -3.77 2.39
16.54 -3.44 2.39
16.61 -3.11 2.39
16.68 -2.78 2.39
16.74 -2.45 2.39
16.79 -2.11 2.39
16.84 -1.77 2.39
16.88 -1.44 2.39
16.91 -1.10 2.39
16.84 -0.75 2.38
16.57 -0.41 2.34
16.33 -0.07 2.30
16.09 0.25 2.27
15.86 0.56 2.24
15.64 0.87 2.21
15.42 1.17 2.18
15.29 1.47 2.16
15.19 1.77 2.15
15.08 2.06 2.14
14.98 2.36 2.13
14.88 2.65 2.12
14.78 2.94 2.12
14.68 3.23 2.11
14.68 3.53 2.12
14.68 3.85 2.13
14.68 4.16 2.14
14.67 4.48 2.15
14.67 4.81 2.16
14.67 5.13 2.18
14.58 5.43 2.18
14.57 5.76 2.19
14.55 6.10 2.21
14.54 6.44 2.22
14.53 6.78 2.24
14.46 7.11 2.25
14.44 7.46 2.27
14.42 7.83 2.29
14.41 8.20 2.31
14.40 8.58 2.34
14.38 8.96 2.36
14.30 9.32 2.38
14.19 9.66 2.39
14.00 9.94 2.39
13.80 10.23 2.39
13.60 10.50 2.39
13.39 10.78 2.39
13.17 11.05 2.39
12.95 11.31 2.39
12.73 11.57 2.39
12.50 11.83 2.39
12.26 12.08 2.39
12.02 12.33 2.39
11.77 12.57 2.39
11.52 12.81 2.39
11.26 13.04 2.39
11.00 13.27 2.39
10.73 13.49 2.39
10.46 13.70 2.39
10.19 13.91 2.39
9.91 14.12 2.39
9.63 14.31 2.39
9.34 14.51 2.39
9.05 14.69 2.39
8.75 14.87 2.39
8.45 15.05 2.39
8.15 15.22 2.39
7.84 15.38 2.39
7.54 15.54 2.39
7.22 15.69 2.39
6.91 15.83 2.39
6.59 15.97 2.39
6.27 16.10 2.39
5.94 16.22 2.39
5.62 16.34 2.39
5.29 16.45 2.39
4.95 16.53 2.39
4.62 16.63 2.39
4.28 16.72 2.39
3.95 16.80 2.39
3.61 16.88 2.39
3.27 16.94 2.39
2.93 17.01 2.39
2.59 17.06 2.39
2.25 17.11 2.39
1.90 17.15 2.39
1.56 17.18 2.39
1.21 17.21 2.39
0.90 17.97 2.49
0.54 17.99 2.49
0.18 17.99 2.49
-0.18 17.99 2.49
-0.54 17.98 2.49
-0.90 17.97 2.49
-1.26 17.94 2.49
-1.62 17.91 2.49
-1.98 17.87 2.49
-2.34 17.83 2.49
-2.69 17.77 2.49
-3.05 17.71 2.49
-3.40 17.65 2.49
-3.76 17.57 2.49
-4.11 17.49 2.49
-4.46 17.40 2.49
-4.80 17.30 2.49
-5.15 17.20 2.49
-5.49 17.09 2.49
-5.83 16.97 2.49
-6.17 16.85 2.49
-6.50 16.72 2.49
-6.84 16.58 2.49
-6.94 15.92 2.42
-7.18 15.61 2.39
-7.49 15.46 2.39
-7.80 15.30 2.39
-8.10 15.13 2.39
-8.40 14.96 2.39
-8.70 14.79 2.39
-8.99 14.61 2.39
-9.28 14.42 2.39
-9.56 14.22 2.39
-9.84 14.02 2.39
-10.12 13.82 2.39
-10.39 13.61 2.39
-10.65 13.39 2.39
-10.83 13.07 2.37
-10.95 12.68 2.34
-11.05 12.29 2.31
-11.15 11.91 2.28
-11.29 11.59 2.26
-11.44 11.28 2.25
-11.59 10.97 2.23
-11.73 10.67 2.22
-11.79 10.30 2.19
-11.83 9.93 2.17
-11.90 9.58 2.14
-11.96 9.24 2.12
-12.02 8.91 2.10
-12.09 8.59 2.08
-12.15 8.27 2.06
-12.24 7.98 2.05
-12.29 7.66 2.04
-12.30 7.33 2.01
-12.31 7.01 1.99
-12.32 6.69 1.97
-12.37 6.40 1.96
-12.44 6.12 1.95
-12.52 5.85 1.95
-12.53 5.55 1.93
-12.53 5.25 1.92
-12.53 4.96 1.90
-12.54 4.67 1.89
-12.57 4.40 1.88
-12.59 4.13 1.87
-12.62 3.85 1.87
-12.61 3.58 1.85
-12.58 3.30 1.84
-12.55 3.02 1.83
-12.52 2.75 1.82
-12.50 2.48 1.81
-12.47 2.22 1.80
-12.45 1.96 1.79
-12.42 1.70 1.78
-12.43 1.45 1.78
-12.43 1.19 1.77
-12.44 0.94 1.77
-12.42 0.69 1.77
-12.38 0.44 1.76
-12.35 0.19 1.76
-12.32 -0.06 1.75
-12.28 -0.30 1.75
-12.26 -0.55 1.75
-12.23 -0.79 1.75
-12.20 -1.04 1.75
-12.17 -1.28 1.74
-12.10 -1.52 1.74
-12.02 -1.76 1.73
-11.95 -1.99 1.73
-11.87 -2.22 1.73
-11.83 -2.46 1.73
-11.83 -2.71 1.74
-11.82 -2.96 1.74
-11.81 -3.21 1.75
-11.81 -3.47 1.76
-11.79 -3.72 1.77
-11.77 -3.98 1.78
-11.74 -4.23 1.79
-11.73 -4.50 1.80
-11.73 -4.77 1.82
-11.73 -5.05 1.83
-11.73 -5.33 1.85
-11.73 -5.61 1.87
-12.03 -6.06 1.94
-12.26 -6.49 1.99
-12.23 -6.78 2.01
-12.19 -7.09 2.03
-12.93 -7.87 2.18
-13.40 -8.53 2.29
-13.39 -8.90 2.31
-13.37 -9.28 2.34
-13.35 -9.67 2.37
-13.24 -10.00 2.39
-13.03 -10.26 2.39
-12.82 -10.52 2.39
-12.60 -10.77 2.39
-12.38 -11.02 2.39
-12.15 -11.26 2.39
-11.92 -11.50 2.39
-11.68 -11.74 2.39
-11.44 -11.97 2.39
-11.20 -12.19 2.39
-10.95 -12.41 2.39
-10.70 -12.63 2.39
-10.44 -12.84 2.39
-10.18 -13.04 2.39
-10.34 -13.81 2.49
-10.06 -14.01 2.49
-9.77 -14.21 2.49
-9.48 -14.40 2.49
-9.19 -14.58 2.49
-8.89 -14.76 2.49
-8.59 -14.94 2.49
-8.29 -15.10 2.49
-7.98 -15.27 2.49
-7.68 -15.42 2.49
-7.36 -15.57 2.49
-7.05 -15.71 2.49
-6.73 -15.85 2.49
-6.41 -15.98 2.49
-6.09 -16.11 2.49
-5.76 -16.22 2.49
-5.44 -16.34 2.49
-5.11 -16.44 2.49
-4.78 -16.54 2.49
-4.44 -16.63 2.49
-4.11 -16.72 2.49
-3.77 -16.80 2.49
-3.43 -16.87 2.49
-3.09 -16.93 2.49
-2.75 -16.99 2.49
-2.41 -17.04 2.49
-2.07 -17.09 2.49
-1.72 -17.13 2.49
-1.38 -17.16 2.49
-1.04 -17.19 2.49
-0.69 -17.20 2.49
-0.34 -17.22 2.49
0.00 -14.85 2.49
0.30 -14.85 2.49
0.60 -14.84 2.49
0.72 -11.94 2.01
0.95 -11.81 1.99
1.20 -11.86 2.00
1.43 -11.77 1.99
1.63 -11.54 1.96
1.84 -11.32 1.92
2.00 -10.95 1.87
2.19 -10.77 1.84
2.43 -10.80 1.86
2.85 -11.57 2.00
3.17 -11.86 2.06
3.52 -12.17 2.12
3.97 -12.79 2.24
4.23 -12.71 2.24
4.99 -14.03 2.49
5.27 -13.93 2.49
5.55 -13.82 2.49
5.83 -13.71 2.49
6.10 -13.60 2.49
5.21 -11.00 2.04
6.65 -13.35 2.49
6.91 -13.21 2.49
7.18 -13.07 2.49
2.62 -4.56 0.88
7.38 -12.25 2.39
7.63 -12.11 2.39
7.87 -11.95 2.39
8.11 -11.80 2.39
8.35 -11.63 2.39
8.59 -11.47 2.39
6.24 -7.99 1.69
6.29 -7.73 1.66
6.42 -7.58 1.66
6.58 -7.46 1.66
6.79 -7.39 1.67
7.12 -7.45 1.72
10.13 -10.17 2.39
10.34 -9.97 2.39
10.54 -9.76 2.39
10.73 -9.55 2.39
10.93 -9.34 2.39
11.12 -9.12 2.39
11.30 -8.90 2.39
11.48 -8.67 2.39
11.66 -8.44 2.39
11.85 -8.22 2.39
12.01 -7.99 2.39
12.17 -7.75 2.39
12.33 -7.50 2.39
12.49 -7.26 2.39
12.63 -7.01 2.39
12.78 -6.75 2.39
12.91 -6.50 2.39
13.05 -6.24 2.39
13.17 -5.98 2.39
13.30 -5.72 2.39
13.41 -5.45 2.39
13.53 -5.18 2.39
13.63 -4.91 2.39
13.73 -4.64 2.39
13.83 -4.36 2.39
13.92 -4.09 2.39
14.00 -3.81 2.39
14.08 -3.53 2.39
14.16 -3.24 2.39
14.22 -2.96 2.39
14.29 -2.68 2.39
14.34 -2.39 2.39
14.39 -2.10 2.39
14.44 -1.81 2.39
14.48 -1.52 2.39
14.51 -1.23 2.39
14.54 -0.94 2.39
14.56 -0.65 2.39
14.57 -0.36 2.39
14.58 -0.07 2.39
14.59 0.23 2.39
14.59 0.52 2.39
14.58 0.81 2.39
14.57 1.11 2.39
14.55 1.40 2.39
14.52 1.69 2.39
14.49 1.98 2.39
14.45 2.27 2.39
14.41 2.56 2.39
14.36 2.85 2.39
14.30 3.14 2.39
14.24 3.43 2.39
14.18 3.72 2.39
14.10 4.00 2.39
14.03 4.29 2.39
13.94 4.57 2.39
13.85 4.85 2.39
13.76 5.13 2.39
13.65 5.40 2.39
13.55 5.68 2.39
13.44 5.95 2.39
13.32 6.22 2.39
13.19 6.49 2.39
13.07 6.75 2.39
12.93 7.02 2.39
12.79 7.28 2.39
12.65 7.54 2.39
12.50 7.79 2.39
12.34 8.04 2.39
12.18 8.29 2.39
12.02 8.53 2.39
11.84 8.78 2.39
11.67 9.01 2.39
11.49 9.25 2.39
11.30 9.48 2.39
11.11 9.71 2.39
10.92 9.93 2.39
10.72 10.15 2.39
10.52 10.37 2.39
10.31 10.58 2.39
10.10 10.78 2.39
9.88 10.99 2.39
9.66 11.19 2.39
9.44 11.38 2.39
9.21 11.57 2.39
8.98 11.75 2.39
8.74 11.93 2.39
8.50 12.11 2.39
8.26 12.28 2.39
8.01 12.44 2.39
7.76 12.60 2.39
7.51 12.76 2.39
7.25 12.91 2.39
6.99 13.05 2.39
6.73 13.19 2.39
6.46 13.32 2.39
6.19 13.45 2.39
5.92 13.57 2.39
5.65 13.69 2.39
5.37 13.80 2.39
5.09 13.89 2.39
4.81 13.99 2.39
4.53 14.09 2.39
4.25 14.17 2.39
3.96 14.26 2.39
3.67 14.33 2.39
3.39 14.40 2.39
3.10 14.47 2.39
2.80 14.53 2.39
2.51 14.58 2.39
2.22 14.63 2.39
1.93 14.67 2.39
1.63 14.71 2.39
1.34 14.74 2.39
1.08 15.39 2.49
0.78 15.41 2.49
0.47 15.42 2.49
0.16 15.43 2.49
-0.15 15.43 2.49
-0.46 15.42 2.49
-0.77 15.41 2.49
-1.08 15.39 2.49
-1.39 15.36 2.49
-1.70 15.33 2.49
-2.00 15.29 2.49
-2.31 15.24 2.49
-2.61 15.19 2.49
-2.92 15.13 2.49
-3.22 15.07 2.49
-3.52 15.00 2.49
-3.82 14.92 2.49
-4.12 14.84 2.49
-4.42 14.75 2.49
-4.71 14.66 2.49
-5.00 14.56 2.49
-5.29 14.45 2.49
-5.58 14.34 2.49
-5.87 14.22 2.49
-6.15 14.10 2.49
-6.43 13.97 2.49
-6.71 13.83 2.49
-6.81 13.37 2.43
-6.95 12.99 2.39
-7.21 12.84 2.39
-7.46 12.69 2.39
-7.71 12.53 2.39
-7.96 12.37 2.39
-8.21 12.21 2.39
-8.45 12.04 2.39
-8.68 11.86 2.39
-8.92 11.68 2.39
-9.15 11.50 2.39
-9.37 11.31 2.39
-9.60 11.11 2.39
-9.81 10.92 2.39
-10.03 10.71 2.39
-10.24 10.51 2.39
-10.44 10.30 2.39
-10.64 10.08 2.39
-10.95 9.96 2.41
-11.08 9.68 2.40
-11.22 9.41 2.39
-11.42 9.19 2.39
-11.61 8.97 2.40
-11.71 8.68 2.38
-11.77 8.36 2.36
-11.83 8.05 2.34
-11.90 7.76 2.32
-11.92 7.43 2.30
-11.93 7.11 2.27
-11.95 6.80 2.25
-11.96 6.49 2.23
-11.98 6.20 2.21
-12.05 5.93 2.20
-12.09 5.65 2.19
-12.09 5.36 2.17
-12.10 5.07 2.15
-12.10 4.79 2.14
-12.10 4.51 2.12
-12.12 4.24 2.11
-12.14 3.98 2.10
-12.16 3.72 2.09
-12.13 3.44 2.07
-12.11 3.18 2.06
-12.08 2.91 2.05
-12.06 2.65 2.03
-12.03 2.39 2.02
-12.01 2.14 2.01
-11.99 1.89 2.00
-11.98 1.64 1.99
-11.98 1.40 1.99
-11.99 1.15 1.99
-11.99 0.91 1.99
-11.99 0.67 1.98
-11.99 0.43 1.98
-11.96 0.19 1.98
-11.93 -0.05 1.97
-11.90 -0.29 1.97
-11.87 -0.53 1.97
-11.84 -0.77 1.97
-11.81 -1.00 1.96
-11.78 -1.24 1.96
-11.75 -1.48 1.96
-11.72 -1.71 1.96
-11.65 -1.94 1.96
-11.58 -2.17 1.95
-11.53 -2.40 1.95
-11.52 -2.64 1.96
-11.52 -2.88 1.97
-11.51 -3.13 1.98
-11.50 -3.38 1.99
-11.49 -3.62 2.00
-11.48 -3.88 2.01
-11.45 -4.13 2.03
-11.43 -4.38 2.04
-11.43 -4.64 2.05
-11.42 -4.91 2.07
-11.42 -5.18 2.09
-11.41 -5.46 2.11
-11.41 -5.74 2.13
-11.53 -6.09 2.17
-11.69 -6.49 2.23
-11.65 -6.77 2.25
-11.61 -7.06 2.27
-11.56 -7.36 2.29
-11.51 -7.66 2.31
-12.21 -8.48 2.48
-12.07 -8.74 2.49
-11.92 -9.01 2.50
-11.77 -9.27 2.50
-11.61 -9.53 2.51
-10.86 -9.29 2.39
-10.67 -9.50 2.39
-10.48 -9.71 2.39
-10.28 -9.92 2.39
-10.07 -10.12 2.39
-9.87 -10.32 2.39
-9.66 -10.51 2.39
-9.44 -10.70 2.39
-9.22 -10.89 2.39
-9.00 -11.07 2.39
-8.77 -11.24 2.39
-8.55 -11.42 2.39
-8.31 -11.58 2.39
-8.08 -11.75 2.39
-8.18 -12.42 2.49
-7.93 -12.58 2.49
-7.67 -12.73 2.49
-7.41 -12.88 2.49
-7.15 -13.03 2.49
-6.89 -13.17 2.49
-6.62 -13.30 2.49
-6.35 -13.43 2.49
-6.08 -13.55 2.49
-5.81 -13.67 2.49
-5.53 -13.79 2.49
-5.25 -13.89 2.49
-4.97 -13.99 2.49
-4.69 -14.09 2.49
-4.41 -14.18 2.49
-4.12 -14.27 2.49
-3.83 -14.35 2.49
-3.54 -14.42 2.49
-3.25 -14.49 2.49
-2.96 -14.55 2.49
-2.67 -14.61 2.49
-2.37 -14.66 2.49
-2.08 -14.70 2.49
-1.78 -14.74 2.49
-1.49 -14.78 2.49
-1.19 -14.80 2.49
-0.89 -14.82 2.49
-0.59 -14.84 2.49
-0.30 -14.85 2.49
0.00 -13.05 2.49
0.26 -13.05 2.49
0.53 -13.04 2.49
0.72 -11.97 2.29
0.95 -11.81 2.26
1.20 -11.88 2.28
1.57 -12.96 2.49
1.83 -12.93 2.49
2.09 -12.89 2.49
1.97 -10.78 2.09
2.17 -10.65 2.07
2.40 -10.66 2.09
3.12 -12.69 2.49
3.37 -12.62 2.49
3.63 -12.55 2.49
3.88 -12.48 2.49
4.13 -12.40 2.49
2.62 -7.38 1.49
4.63 -12.23 2.49
4.87 -12.14 2.49
5.12 -12.04 2.49
5.14 -11.44 2.39
5.21 -11.00 2.32
5.59 -11.23 2.39
5.82 -11.12 2.39
6.04 -11.00 2.39
2.62 -4.56 1.00
6.48 -10.76 2.39
6.70 -10.63 2.39
6.91 -10.49 2.39
7.12 -10.35 2.39
7.33 -10.21 2.39
7.54 -10.06 2.39
6.43 -8.24 1.99
6.39 -7.86 1.92
6.51 -7.68 1.91
6.67 -7.56 1.92
6.92 -7.53 1.94
8.71 -9.10 2.39
8.89 -8.93 2.39
9.07 -8.75 2.39
9.25 -8.57 2.39
9.43 -8.39 2.39
9.60 -8.20 2.39
9.77 -8.01 2.39
9.93 -7.82 2.39
10.09 -7.62 2.39
10.24 -7.42 2.39
10.39 -7.21 2.39
10.54 -7.00 2.39
10.68 -6.79 2.39
8.52 -5.18 1.88
8.77 -5.10 1.92
8.72 -4.84 1.88
11.20 -5.92 2.39
11.33 -5.70 2.39
11.44 -5.47 2.39
11.55 -5.24 2.39
11.66 -5.01 2.39
11.76 -4.78 2.39
11.86 -4.54 2.39
11.95 -4.30 2.39
12.04 -4.07 2.39
12.12 -3.82 2.39
12.20 -3.58 2.39
12.28 -3.34 2.39
12.34 -3.09 2.39
12.41 -2.84 2.39
12.47 -2.59 2.39
12.52 -2.34 2.39
12.57 -2.09 2.39
12.61 -1.84 2.39
12.65 -1.59 2.39
12.69 -1.33 2.39
12.71 -1.08 2.39
12.74 -0.82 2.39
12.76 -0.57 2.39
12.77 -0.31 2.39
12.78 -0.06 2.39
12.78 0.20 2.39
12.78 0.46 2.39
12.77 0.71 2.39
12.76 0.97 2.39
12.74 1.23 2.39
12.72 1.48 2.39
12.69 1.74 2.39
12.66 1.99 2.39
12.62 2.25 2.39
12.57 2.50 2.39
12.52 2.75 2.39
12.47 3.00 2.39
12.41 3.25 2.39
12.35 3.50 2.39
12.28 3.75 2.39
12.20 4.00 2.39
12.13 4.24 2.39
12.04 4.49 2.39
11.95 4.73 2.39
11.86 4.97 2.39
11.76 5.21 2.39
11.66 5.45 2.39
11.55 5.68 2.39
11.43 5.91 2.39
11.32 6.14 2.39
11.19 6.37 2.39
11.07 6.60 2.39
10.94 6.82 2.39
10.80 7.04 2.39
10.66 7.25 2.39
10.51 7.47 2.39
10.36 7.68 2.39
10.21 7.89 2.39
10.05 8.09 2.39
9.89 8.29 2.39
9.72 8.49 2.39
9.55 8.69 2.39
9.38 8.88 2.39
9.20 9.07 2.39
9.02 9.25 2.39
8.83 9.43 2.39
8.64 9.61 2.39
8.45 9.78 2.39
8.25 9.95 2.39
8.05 10.12 2.39
7.85 10.28 2.39
7.64 10.44 2.39
7.43 10.59 2.39
7.22 10.74 2.39
7.00 10.88 2.39
6.79 11.02 2.39
6.56 11.16 2.39
6.34 11.29 2.39
6.11 11.41 2.39
5.88 11.53 2.39
5.65 11.65 2.39
5.42 11.76 2.39
5.17 11.86 2.39
4.93 11.96 2.39
4.69 12.05 2.39
4.45 12.15 2.39
4.21 12.23 2.39
3.96 12.32 2.39
3.71 12.39 2.39
3.46 12.47 2.39
3.21 12.53 2.39
2.96 12.60 2.39
2.71 12.65 2.39
2.45 12.70 2.39
2.20 12.75 2.39
1.94 12.79 2.39
1.68 12.83 2.39
1.43 12.86 2.39
1.22 13.44 2.49
0.95 13.46 2.49
0.68 13.48 2.49
0.41 13.49 2.49
0.14 13.49 2.49
-0.13 13.49 2.49
-0.40 13.49 2.49
-0.67 13.47 2.49
-0.94 13.46 2.49
-1.21 13.43 2.49
-1.48 13.40 2.49
-1.75 13.37 2.49
-2.02 13.33 2.49
-2.29 13.29 2.49
-2.55 13.24 2.49
-2.82 13.18 2.49
-3.08 13.12 2.49
-3.34 13.05 2.49
-3.60 12.98 2.49
-3.86 12.90 2.49
-4.12 12.82 2.49
-4.38 12.73 2.49
-4.63 12.64 2.49
-4.88 12.54 2.49
-5.13 12.44 2.49
-5.38 12.33 2.49
-5.62 12.22 2.49
-5.87 12.10 2.49
-6.11 11.98 2.49
-6.34 11.85 2.49
-6.58 11.72 2.49
-6.72 11.42 2.46
-6.75 10.97 2.39
-6.97 10.83 2.39
-7.18 10.68 2.39
-7.39 10.53 2.39
-7.60 10.38 2.39
-7.80 10.22 2.39
-8.01 10.06 2.39
-8.20 9.90 2.39
-8.40 9.73 2.39
-8.59 9.55 2.39
-8.78 9.38 2.39
-8.96 9.20 2.39
-9.14 9.01 2.39
-9.32 8.83 2.39
-9.49 8.63 2.39
-9.66 8.44 2.39
-9.82 8.24 2.39
-9.98 8.04 2.39
-10.14 7.84 2.39
-10.29 7.63 2.39
-10.44 7.42 2.39
-11.38 7.74 2.57
-11.46 7.47 2.56
-11.54 7.19 2.54
-11.58 6.90 2.52
-11.60 6.60 2.49
-11.61 6.30 2.47
-11.63 6.01 2.45
-11.66 5.74 2.43
-11.67 5.46 2.41
-11.68 5.18 2.39
-11.69 4.90 2.37
-11.69 4.63 2.36
-11.70 4.36 2.34
-11.70 4.10 2.32
-11.72 3.84 2.31
-11.71 3.58 2.30
-11.69 3.32 2.28
-11.67 3.06 2.27
-11.65 2.81 2.25
-11.63 2.56 2.24
-11.60 2.31 2.22
-11.58 2.06 2.21
-11.56 1.82 2.20
-11.56 1.58 2.19
-11.56 1.35 2.19
-11.57 1.11 2.19
-11.57 0.88 2.19
-11.58 0.65 2.18
-11.58 0.41 2.18
-11.58 0.18 2.18
-11.56 -0.05 2.18
-11.53 -0.28 2.18
-11.51 -0.51 2.17
-11.48 -0.74 2.17
-11.45 -0.97 2.17
-11.42 -1.20 2.17
-11.39 -1.43 2.17
-11.36 -1.66 2.17
-11.33 -1.89 2.17
-11.30 -2.12 2.17
-11.24 -2.34 2.17
-11.23 -2.57 2.18
-11.22 -2.81 2.19
-11.21 -3.05 2.20
-11.20 -3.29 2.21
-11.19 -3.53 2.22
-11.18 -3.78 2.24
-11.16 -4.02 2.25
-11.15 -4.27 2.26
-11.14 -4.52 2.28
-11.13 -4.78 2.30
-11.12 -5.05 2.32
-11.12 -5.32 2.34
-11.11 -5.59 2.36
-11.10 -5.87 2.38
-11.08 -6.15 2.41
-11.16 -6.49 2.45
-11.11 -6.76 2.47
-11.06 -7.04 2.49
-11.01 -7.32 2.52
-10.96 -7.61 2.54
-10.91 -7.90 2.56
-10.85 -8.19 2.59
-10.73 -8.45 2.60
-9.70 -7.96 2.39
-9.54 -8.15 2.39
-9.37 -8.34 2.39
-9.20 -8.53 2.39
-9.02 -8.71 2.39
-8.85 -8.89 2.39
-8.66 -9.06 2.39
-8.48 -9.23 2.39
-8.29 -9.40 2.39
-8.10 -9.56 2.39
-7.90 -9.72 2.39
-7.71 -9.87 2.39
-7.51 -10.03 2.39
-7.30 -10.17 2.39
-7.09 -10.32 2.39
-6.89 -10.46 2.39
-6.96 -11.05 2.49
-6.74 -11.18 2.49
-6.51 -11.32 2.49
-6.28 -11.44 2.49
-6.05 -11.57 2.49
-5.82 -11.68 2.49
-5.58 -11.80 2.49
-5.34 -11.91 2.49
-5.10 -12.01 2.49
-4.86 -12.11 2.49
-4.61 -12.20 2.49
-4.37 -12.29 2.49
-4.12 -12.38 2.49
-3.87 -12.46 2.49
-3.62 -12.53 2.49
-3.37 -12.60 2.49
-3.11 -12.67 2.49
-2.86 -12.73 2.49
-2.60 -12.78 2.49
-2.34 -12.83 2.49
-2.09 -12.88 2.49
-1.83 -12.92 2.49
-1.57 -12.95 2.49
-1.31 -12.98 2.49
-1.05 -13.00 2.49
-0.78 -13.02 2.49
-0.52 -13.04 2.49
-0.26 -13.04 2.49
0.00 -11.62 2.49
0.23 -11.62 2.49
0.47 -11.61 2.49
0.70 -11.60 2.49
0.93 -11.59 2.49
1.17 -11.57 2.49
1.40 -11.54 2.49
1.63 -11.51 2.49
1.86 -11.48 2.49
2.00 -10.95 2.39
2.18 -10.72 2.34
2.42 -10.76 2.36
2.78 -11.30 2.49
3.01 -11.24 2.49
3.23 -11.18 2.49
3.46 -11.12 2.49
3.68 -11.05 2.49
2.61 -7.33 1.67
3.95 -10.44 2.39
4.16 -10.36 2.39
4.37 -10.28 2.39
4.57 -10.19 2.39
4.78 -10.10 2.39
4.98 -10.00 2.39
5.18 -9.90 2.39
5.38 -9.80 2.39
2.62 -4.56 1.12
5.77 -9.58 2.39
5.96 -9.46 2.39
6.15 -9.34 2.39
6.34 -9.22 2.39
6.53 -9.09 2.39
6.71 -8.96 2.39
6.89 -8.82 2.39
6.79 -8.35 2.30
6.63 -7.82 2.19
7.41 -8.40 2.39
7.13 -7.76 2.25
7.76 -8.11 2.39
7.92 -7.96 2.39
8.08 -7.80 2.39
8.24 -7.63 2.39
8.40 -7.47 2.39
8.55 -7.30 2.39
8.69 -7.13 2.39
8.84 -6.96 2.39
8.98 -6.78 2.39
9.11 -6.60 2.39
9.25 -6.42 2.39
9.38 -6.23 2.39
9.50 -6.04 2.39
9.63 -5.85 2.39
8.57 -4.98 2.11
9.86 -5.47 2.39
9.97 -5.27 2.39
10.08 -5.07 2.39
10.18 -4.87 2.39
10.28 -4.66 2.39
10.37 -4.46 2.39
10.46 -4.25 2.39
10.55 -4.04 2.39
10.63 -3.83 2.39
10.71 -3.61 2.39
10.78 -3.40 2.39
10.85 -3.18 2.39
10.92 -2.97 2.39
10.98 -2.75 2.39
11.03 -2.53 2.39
11.09 -2.31 2.39
11.13 -2.08 2.39
11.18 -1.86 2.39
11.21 -1.64 2.39
11.25 -1.41 2.39
11.28 -1.19 2.39
11.30 -0.96 2.39
11.32 -0.73 2.39
11.34 -0.51 2.39
11.35 -0.28 2.39
11.36 -0.05 2.39
11.36 0.18 2.39
11.36 0.41 2.39
11.35 0.63 2.39
11.34 0.86 2.39
11.32 1.09 2.39
11.30 1.32 2.39
11.28 1.54 2.39
11.25 1.77 2.39
11.21 2.00 2.39
11.17 2.22 2.39
11.13 2.45 2.39
11.08 2.67 2.39
11.03 2.89 2.39
10.97 3.11 2.39
10.91 3.33 2.39
10.84 3.55 2.39
10.77 3.77 2.39
10.70 3.99 2.39
10.62 4.20 2.39
10.53 4.42 2.39
10.45 4.63 2.39
10.35 4.84 2.39
10.26 5.05 2.39
10.16 5.25 2.39
10.05 5.46 2.39
9.94 5.66 2.39
9.83 5.86 2.39
9.71 6.06 2.39
9.59 6.25 2.39
9.47 6.44 2.39
9.34 6.63 2.39
9.20 6.82 2.39
9.07 7.01 2.39
8.93 7.19 2.39
8.78 7.37 2.39
8.63 7.54 2.39
8.48 7.72 2.39
8.33 7.89 2.39
8.17 8.05 2.39
8.01 8.22 2.39
7.84 8.38 2.39
7.67 8.53 2.39
7.50 8.69 2.39
7.33 8.84 2.39
7.15 8.98 2.39
6.97 9.13 2.39
6.78 9.27 2.39
6.60 9.40 2.39
6.41 9.53 2.39
6.22 9.66 2.39
6.02 9.78 2.39
5.83 9.90 2.39
5.63 10.02 2.39
5.42 10.12 2.39
5.21 10.23 2.39
5.01 10.33 2.39
4.80 10.43 2.39
4.59 10.52 2.39
4.38 10.61 2.39
4.17 10.70 2.39
3.95 10.78 2.39
3.73 10.86 2.39
3.52 10.93 2.39
3.30 11.00 2.39
3.07 11.07 2.39
2.85 11.13 2.39
2.63 11.18 2.39
2.40 11.23 2.39
2.18 11.28 2.39
1.95 11.32 2.39
1.72 11.35 2.39
1.49 11.39 2.39
1.32 11.87 2.49
1.08 11.93 2.49
0.84 11.95 2.49
0.60 11.96 2.49
0.36 11.97 2.49
0.12 11.98 2.49
-0.12 11.98 2.49
-0.36 11.97 2.49
-0.60 11.96 2.49
-0.84 11.94 2.49
-1.08 11.92 2.49
-1.32 11.90 2.49
-1.55 11.87 2.49
-1.79 11.83 2.49
-2.03 11.79 2.49
-2.27 11.75 2.49
-2.50 11.70 2.49
-2.73 11.65 2.49
-2.97 11.59 2.49
-3.20 11.52 2.49
-3.43 11.46 2.49
-3.66 11.38 2.49
-3.88 11.31 2.49
-4.11 11.22 2.49
-4.33 11.14 2.49
-4.55 11.05 2.49
-4.77 10.95 2.49
-4.99 10.85 2.49
-5.21 10.75 2.49
-5.42 10.64 2.49
-5.63 10.53 2.49
-5.84 10.41 2.49
-6.05 10.29 2.49
-6.25 10.16 2.49
-6.45 10.03 2.49
-6.64 9.88 2.49
-6.63 9.45 2.41
-6.75 9.22 2.39
-6.93 9.08 2.39
-7.11 8.94 2.39
-7.29 8.79 2.39
-7.46 8.64 2.39
-7.63 8.49 2.39
-7.80 8.33 2.39
-7.96 8.17 2.39
-8.12 8.01 2.39
-8.28 7.84 2.39
-8.43 7.67 2.39
-8.58 7.50 2.39
-8.73 7.32 2.39
-8.87 7.14 2.39
-9.01 6.96 2.39
-9.14 6.78 2.39
-9.28 6.59 2.39
-9.40 6.40 2.39
-9.53 6.21 2.39
-9.65 6.02 2.39
-9.76 5.82 2.39
-9.87 5.62 2.39
-9.98 5.42 2.39
-10.09 5.22 2.39
-10.19 5.01 2.39
-10.28 4.81 2.39
-10.37 4.60 2.39
-11.10 4.65 2.54
-11.13 4.41 2.52
-11.16 4.16 2.51
-11.19 3.92 2.50
-11.19 3.67 2.49
-11.18 3.42 2.47
-11.16 3.17 2.45
-11.13 2.92 2.43
-11.11 2.68 2.41
-11.08 2.44 2.40
-11.05 2.20 2.38
-11.02 1.96 2.37
-10.99 1.73 2.35
-11.00 1.51 2.35
-11.03 1.29 2.35
-11.06 1.06 2.35
-11.08 0.84 2.35
-11.10 0.62 2.36
-11.12 0.40 2.36
-11.13 0.17 2.36
-11.14 -0.05 2.36
-11.15 -0.27 2.37
-11.11 -0.50 2.36
-11.07 -0.72 2.35
-11.03 -0.94 2.35
-10.98 -1.15 2.34
-10.93 -1.37 2.34
-10.87 -1.59 2.34
-10.82 -1.80 2.33
-10.76 -2.01 2.33
-10.70 -2.23 2.32
-10.67 -2.45 2.33
-10.65 -2.67 2.34
-10.64 -2.89 2.35
-10.63 -3.12 2.36
-10.61 -3.35 2.37
-10.60 -3.58 2.38
-10.57 -3.81 2.39
-10.55 -4.04 2.41
-10.52 -4.28 2.42
-10.48 -4.51 2.43
-10.44 -4.74 2.44
-10.41 -4.98 2.46
-10.40 -5.24 2.49
-9.90 -5.23 2.39
-9.79 -5.43 2.39
-9.68 -5.62 2.39
-9.56 -5.82 2.39
-9.44 -6.01 2.39
-9.32 -6.19 2.39
-9.19 -6.38 2.39
-9.06 -6.56 2.39
-8.92 -6.74 2.39
-8.78 -6.92 2.39
-8.64 -7.09 2.39
-8.49 -7.26 2.39
-8.34 -7.43 2.39
-8.19 -7.59 2.39
-8.04 -7.75 2.39
-7.88 -7.91 2.39
-7.72 -8.07 2.39
-7.55 -8.22 2.39
-7.38 -8.37 2.39
-7.21 -8.51 2.39
-7.04 -8.66 2.39
-6.86 -8.79 2.39
-6.68 -8.93 2.39
-6.50 -9.06 2.39
-6.32 -9.19 2.39
-6.24 -9.48 2.43
-6.20 -9.84 2.49
-6.00 -9.96 2.49
-5.80 -10.08 2.49
-5.59 -10.19 2.49
-5.39 -10.30 2.49
-5.18 -10.41 2.49
-4.97 -10.51 2.49
-4.76 -10.60 2.49
-4.54 -10.70 2.49
-4.33 -10.79 2.49
-4.11 -10.87 2.49
-3.89 -10.95 2.49
-3.67 -11.02 2.49
-3.45 -11.10 2.49
-3.22 -11.16 2.49
-3.00 -11.22 2.49
-2.77 -11.28 2.49
-2.54 -11.34 2.49
-2.32 -11.38 2.49
-2.09 -11.43 2.49
-1.86 -11.47 2.49
-1.63 -11.50 2.49
-1.40 -11.53 2.49
-1.16 -11.56 2.49
-0.93 -11.58 2.49
-0.70 -11.60 2.49
-0.47 -11.61 2.49
-0.23 -11.62 2.49
0.00 -10.47 2.49
0.21 -10.47 2.49
0.42 -10.46 2.49
0.63 -10.45 2.49
0.84 -10.44 2.49
1.05 -10.42 2.49
1.26 -10.40 2.49
1.47 -10.37 2.49
1.68 -10.34 2.49
1.88 -10.30 2.49
2.09 -10.26 2.49
2.30 -10.22 2.49
2.50 -10.17 2.49
2.71 -10.12 2.49
2.91 -10.07 2.49
3.11 -10.01 2.49
3.31 -9.95 2.49
2.61 -7.33 1.85
3.56 -9.40 2.39
3.75 -9.33 2.39
2.44 -5.74 1.48
4.12 -9.17 2.39
4.30 -9.09 2.39
4.49 -9.00 2.39
4.67 -8.91 2.39
4.85 -8.82 2.39
2.62 -4.56 1.25
5.20 -8.62 2.39
5.37 -8.52 2.39
5.54 -8.41 2.39
4.52 -6.57 1.89
4.63 -6.45 1.88
4.77 -6.37 1.89
4.89 -6.26 1.88
5.02 -6.17 1.89
5.14 -6.06 1.88
5.27 -5.97 1.89
5.38 -5.86 1.88
5.50 -5.75 1.88
7.13 -7.16 2.39
7.28 -7.02 2.39
7.42 -6.87 2.39
7.56 -6.72 2.39
7.69 -6.57 2.39
7.82 -6.42 2.39
7.95 -6.26 2.39
8.08 -6.10 2.39
8.20 -5.94 2.39
8.32 -5.77 2.39
8.44 -5.61 2.39
8.55 -5.44 2.39
8.66 -5.27 2.39
8.57 -4.98 2.34
8.87 -4.92 2.39
8.97 -4.74 2.39
9.07 -4.56 2.39
9.16 -4.38 2.39
9.25 -4.19 2.39
9.33 -4.01 2.39
9.41 -3.82 2.39
9.49 -3.63 2.39
9.56 -3.44 2.39
9.63 -3.25 2.39
9.70 -3.06 2.39
9.76 -2.86 2.39
9.82 -2.67 2.39
9.87 -2.47 2.39
9.92 -2.27 2.39
9.97 -2.07 2.39
10.01 -1.87 2.39
10.05 -1.67 2.39
10.09 -1.47 2.39
10.12 -1.27 2.39
10.14 -1.07 2.39
10.16 -0.86 2.39
10.18 -0.66 2.39
10.20 -0.45 2.39
10.21 -0.25 2.39
10.21 -0.04 2.39
10.21 0.16 2.39
10.21 0.37 2.39
10.20 0.57 2.39
10.19 0.78 2.39
10.18 0.98 2.39
10.16 1.19 2.39
10.14 1.39 2.39
10.11 1.59 2.39
10.08 1.80 2.39
10.04 2.00 2.39
10.00 2.20 2.39
9.96 2.40 2.39
9.91 2.60 2.39
9.86 2.80 2.39
9.80 3.00 2.39
9.75 3.19 2.39
9.68 3.39 2.39
9.61 3.58 2.39
9.54 3.78 2.39
9.47 3.97 2.39
9.39 4.16 2.39
9.30 4.35 2.39
9.22 4.54 2.39
9.13 4.72 2.39
9.03 4.90 2.39
8.93 5.08 2.39
8.83 5.26 2.39
8.73 5.44 2.39
8.62 5.62 2.39
8.50 5.79 2.39
8.39 5.96 2.39
8.27 6.13 2.39
8.14 6.29 2.39
8.02 6.46 2.39
7.89 6.62 2.39
7.76 6.78 2.39
7.62 6.93 2.39
7.48 7.08 2.39
7.34 7.23 2.39
7.19 7.38 2.39
7.04 7.52 2.39
6.89 7.67 2.39
6.74 7.80 2.39
6.58 7.94 2.39
6.42 8.07 2.39
6.26 8.20 2.39
6.09 8.32 2.39
5.93 8.44 2.39
5.76 8.56 2.39
5.58 8.68 2.39
5.40 8.78 2.39
5.23 8.88 2.39
5.05 8.99 2.39
4.87 9.09 2.39
4.68 9.18 2.39
4.50 9.28 2.39
4.31 9.37 2.39
4.12 9.45 2.39
3.93 9.53 2.39
3.74 9.61 2.39
3.55 9.68 2.39
3.35 9.75 2.39
3.16 9.82 2.39
2.96 9.88 2.39
2.76 9.94 2.39
2.56 9.99 2.39
2.36 10.04 2.39
2.16 10.09 2.39
1.96 10.13 2.39
1.75 10.17 2.39
1.55 10.20 2.39
1.38 10.53 2.46
1.19 10.69 2.49
0.97 10.72 2.49
0.76 10.73 2.49
0.54 10.74 2.49
0.33 10.75 2.49
0.11 10.76 2.49
-0.11 10.76 2.49
-0.32 10.75 2.49
-0.54 10.74 2.49
-0.75 10.73 2.49
-0.97 10.71 2.49
-1.18 10.69 2.49
-1.40 10.66 2.49
-1.61 10.63 2.49
-1.82 10.59 2.49
-2.03 10.55 2.49
-2.25 10.51 2.49
-2.46 10.46 2.49
-2.66 10.41 2.49
-2.87 10.35 2.49
-3.08 10.29 2.49
-3.28 10.23 2.49
-3.49 10.16 2.49
-3.69 10.08 2.49
-3.89 10.01 2.49
-4.09 9.92 2.49
-4.29 9.84 2.49
-4.48 9.75 2.49
-4.68 9.66 2.49
-4.87 9.56 2.49
-5.06 9.46 2.49
-5.25 9.35 2.49
-5.43 9.24 2.49
-5.62 9.13 2.49
-5.80 9.01 2.49
-5.98 8.89 2.49
-6.15 8.77 2.49
-6.33 8.64 2.49
-6.50 8.51 2.49
-6.56 8.25 2.46
-6.56 7.91 2.39
-6.70 7.77 2.39
-6.86 7.63 2.39
-7.01 7.49 2.39
-7.15 7.34 2.39
-7.30 7.20 2.39
-7.44 7.05 2.39
-7.58 6.89 2.39
-7.71 6.74 2.39
-7.84 6.58 2.39
-7.97 6.42 2.39
-8.10 6.26 2.39
-8.22 6.09 2.39
-8.34 5.93 2.39
-8.45 5.76 2.39
-8.56 5.58 2.39
-8.67 5.41 2.39
-8.78 5.23 2.39
-8.88 5.05 2.39
-8.97 4.87 2.39
-9.07 4.69 2.39
-9.16 4.51 2.39
-9.24 4.32 2.39
-9.33 4.13 2.39
-9.40 3.94 2.39
-9.48 3.75 2.39
-9.55 3.56 2.39
-9.62 3.37 2.39
-9.68 3.17 2.39
-9.74 2.98 2.39
-9.79 2.78 2.39
-9.85 2.58 2.39
-9.89 2.39 2.39
-9.94 2.19 2.39
-9.97 1.99 2.39
-10.01 1.78 2.39
-10.04 1.58 2.39
-10.07 1.38 2.39
-10.09 1.18 2.39
-10.11 0.97 2.39
-10.12 0.77 2.39
-10.13 0.57 2.39
-10.14 0.36 2.39
-10.14 0.16 2.39
-10.14 -0.04 2.39
-10.14 -0.25 2.39
-10.13 -0.45 2.39
-10.11 -0.65 2.39
-10.09 -0.86 2.39
-10.07 -1.06 2.39
-10.05 -1.26 2.39
-10.02 -1.46 2.39
-9.98 -1.66 2.39
-9.94 -1.86 2.39
-9.90 -2.06 2.39
-9.86 -2.26 2.39
-9.81 -2.45 2.39
-9.75 -2.65 2.39
-9.70 -2.84 2.39
-9.63 -3.04 2.39
-9.57 -3.23 2.39
-9.50 -3.42 2.39
-9.43 -3.61 2.39
-9.35 -3.80 2.39
-9.27 -3.98 2.39
-9.19 -4.17 2.39
-9.10 -4.35 2.39
-9.01 -4.53 2.39
-8.91 -4.71 2.39
-8.81 -4.89 2.39
-8.71 -5.06 2.39
-8.61 -5.24 2.39
-8.50 -5.41 2.39
-8.39 -5.58 2.39
-8.27 -5.74 2.39
-8.15 -5.91 2.39
-8.03 -6.07 2.39
-7.91 -6.23 2.39
-7.78 -6.38 2.39
-7.65 -6.54 2.39
-7.51 -6.69 2.39
-7.38 -6.84 2.39
-7.24 -6.98 2.39
-7.09 -7.12 2.39
-6.95 -7.26 2.39
-6.80 -7.40 2.39
-6.65 -7.54 2.39
-6.50 -7.67 2.39
-6.34 -7.79 2.39
-6.18 -7.92 2.39
-6.02 -8.04 2.39
-5.91 -8.23 2.41
-5.94 -8.63 2.49
-5.76 -8.75 2.49
-5.58 -8.86 2.49
-5.40 -8.97 2.49
-5.22 -9.08 2.49
-5.04 -9.18 2.49
-4.85 -9.28 2.49
-4.67 -9.37 2.49
-4.48 -9.46 2.49
-4.28 -9.55 2.49
-4.09 -9.63 2.49
-3.90 -9.71 2.49
-3.70 -9.79 2.49
-3.50 -9.86 2.49
-3.30 -9.93 2.49
-3.10 -9.99 2.49
-2.90 -10.05 2.49
-2.70 -10.11 2.49
-2.50 -10.16 2.49
-2.29 -10.21 2.49
-2.09 -10.25 2.49
-1.88 -10.29 2.49
-1.67 -10.33 2.49
-1.47 -10.36 2.49
-1.26 -10.39 2.49
-1.05 -10.41 2.49
-0.84 -10.43 2.49
-0.63 -10.45 2.49
-0.42 -10.46 2.49
-0.21 -10.46 2.49
0.00 -9.51 2.49
0.19 -9.51 2.49
0.38 -9.50 2.49
0.57 -9.50 2.49
0.77 -9.48 2.49
0.96 -9.47 2.49
1.15 -9.45 2.49
1.34 -9.42 2.49
1.52 -9.39 2.49
1.71 -9.36 2.49
1.90 -9.33 2.49
2.09 -9.29 2.49
2.27 -9.24 2.49
2.46 -9.20 2.49
2.64 -9.15 2.49
2.83 -9.09 2.49
2.89 -8.66 2.39
2.61 -7.33 2.04
3.23 -8.54 2.39
3.40 -8.48 2.39
3.57 -8.41 2.39
2.44 -5.44 1.56
3.91 -8.26 2.39
4.08 -8.18 2.39
4.24 -8.10 2.39
4.40 -8.01 2.39
2.62 -4.56 1.37
4.72 -7.83 2.39
4.88 -7.74 2.39
5.03 -7.64 2.39
5.19 -7.54 2.39
5.34 -7.43 2.39
5.49 -7.33 2.39
5.64 -7.22 2.39
5.78 -7.10 2.39
5.92 -6.99 2.39
6.06 -6.87 2.39
6.20 -6.75 2.39
6.35 -6.63 2.39
6.48 -6.50 2.39
6.61 -6.37 2.39
6.74 -6.24 2.39
6.86 -6.11 2.39
6.99 -5.97 2.39
7.11 -5.83 2.39
7.22 -5.68 2.39
7.34 -5.54 2.39
7.45 -5.39 2.39
7.56 -5.24 2.39
7.66 -5.09 2.39
7.77 -4.94 2.39
7.87 -4.78 2.39
7.96 -4.62 2.39
8.05 -4.46 2.39
8.14 -4.30 2.39
8.23 -4.14 2.39
8.32 -3.97 2.39
8.40 -3.81 2.39
8.47 -3.64 2.39
8.55 -3.47 2.39
8.62 -3.30 2.39
8.68 -3.12 2.39
8.75 -2.95 2.39
8.81 -2.78 2.39
8.86 -2.60 2.39
8.91 -2.42 2.39
8.96 -2.24 2.39
9.01 -2.06 2.39
9.05 -1.88 2.39
9.09 -1.70 2.39
9.12 -1.52 2.39
9.15 -1.33 2.39
9.18 -1.15 2.39
9.21 -0.97 2.39
9.23 -0.78 2.39
9.24 -0.60 2.39
9.25 -0.41 2.39
9.26 -0.23 2.39
9.27 -0.04 2.39
9.27 0.15 2.39
9.27 0.33 2.39
9.26 0.52 2.39
9.25 0.70 2.39
9.24 0.89 2.39
9.22 1.08 2.39
9.20 1.26 2.39
9.17 1.45 2.39
9.14 1.63 2.39
9.11 1.81 2.39
9.08 2.00 2.39
9.04 2.18 2.39
8.99 2.36 2.39
8.95 2.54 2.39
8.89 2.72 2.39
8.84 2.90 2.39
8.78 3.08 2.39
8.72 3.25 2.39
8.66 3.43 2.39
8.59 3.60 2.39
8.52 3.77 2.39
8.44 3.94 2.39
8.36 4.11 2.39
8.28 4.28 2.39
8.19 4.45 2.39
8.10 4.61 2.39
8.01 4.77 2.39
7.91 4.94 2.39
7.81 5.09 2.39
7.71 5.25 2.39
7.61 5.41 2.39
7.50 5.56 2.39
7.39 5.71 2.39
7.27 5.86 2.39
7.15 6.00 2.39
7.03 6.15 2.39
6.91 6.29 2.39
6.78 6.42 2.39
6.65 6.56 2.39
6.52 6.69 2.39
6.39 6.82 2.39
6.25 6.95 2.39
6.11 7.08 2.39
5.97 7.20 2.39
5.82 7.32 2.39
5.68 7.43 2.39
5.52 7.54 2.39
5.37 7.65 2.39
5.21 7.75 2.39
5.06 7.86 2.39
4.90 7.96 2.39
4.74 8.06 2.39
4.58 8.15 2.39
4.41 8.24 2.39
4.25 8.33 2.39
4.08 8.41 2.39
3.91 8.49 2.39
3.74 8.57 2.39
3.57 8.64 2.39
3.39 8.71 2.39
3.22 8.78 2.39
3.04 8.84 2.39
2.86 8.90 2.39
2.68 8.96 2.39
2.50 9.01 2.39
2.32 9.06 2.39
2.14 9.10 2.39
1.96 9.15 2.39
1.77 9.18 2.39
1.59 9.22 2.39
1.43 9.46 2.44
1.27 9.67 2.49
1.08 9.70 2.49
0.88 9.71 2.49
0.69 9.73 2.49
0.49 9.74 2.49
0.29 9.75 2.49
0.10 9.75 2.49
-0.10 9.75 2.49
-0.29 9.75 2.49
-0.49 9.74 2.49
-0.68 9.73 2.49
-0.88 9.71 2.49
-1.07 9.69 2.49
-1.27 9.67 2.49
-1.46 9.64 2.49
-1.65 9.61 2.49
-1.84 9.57 2.49
-2.04 9.53 2.49
-2.23 9.49 2.49
-2.42 9.44 2.49
-2.60 9.39 2.49
-2.79 9.33 2.49
-2.98 9.27 2.49
-3.16 9.21 2.49
-3.35 9.14 2.49
-3.53 9.07 2.49
-3.71 9.00 2.49
-3.89 8.92 2.49
-4.07 8.84 2.49
-4.24 8.76 2.49
-4.42 8.67 2.49
-4.59 8.58 2.49
-4.76 8.48 2.49
-4.93 8.38 2.49
-5.09 8.28 2.49
-5.26 8.18 2.49
-5.42 8.07 2.49
-5.58 7.95 2.49
-5.74 7.84 2.49
-5.89 7.72 2.49
-6.04 7.60 2.49
-6.19 7.48 2.49
-6.34 7.35 2.49
-6.49 7.22 2.49
-6.50 6.95 2.44
-6.50 6.67 2.39
-6.62 6.53 2.39
-6.75 6.39 2.39
-6.87 6.26 2.39
-7.00 6.11 2.39
-7.11 5.97 2.39
-7.23 5.83 2.39
-7.35 5.68 2.39
-7.46 5.53 2.39
-7.56 5.38 2.39
-7.67 5.22 2.39
-7.77 5.07 2.39
-7.87 4.91 2.39
-7.96 4.75 2.39
-8.05 4.59 2.39
-8.14 4.42 2.39
-8.23 4.26 2.39
-8.31 4.09 2.39
-8.39 3.92 2.39
-8.46 3.75 2.39
-8.53 3.58 2.39
-8.60 3.41 2.39
-8.67 3.23 2.39
-8.73 3.06 2.39
-8.79 2.88 2.39
-8.84 2.70 2.39
-8.89 2.53 2.39
-8.94 2.35 2.39
-8.98 2.17 2.39
-9.02 1.98 2.39
-9.05 1.80 2.39
-9.09 1.62 2.39
-9.11 1.44 2.39
-9.14 1.25 2.39
-9.16 1.07 2.39
-9.18 0.89 2.39
-9.19 0.70 2.39
-9.20 0.52 2.39
-9.21 0.33 2.39
-9.21 0.15 2.39
-9.21 -0.04 2.39
-9.20 -0.22 2.39
-9.19 -0.41 2.39
-9.18 -0.59 2.39
-9.17 -0.78 2.39
-9.15 -0.96 2.39
-9.12 -1.14 2.39
-9.10 -1.33 2.39
-9.07 -1.51 2.39
-9.03 -1.69 2.39
-8.99 -1.87 2.39
-8.95 -2.05 2.39
-8.91 -2.23 2.39
-8.86 -2.41 2.39
-8.81 -2.58 2.39
-8.75 -2.76 2.39
-8.69 -2.93 2.39
-8.63 -3.11 2.39
-8.56 -3.28 2.39
-8.49 -3.45 2.39
-8.42 -3.62 2.39
-8.34 -3.79 2.39
-8.27 -3.95 2.39
-8.18 -4.12 2.39
-8.10 -4.28 2.39
-7.95 -4.41 2.37
-7.86 -4.57 2.37
-7.76 -4.72 2.37
-7.67 -4.88 2.37
-7.57 -5.03 2.37
-7.52 -5.22 2.39
-7.41 -5.36 2.39
-7.30 -5.51 2.39
-7.18 -5.66 2.39
-7.07 -5.80 2.39
-6.95 -5.94 2.39
-6.83 -6.08 2.39
-6.70 -6.21 2.39
-6.58 -6.34 2.39
-6.45 -6.47 2.39
-6.31 -6.60 2.39
-6.18 -6.72 2.39
-6.04 -6.85 2.39
-5.90 -6.97 2.39
-5.84 -7.18 2.42
-5.82 -7.46 2.48
-5.71 -7.62 2.49
-5.55 -7.73 2.49
-5.39 -7.84 2.49
-5.24 -7.95 2.49
-5.07 -8.05 2.49
-4.91 -8.15 2.49
-4.75 -8.25 2.49
-4.58 -8.34 2.49
-4.41 -8.43 2.49
-4.24 -8.52 2.49
-4.07 -8.60 2.49
-3.89 -8.68 2.49
-3.72 -8.75 2.49
-3.54 -8.83 2.49
-3.36 -8.90 2.49
-3.18 -8.96 2.49
-3.00 -9.02 2.49
-2.82 -9.08 2.49
-2.64 -9.14 2.49
-2.45 -9.19 2.49
-2.27 -9.23 2.49
-2.08 -9.28 2.49
-1.90 -9.32 2.49
-1.71 -9.35 2.49
-1.52 -9.39 2.49
-1.33 -9.42 2.49
-1.14 -9.44 2.49
-0.95 -9.46 2.49
-0.76 -9.48 2.49
-0.57 -9.49 2.49
-0.38 -9.50 2.49
-0.19 -9.51 2.49
0.00 -8.71 2.49
0.18 -8.71 2.49
0.35 -8.70 2.49
0.53 -8.69 2.49
0.70 -8.68 2.49
0.87 -8.67 2.49
1.05 -8.65 2.49
1.22 -8.62 2.49
1.40 -8.60 2.49
1.57 -8.57 2.49
1.74 -8.54 2.49
1.91 -8.50 2.49
2.08 -8.46 2.49
2.25 -8.42 2.49
2.42 -8.37 2.49
2.59 -8.32 2.49
2.64 -7.93 2.39
2.61 -7.33 2.22
2.48 -6.56 2.00
3.12 -7.76 2.39
3.27 -7.70 2.39
2.44 -5.43 1.70
3.58 -7.56 2.39
3.73 -7.49 2.39
2.39 -4.56 1.47
4.03 -7.33 2.39
2.62 -4.56 1.50
4.32 -7.17 2.39
4.47 -7.08 2.39
4.61 -6.99 2.39
4.75 -6.90 2.39
4.89 -6.80 2.39
4.97 -6.63 2.36
5.16 -6.60 2.39
5.29 -6.50 2.39
5.42 -6.39 2.39
5.55 -6.28 2.39
5.68 -6.17 2.39
5.80 -6.06 2.39
5.92 -5.94 2.39
6.04 -5.82 2.39
6.16 -5.70 2.39
6.28 -5.59 2.39
6.39 -5.46 2.39
6.50 -5.33 2.39
6.61 -5.20 2.39
6.71 -5.07 2.39
6.82 -4.93 2.39
6.92 -4.80 2.39
7.01 -4.66 2.39
7.11 -4.52 2.39
7.20 -4.37 2.39
7.28 -4.23 2.39
7.37 -4.08 2.39
7.45 -3.94 2.39
7.53 -3.79 2.39
7.61 -3.64 2.39
7.68 -3.48 2.39
7.75 -3.33 2.39
7.82 -3.17 2.39
7.88 -3.02 2.39
7.94 -2.86 2.39
8.00 -2.70 2.39
8.05 -2.54 2.39
8.11 -2.38 2.39
8.15 -2.21 2.39
8.20 -2.05 2.39
8.24 -1.89 2.39
8.28 -1.72 2.39
8.31 -1.55 2.39
8.34 -1.39 2.39
8.37 -1.22 2.39
8.40 -1.05 2.39
8.42 -0.88 2.39
8.44 -0.71 2.39
8.45 -0.54 2.39
8.46 -0.38 2.39
8.47 -0.21 2.39
8.47 -0.04 2.39
8.48 0.13 2.39
8.47 0.31 2.39
8.47 0.48 2.39
8.46 0.65 2.39
8.45 0.81 2.39
8.43 0.98 2.39
8.41 1.15 2.39
8.39 1.32 2.39
8.36 1.49 2.39
8.33 1.66 2.39
8.30 1.83 2.39
8.26 1.99 2.39
8.22 2.16 2.39
8.18 2.32 2.39
8.13 2.49 2.39
8.08 2.65 2.39
8.03 2.81 2.39
7.97 2.97 2.39
7.91 3.13 2.39
7.85 3.29 2.39
7.78 3.45 2.39
7.71 3.61 2.39
7.64 3.76 2.39
7.57 3.91 2.39
7.49 4.07 2.39
7.41 4.22 2.39
7.32 4.36 2.39
7.23 4.51 2.39
7.14 4.66 2.39
7.05 4.80 2.39
6.95 4.94 2.39
6.85 5.08 2.39
6.75 5.22 2.39
6.65 5.35 2.39
6.54 5.49 2.39
6.43 5.62 2.39
6.31 5.75 2.39
6.20 5.87 2.39
6.08 6.00 2.39
5.96 6.12 2.39
5.84 6.24 2.39
5.71 6.35 2.39
5.58 6.46 2.39
5.45 6.57 2.39
5.31 6.68 2.39
5.18 6.78 2.39
5.04 6.89 2.39
4.90 6.99 2.39
4.76 7.09 2.39
4.62 7.18 2.39
4.48 7.27 2.39
4.33 7.36 2.39
4.18 7.45 2.39
4.03 7.53 2.39
3.88 7.61 2.39
3.73 7.69 2.39
3.57 7.76 2.39
3.42 7.83 2.39
3.26 7.90 2.39
3.10 7.96 2.39
2.94 8.02 2.39
2.78 8.08 2.39
2.62 8.13 2.39
2.45 8.19 2.39
2.29 8.23 2.39
2.12 8.28 2.39
1.95 8.32 2.39
1.79 8.36 2.39
1.62 8.39 2.39
1.48 8.58 2.44
1.34 8.81 2.49
1.16 8.84 2.49
0.98 8.86 2.49
0.80 8.88 2.49
0.63 8.89 2.49
0.45 8.90 2.49
0.27 8.91 2.49
0.09 8.91 2.49
-0.09 8.91 2.49
-0.27 8.91 2.49
-0.45 8.90 2.49
-0.62 8.89 2.49
-0.80 8.87 2.49
-0.98 8.85 2.49
-1.16 8.83 2.49
-1.33 8.81 2.49
-1.51 8.78 2.49
-1.69 8.74 2.49
-1.86 8.71 2.49
-2.03 8.67 2.49
-2.21 8.63 2.49
-2.38 8.58 2.49
-2.55 8.53 2.49
-2.72 8.47 2.49
-2.89 8.42 2.49
-3.06 8.36 2.49
-3.22 8.29 2.49
-3.39 8.22 2.49
-3.55 8.15 2.49
-3.72 8.08 2.49
-3.88 8.00 2.49
-4.04 7.92 2.49
-4.19 7.84 2.49
-4.35 7.75 2.49
-4.50 7.66 2.49
-4.66 7.57 2.49
-4.81 7.47 2.49
-4.95 7.37 2.49
-5.10 7.27 2.49
-5.24 7.17 2.49
-5.38 7.06 2.49
-5.52 6.95 2.49
-5.66 6.83 2.49
-5.80 6.72 2.49
-5.93 6.60 2.49
-6.06 6.48 2.49
-6.19 6.35 2.49
-6.31 6.23 2.49
-6.43 6.10 2.49
-6.44 5.87 2.45
-6.44 5.63 2.41
-6.50 5.46 2.39
-6.63 5.34 2.40
-6.71 5.19 2.39
-6.82 5.06 2.39
-6.91 4.92 2.39
-7.01 4.78 2.39
-7.10 4.63 2.39
-7.19 4.49 2.39
-7.28 4.34 2.39
-7.36 4.19 2.39
-7.45 4.04 2.39
-7.52 3.89 2.39
-7.60 3.74 2.39
-7.67 3.59 2.39
-7.74 3.43 2.39
-7.80 3.27 2.39
-7.87 3.12 2.39
-7.93 2.96 2.39
-7.98 2.80 2.39
-8.03 2.64 2.39
-8.08 2.47 2.39
-8.13 2.31 2.39
-8.17 2.15 2.39
-8.21 1.98 2.39
-8.25 1.82 2.39
-8.28 1.65 2.39
-8.31 1.48 2.39
-8.34 1.32 2.39
-8.36 1.15 2.39
-8.38 0.98 2.39
-8.39 0.81 2.39
-8.41 0.64 2.39
-8.42 0.47 2.39
-8.42 0.30 2.39
-8.42 0.13 2.39
-8.42 -0.04 2.39
-8.42 -0.20 2.39
-8.41 -0.37 2.39
-8.40 -0.54 2.39
-8.39 -0.71 2.39
-8.37 -0.88 2.39
-8.35 -1.05 2.39
-8.32 -1.21 2.39
-8.29 -1.38 2.39
-8.26 -1.55 2.39
-8.23 -1.71 2.39
-8.19 -1.87 2.39
-8.15 -2.04 2.39
-8.11 -2.20 2.39
-8.06 -2.36 2.39
-8.01 -2.52 2.39
-7.95 -2.68 2.39
-7.90 -2.84 2.39
-7.84 -3.00 2.39
-7.77 -3.16 2.39
-7.71 -3.31 2.39
-7.64 -3.46 2.39
-7.56 -3.62 2.39
-7.49 -3.77 2.39
-7.41 -3.92 2.39
-7.33 -4.06 2.39
-7.24 -4.21 2.39
-7.16 -4.35 2.39
-7.07 -4.49 2.39
-6.97 -4.63 2.39
-6.88 -4.77 2.39
-6.78 -4.91 2.39
-6.68 -5.04 2.39
-6.58 -5.18 2.39
-6.47 -5.31 2.39
-6.36 -5.43 2.39
-6.25 -5.56 2.39
-6.14 -5.68 2.39
-6.02 -5.81 2.39
-5.90 -5.92 2.39
-5.87 -6.14 2.43
-5.86 -6.37 2.48
-5.77 -6.54 2.49
-5.64 -6.65 2.49
-5.50 -6.76 2.49
-5.36 -6.87 2.49
-5.22 -6.98 2.49
-5.08 -7.08 2.49
-4.94 -7.18 2.49
-4.79 -7.28 2.49
-4.65 -7.37 2.49
-4.50 -7.46 2.49
-4.34 -7.55 2.49
