ply
format ascii 1.0
element vertex 2934
property float32 x
property float32 y
property float32 z
end_header
-10.86 -14.50 2.38
-10.77 -15.00 2.42
-10.67 -15.50 2.47
-10.54 -15.99 2.52
-10.29 -16.31 2.54
-9.38 -15.55 2.39
-9.06 -15.73 2.39
-8.73 -15.89 2.39
-8.41 -16.05 2.39
-8.08 -16.20 2.39
-7.74 -16.35 2.39
-7.41 -16.49 2.39
-7.07 -16.62 2.39
-6.73 -16.74 2.39
-6.39 -16.85 2.39
-6.04 -16.96 2.39
-5.69 -17.06 2.39
-5.43 -17.43 2.43
-5.21 -17.99 2.49
-4.84 -18.07 2.49
-4.48 -18.14 2.49
-4.11 -18.21 2.49
-3.74 -18.26 2.49
-3.37 -18.31 2.49
-2.99 -18.35 2.49
-2.62 -18.39 2.49
-2.25 -18.41 2.49
-1.88 -18.43 2.49
-1.51 -18.44 2.49
-1.13 -18.45 2.49
-0.76 -18.44 2.49
-0.39 -18.43 2.49
-0.02 -15.74 2.49
0.29 -15.71 2.49
0.61 -15.69 2.49
0.92 -15.65 2.49
1.23 -15.61 2.49
1.54 -15.56 2.49
1.85 -15.51 2.49
2.16 -15.45 2.49
2.47 -15.39 2.49
2.66 -14.68 2.39
2.95 -14.61 2.39
3.24 -14.53 2.39
3.52 -14.44 2.39
3.81 -14.35 2.39
4.09 -14.25 2.39
4.37 -14.14 2.39
4.64 -14.04 2.39
4.92 -13.92 2.39
5.19 -13.80 2.39
5.46 -13.68 2.39
5.72 -13.55 2.39
5.98 -13.41 2.39
6.24 -13.27 2.39
6.50 -13.12 2.39
6.76 -12.99 2.39
7.01 -12.83 2.39
7.26 -12.67 2.39
7.50 -12.51 2.39
7.74 -12.34 2.39
7.97 -12.16 2.39
8.20 -11.98 2.39
8.43 -11.80 2.39
8.66 -11.61 2.39
8.87 -11.42 2.39
9.09 -11.22 2.39
9.30 -11.03 2.39
9.51 -10.82 2.39
9.71 -10.61 2.39
9.91 -10.40 2.39
10.10 -10.19 2.39
10.29 -9.97 2.39
10.48 -9.75 2.39
10.66 -9.53 2.39
10.83 -9.30 2.39
11.00 -9.07 2.39
11.17 -8.83 2.39
11.33 -8.60 2.39
11.48 -8.36 2.39
11.63 -8.11 2.39
11.78 -7.87 2.39
11.92 -7.62 2.39
12.06 -7.37 2.39
12.13 -7.09 2.38
12.13 -6.76 2.36
12.12 -6.44 2.33
12.11 -6.12 2.31
12.10 -5.82 2.29
12.09 -5.52 2.27
12.08 -5.22 2.25
12.07 -4.93 2.23
12.07 -4.65 2.21
12.06 -4.37 2.20
12.05 -4.10 2.18
12.04 -3.83 2.17
12.02 -3.55 2.15
11.96 -3.28 2.13
11.95 -3.02 2.12
11.91 -2.75 2.11
11.90 -2.50 2.10
11.89 -2.25 2.09
11.89 -2.00 2.08
11.91 -1.76 2.08
10.49 -1.34 1.83
11.97 -1.28 2.09
11.96 -1.04 2.08
11.96 -0.79 2.08
11.95 -0.55 2.08
11.94 -0.31 2.08
11.94 -0.07 2.08
11.93 0.17 2.08
11.92 0.41 2.08
11.91 0.65 2.08
11.91 0.89 2.08
11.90 1.13 2.09
11.89 1.37 2.09
11.89 1.61 2.10
11.88 1.85 2.10
11.87 2.10 2.11
11.87 2.34 2.12
11.04 2.41 1.98
10.89 2.61 1.96
10.65 2.78 1.93
10.37 2.93 1.89
10.28 3.13 1.88
10.17 3.32 1.88
10.21 3.56 1.90
10.20 3.79 1.91
10.17 4.01 1.92
10.07 4.21 1.92
10.25 4.53 1.97
10.95 5.11 2.12
11.50 5.65 2.25
11.49 5.93 2.27
11.12 6.03 2.22
10.58 6.01 2.14
10.08 6.00 2.06
9.61 5.98 1.99
9.17 5.97 1.93
8.93 6.07 1.90
9.68 6.87 2.09
9.67 7.16 2.12
9.66 7.46 2.15
9.31 7.49 2.10
8.92 7.48 2.05
8.89 7.76 2.08
9.44 8.59 2.24
9.43 8.93 2.28
9.34 9.20 2.30
8.97 9.21 2.26
9.32 9.95 2.39
9.12 10.14 2.39
8.91 10.33 2.39
8.71 10.51 2.39
8.50 10.68 2.39
8.29 10.86 2.39
8.07 11.03 2.39
7.85 11.19 2.39
7.63 11.35 2.39
7.40 11.51 2.39
7.17 11.66 2.39
6.94 11.81 2.39
6.70 11.95 2.39
6.47 12.09 2.39
6.22 12.23 2.39
5.98 12.36 2.39
5.73 12.47 2.39
5.48 12.59 2.39
5.23 12.71 2.39
4.98 12.82 2.39
4.72 12.93 2.39
4.47 13.03 2.39
4.21 13.13 2.39
3.94 13.22 2.39
3.68 13.31 2.39
3.42 13.39 2.39
3.15 13.47 2.39
2.88 13.54 2.39
2.61 13.61 2.39
2.34 13.67 2.39
2.06 13.73 2.39
1.79 13.78 2.39
1.58 14.42 2.49
1.29 14.47 2.49
1.00 14.51 2.49
0.71 14.54 2.49
0.42 14.56 2.49
0.12 14.59 2.49
-0.17 14.60 2.49
-0.46 14.61 2.49
-0.76 14.61 2.49
-1.05 14.61 2.49
-1.35 14.61 2.49
-1.64 14.59 2.49
-1.94 14.57 2.49
-2.23 14.55 2.49
-2.53 14.52 2.49
-2.82 14.48 2.49
-3.11 14.44 2.49
-3.41 14.39 2.49
-3.70 14.34 2.49
-3.99 14.28 2.49
-4.29 14.22 2.49
-4.58 14.15 2.49
-4.87 14.07 2.49
-5.15 13.99 2.49
-5.44 13.90 2.49
-5.73 13.80 2.49
-6.01 13.70 2.49
-6.29 13.60 2.49
-6.30 12.94 2.39
-6.57 12.82 2.39
-6.83 12.70 2.39
-7.10 12.58 2.39
-7.36 12.45 2.39
-7.62 12.32 2.39
-7.87 12.18 2.39
-8.13 12.03 2.39
-8.38 11.88 2.39
-8.63 11.73 2.39
-8.87 11.57 2.39
-9.11 11.40 2.39
-9.35 11.23 2.39
-9.59 11.06 2.39
-9.82 10.88 2.39
-10.05 10.69 2.39
-10.34 10.57 2.41
-10.48 10.29 2.39
-10.62 10.01 2.37
-10.75 9.74 2.35
-10.88 9.47 2.33
-11.02 9.20 2.32
-11.15 8.94 2.31
-11.37 8.75 2.31
-11.44 8.44 2.29
-11.46 8.11 2.26
-11.48 7.78 2.23
-11.50 7.46 2.20
-11.55 7.17 2.18
-11.58 6.87 2.15
-11.61 6.57 2.13
-11.63 6.28 2.11
-11.65 6.00 2.09
-11.67 5.71 2.07
-11.71 5.45 2.05
-11.78 5.19 2.04
-11.84 4.94 2.03
-11.87 4.67 2.02
-11.91 4.41 2.01
-11.94 4.16 2.00
-11.97 3.90 1.99
-12.11 3.68 2.00
-6.47 1.82 1.06
-12.40 3.23 2.02
-12.55 3.00 2.03
-12.59 2.74 2.02
-12.62 2.49 2.02
-12.68 2.24 2.02
-12.74 1.98 2.02
-12.80 1.73 2.02
-12.85 1.48 2.02
-12.91 1.22 2.02
-12.96 0.96 2.03
-12.97 0.70 2.02
-12.97 0.44 2.02
-12.97 0.18 2.02
-12.97 -0.08 2.02
-12.97 -0.34 2.01
-12.96 -0.60 2.01
-12.95 -0.86 2.01
-12.94 -1.12 2.01
-13.00 -1.38 2.02
-13.02 -1.65 2.03
-13.04 -1.92 2.04
-13.07 -2.19 2.05
-13.09 -2.47 2.06
-13.11 -2.74 2.07
-13.12 -3.02 2.08
-13.11 -3.30 2.08
-13.10 -3.58 2.09
-13.09 -3.86 2.10
-13.08 -4.14 2.11
-13.07 -4.43 2.12
-13.05 -4.72 2.14
-13.04 -5.01 2.15
-12.97 -5.28 2.15
-12.87 -5.54 2.15
-12.71 -5.78 2.15
-12.54 -6.01 2.14
-12.38 -6.24 2.13
-12.22 -6.47 2.12
-12.05 -6.69 2.12
-11.89 -6.92 2.11
-11.72 -7.14 2.11
-11.66 -7.42 2.12
-11.60 -7.72 2.14
-11.53 -8.01 2.16
-11.47 -8.31 2.18
-11.39 -8.61 2.19
-11.30 -8.90 2.21
-11.21 -9.20 2.23
-11.13 -9.52 2.25
-11.05 -9.84 2.27
-10.97 -10.17 2.30
-10.88 -10.50 2.33
-10.79 -10.84 2.35
-10.70 -11.19 2.38
-10.66 -11.60 2.43
-10.54 -11.94 2.45
-10.41 -12.28 2.48
-10.27 -12.62 2.51
-9.55 -12.23 2.39
-9.30 -12.41 2.39
-9.04 -12.59 2.39
-8.78 -12.76 2.39
-8.52 -12.92 2.39
-8.26 -13.09 2.39
-7.99 -13.24 2.39
-7.71 -13.39 2.39
-7.44 -13.53 2.39
-7.16 -13.67 2.39
-6.88 -13.80 2.39
-6.60 -13.93 2.39
-6.31 -14.04 2.39
-6.03 -14.16 2.39
-5.74 -14.26 2.39
-5.51 -14.55 2.42
-5.37 -15.08 2.49
-5.07 -15.17 2.49
-4.76 -15.26 2.49
-4.45 -15.34 2.49
-4.13 -15.41 2.49
-3.82 -15.47 2.49
-3.51 -15.53 2.49
-3.19 -15.58 2.49
-2.88 -15.63 2.49
-2.56 -15.67 2.49
-2.24 -15.70 2.49
-1.92 -15.72 2.49
-1.61 -15.74 2.49
-1.29 -15.75 2.49
-0.97 -15.76 2.49
-0.66 -15.76 2.49
-0.34 -15.75 2.49
-0.02 -13.73 2.49
0.25 -13.71 2.49
0.53 -13.69 2.49
0.80 -13.66 2.49
1.07 -13.63 2.49
1.34 -13.59 2.49
1.61 -13.55 2.49
1.88 -13.50 2.49
2.15 -13.44 2.49
2.42 -13.38 2.49
2.57 -12.76 2.39
2.82 -12.69 2.39
3.07 -12.62 2.39
3.32 -12.54 2.39
3.57 -12.46 2.39
3.81 -12.37 2.39
4.06 -12.28 2.39
4.30 -12.18 2.39
4.54 -12.08 2.39
4.77 -11.97 2.39
5.00 -11.86 2.39
5.24 -11.74 2.39
5.46 -11.62 2.39
5.69 -11.49 2.39
5.91 -11.36 2.39
6.13 -11.23 2.39
6.35 -11.09 2.39
6.57 -10.96 2.39
6.78 -10.81 2.39
6.99 -10.66 2.39
7.19 -10.50 2.39
7.39 -10.35 2.39
7.59 -10.18 2.39
7.78 -10.02 2.39
7.97 -9.85 2.39
8.16 -9.67 2.39
8.34 -9.50 2.39
8.52 -9.32 2.39
8.69 -9.13 2.39
8.86 -8.95 2.39
9.03 -8.76 2.39
9.20 -8.56 2.39
9.35 -8.37 2.39
9.51 -8.17 2.39
9.66 -7.97 2.39
9.81 -7.76 2.39
9.95 -7.55 2.39
10.09 -7.35 2.39
10.22 -7.13 2.39
10.35 -6.92 2.39
10.48 -6.70 2.39
10.60 -6.48 2.39
10.72 -6.26 2.39
10.83 -6.04 2.39
10.94 -5.81 2.39
11.04 -5.59 2.39
11.14 -5.36 2.39
11.23 -5.13 2.39
11.32 -4.90 2.39
11.41 -4.67 2.39
11.49 -4.43 2.39
11.56 -4.19 2.39
10.47 -3.56 2.16
10.53 -3.35 2.16
10.59 -3.13 2.16
10.64 -2.92 2.16
10.69 -2.70 2.16
10.73 -2.48 2.16
10.77 -2.26 2.16
10.80 -2.05 2.16
10.83 -1.83 2.16
10.86 -1.61 2.16
10.42 -1.33 2.06
10.90 -1.17 2.16
11.96 -1.04 2.36
11.96 -0.80 2.36
11.95 -0.56 2.36
11.94 -0.31 2.36
11.94 -0.07 2.35
11.93 0.17 2.35
11.92 0.41 2.36
11.91 0.65 2.36
11.91 0.89 2.36
11.90 1.13 2.37
11.89 1.37 2.37
11.89 1.61 2.38
11.88 1.85 2.38
11.87 2.10 2.39
11.84 2.34 2.39
11.04 2.41 2.24
10.92 2.61 2.23
10.70 2.79 2.20
10.37 2.93 2.14
10.28 3.13 2.14
10.17 3.32 2.13
10.21 3.56 2.15
10.20 3.79 2.16
10.19 4.02 2.18
10.07 4.21 2.17
10.25 4.53 2.23
10.40 4.85 2.28
10.79 5.30 2.39
10.68 5.51 2.39
10.57 5.73 2.39
10.45 5.94 2.39
10.08 6.00 2.34
9.61 5.98 2.26
9.17 5.97 2.18
8.94 6.08 2.15
9.43 6.70 2.30
9.32 6.90 2.31
9.31 7.19 2.34
9.30 7.49 2.38
8.92 7.48 2.32
8.90 7.78 2.35
8.90 8.09 2.39
8.73 8.27 2.39
8.57 8.45 2.39
8.40 8.62 2.39
8.22 8.79 2.39
8.05 8.95 2.39
7.87 9.12 2.39
7.69 9.28 2.39
7.50 9.43 2.39
7.31 9.58 2.39
7.12 9.73 2.39
6.93 9.88 2.39
6.73 10.02 2.39
6.53 10.16 2.39
6.33 10.29 2.39
6.12 10.42 2.39
5.91 10.55 2.39
5.70 10.66 2.39
5.48 10.78 2.39
5.27 10.89 2.39
5.05 11.00 2.39
4.83 11.11 2.39
4.61 11.21 2.39
4.39 11.31 2.39
4.16 11.40 2.39
3.94 11.49 2.39
3.71 11.57 2.39
3.48 11.66 2.39
3.24 11.73 2.39
3.01 11.80 2.39
2.77 11.87 2.39
2.54 11.93 2.39
2.30 11.99 2.39
2.06 12.05 2.39
1.82 12.09 2.39
1.64 12.66 2.49
1.39 12.70 2.49
1.13 12.74 2.49
0.88 12.77 2.49
0.62 12.80 2.49
0.36 12.82 2.49
0.11 12.84 2.49
-0.15 12.85 2.49
-0.41 12.86 2.49
-0.67 12.86 2.49
-0.93 12.86 2.49
-1.19 12.85 2.49
-1.45 12.84 2.49
-1.71 12.82 2.49
-1.96 12.79 2.49
-2.22 12.77 2.49
-2.48 12.73 2.49
-2.74 12.69 2.49
-3.00 12.65 2.49
-3.26 12.60 2.49
-3.51 12.55 2.49
-3.77 12.49 2.49
-4.02 12.42 2.49
-4.28 12.35 2.49
-4.53 12.28 2.49
-4.78 12.20 2.49
-5.03 12.12 2.49
-5.28 12.03 2.49
-5.52 11.93 2.49
-5.77 11.83 2.49
-6.01 11.73 2.49
-6.25 11.62 2.49
-6.25 11.07 2.40
-6.45 10.91 2.39
-6.68 10.80 2.39
-6.90 10.67 2.39
-7.12 10.54 2.39
-7.34 10.41 2.39
-7.56 10.27 2.39
-7.77 10.13 2.39
-7.99 9.99 2.39
-8.19 9.84 2.39
-8.40 9.68 2.39
-8.60 9.52 2.39
-8.80 9.36 2.39
-9.00 9.19 2.39
-9.19 9.02 2.39
-9.38 8.84 2.39
-9.57 8.66 2.39
-9.75 8.48 2.39
-9.93 8.29 2.39
-10.11 8.10 2.39
-10.74 8.26 2.50
-10.81 7.98 2.47
-10.89 7.70 2.45
-10.96 7.42 2.43
-11.02 7.15 2.41
-11.08 6.87 2.39
-11.17 6.62 2.38
-11.20 6.34 2.35
-11.23 6.06 2.33
-11.25 5.79 2.31
-11.27 5.51 2.29
-11.29 5.25 2.27
-11.35 5.00 2.26
-11.39 4.74 2.24
-11.42 4.49 2.23
-11.46 4.24 2.22
-11.49 4.00 2.20
-11.52 3.75 2.19
-11.55 3.51 2.18
-6.47 1.82 1.21
-11.82 3.07 2.20
-11.88 2.84 2.20
-11.91 2.59 2.20
-11.94 2.35 2.19
-11.97 2.11 2.19
-11.99 1.86 2.18
-12.05 1.63 2.18
-12.10 1.39 2.18
-12.15 1.15 2.19
-12.19 0.90 2.19
-12.21 0.66 2.19
-12.23 0.42 2.19
-12.25 0.17 2.19
-12.24 -0.07 2.19
-12.24 -0.32 2.19
-12.23 -0.57 2.18
-12.22 -0.81 2.18
-12.21 -1.06 2.18
-12.23 -1.30 2.19
-12.25 -1.56 2.20
-12.27 -1.81 2.20
-12.34 -2.07 2.22
-12.40 -2.34 2.24
-12.47 -2.61 2.26
-12.54 -2.89 2.28
-12.58 -3.17 2.30
-12.53 -3.42 2.30
-12.50 -3.68 2.31
-12.48 -3.95 2.32
-12.45 -4.22 2.33
-12.42 -4.49 2.34
-12.39 -4.76 2.35
-12.35 -5.03 2.36
-12.30 -5.30 2.37
-12.24 -5.57 2.38
-12.17 -5.83 2.39
-12.01 -6.05 2.38
-11.85 -6.28 2.37
-11.69 -6.50 2.36
-11.54 -6.71 2.36
-11.38 -6.93 2.35
-11.22 -7.14 2.35
-11.16 -7.42 2.37
-11.09 -7.71 2.39
-11.03 -7.99 2.41
-10.96 -8.28 2.43
-10.89 -8.58 2.45
-10.81 -8.87 2.47
-10.73 -9.18 2.50
-10.56 -9.40 2.50
-10.37 -9.61 2.50
-10.18 -9.82 2.50
-9.54 -9.58 2.39
-9.34 -9.76 2.39
-9.14 -9.94 2.39
-8.94 -10.12 2.39
-8.73 -10.30 2.39
-8.52 -10.47 2.39
-8.30 -10.63 2.39
-8.08 -10.79 2.39
-7.86 -10.94 2.39
-7.64 -11.09 2.39
-7.41 -11.24 2.39
-7.18 -11.38 2.39
-6.95 -11.52 2.39
-6.71 -11.65 2.39
-6.47 -11.77 2.39
-6.23 -11.89 2.39
-5.99 -12.01 2.39
-5.74 -12.12 2.39
-5.58 -12.40 2.43
-5.47 -12.85 2.49
-5.21 -12.95 2.49
-4.95 -13.04 2.49
-4.68 -13.13 2.49
-4.41 -13.21 2.49
-4.15 -13.29 2.49
-3.87 -13.36 2.49
-3.60 -13.42 2.49
-3.33 -13.48 2.49
-3.06 -13.53 2.49
-2.78 -13.58 2.49
-2.51 -13.62 2.49
-2.23 -13.65 2.49
-1.96 -13.68 2.49
-1.68 -13.71 2.49
-1.40 -13.73 2.49
-1.13 -13.74 2.49
-0.85 -13.74 2.49
-0.57 -13.74 2.49
-0.30 -13.74 2.49
-0.02 -12.16 2.49
0.22 -12.15 2.49
0.46 -12.13 2.49
0.71 -12.11 2.49
0.95 -12.08 2.49
1.19 -12.05 2.49
1.43 -12.01 2.49
1.67 -11.97 2.49
1.91 -11.92 2.49
2.14 -11.87 2.49
2.38 -11.81 2.49
2.50 -11.26 2.39
2.73 -11.20 2.39
2.95 -11.13 2.39
3.17 -11.06 2.39
3.38 -10.98 2.39
3.60 -10.90 2.39
3.81 -10.81 2.39
4.03 -10.72 2.39
4.23 -10.63 2.39
4.44 -10.53 2.39
4.65 -10.43 2.39
4.85 -10.32 2.39
5.05 -10.21 2.39
5.25 -10.10 2.39
5.45 -9.98 2.39
5.64 -9.86 2.39
5.83 -9.73 2.39
6.02 -9.60 2.39
6.20 -9.47 2.39
6.38 -9.33 2.39
6.57 -9.20 2.39
6.75 -9.06 2.39
6.92 -8.91 2.39
7.09 -8.76 2.39
7.26 -8.61 2.39
7.42 -8.45 2.39
7.58 -8.29 2.39
7.74 -8.13 2.39
7.89 -7.97 2.39
8.04 -7.80 2.39
8.19 -7.63 2.39
8.33 -7.45 2.39
8.47 -7.28 2.39
8.60 -7.10 2.39
8.74 -6.92 2.39
8.86 -6.73 2.39
8.99 -6.55 2.39
9.11 -6.36 2.39
9.23 -6.17 2.39
9.34 -5.98 2.39
9.45 -5.78 2.39
9.55 -5.59 2.39
9.65 -5.39 2.39
9.75 -5.19 2.39
9.85 -4.99 2.39
9.93 -4.78 2.39
10.02 -4.58 2.39
10.10 -4.37 2.39
10.18 -4.16 2.39
10.25 -3.96 2.39
10.32 -3.75 2.39
10.35 -3.52 2.39
10.34 -3.29 2.37
10.33 -3.06 2.36
10.33 -2.83 2.34
10.32 -2.61 2.33
10.31 -2.39 2.32
10.31 -2.17 2.31
10.30 -1.95 2.30
10.30 -1.74 2.29
10.29 -1.52 2.29
10.28 -1.31 2.28
10.74 -1.15 2.38
10.83 -0.94 2.39
10.84 -0.72 2.39
10.85 -0.51 2.39
10.85 -0.29 2.39
10.84 -0.07 2.39
10.84 0.15 2.39
10.83 0.37 2.39
10.81 0.58 2.39
10.79 0.80 2.39
10.77 1.02 2.39
10.74 1.23 2.39
10.71 1.45 2.39
10.67 1.66 2.39
10.63 1.88 2.39
10.59 2.09 2.39
10.54 2.30 2.39
10.49 2.51 2.39
10.43 2.72 2.39
10.37 2.93 2.39
10.28 3.13 2.39
10.17 3.32 2.38
10.12 3.53 2.38
10.08 3.75 2.39
10.01 3.95 2.39
9.93 4.15 2.39
9.84 4.35 2.39
9.75 4.54 2.39
9.65 4.74 2.39
9.55 4.93 2.39
9.45 5.12 2.39
9.35 5.31 2.39
9.24 5.50 2.39
9.12 5.68 2.39
9.01 5.86 2.39
8.89 6.04 2.39
8.77 6.22 2.39
8.64 6.40 2.39
8.51 6.57 2.39
8.38 6.74 2.39
8.24 6.91 2.39
8.10 7.07 2.39
7.96 7.24 2.39
7.81 7.40 2.39
7.66 7.55 2.39
7.51 7.71 2.39
7.35 7.86 2.39
7.20 8.01 2.39
7.04 8.15 2.39
6.87 8.29 2.39
6.71 8.43 2.39
6.54 8.57 2.39
6.37 8.70 2.39
6.19 8.83 2.39
6.01 8.96 2.39
5.83 9.07 2.39
5.65 9.19 2.39
5.46 9.31 2.39
5.28 9.42 2.39
5.09 9.53 2.39
4.90 9.63 2.39
4.71 9.73 2.39
4.51 9.83 2.39
4.32 9.93 2.39
4.12 10.02 2.39
3.92 10.10 2.39
3.72 10.19 2.39
3.51 10.27 2.39
3.31 10.34 2.39
3.10 10.41 2.39
2.89 10.48 2.39
2.69 10.54 2.39
2.47 10.60 2.39
2.26 10.66 2.39
2.05 10.71 2.39
1.83 10.76 2.39
1.69 11.26 2.49
1.46 11.30 2.49
1.24 11.34 2.49
1.01 11.37 2.49
0.78 11.40 2.49
0.55 11.42 2.49
0.32 11.44 2.49
0.09 11.45 2.49
-0.14 11.46 2.49
-0.37 11.47 2.49
-0.60 11.47 2.49
-0.83 11.47 2.49
-1.06 11.46 2.49
-1.29 11.44 2.49
-1.52 11.43 2.49
-1.75 11.40 2.49
-1.99 11.38 2.49
-2.22 11.35 2.49
-2.45 11.31 2.49
-2.67 11.27 2.49
-2.90 11.23 2.49
-3.13 11.18 2.49
-3.36 11.12 2.49
-3.59 11.06 2.49
-3.81 11.00 2.49
-4.03 10.93 2.49
-4.26 10.86 2.49
-4.48 10.79 2.49
-4.70 10.70 2.49
-4.92 10.62 2.49
-5.14 10.53 2.49
-5.35 10.44 2.49
-5.57 10.34 2.49
-5.78 10.23 2.49
-5.99 10.13 2.49
-6.20 10.02 2.49
-6.20 9.58 2.42
-6.34 9.37 2.39
-6.53 9.26 2.39
-6.72 9.13 2.39
-6.91 9.01 2.39
-7.10 8.87 2.39
-7.28 8.74 2.39
-7.47 8.60 2.39
-7.64 8.46 2.39
-7.82 8.31 2.39
-8.00 8.16 2.39
-8.17 8.01 2.39
-8.33 7.85 2.39
-8.50 7.69 2.39
-8.66 7.53 2.39
-8.82 7.36 2.39
-8.97 7.19 2.39
-9.13 7.01 2.39
-9.27 6.84 2.39
-9.42 6.66 2.39
-9.56 6.47 2.39
-9.70 6.29 2.39
-9.83 6.10 2.39
-9.96 5.90 2.39
-10.09 5.71 2.39
-10.38 5.60 2.43
-10.46 5.37 2.42
-10.53 5.15 2.41
-10.60 4.92 2.40
-10.67 4.70 2.39
-10.76 4.48 2.39
-10.85 4.27 2.39
-10.95 4.05 2.39
-11.03 3.83 2.39
-11.10 3.61 2.39
-6.41 1.94 1.37
-6.43 1.81 1.36
-11.24 2.92 2.37
-11.27 2.69 2.36
-11.30 2.46 2.35
-11.32 2.23 2.35
-11.35 2.00 2.34
-11.37 1.77 2.34
-11.39 1.54 2.33
-11.42 1.31 2.33
-11.46 1.08 2.33
-11.49 0.85 2.33
-11.52 0.62 2.33
-11.53 0.39 2.33
-11.55 0.16 2.33
-11.56 -0.07 2.34
-11.58 -0.30 2.34
-11.58 -0.54 2.34
-11.57 -0.77 2.34
-11.56 -1.00 2.34
-11.57 -1.24 2.34
-11.58 -1.47 2.35
-11.59 -1.71 2.36
-11.60 -1.95 2.37
-11.61 -2.19 2.37
-11.62 -2.44 2.39
-11.67 -2.69 2.41
-11.73 -2.95 2.43
-11.73 -3.20 2.44
-11.68 -3.44 2.44
-11.63 -3.68 2.45
-11.58 -3.92 2.45
-11.52 -4.16 2.46
-11.46 -4.40 2.46
-11.41 -4.65 2.47
-11.37 -4.90 2.48
-11.32 -5.15 2.49
-11.26 -5.39 2.50
-11.19 -5.64 2.51
-11.12 -5.89 2.52
-11.04 -6.13 2.53
-10.96 -6.38 2.54
-10.88 -6.63 2.55
-10.80 -6.88 2.56
-10.67 -7.10 2.57
-10.51 -7.30 2.56
-9.68 -7.01 2.39
-9.53 -7.21 2.39
-9.39 -7.40 2.39
-9.24 -7.58 2.39
-9.08 -7.76 2.39
-8.92 -7.94 2.39
-8.76 -8.12 2.39
-8.60 -8.29 2.39
-8.43 -8.46 2.39
-8.25 -8.63 2.39
-8.08 -8.79 2.39
-7.90 -8.94 2.39
-7.71 -9.10 2.39
-7.53 -9.25 2.39
-7.34 -9.39 2.39
-7.15 -9.53 2.39
-6.95 -9.67 2.39
-6.75 -9.81 2.39
-6.55 -9.93 2.39
-6.35 -10.06 2.39
-6.14 -10.18 2.39
-5.94 -10.30 2.39
-5.72 -10.41 2.39
-5.62 -10.72 2.44
-5.53 -11.08 2.49
-5.30 -11.18 2.49
-5.07 -11.27 2.49
-4.84 -11.37 2.49
-4.61 -11.45 2.49
-4.38 -11.54 2.49
-4.14 -11.62 2.49
-3.91 -11.69 2.49
-3.67 -11.76 2.49
-3.43 -11.82 2.49
-3.19 -11.88 2.49
-2.95 -11.93 2.49
-2.71 -11.98 2.49
-2.47 -12.02 2.49
-2.22 -12.06 2.49
-1.98 -12.09 2.49
-1.73 -12.12 2.49
-1.49 -12.14 2.49
-1.25 -12.16 2.49
-1.00 -12.17 2.49
-0.76 -12.17 2.49
-0.51 -12.18 2.49
-0.27 -12.17 2.49
-0.02 -10.91 2.49
0.20 -10.90 2.49
0.41 -10.88 2.49
0.63 -10.86 2.49
0.85 -10.84 2.49
1.06 -10.81 2.49
1.28 -10.78 2.49
1.49 -10.74 2.49
1.71 -10.70 2.49
1.92 -10.65 2.49
2.13 -10.60 2.49
2.34 -10.55 2.49
2.44 -10.06 2.39
2.64 -10.00 2.39
2.84 -9.93 2.39
3.04 -9.86 2.39
3.23 -9.79 2.39
3.42 -9.71 2.39
3.61 -9.63 2.39
3.80 -9.55 2.39
3.99 -9.46 2.39
4.17 -9.37 2.39
4.36 -9.28 2.39
4.54 -9.18 2.39
4.72 -9.08 2.39
4.89 -8.97 2.39
5.07 -8.86 2.39
5.24 -8.75 2.39
5.41 -8.64 2.39
5.58 -8.52 2.39
5.74 -8.40 2.39
5.90 -8.27 2.39
6.06 -8.14 2.39
6.22 -8.01 2.39
6.37 -7.88 2.39
6.53 -7.75 2.39
6.68 -7.61 2.39
6.82 -7.47 2.39
6.96 -7.32 2.39
7.10 -7.17 2.39
7.24 -7.02 2.39
7.37 -6.87 2.39
7.50 -6.71 2.39
7.62 -6.56 2.39
7.75 -6.39 2.39
7.87 -6.23 2.39
7.98 -6.07 2.39
8.10 -5.90 2.39
8.21 -5.73 2.39
8.31 -5.56 2.39
8.41 -5.39 2.39
8.51 -5.21 2.39
8.61 -5.04 2.39
8.70 -4.86 2.39
8.79 -4.68 2.39
8.87 -4.50 2.39
8.96 -4.31 2.39
9.03 -4.13 2.39
9.11 -3.94 2.39
9.18 -3.76 2.39
9.24 -3.57 2.39
9.31 -3.38 2.39
9.37 -3.19 2.39
9.42 -3.00 2.39
9.47 -2.81 2.39
9.52 -2.61 2.39
9.56 -2.42 2.39
9.60 -2.23 2.39
9.64 -2.03 2.39
9.67 -1.84 2.39
9.70 -1.64 2.39
9.73 -1.44 2.39
9.75 -1.25 2.39
9.76 -1.05 2.39
9.78 -0.85 2.39
9.79 -0.66 2.39
9.79 -0.46 2.39
9.79 -0.26 2.39
9.79 -0.06 2.39
9.79 0.13 2.39
9.78 0.33 2.39
9.76 0.53 2.39
9.75 0.72 2.39
9.72 0.92 2.39
9.70 1.11 2.39
9.67 1.31 2.39
9.64 1.50 2.39
9.60 1.69 2.39
9.56 1.89 2.39
9.52 2.08 2.39
9.47 2.27 2.39
9.42 2.46 2.39
9.37 2.65 2.39
9.31 2.83 2.39
9.25 3.02 2.39
9.18 3.20 2.39
9.12 3.39 2.39
9.04 3.57 2.39
8.97 3.75 2.39
8.89 3.93 2.39
8.81 4.11 2.39
8.72 4.28 2.39
8.63 4.46 2.39
8.54 4.63 2.39
8.45 4.80 2.39
8.35 4.97 2.39
8.25 5.13 2.39
8.14 5.30 2.39
8.03 5.46 2.39
7.92 5.62 2.39
7.81 5.78 2.39
7.69 5.94 2.39
7.57 6.09 2.39
7.44 6.24 2.39
7.32 6.39 2.39
7.19 6.54 2.39
7.06 6.68 2.39
6.92 6.82 2.39
6.78 6.96 2.39
6.64 7.10 2.39
6.50 7.23 2.39
6.36 7.37 2.39
6.21 7.49 2.39
6.06 7.62 2.39
5.90 7.73 2.39
5.74 7.85 2.39
5.59 7.97 2.39
5.43 8.08 2.39
5.26 8.19 2.39
5.10 8.30 2.39
4.93 8.41 2.39
4.77 8.51 2.39
4.60 8.60 2.39
4.42 8.70 2.39
4.25 8.79 2.39
4.07 8.88 2.39
3.90 8.96 2.39
3.72 9.04 2.39
3.54 9.12 2.39
3.35 9.20 2.39
3.17 9.27 2.39
2.99 9.34 2.39
2.80 9.40 2.39
2.61 9.46 2.39
2.42 9.52 2.39
2.23 9.57 2.39
2.04 9.63 2.40
1.86 9.72 2.40
1.72 10.12 2.49
1.52 10.16 2.49
1.32 10.20 2.49
1.11 10.23 2.49
0.91 10.26 2.49
0.70 10.28 2.49
0.50 10.30 2.49
0.29 10.32 2.49
0.08 10.33 2.49
-0.13 10.34 2.49
-0.33 10.34 2.49
-0.54 10.34 2.49
-0.75 10.34 2.49
-0.96 10.33 2.49
-1.17 10.32 2.49
-1.38 10.30 2.49
-1.58 10.28 2.49
-1.79 10.25 2.49
-2.00 10.22 2.49
-2.21 10.19 2.49
-2.41 10.15 2.49
-2.62 10.11 2.49
-2.82 10.07 2.49
-3.03 10.02 2.49
-3.23 9.96 2.49
-3.43 9.91 2.49
-3.64 9.84 2.49
-3.84 9.78 2.49
-4.04 9.71 2.49
-4.23 9.64 2.49
-4.43 9.56 2.49
-4.63 9.48 2.49
-4.82 9.39 2.49
-5.01 9.30 2.49
-5.20 9.21 2.49
-5.39 9.11 2.49
-5.58 9.01 2.49
-5.76 8.90 2.49
-5.95 8.79 2.49
-6.13 8.68 2.49
-6.16 8.37 2.44
-6.22 8.10 2.39
-6.38 7.98 2.39
-6.55 7.85 2.39
-6.71 7.73 2.39
-6.87 7.60 2.39
-7.03 7.47 2.39
-7.19 7.33 2.39
-7.34 7.19 2.39
-7.49 7.05 2.39
-7.64 6.91 2.39
-7.78 6.76 2.39
-7.92 6.61 2.39
-8.06 6.45 2.39
-8.20 6.30 2.39
-8.33 6.14 2.39
-8.46 5.97 2.39
-8.58 5.81 2.39
-8.71 5.64 2.39
-8.83 5.47 2.39
-8.94 5.30 2.39
-9.05 5.12 2.39
-9.16 4.94 2.39
-9.27 4.76 2.39
-9.37 4.58 2.39
-9.47 4.39 2.39
-9.56 4.21 2.39
-9.65 4.02 2.39
-9.74 3.83 2.39
-9.82 3.63 2.39
-9.90 3.44 2.39
-9.98 3.24 2.39
-6.41 1.94 1.53
-6.43 1.81 1.52
-10.42 2.71 2.45
-10.48 2.50 2.45
-10.53 2.29 2.45
-10.58 2.08 2.45
-10.62 1.87 2.45
-10.66 1.65 2.44
-10.70 1.44 2.44
-10.73 1.23 2.44
-10.76 1.01 2.45
-10.81 0.80 2.45
-10.84 0.58 2.45
-10.87 0.37 2.45
-10.89 0.15 2.46
-10.91 -0.07 2.46
-10.93 -0.29 2.46
-10.94 -0.51 2.47
-10.95 -0.73 2.47
-10.96 -0.95 2.48
-10.97 -1.17 2.48
-10.98 -1.40 2.49
-10.99 -1.62 2.50
-11.00 -1.85 2.50
-11.00 -2.08 2.51
-11.00 -2.31 2.52
-11.00 -2.54 2.53
-11.00 -2.77 2.54
-11.00 -3.01 2.56
-10.97 -3.24 2.56
-10.92 -3.46 2.57
-10.87 -3.68 2.57
-10.79 -3.90 2.57
-10.71 -4.12 2.57
-10.63 -4.33 2.57
-9.81 -4.23 2.39
-9.73 -4.43 2.39
-9.64 -4.62 2.39
-9.55 -4.81 2.39
-9.45 -5.00 2.39
-9.35 -5.19 2.39
-9.24 -5.38 2.39
-9.13 -5.56 2.39
-9.02 -5.75 2.39
-8.90 -5.93 2.39
-8.78 -6.10 2.39
-8.66 -6.28 2.39
-8.53 -6.45 2.39
-8.40 -6.62 2.39
-8.27 -6.78 2.39
-8.13 -6.95 2.39
-7.99 -7.11 2.39
-7.84 -7.26 2.39
-7.69 -7.42 2.39
-7.54 -7.57 2.39
-7.39 -7.72 2.39
-7.23 -7.86 2.39
-7.07 -8.00 2.39
-6.90 -8.14 2.39
-6.74 -8.28 2.39
-6.57 -8.41 2.39
-6.40 -8.53 2.39
-6.22 -8.66 2.39
-6.05 -8.78 2.39
-5.88 -8.92 2.40
-5.68 -9.00 2.39
-5.66 -9.37 2.46
-5.54 -9.61 2.49
-5.35 -9.72 2.49
-5.15 -9.82 2.49
-4.95 -9.92 2.49
-4.75 -10.01 2.49
-4.54 -10.10 2.49
-4.34 -10.18 2.49
-4.13 -10.26 2.49
-3.92 -10.33 2.49
-3.71 -10.40 2.49
-3.50 -10.47 2.49
-3.29 -10.53 2.49
-3.08 -10.59 2.49
-2.86 -10.64 2.49
-2.65 -10.69 2.49
-2.43 -10.73 2.49
-2.21 -10.77 2.49
-1.99 -10.80 2.49
-1.78 -10.83 2.49
-1.56 -10.86 2.49
-1.34 -10.88 2.49
-1.12 -10.90 2.49
-0.90 -10.91 2.49
-0.68 -10.92 2.49
-0.46 -10.92 2.49
-0.24 -10.92 2.49
-0.02 -9.88 2.49
0.17 -9.87 2.49
0.37 -9.86 2.49
0.57 -9.84 2.49
0.77 -9.82 2.49
0.96 -9.80 2.49
1.16 -9.77 2.49
1.35 -9.73 2.49
1.55 -9.70 2.49
1.74 -9.65 2.49
1.93 -9.61 2.49
2.12 -9.56 2.49
2.31 -9.51 2.49
2.39 -9.06 2.39
2.57 -9.01 2.39
2.75 -8.94 2.39
2.93 -8.88 2.39
3.10 -8.81 2.39
3.27 -8.74 2.39
3.45 -8.66 2.39
3.62 -8.58 2.39
3.78 -8.50 2.39
3.95 -8.42 2.39
4.12 -8.33 2.39
4.28 -8.24 2.39
4.44 -8.14 2.39
4.60 -8.04 2.39
4.75 -7.94 2.39
4.91 -7.84 2.39
5.06 -7.73 2.39
5.21 -7.62 2.39
5.36 -7.51 2.39
5.50 -7.39 2.39
5.64 -7.28 2.39
5.78 -7.15 2.39
5.92 -7.03 2.39
6.05 -6.90 2.39
6.19 -6.78 2.39
6.32 -6.64 2.39
6.45 -6.52 2.39
6.57 -6.38 2.39
6.69 -6.24 2.39
6.81 -6.10 2.39
6.93 -5.96 2.39
7.04 -5.81 2.39
7.15 -5.67 2.39
7.25 -5.52 2.39
7.36 -5.36 2.39
7.46 -5.21 2.39
7.56 -5.06 2.39
7.65 -4.90 2.39
7.74 -4.74 2.39
7.83 -4.58 2.39
7.91 -4.42 2.39
7.99 -4.26 2.39
8.07 -4.09 2.39
8.14 -3.93 2.39
8.22 -3.76 2.39
8.28 -3.59 2.39
8.35 -3.42 2.39
8.41 -3.25 2.39
8.47 -3.08 2.39
8.52 -2.90 2.39
8.57 -2.73 2.39
8.62 -2.56 2.39
8.66 -2.38 2.39
8.70 -2.20 2.39
8.74 -2.03 2.39
8.77 -1.85 2.39
8.80 -1.67 2.39
8.83 -1.49 2.39
8.85 -1.32 2.39
8.87 -1.14 2.39
8.89 -0.96 2.39
8.90 -0.78 2.39
8.91 -0.60 2.39
8.92 -0.42 2.39
8.92 -0.24 2.39
8.92 -0.06 2.39
8.91 0.12 2.39
8.90 0.30 2.39
8.89 0.48 2.39
8.88 0.66 2.39
8.86 0.83 2.39
8.83 1.01 2.39
8.81 1.19 2.39
8.78 1.37 2.39
8.75 1.54 2.39
8.71 1.72 2.39
8.67 1.89 2.39
8.63 2.06 2.39
8.58 2.24 2.39
8.54 2.41 2.39
8.48 2.58 2.39
8.43 2.75 2.39
8.37 2.92 2.39
8.31 3.08 2.39
8.24 3.25 2.39
8.17 3.42 2.39
8.10 3.58 2.39
8.03 3.74 2.39
7.95 3.90 2.39
7.87 4.06 2.39
7.78 4.22 2.39
7.70 4.37 2.39
7.61 4.53 2.39
7.51 4.68 2.39
7.42 4.83 2.39
7.32 4.98 2.39
7.22 5.12 2.39
7.11 5.27 2.39
7.01 5.41 2.39
6.90 5.55 2.39
6.78 5.69 2.39
6.67 5.82 2.39
6.55 5.96 2.39
6.43 6.09 2.39
6.31 6.22 2.39
6.18 6.35 2.39
6.05 6.47 2.39
5.92 6.58 2.39
5.78 6.70 2.39
5.65 6.82 2.39
5.51 6.93 2.39
5.37 7.05 2.39
5.23 7.15 2.39
5.09 7.26 2.39
4.94 7.36 2.39
4.79 7.46 2.39
4.65 7.56 2.39
4.49 7.66 2.39
4.34 7.75 2.39
4.19 7.84 2.39
4.03 7.92 2.39
3.87 8.01 2.39
3.71 8.09 2.39
3.55 8.16 2.39
3.38 8.24 2.39
3.22 8.31 2.39
3.05 8.37 2.39
2.89 8.44 2.39
2.72 8.50 2.39
2.55 8.56 2.39
2.38 8.61 2.39
2.20 8.66 2.39
2.03 8.71 2.39
1.88 8.86 2.42
1.75 9.17 2.49
1.57 9.21 2.49
1.38 9.25 2.49
1.20 9.28 2.49
1.01 9.31 2.49
0.82 9.33 2.49
0.64 9.36 2.49
0.45 9.37 2.49
0.26 9.39 2.49
0.07 9.40 2.49
-0.12 9.40 2.49
-0.31 9.41 2.49
-0.50 9.41 2.49
-0.68 9.40 2.49
-0.87 9.39 2.49
-1.06 9.38 2.49
-1.25 9.36 2.49
-1.44 9.34 2.49
-1.63 9.32 2.49
-1.82 9.29 2.49
-2.01 9.26 2.49
-2.19 9.23 2.49
-2.38 9.19 2.49
-2.57 9.15 2.49
-2.75 9.10 2.49
-2.94 9.05 2.49
-3.12 9.00 2.49
-3.31 8.94 2.49
-3.49 8.88 2.49
-3.67 8.82 2.49
-3.85 8.75 2.49
-4.03 8.68 2.49
-4.20 8.60 2.49
-4.38 8.53 2.49
-4.55 8.44 2.49
-4.73 8.36 2.49
-4.90 8.27 2.49
-5.07 8.18 2.49
-5.24 8.08 2.49
-5.40 7.98 2.49
-5.57 7.88 2.49
-5.73 7.77 2.49
-5.89 7.66 2.49
-6.05 7.55 2.49
-6.13 7.35 2.47
-6.13 7.06 2.41
-6.24 6.89 2.39
-6.38 6.77 2.39
-6.52 6.65 2.39
-6.66 6.52 2.39
-6.79 6.39 2.39
-6.93 6.26 2.39
-7.06 6.13 2.39
-7.18 5.99 2.39
-7.31 5.85 2.39
-7.43 5.71 2.39
-7.55 5.56 2.39
-7.67 5.41 2.39
-7.78 5.26 2.39
-7.89 5.11 2.39
-8.00 4.95 2.39
-8.10 4.80 2.39
-8.21 4.64 2.39
-8.30 4.48 2.39
-8.40 4.31 2.39
-8.49 4.15 2.39
-8.58 3.98 2.39
-8.66 3.81 2.39
-8.74 3.64 2.39
-8.82 3.46 2.39
-8.90 3.29 2.39
-8.97 3.11 2.39
-9.03 2.93 2.39
-6.41 1.94 1.68
-6.43 1.81 1.68
-9.21 2.39 2.39
-9.27 2.21 2.39
-9.31 2.02 2.39
-9.36 1.84 2.39
-9.40 1.65 2.39
-9.44 1.46 2.39
-9.47 1.27 2.39
-9.50 1.08 2.39
-9.53 0.89 2.39
-9.55 0.70 2.39
-9.56 0.51 2.39
-9.58 0.32 2.39
-9.59 0.13 2.39
-9.59 -0.06 2.39
-9.59 -0.25 2.39
-9.59 -0.45 2.39
-9.59 -0.64 2.39
-9.58 -0.83 2.39
-9.56 -1.02 2.39
-9.54 -1.22 2.39
-9.52 -1.41 2.39
-9.49 -1.60 2.39
-9.46 -1.79 2.39
-9.43 -1.98 2.39
-9.39 -2.17 2.39
-9.35 -2.36 2.39
-9.30 -2.54 2.39
-9.25 -2.73 2.39
-9.20 -2.91 2.39
-9.14 -3.10 2.39
-9.08 -3.28 2.39
-9.01 -3.46 2.39
-8.94 -3.64 2.39
-8.87 -3.82 2.39
-8.79 -4.00 2.39
-8.71 -4.18 2.39
-8.63 -4.35 2.39
-8.54 -4.52 2.39
-8.45 -4.69 2.39
-8.35 -4.86 2.39
-8.26 -5.03 2.39
-8.15 -5.19 2.39
-8.05 -5.36 2.39
-7.94 -5.52 2.39
-7.83 -5.67 2.39
-7.71 -5.83 2.39
-7.59 -5.98 2.39
-7.47 -6.13 2.39
-7.35 -6.28 2.39
-7.22 -6.42 2.39
-7.09 -6.57 2.39
-6.95 -6.71 2.39
-6.82 -6.84 2.39
-6.68 -6.98 2.39
-6.53 -7.11 2.39
-6.39 -7.24 2.39
-6.24 -7.36 2.39
-6.09 -7.48 2.39
-5.94 -7.60 2.39
-5.78 -7.71 2.39
-5.70 -7.93 2.42
-5.69 -8.26 2.49
-5.53 -8.39 2.49
-5.36 -8.49 2.49
-5.19 -8.60 2.49
-5.01 -8.69 2.49
-4.84 -8.79 2.49
-4.66 -8.88 2.49
-4.48 -8.97 2.49
-4.30 -9.05 2.49
-4.11 -9.13 2.49
-3.93 -9.21 2.49
-3.74 -9.28 2.49
-3.55 -9.35 2.49
-3.36 -9.41 2.49
-3.17 -9.47 2.49
-2.98 -9.53 2.49
-2.78 -9.58 2.49
-2.59 -9.63 2.49
-2.40 -9.67 2.49
-2.20 -9.71 2.49
-2.00 -9.75 2.49
-1.81 -9.78 2.49
-1.61 -9.81 2.49
-1.41 -9.83 2.49
-1.21 -9.85 2.49
-1.02 -9.87 2.49
-0.82 -9.88 2.49
-0.62 -9.88 2.49
-0.42 -9.89 2.49
-0.22 -9.89 2.49
-0.02 -9.02 2.49
0.16 -9.01 2.49
0.34 -9.00 2.49
0.52 -8.99 2.49
0.70 -8.97 2.49
0.88 -8.94 2.49
1.05 -8.92 2.49
1.23 -8.89 2.49
1.41 -8.86 2.49
1.59 -8.82 2.49
1.76 -8.78 2.49
1.93 -8.73 2.49
2.11 -8.69 2.49
2.28 -8.64 2.49
2.37 -8.30 2.41
2.51 -8.17 2.39
2.67 -8.11 2.39
2.83 -8.05 2.39
2.99 -7.99 2.39
3.15 -7.92 2.39
3.30 -7.85 2.39
3.46 -7.77 2.39
3.61 -7.70 2.39
3.76 -7.62 2.39
3.91 -7.53 2.39
4.06 -7.45 2.39
4.20 -7.36 2.39
4.34 -7.27 2.39
4.49 -7.17 2.39
4.62 -7.07 2.39
4.76 -6.97 2.39
4.90 -6.87 2.39
5.03 -6.77 2.39
5.16 -6.66 2.39
5.29 -6.55 2.39
5.41 -6.43 2.39
5.54 -6.32 2.39
5.66 -6.20 2.39
5.78 -6.08 2.39
5.89 -5.96 2.39
6.01 -5.84 2.39
6.12 -5.71 2.39
6.23 -5.58 2.39
6.34 -5.46 2.39
6.44 -5.32 2.39
6.54 -5.19 2.39
6.64 -5.05 2.39
6.74 -4.91 2.39
6.83 -4.77 2.39
6.92 -4.63 2.39
7.00 -4.49 2.39
7.09 -4.34 2.39
7.17 -4.20 2.39
7.25 -4.05 2.39
7.32 -3.90 2.39
7.39 -3.75 2.39
7.46 -3.60 2.39
7.53 -3.44 2.39
7.59 -3.29 2.39
7.65 -3.14 2.39
7.70 -2.98 2.39
7.76 -2.82 2.39
7.81 -2.66 2.39
7.85 -2.50 2.39
7.90 -2.34 2.39
7.94 -2.18 2.39
7.98 -2.02 2.39
8.01 -1.86 2.39
8.04 -1.70 2.39
8.07 -1.53 2.39
8.09 -1.37 2.39
8.12 -1.21 2.39
8.13 -1.04 2.39
8.15 -0.88 2.39
8.16 -0.71 2.39
8.17 -0.55 2.39
8.17 -0.38 2.39
8.18 -0.22 2.39
8.18 -0.06 2.39
8.17 0.11 2.39
8.16 0.27 2.39
8.15 0.44 2.39
8.14 0.60 2.39
8.12 0.76 2.39
8.10 0.93 2.39
8.08 1.09 2.39
8.05 1.25 2.39
8.02 1.41 2.39
7.99 1.57 2.39
7.96 1.73 2.39
7.92 1.89 2.39
7.88 2.05 2.39
7.83 2.21 2.39
7.78 2.37 2.39
7.73 2.52 2.39
7.68 2.68 2.39
7.62 2.83 2.39
7.56 2.98 2.39
7.50 3.13 2.39
7.43 3.28 2.39
7.36 3.43 2.39
7.29 3.58 2.39
7.22 3.72 2.39
7.14 3.87 2.39
7.06 4.01 2.39
6.98 4.15 2.39
6.89 4.29 2.39
6.81 4.43 2.39
6.71 4.57 2.39
6.62 4.70 2.39
6.53 4.83 2.39
6.43 4.96 2.39
6.33 5.09 2.39
6.22 5.22 2.39
6.12 5.34 2.39
6.01 5.47 2.39
5.89 5.58 2.39
5.78 5.70 2.39
5.66 5.82 2.39
5.55 5.93 2.39
5.43 6.04 2.39
5.31 6.15 2.39
5.18 6.26 2.39
5.06 6.36 2.39
4.93 6.46 2.39
4.80 6.56 2.39
4.67 6.66 2.39
4.53 6.76 2.39
4.40 6.85 2.39
4.26 6.94 2.39
4.12 7.02 2.39
3.98 7.11 2.39
3.84 7.19 2.39
3.69 7.27 2.39
3.55 7.34 2.39
3.40 7.42 2.39
3.25 7.49 2.39
3.10 7.55 2.39
2.95 7.62 2.39
2.80 7.68 2.39
2.65 7.74 2.39
2.49 7.79 2.39
2.33 7.85 2.39
2.18 7.90 2.39
2.02 7.94 2.39
1.89 8.14 2.44
1.77 8.37 2.49
1.60 8.41 2.49
1.44 8.45 2.49
1.27 8.48 2.49
1.10 8.51 2.49
0.93 8.53 2.49
0.75 8.56 2.49
0.58 8.57 2.49
0.41 8.59 2.49
0.24 8.60 2.49
0.06 8.61 2.49
-0.11 8.62 2.49
-0.28 8.62 2.49
-0.46 8.62 2.49
-0.63 8.61 2.49
-0.80 8.60 2.49
-0.98 8.59 2.49
-1.15 8.58 2.49
-1.32 8.56 2.49
-1.50 8.54 2.49
-1.67 8.51 2.49
-1.84 8.48 2.49
-2.01 8.45 2.49
-2.18 8.41 2.49
-2.35 8.38 2.49
-2.52 8.33 2.49
-2.69 8.29 2.49
-2.86 8.24 2.49
-3.03 8.19 2.49
-3.19 8.13 2.49
-3.36 8.07 2.49
-3.52 8.01 2.49
-3.69 7.94 2.49
-3.85 7.87 2.49
-4.01 7.80 2.49
-4.17 7.72 2.49
-4.33 7.65 2.49
-4.48 7.56 2.49
-4.64 7.48 2.49
-4.79 7.39 2.49
-4.94 7.30 2.49
-5.09 7.20 2.49
-5.24 7.11 2.49
-5.39 7.00 2.49
-5.53 6.90 2.49
-5.67 6.79 2.49
-5.81 6.68 2.49
-5.95 6.57 2.49
-6.09 6.46 2.49
-6.10 6.22 2.45
-6.10 5.98 2.40
-6.21 5.84 2.39
-6.33 5.72 2.39
-6.45 5.60 2.39
-6.57 5.47 2.39
-6.68 5.34 2.39
-6.79 5.21 2.39
-6.90 5.08 2.39
-7.01 4.94 2.39
-7.11 4.81 2.39
-7.21 4.67 2.39
-7.31 4.52 2.39
-7.40 4.38 2.39
-7.49 4.23 2.39
-7.58 4.09 2.39
-7.67 3.94 2.39
-7.75 3.78 2.39
-7.83 3.63 2.39
-7.91 3.48 2.39
-7.98 3.32 2.39
-8.05 3.16 2.39
-8.12 3.00 2.39
-8.18 2.84 2.39
-8.25 2.68 2.39
-6.40 1.94 1.84
-6.44 1.81 1.84
-8.41 2.18 2.39
-8.46 2.01 2.39
-8.50 1.84 2.39
-8.54 1.67 2.39
-8.58 1.50 2.39
-8.61 1.33 2.39
-8.64 1.16 2.39
-8.67 0.99 2.39
-8.69 0.81 2.39
-8.71 0.64 2.39
-8.72 0.47 2.39
-8.74 0.29 2.39
-8.74 0.12 2.39
-8.75 -0.06 2.39
-8.75 -0.23 2.39
-8.75 -0.41 2.39
-8.74 -0.58 2.39
-8.73 -0.76 2.39
-8.72 -0.93 2.39
-8.70 -1.11 2.39
-8.68 -1.28 2.39
-8.66 -1.46 2.39
-8.63 -1.63 2.39
-8.60 -1.80 2.39
-8.56 -1.98 2.39
-8.52 -2.15 2.39
-8.48 -2.32 2.39
-8.43 -2.49 2.39
-8.39 -2.66 2.39
-8.33 -2.83 2.39
-8.28 -2.99 2.39
-8.22 -3.16 2.39
-8.15 -3.32 2.39
-8.09 -3.49 2.39
-8.02 -3.65 2.39
-7.94 -3.81 2.39
-7.87 -3.97 2.39
-7.78 -4.12 2.39
-7.70 -4.28 2.39
-7.61 -4.43 2.39
-7.52 -4.58 2.39
-7.43 -4.73 2.39
-7.34 -4.88 2.39
-7.24 -5.03 2.39
-7.13 -5.17 2.39
-7.03 -5.31 2.39
-6.92 -5.45 2.39
-6.81 -5.59 2.39
-6.70 -5.72 2.39
-6.58 -5.86 2.39
-6.46 -5.99 2.39
-6.34 -6.11 2.39
-6.21 -6.24 2.39
-6.09 -6.36 2.39
-5.96 -6.48 2.39
-5.82 -6.59 2.39
-5.74 -6.77 2.41
-5.72 -7.03 2.46
-5.65 -7.23 2.49
-5.50 -7.34 2.49
-5.35 -7.44 2.49
-5.20 -7.55 2.49
-5.05 -7.65 2.49
-4.89 -7.74 2.49
-4.73 -7.84 2.49
-4.57 -7.93 2.49
-4.41 -8.01 2.49
-4.25 -8.10 2.49
-4.08 -8.18 2.49
-3.92 -8.25 2.49
-3.75 -8.33 2.49
-3.58 -8.40 2.49
-3.41 -8.46 2.49
-3.24 -8.52 2.49
-3.07 -8.58 2.49
-2.89 -8.64 2.49
-2.72 -8.69 2.49
-2.54 -8.74 2.49
-2.36 -8.78 2.49
-2.19 -8.82 2.49
-2.01 -8.86 2.49
-1.83 -8.89 2.49
-1.65 -8.92 2.49
-1.47 -8.95 2.49
-1.29 -8.97 2.49
-1.11 -8.99 2.49
-0.93 -9.00 2.49
-0.75 -9.01 2.49
-0.57 -9.02 2.49
-0.38 -9.02 2.49
-0.20 -9.02 2.49
-0.02 -8.29 2.49
0.14 -8.28 2.49
0.31 -8.27 2.49
0.47 -8.26 2.49
0.64 -8.24 2.49
0.80 -8.22 2.49
0.97 -8.20 2.49
1.13 -8.17 2.49
1.29 -8.14 2.49
1.46 -8.11 2.49
1.62 -8.07 2.49
1.78 -8.03 2.49
1.94 -7.99 2.49
2.09 -7.94 2.49
2.25 -7.89 2.49
2.35 -7.64 2.43
2.46 -7.46 2.39
2.60 -7.41 2.39
2.75 -7.35 2.39
2.89 -7.28 2.39
3.04 -7.22 2.39
3.18 -7.15 2.39
3.32 -7.08 2.39
3.46 -7.01 2.39
3.59 -6.93 2.39
3.73 -6.85 2.39
3.86 -6.77 2.39
4.00 -6.69 2.39
4.13 -6.60 2.39
4.25 -6.51 2.39
4.38 -6.42 2.39
4.51 -6.33 2.39
4.63 -6.23 2.39
4.75 -6.13 2.39
4.87 -6.03 2.39
4.98 -5.93 2.39
5.10 -5.82 2.39
5.21 -5.71 2.39
5.32 -5.60 2.39
5.43 -5.49 2.39
5.53 -5.38 2.39
5.63 -5.26 2.39
5.73 -5.14 2.39
5.83 -5.02 2.39
5.93 -4.90 2.39
6.02 -4.78 2.39
6.11 -4.65 2.39
6.20 -4.52 2.39
6.29 -4.40 2.39
6.37 -4.27 2.39
6.45 -4.14 2.39
6.53 -4.00 2.39
6.60 -3.87 2.39
6.68 -3.73 2.39
6.75 -3.60 2.39
6.81 -3.46 2.39
6.88 -3.32 2.39
6.94 -3.18 2.39
6.99 -3.03 2.39
7.05 -2.89 2.39
7.10 -2.75 2.39
7.15 -2.60 2.39
7.20 -2.46 2.39
7.24 -2.31 2.39
7.28 -2.16 2.39
7.32 -2.01 2.39
7.35 -1.87 2.39
7.39 -1.72 2.39
7.42 -1.57 2.39
7.44 -1.42 2.39
7.46 -1.27 2.39
7.48 -1.11 2.39
7.50 -0.96 2.39
7.52 -0.81 2.39
7.53 -0.66 2.39
7.54 -0.51 2.39
7.54 -0.36 2.39
7.54 -0.20 2.39
7.54 -0.05 2.39
7.54 0.10 2.39
7.53 0.25 2.39
7.52 0.40 2.39
7.51 0.55 2.39
7.49 0.70 2.39
7.48 0.85 2.39
7.45 1.00 2.39
7.43 1.15 2.39
7.40 1.30 2.39
7.37 1.45 2.39
7.34 1.60 2.39
7.31 1.75 2.39
7.27 1.89 2.39
7.23 2.04 2.39
7.18 2.18 2.39
7.13 2.33 2.39
7.08 2.47 2.39
7.03 2.61 2.39
6.98 2.75 2.39
6.92 2.89 2.39
6.86 3.03 2.39
6.80 3.17 2.39
6.73 3.30 2.39
6.66 3.44 2.39
6.59 3.57 2.39
6.52 3.70 2.39
6.44 3.83 2.39
6.36 3.96 2.39
6.28 4.09 2.39
6.20 4.21 2.39
6.11 4.34 2.39
6.02 4.46 2.39
5.92 4.58 2.39
5.83 4.69 2.39
5.74 4.81 2.39
5.64 4.93 2.39
5.54 5.04 2.39
5.44 5.15 2.39
5.33 5.26 2.39
5.23 5.37 2.39
5.12 5.47 2.39
5.01 5.57 2.39
4.90 5.68 2.39
4.78 5.77 2.39
4.67 5.87 2.39
4.55 5.96 2.39
4.43 6.06 2.39
4.31 6.15 2.39
4.18 6.23 2.39
4.06 6.32 2.39
3.93 6.40 2.39
3.80 6.48 2.39
3.67 6.56 2.39
3.54 6.63 2.39
3.41 6.71 2.39
3.27 6.78 2.39
3.14 6.84 2.39
3.00 6.91 2.39
2.86 6.97 2.39
2.72 7.03 2.39
2.58 7.08 2.39
2.44 7.14 2.39
2.30 7.19 2.39
2.15 7.24 2.39
2.01 7.28 2.39
1.91 7.53 2.46
1.79 7.68 2.49
1.63 7.72 2.49
1.48 7.76 2.49
1.32 7.79 2.49
1.17 7.82 2.49
1.01 7.84 2.49
0.85 7.87 2.49
0.69 7.89 2.49
0.54 7.90 2.49
0.38 7.92 2.49
0.22 7.93 2.49
0.06 7.94 2.49
-0.10 7.94 2.49
-0.26 7.94 2.49
-0.42 7.94 2.49
-0.58 7.94 2.49
-0.74 7.93 2.49
-0.90 7.92 2.49
-1.06 7.90 2.49
-1.22 7.89 2.49
-1.38 7.87 2.49
-1.54 7.84 2.49
-1.70 7.81 2.49
-1.86 7.78 2.49
-2.01 7.75 2.49
-2.17 7.71 2.49
-2.33 7.68 2.49
-2.48 7.63 2.49
-2.64 7.59 2.49
-2.79 7.54 2.49
-2.94 7.49 2.49
-3.10 7.43 2.49
-3.25 7.37 2.49
-3.40 7.31 2.49
-3.55 7.25 2.49
-3.69 7.18 2.49
-3.84 7.11 2.49
-3.98 7.04 2.49
-4.13 6.96 2.49
-4.27 6.88 2.49
-4.41 6.80 2.49
-4.55 6.72 2.49
-4.69 6.63 2.49
-4.82 6.54 2.49
-4.96 6.44 2.49
-5.09 6.35 2.49
-5.22 6.25 2.49
-5.35 6.15 2.49
-5.48 6.05 2.49
-5.60 5.94 2.49
-5.72 5.83 2.49
-5.84 5.72 2.49
-5.96 5.60 2.49
-6.08 5.49 2.49
-6.07 5.27 2.45
-6.08 5.06 2.41
-6.14 4.91 2.39
-6.25 4.79 2.39
-6.35 4.67 2.39
-6.44 4.54 2.39
-6.54 4.42 2.39
-6.63 4.29 2.39
-6.72 4.16 2.39
-6.81 4.02 2.39
-6.89 3.89 2.39
-6.97 3.75 2.39
-7.05 3.62 2.39
-7.13 3.48 2.39
-7.20 3.33 2.39
-7.27 3.19 2.39
-7.34 3.05 2.39
-7.40 2.90 2.39
-7.46 2.76 2.39
-7.52 2.61 2.39
-7.58 2.46 2.39
-6.40 1.94 2.01
-6.44 1.81 2.00
-7.72 2.00 2.39
-7.77 1.85 2.39
-7.81 1.69 2.39
-7.84 1.54 2.39
-7.88 1.38 2.39
-7.91 1.22 2.39
-7.94 1.06 2.39
-7.96 0.91 2.39
-7.98 0.75 2.39
-8.00 0.59 2.39
-8.01 0.43 2.39
-8.02 0.27 2.39
-8.03 0.11 2.39
-8.03 -0.05 2.39
-8.03 -0.22 2.39
-8.03 -0.38 2.39
-8.03 -0.54 2.39
-8.02 -0.70 2.39
-8.00 -0.86 2.39
-7.99 -1.02 2.39
-7.97 -1.18 2.39
-7.95 -1.34 2.39
-7.92 -1.50 2.39
-7.89 -1.66 2.39
-7.86 -1.81 2.39
-7.82 -1.97 2.39
-7.78 -2.13 2.39
-7.74 -2.28 2.39
-7.70 -2.44 2.39
-7.65 -2.59 2.39
-7.60 -2.75 2.39
-7.54 -2.90 2.39
-7.48 -3.05 2.39
-7.42 -3.20 2.39
-7.36 -3.35 2.39
-7.29 -3.49 2.39
-7.22 -3.64 2.39
-7.14 -3.78 2.39
-7.07 -3.93 2.39
-6.99 -4.07 2.39
-6.91 -4.21 2.39
-6.82 -4.34 2.39
-6.73 -4.48 2.39
-6.64 -4.61 2.39
-6.55 -4.75 2.39
-6.45 -4.88 2.39
-6.35 -5.00 2.39
-6.25 -5.13 2.39
-6.15 -5.25 2.39
-6.04 -5.37 2.39
-5.93 -5.49 2.39
-5.82 -5.61 2.39
-5.77 -5.79 2.42
-5.75 -6.01 2.46
-5.70 -6.20 2.49
-5.58 -6.31 2.49
-5.45 -6.42 2.49
-5.32 -6.53 2.49
-5.18 -6.63 2.49
-5.05 -6.73 2.49
-4.91 -6.83 2.49
-4.77 -6.93 2.49
-4.63 -7.02 2.49
-4.49 -7.11 2.49
-4.35 -7.19 2.49
-4.20 -7.28 2.49
-4.05 -7.36 2.49
-3.90 -7.43 2.49
-3.75 -7.51 2.49
-3.60 -7.58 2.49
-3.44 -7.64 2.49
-3.29 -7.71 2.49
-3.13 -7.77 2.49
-2.98 -7.83 2.49
-2.82 -7.88 2.49
-2.66 -7.93 2.49
-2.50 -7.98 2.49
-2.34 -8.02 2.49
-2.17 -8.07 2.49
-2.01 -8.10 2.49
-1.85 -8.14 2.49
-1.68 -8.17 2.49
-1.52 -8.20 2.49
-1.35 -8.22 2.49
-1.19 -8.24 2.49
-1.02 -8.26 2.49
-0.85 -8.27 2.49
-0.69 -8.28 2.49
-0.52 -8.29 2.49
-0.36 -8.29 2.49
-0.19 -8.29 2.49
-0.02 -7.66 2.49
0.13 -7.65 2.49
0.28 -7.64 2.49
0.44 -7.63 2.49
0.59 -7.62 2.49
0.74 -7.60 2.49
0.89 -7.58 2.49
1.04 -7.55 2.49
1.19 -7.53 2.49
1.34 -7.50 2.49
1.49 -7.46 2.49
1.64 -7.43 2.49
1.79 -7.39 2.49
1.93 -7.34 2.49
2.08 -7.30 2.49
2.22 -7.25 2.49
2.33 -7.08 2.45
2.41 -6.85 2.39
2.54 -6.80 2.39
2.67 -6.74 2.39
2.81 -6.68 2.39
2.94 -6.62 2.39
3.07 -6.55 2.39
3.20 -6.48 2.39
3.32 -6.41 2.39
3.45 -6.34 2.39
3.57 -6.27 2.39
3.70 -6.19 2.39
3.82 -6.11 2.39
3.94 -6.03 2.39
4.05 -5.94 2.39
4.17 -5.85 2.39
4.28 -5.77 2.39
4.39 -5.67 2.39
4.50 -5.58 2.39
4.61 -5.49 2.39
4.72 -5.39 2.39
4.82 -5.29 2.39
4.92 -5.19 2.39
5.02 -5.08 2.39
5.12 -4.98 2.39
5.21 -4.87 2.39
5.31 -4.76 2.39
5.40 -4.65 2.39
5.49 -4.54 2.39
5.57 -4.42 2.39
5.66 -4.31 2.39
5.74 -4.19 2.39
5.82 -4.07 2.39
5.89 -3.95 2.39
5.97 -3.83 2.39
6.04 -3.71 2.39
6.11 -3.58 2.39
6.18 -3.46 2.39
6.24 -3.33 2.39
6.31 -3.20 2.39
6.37 -3.08 2.39
6.43 -2.94 2.39
6.48 -2.81 2.39
6.53 -2.68 2.39
6.58 -2.55 2.39
6.63 -2.41 2.39
6.67 -2.28 2.39
6.71 -2.14 2.39
6.75 -2.01 2.39
6.78 -1.87 2.39
6.82 -1.73 2.39
6.85 -1.59 2.39
6.87 -1.45 2.39
6.90 -1.31 2.39
6.92 -1.17 2.39
6.94 -1.03 2.39
6.95 -0.89 2.39
6.97 -0.75 2.39
6.98 -0.61 2.39
6.99 -0.47 2.39
6.99 -0.33 2.39
6.99 -0.19 2.39
6.99 -0.05 2.39
6.99 0.09 2.39
6.98 0.23 2.39
6.97 0.37 2.39
6.96 0.51 2.39
6.95 0.65 2.39
6.93 0.79 2.39
6.91 0.93 2.39
6.89 1.07 2.39
6.87 1.21 2.39
6.84 1.35 2.39
6.81 1.48 2.39
6.77 1.62 2.39
6.74 1.75 2.39
6.70 1.89 2.39
6.66 2.02 2.39
6.62 2.16 2.39
6.57 2.29 2.39
6.52 2.42 2.39
6.47 2.55 2.39
6.42 2.68 2.39
6.36 2.81 2.39
6.30 2.94 2.39
6.24 3.06 2.39
6.18 3.19 2.39
6.11 3.31 2.39
6.04 3.43 2.39
5.97 3.55 2.39
5.89 3.67 2.39
5.82 3.79 2.39
5.74 3.90 2.39
5.66 4.02 2.39
5.58 4.13 2.39
5.49 4.24 2.39
5.41 4.35 2.39
5.32 4.46 2.39
5.23 4.57 2.39
5.14 4.67 2.39
5.04 4.78 2.39
4.95 4.88 2.39
4.85 4.98 2.39
4.75 5.07 2.39
4.64 5.17 2.39
4.54 5.26 2.39
4.43 5.36 2.39
4.33 5.44 2.39
4.22 5.53 2.39
4.10 5.62 2.39
3.99 5.70 2.39
3.88 5.78 2.39
3.76 5.86 2.39
3.64 5.94 2.39
3.52 6.01 2.39
3.40 6.08 2.39
3.28 6.15 2.39
3.16 6.22 2.39
3.03 6.28 2.39
2.91 6.34 2.39
2.78 6.40 2.39
2.65 6.46 2.39
2.52 6.52 2.39
2.39 6.57 2.39
2.26 6.62 2.39
2.13 6.67 2.39
1.99 6.71 2.39
1.93 7.00 2.48
1.80 7.08 2.49
1.66 7.12 2.49
1.51 7.16 2.49
1.37 7.19 2.49
1.22 7.22 2.49
1.08 7.25 2.49
0.93 7.27 2.49
0.79 7.29 2.49
0.64 7.31 2.49
0.49 7.32 2.49
0.35 7.34 2.49
0.20 7.35 2.49
0.05 7.35 2.49
-0.10 7.36 2.49
-0.24 7.36 2.49
-0.39 7.36 2.49
-0.54 7.35 2.49
-0.69 7.34 2.49
-0.84 7.33 2.49
-0.98 7.32 2.49
-1.13 7.30 2.49
-1.28 7.28 2.49
-1.43 7.26 2.49
-1.57 7.24 2.49
-1.72 7.21 2.49
-1.87 7.18 2.49
-2.01 7.14 2.49
-2.16 7.11 2.49
-2.30 7.07 2.49
-2.44 7.02 2.49
-2.59 6.98 2.49
-2.73 6.93 2.49
-2.87 6.88 2.49
-3.01 6.82 2.49
-3.15 6.77 2.49
-3.28 6.71 2.49
-3.42 6.65 2.49
-3.56 6.58 2.49
-3.69 6.51 2.49
-3.82 6.44 2.49
-3.95 6.37 2.49
-4.08 6.29 2.49
-4.21 6.21 2.49
-4.34 6.13 2.49
-4.46 6.05 2.49
-4.59 5.96 2.49
-4.71 5.87 2.49
-4.83 5.78 2.49
-4.95 5.69 2.49
-5.07 5.59 2.49
-5.18 5.49 2.49
-5.29 5.39 2.49
-5.40 5.29 2.49
-5.51 5.18 2.49
-5.62 5.07 2.49
-5.73 4.96 2.49
-5.83 4.85 2.49
-5.93 4.74 2.49
-6.03 4.62 2.49
-6.05 4.45 2.47
-6.05 4.26 2.43
-6.05 4.09 2.39
-6.13 3.96 2.39
-6.21 3.84 2.39
-6.29 3.72 2.39
-6.37 3.59 2.39
-6.44 3.47 2.39
-6.52 3.34 2.39
-6.59 3.21 2.39
-6.65 3.08 2.39
-6.72 2.95 2.39
-6.78 2.81 2.39
-6.84 2.68 2.39
-6.90 2.54 2.39
-6.95 2.41 2.39
-7.00 2.27 2.39
-6.40 1.93 2.17
-6.44 1.80 2.17
-7.14 1.85 2.39
-7.18 1.71 2.39
-7.21 1.56 2.39
-7.25 1.42 2.39
-7.28 1.27 2.39
-7.30 1.13 2.39
-7.33 0.98 2.39
-7.35 0.84 2.39
-7.37 0.69 2.39
-7.39 0.54 2.39
-7.40 0.39 2.39
-7.41 0.25 2.39
-7.41 0.10 2.39
-7.42 -0.05 2.39
-7.42 -0.20 2.39
-7.42 -0.35 2.39
-7.41 -0.50 2.39
-7.40 -0.65 2.39
-7.39 -0.79 2.39
-7.37 -0.94 2.39
-7.36 -1.09 2.39
-7.34 -1.24 2.39
-7.31 -1.38 2.39
-7.28 -1.53 2.39
-7.25 -1.68 2.39
-7.22 -1.82 2.39
-7.19 -1.97 2.39
-7.15 -2.11 2.39
-7.10 -2.25 2.39
-7.06 -2.40 2.39
-7.01 -2.54 2.39
-6.96 -2.68 2.39
-6.91 -2.82 2.39
-6.85 -2.95 2.39
-6.79 -3.09 2.39
-6.73 -3.23 2.39
-6.66 -3.36 2.39
-6.59 -3.49 2.39
-6.52 -3.62 2.39
-6.45 -3.75 2.39
-6.37 -3.88 2.39
-6.30 -4.01 2.39
-6.21 -4.14 2.39
-6.13 -4.26 2.39
-6.04 -4.38 2.39
-5.95 -4.50 2.39
-5.86 -4.62 2.39
-5.80 -4.76 2.40
-5.78 -4.94 2.44
-5.78 -5.14 2.48
-5.71 -5.29 2.49
-5.60 -5.40 2.49
-5.49 -5.51 2.49
-5.38 -5.62 2.49
-5.27 -5.72 2.49
-5.15 -5.83 2.49
-5.03 -5.93 2.49
-4.91 -6.03 2.49
-4.79 -6.12 2.49
-4.66 -6.22 2.49
-4.54 -6.31 2.49
-4.41 -6.39 2.49
-4.28 -6.48 2.49
-4.15 -6.56 2.49
-4.01 -6.64 2.49
-3.88 -6.72 2.49
-3.74 -6.79 2.49
-3.60 -6.86 2.49
-3.46 -6.93 2.49
-3.32 -7.00 2.49
-3.18 -7.06 2.49
-3.04 -7.12 2.49
-2.89 -7.17 2.49
-2.75 -7.23 2.49
-2.60 -7.28 2.49
-2.46 -7.33 2.49
-2.31 -7.37 2.49
-2.16 -7.41 2.49
-2.01 -7.45 2.49
-1.86 -7.48 2.49
-1.71 -7.52 2.49
-1.56 -7.54 2.49
-1.40 -7.57 2.49
-1.25 -7.59 2.49
-1.10 -7.61 2.49
-0.94 -7.63 2.49
-0.79 -7.64 2.49
-0.64 -7.65 2.49
-0.48 -7.66 2.49
-0.33 -7.66 2.49
-0.18 -7.66 2.49
-0.02 -7.11 2.49
0.12 -7.11 2.49
0.26 -7.10 2.49
0.40 -7.09 2.49
0.55 -7.07 2.49
0.69 -7.06 2.49
0.83 -7.04 2.49
0.97 -7.02 2.49
1.11 -6.99 2.49
1.25 -6.96 2.49
1.38 -6.93 2.49
1.52 -6.90 2.49
1.66 -6.86 2.49
1.80 -6.82 2.49
1.93 -6.78 2.49
2.06 -6.74 2.49
2.20 -6.69 2.49
2.31 -6.59 2.48
2.36 -6.31 2.39
2.49 -6.29 2.40
2.61 -6.21 2.39
2.73 -6.15 2.39
2.85 -6.09 2.39
2.97 -6.03 2.39
3.09 -5.96 2.39
3.20 -5.89 2.39
3.32 -5.82 2.39
3.43 -5.75 2.39
3.55 -5.68 2.39
3.66 -5.60 2.39
3.77 -5.52 2.39
3.87 -5.44 2.39
3.98 -5.36 2.39
4.08 -5.28 2.39
4.19 -5.19 2.39
4.29 -5.10 2.39
4.38 -5.01 2.39
4.48 -4.92 2.39
4.58 -4.82 2.39
4.67 -4.73 2.39
4.76 -4.63 2.39
4.85 -4.53 2.39
4.93 -4.43 2.39
5.02 -4.33 2.39
5.10 -4.22 2.39
5.18 -4.12 2.39
5.26 -4.01 2.39
5.34 -3.90 2.39
5.41 -3.79 2.39
5.48 -3.68 2.39
5.55 -3.56 2.39
5.62 -3.45 2.39
5.68 -3.33 2.39
5.75 -3.22 2.39
5.81 -3.10 2.39
5.86 -2.98 2.39
5.92 -2.86 2.39
5.97 -2.74 2.39
6.02 -2.62 2.39
6.07 -2.49 2.39
6.12 -2.37 2.39
6.16 -2.24 2.39
6.20 -2.12 2.39
6.24 -1.99 2.39
6.28 -1.87 2.39
6.31 -1.74 2.39
6.34 -1.61 2.39
6.37 -1.48 2.39
6.40 -1.35 2.39
6.42 -1.22 2.39
6.44 -1.09 2.39
6.46 -0.96 2.39
6.47 -0.83 2.39
6.49 -0.70 2.39
6.50 -0.57 2.39
6.50 -0.44 2.39
6.51 -0.31 2.39
6.51 -0.18 2.39
6.51 -0.05 2.39
6.51 0.08 2.39
6.50 0.21 2.39
6.49 0.35 2.39
6.48 0.48 2.39
6.47 0.61 2.39
6.45 0.74 2.39
6.44 0.87 2.39
6.42 1.00 2.39
6.39 1.12 2.39
6.37 1.25 2.39
6.34 1.38 2.39
6.31 1.51 2.39
6.28 1.63 2.39
6.24 1.76 2.39
6.20 1.88 2.39
6.16 2.01 2.39
6.12 2.13 2.39
6.07 2.25 2.39
6.02 2.37 2.39
5.97 2.49 2.39
5.92 2.61 2.39
5.86 2.73 2.39
5.81 2.85 2.39
5.75 2.96 2.39
5.69 3.08 2.39
5.62 3.19 2.39
5.56 3.31 2.39
5.49 3.42 2.39
5.42 3.53 2.39
5.35 3.64 2.39
5.27 3.74 2.39
5.20 3.85 2.39
5.12 3.95 2.39
5.04 4.06 2.39
4.95 4.16 2.39
4.87 4.26 2.39
4.78 4.35 2.39
4.70 4.45 2.39
4.61 4.54 2.39
4.51 4.64 2.39
4.42 4.73 2.39
4.32 4.82 2.39
4.23 4.90 2.39
4.13 4.99 2.39
4.03 5.07 2.39
3.93 5.15 2.39
3.82 5.23 2.39
3.72 5.31 2.39
3.61 5.38 2.39
3.50 5.46 2.39
3.39 5.53 2.39
3.28 5.60 2.39
3.17 5.66 2.39
3.05 5.73 2.39
2.94 5.79 2.39
2.82 5.85 2.39
2.71 5.91 2.39
2.59 5.96 2.39
2.47 6.02 2.39
2.35 6.07 2.39
2.23 6.11 2.39
2.10 6.16 2.39
1.98 6.20 2.39
1.93 6.52 2.49
1.80 6.56 2.49
1.67 6.59 2.49
1.54 6.63 2.49
1.41 6.66 2.49
1.27 6.69 2.49
1.14 6.72 2.49
1.00 6.74 2.49
0.87 6.77 2.49
0.73 6.79 2.49
0.60 6.80 2.49
0.46 6.82 2.49
0.32 6.83 2.49
0.18 6.84 2.49
0.05 6.84 2.49
-0.09 6.85 2.49
-0.23 6.85 2.49
-0.37 6.85 2.49
-0.50 6.84 2.49
-0.64 6.83 2.49
-0.78 6.82 2.49
-0.92 6.81 2.49
-1.06 6.79 2.49
-1.19 6.78 2.49
-1.33 6.76 2.49
-1.47 6.73 2.49
-1.60 6.70 2.49
-1.74 6.68 2.49
-1.87 6.64 2.49
-2.01 6.61 2.49
-2.14 6.57 2.49
-2.27 6.53 2.49
-2.41 6.49 2.49
-2.54 6.44 2.49
-2.67 6.40 2.49
-2.80 6.34 2.49
-2.93 6.29 2.49
-3.05 6.24 2.49
-3.18 6.18 2.49
-3.31 6.12 2.49
-3.43 6.05 2.49
-3.55 5.99 2.49
-3.68 5.92 2.49
-3.80 5.85 2.49
-3.92 5.77 2.49
-4.03 5.70 2.49
-4.15 5.62 2.49
-4.27 5.54 2.49
-4.38 5.46 2.49
-4.49 5.37 2.49
-4.60 5.28 2.49
-4.71 5.19 2.49
-4.82 5.10 2.49
-4.92 5.01 2.49
-5.02 4.91 2.49
-5.12 4.81 2.49
-5.22 4.71 2.49
-5.32 4.61 2.49
-5.42 4.50 2.49
-5.51 4.40 2.49
-5.60 4.29 2.49
-5.69 4.18 2.49
-5.77 4.07 2.49
-5.86 3.95 2.49
-5.94 3.84 2.49
-6.02 3.72 2.49
-6.02 3.56 2.47
-6.02 3.40 2.43
-6.02 3.24 2.41
-6.05 3.10 2.39
-6.12 2.98 2.39
-6.18 2.86 2.39
-6.24 2.74 2.39
-6.30 2.61 2.39
-6.35 2.49 2.39
-6.40 2.36 2.39
-6.45 2.23 2.39
-6.50 2.10 2.39
-6.40 1.93 2.34
-6.44 1.80 2.34
-6.62 1.71 2.39
-6.66 1.58 2.39
-6.69 1.45 2.39
-6.73 1.31 2.39
-6.75 1.18 2.39
-6.78 1.05 2.39
-6.80 0.91 2.39
-6.82 0.77 2.39
-6.84 0.64 2.39
-6.85 0.50 2.39
-6.87 0.36 2.39
-6.87 0.23 2.39
-6.88 0.09 2.39
-6.88 -0.05 2.39
-6.88 -0.19 2.39
-6.88 -0.32 2.39
-6.88 -0.46 2.39
-6.87 -0.60 2.39
-6.86 -0.74 2.39
-6.84 -0.87 2.39
-6.83 -1.01 2.39
-6.81 -1.15 2.39
-6.78 -1.28 2.39
-6.76 -1.42 2.39
-6.73 -1.56 2.39
-6.70 -1.69 2.39
-6.67 -1.82 2.39
-6.63 -1.96 2.39
-6.59 -2.09 2.39
-6.55 -2.22 2.39
-6.50 -2.35 2.39
-6.46 -2.48 2.39
-6.41 -2.61 2.39
-6.35 -2.74 2.39
-6.30 -2.87 2.39
-6.24 -2.99 2.39
-6.18 -3.12 2.39
-6.12 -3.24 2.39
-6.05 -3.36 2.39
-5.98 -3.48 2.39
-5.91 -3.60 2.39
-5.84 -3.72 2.39
-5.82 -3.87 2.41
-5.81 -4.04 2.44
-5.80 -4.21 2.48
-5.76 -4.35 2.49
-5.67 -4.47 2.49
-5.58 -4.58 2.49
-5.49 -4.69 2.49
-5.39 -4.80 2.49
-5.30 -4.91 2.49
-5.20 -5.01 2.49
-5.09 -5.11 2.49
-4.99 -5.21 2.49
-4.88 -5.31 2.49
-4.78 -5.41 2.49
-4.67 -5.50 2.49
-4.55 -5.59 2.49
-4.44 -5.68 2.49
-4.33 -5.77 2.49
-4.21 -5.85 2.49
-4.09 -5.93 2.49
-3.97 -6.01 2.49
-3.85 -6.09 2.49
-3.72 -6.16 2.49
-3.60 -6.23 2.49
-3.47 -6.30 2.49
-3.34 -6.37 2.49
-3.21 -6.43 2.49
-3.08 -6.49 2.49
-2.95 -6.55 2.49
-2.82 -6.60 2.49
-2.69 -6.66 2.49
-2.55 -6.71 2.49
-2.42 -6.75 2.49
-2.28 -6.80 2.49
-2.14 -6.84 2.49
-2.00 -6.88 2.49
-1.86 -6.91 2.49
-1.73 -6.95 2.49
-1.59 -6.98 2.49
-1.44 -7.00 2.49
-1.30 -7.03 2.49
-1.16 -7.05 2.49
-1.02 -7.07 2.49
-0.88 -7.08 2.49
-0.74 -7.09 2.49
-0.59 -7.10 2.49
-0.45 -7.11 2.49
-0.31 -7.11 2.49
-0.17 -7.11 2.49
-0.02 -6.63 2.49
0.11 -6.63 2.49
0.24 -6.62 2.49
0.37 -6.61 2.49
0.51 -6.60 2.49
0.64 -6.58 2.49
0.77 -6.56 2.49
0.90 -6.54 2.49
1.03 -6.52 2.49
1.16 -6.49 2.49
1.29 -6.46 2.49
1.42 -6.43 2.49
1.55 -6.40 2.49
1.67 -6.36 2.49
1.80 -6.32 2.49
1.92 -6.28 2.49
2.05 -6.24 2.49
2.17 -6.19 2.49
2.29 -6.14 2.49
2.32 -5.84 2.39
2.43 -5.79 2.39
2.54 -5.74 2.39
2.66 -5.68 2.39
2.77 -5.62 2.39
2.88 -5.56 2.39
2.99 -5.50 2.39
3.10 -5.44 2.39
3.20 -5.37 2.39
3.31 -5.30 2.39
3.41 -5.23 2.39
3.51 -5.16 2.39
3.61 -5.08 2.39
3.71 -5.00 2.39
3.81 -4.93 2.39
3.90 -4.84 2.39
4.00 -4.76 2.39
4.09 -4.68 2.39
4.18 -4.59 2.39
4.27 -4.50 2.39
4.36 -4.41 2.39
4.44 -4.32 2.39
4.52 -4.23 2.39
4.61 -4.14 2.39
4.69 -4.04 2.39
4.76 -3.94 2.39
4.84 -3.84 2.39
4.91 -3.74 2.39
4.98 -3.64 2.39
5.05 -3.54 2.39
5.12 -3.43 2.39
5.18 -3.33 2.39
5.25 -3.22 2.39
5.31 -3.11 2.39
5.37 -3.01 2.39
5.42 -2.90 2.39
5.48 -2.78 2.39
5.53 -2.67 2.39
5.58 -2.56 2.39
5.62 -2.44 2.39
5.67 -2.33 2.39
5.71 -2.21 2.39
5.75 -2.10 2.39
5.79 -1.98 2.39
5.83 -1.86 2.39
5.86 -1.74 2.39
5.89 -1.63 2.39
5.92 -1.51 2.39
5.95 -1.39 2.39
5.97 -1.26 2.39
5.99 -1.14 2.39
6.01 -1.02 2.39
6.03 -0.90 2.39
6.04 -0.78 2.39
6.05 -0.66 2.39
6.06 -0.53 2.39
6.07 -0.41 2.39
6.07 -0.29 2.39
6.08 -0.17 2.39
6.08 -0.05 2.39
6.07 0.08 2.39
6.07 0.20 2.39
6.06 0.32 2.39
6.05 0.44 2.39
6.04 0.57 2.39
6.03 0.69 2.39
