ply
format ascii 1.0
element vertex 2934
property float32 x
property float32 y
property float32 z
end_header
-9.04 -14.35 2.39
-8.75 -14.53 2.39
-8.46 -14.70 2.39
-8.16 -14.87 2.39
-7.86 -15.02 2.39
-7.55 -15.18 2.39
-7.25 -15.33 2.39
-6.94 -15.47 2.39
-6.65 -15.66 2.40
-6.44 -16.05 2.44
-6.25 -16.54 2.49
-5.92 -16.66 2.49
-5.58 -16.77 2.49
-5.24 -16.88 2.49
-4.90 -16.98 2.49
-4.56 -17.07 2.49
-4.22 -17.16 2.49
-3.87 -17.24 2.49
-3.52 -17.31 2.49
-3.18 -17.38 2.49
-2.83 -17.44 2.49
-2.48 -17.49 2.49
-2.12 -17.53 2.49
-1.77 -17.57 2.49
-1.42 -17.60 2.49
-1.06 -17.62 2.49
-0.71 -17.64 2.49
-0.36 -17.65 2.49
-0.00 -15.17 2.49
0.30 -15.17 2.49
0.61 -15.16 2.49
0.91 -15.14 2.49
1.21 -15.12 2.49
1.52 -15.09 2.49
1.74 -14.43 2.39
2.03 -14.39 2.39
2.32 -14.35 2.39
2.61 -14.30 2.39
2.90 -14.24 2.39
3.18 -14.18 2.39
3.46 -14.11 2.39
3.75 -14.04 2.39
4.03 -13.96 2.39
4.31 -13.87 2.39
4.58 -13.78 2.39
4.86 -13.69 2.39
5.13 -13.58 2.39
5.40 -13.48 2.39
5.68 -13.38 2.39
5.95 -13.26 2.39
6.21 -13.14 2.39
6.47 -13.01 2.39
6.73 -12.88 2.39
6.99 -12.74 2.39
7.24 -12.59 2.39
7.49 -12.45 2.39
7.74 -12.29 2.39
7.98 -12.13 2.39
8.22 -11.97 2.39
8.46 -11.80 2.39
8.70 -11.63 2.39
8.93 -11.45 2.39
9.15 -11.27 2.39
9.38 -11.08 2.39
9.60 -10.89 2.39
9.81 -10.69 2.39
10.02 -10.49 2.39
10.23 -10.29 2.39
10.44 -10.08 2.39
10.63 -9.87 2.39
10.83 -9.65 2.39
11.02 -9.43 2.39
11.21 -9.20 2.39
11.39 -8.98 2.39
11.56 -8.75 2.39
11.73 -8.51 2.39
11.90 -8.27 2.39
12.06 -8.03 2.39
12.22 -7.79 2.39
12.37 -7.54 2.39
12.52 -7.29 2.39
12.66 -7.03 2.39
12.80 -6.78 2.39
12.93 -6.52 2.39
13.06 -6.26 2.39
13.18 -5.99 2.39
13.30 -5.73 2.39
13.41 -5.46 2.39
13.52 -5.19 2.39
13.62 -4.92 2.39
13.71 -4.64 2.39
13.80 -4.36 2.39
13.89 -4.09 2.39
13.96 -3.81 2.39
14.04 -3.52 2.39
14.10 -3.24 2.39
14.17 -2.96 2.39
14.22 -2.67 2.39
14.27 -2.39 2.39
14.31 -2.10 2.39
14.35 -1.81 2.39
14.39 -1.52 2.39
14.41 -1.23 2.39
14.43 -0.94 2.39
14.45 -0.65 2.39
14.46 -0.36 2.39
14.46 -0.07 2.39
14.46 0.22 2.39
14.45 0.51 2.39
14.44 0.80 2.39
14.42 1.09 2.39
14.39 1.38 2.39
14.36 1.66 2.39
14.33 1.95 2.39
14.28 2.24 2.39
14.24 2.53 2.39
14.18 2.81 2.39
14.12 3.10 2.39
14.06 3.38 2.39
13.99 3.66 2.39
13.91 3.94 2.39
13.83 4.22 2.39
13.74 4.49 2.39
13.65 4.77 2.39
13.55 5.04 2.39
13.44 5.31 2.39
13.33 5.58 2.39
13.22 5.85 2.39
13.10 6.11 2.39
12.97 6.37 2.39
12.84 6.63 2.39
12.71 6.89 2.39
12.57 7.14 2.39
12.42 7.39 2.39
12.27 7.64 2.39
12.11 7.89 2.39
11.95 8.13 2.39
11.79 8.37 2.39
11.62 8.60 2.39
11.44 8.83 2.39
11.26 9.06 2.39
11.08 9.29 2.39
10.89 9.51 2.39
10.70 9.72 2.39
10.50 9.94 2.39
10.30 10.15 2.39
10.09 10.35 2.39
9.89 10.55 2.39
9.67 10.75 2.39
9.45 10.94 2.39
9.23 11.13 2.39
9.01 11.31 2.39
8.78 11.49 2.39
8.55 11.67 2.39
8.31 11.84 2.39
8.07 12.00 2.39
7.83 12.16 2.39
7.59 12.32 2.39
7.34 12.47 2.39
7.09 12.61 2.39
6.83 12.75 2.39
6.57 12.89 2.39
6.31 13.02 2.39
6.05 13.15 2.39
5.79 13.26 2.39
5.51 13.36 2.39
5.25 13.47 2.39
4.97 13.58 2.39
4.70 13.67 2.39
4.43 13.77 2.39
4.15 13.85 2.39
3.87 13.94 2.39
3.59 14.01 2.39
3.31 14.08 2.39
3.03 14.15 2.39
2.74 14.21 2.39
2.46 14.26 2.39
2.17 14.31 2.39
1.88 14.35 2.39
1.59 14.39 2.39
1.36 15.04 2.49
1.06 15.06 2.49
0.76 15.08 2.49
0.45 15.10 2.49
0.15 15.10 2.49
-0.15 15.10 2.49
-0.46 15.10 2.49
-0.76 15.09 2.49
-1.06 15.07 2.49
-1.37 15.05 2.49
-1.67 15.02 2.49
-1.97 14.99 2.49
-2.27 14.94 2.49
-2.57 14.90 2.49
-2.87 14.84 2.49
-3.17 14.79 2.49
-3.46 14.72 2.49
-3.76 14.65 2.49
-4.05 14.57 2.49
-4.34 14.49 2.49
-4.63 14.40 2.49
-4.92 14.31 2.49
-5.21 14.21 2.49
-5.49 14.10 2.49
-5.78 13.99 2.49
-6.06 13.87 2.49
-6.33 13.75 2.49
-6.49 13.37 2.45
-6.60 12.93 2.39
-6.86 12.79 2.39
-7.11 12.66 2.39
-7.37 12.51 2.39
-7.62 12.36 2.39
-7.86 12.21 2.39
-8.11 12.05 2.39
-8.35 11.88 2.39
-8.59 11.72 2.39
-8.82 11.54 2.39
-9.05 11.36 2.39
-9.28 11.18 2.39
-9.50 10.99 2.39
-9.72 10.80 2.39
-9.94 10.61 2.39
-10.15 10.41 2.39
-10.36 10.20 2.39
-11.54 10.92 2.61
-11.68 10.61 2.59
-11.81 10.30 2.58
-11.93 10.00 2.56
-12.06 9.70 2.54
-12.22 9.43 2.54
-12.36 9.15 2.53
-12.47 8.85 2.51
-12.57 8.54 2.50
-12.65 8.24 2.48
-12.71 7.91 2.46
-12.76 7.60 2.44
-12.81 7.28 2.42
-12.88 6.98 2.41
-12.95 6.69 2.39
-12.97 6.37 2.37
-12.98 6.05 2.35
-12.98 5.74 2.33
-12.99 5.44 2.31
-12.99 5.13 2.29
-12.99 4.83 2.28
-12.98 4.54 2.26
-12.94 4.23 2.24
-12.91 3.94 2.21
-12.87 3.64 2.19
-12.83 3.36 2.18
-12.80 3.07 2.16
-12.78 2.80 2.15
-12.75 2.53 2.13
-12.70 2.25 2.12
-12.58 1.97 2.09
-12.47 1.70 2.06
-12.35 1.43 2.04
-6.91 0.66 1.14
-12.21 0.92 2.01
-12.18 0.67 2.00
-12.15 0.43 1.99
-12.12 0.18 1.99
-12.09 -0.06 1.98
-12.06 -0.30 1.98
-12.00 -0.54 1.97
-11.93 -0.78 1.96
-11.89 -1.02 1.96
-11.86 -1.25 1.95
-11.82 -1.49 1.95
-11.79 -1.73 1.95
-11.75 -1.97 1.95
-11.72 -2.20 1.95
-11.68 -2.44 1.96
-11.65 -2.68 1.96
-11.60 -2.91 1.96
-11.57 -3.15 1.97
-11.55 -3.40 1.97
-11.51 -3.64 1.98
-11.46 -3.88 1.98
-11.41 -4.12 1.99
-11.36 -4.36 1.99
-11.30 -4.60 2.00
-11.24 -4.84 2.01
-11.20 -5.09 2.02
-11.16 -5.34 2.03
-11.09 -5.59 2.04
-11.02 -5.83 2.04
-10.95 -6.08 2.05
-10.88 -6.33 2.06
-10.80 -6.58 2.07
-10.73 -6.83 2.08
-10.66 -7.10 2.10
-10.63 -7.38 2.12
-10.59 -7.67 2.14
-10.54 -7.97 2.17
-10.49 -8.27 2.19
-10.43 -8.57 2.21
-10.38 -8.88 2.24
-10.31 -9.18 2.26
-10.24 -9.50 2.29
-10.17 -9.81 2.32
-10.09 -10.14 2.34
-10.01 -10.47 2.37
-9.86 -10.74 2.39
-9.65 -10.94 2.39
-9.42 -11.13 2.39
-9.20 -11.31 2.39
-8.97 -11.50 2.39
-8.74 -11.67 2.39
-8.50 -11.85 2.39
-8.26 -12.01 2.39
-8.02 -12.18 2.39
-7.77 -12.33 2.39
-7.52 -12.49 2.39
-7.27 -12.63 2.39
-7.01 -12.78 2.39
-6.75 -12.91 2.39
-6.49 -13.05 2.39
-6.44 -13.62 2.47
-6.22 -13.87 2.49
-5.94 -13.99 2.49
-5.66 -14.11 2.49
-5.37 -14.22 2.49
-5.09 -14.32 2.49
-4.80 -14.42 2.49
-4.51 -14.51 2.49
-4.22 -14.60 2.49
-3.92 -14.68 2.49
-3.63 -14.75 2.49
-3.33 -14.82 2.49
-3.03 -14.88 2.49
-2.73 -14.94 2.49
-2.43 -14.99 2.49
-2.13 -15.03 2.49
-1.83 -15.07 2.49
-1.52 -15.10 2.49
-1.22 -15.13 2.49
-0.92 -15.15 2.49
-0.61 -15.16 2.49
-0.31 -15.17 2.49
-0.00 -13.30 2.49
0.26 -13.29 2.49
0.53 -13.28 2.49
0.80 -13.27 2.49
1.06 -13.25 2.49
1.33 -13.22 2.49
1.59 -13.19 2.49
1.79 -12.69 2.41
2.03 -12.57 2.39
2.29 -12.53 2.39
2.54 -12.48 2.39
2.79 -12.43 2.39
3.04 -12.37 2.39
3.28 -12.30 2.39
3.53 -12.23 2.39
3.77 -12.16 2.39
4.02 -12.08 2.39
4.26 -11.99 2.39
4.50 -11.91 2.39
4.73 -11.81 2.39
4.97 -11.71 2.39
5.20 -11.61 2.39
5.44 -11.50 2.39
5.67 -11.40 2.39
5.90 -11.29 2.39
6.12 -11.17 2.39
6.35 -11.04 2.39
6.57 -10.91 2.39
6.78 -10.77 2.39
7.00 -10.63 2.39
7.21 -10.49 2.39
7.42 -10.34 2.39
7.62 -10.19 2.39
7.83 -10.04 2.39
8.02 -9.88 2.39
8.22 -9.71 2.39
8.41 -9.54 2.39
8.60 -9.37 2.39
8.79 -9.20 2.39
8.97 -9.02 2.39
9.15 -8.83 2.39
9.32 -8.65 2.39
9.49 -8.46 2.39
9.66 -8.26 2.39
9.82 -8.07 2.39
9.98 -7.87 2.39
10.14 -7.67 2.39
10.29 -7.46 2.39
10.43 -7.25 2.39
10.58 -7.04 2.39
10.71 -6.83 2.39
10.85 -6.61 2.39
10.98 -6.39 2.39
11.10 -6.17 2.39
11.22 -5.94 2.39
11.34 -5.72 2.39
11.45 -5.49 2.39
11.56 -5.26 2.39
11.66 -5.02 2.39
11.76 -4.79 2.39
11.85 -4.55 2.39
11.94 -4.31 2.39
12.02 -4.07 2.39
12.10 -3.83 2.39
12.18 -3.58 2.39
12.24 -3.34 2.39
12.31 -3.09 2.39
12.37 -2.84 2.39
12.42 -2.59 2.39
12.47 -2.34 2.39
12.51 -2.09 2.39
12.55 -1.84 2.39
12.59 -1.59 2.39
12.62 -1.34 2.39
12.64 -1.08 2.39
12.66 -0.83 2.39
12.67 -0.57 2.39
12.68 -0.32 2.39
12.68 -0.06 2.39
12.68 0.19 2.39
12.67 0.44 2.39
12.66 0.70 2.39
12.64 0.95 2.39
12.62 1.21 2.39
12.60 1.46 2.39
12.56 1.71 2.39
12.53 1.96 2.39
12.48 2.22 2.39
12.44 2.47 2.39
12.38 2.71 2.39
12.33 2.96 2.39
12.26 3.21 2.39
12.20 3.45 2.39
12.13 3.70 2.39
12.05 3.94 2.39
11.97 4.18 2.39
11.88 4.42 2.39
11.79 4.66 2.39
11.69 4.90 2.39
11.59 5.13 2.39
11.49 5.36 2.39
11.38 5.59 2.39
11.26 5.82 2.39
11.14 6.04 2.39
11.02 6.26 2.39
10.89 6.48 2.39
10.76 6.70 2.39
10.62 6.92 2.39
10.48 7.13 2.39
10.34 7.34 2.39
10.19 7.54 2.39
10.04 7.75 2.39
9.88 7.95 2.39
9.72 8.14 2.39
9.55 8.34 2.39
9.38 8.53 2.39
9.21 8.72 2.39
9.03 8.90 2.39
8.85 9.08 2.39
8.67 9.25 2.39
8.48 9.43 2.39
8.29 9.60 2.39
8.10 9.76 2.39
7.90 9.92 2.39
7.70 10.08 2.39
7.50 10.23 2.39
7.29 10.38 2.39
7.08 10.53 2.39
6.87 10.67 2.39
6.65 10.80 2.39
6.43 10.93 2.39
6.21 11.06 2.39
5.99 11.18 2.39
5.76 11.30 2.39
5.53 11.40 2.39
5.30 11.51 2.39
5.07 11.62 2.39
4.84 11.72 2.39
4.60 11.81 2.39
4.36 11.90 2.39
4.12 11.99 2.39
3.88 12.07 2.39
3.64 12.15 2.39
3.39 12.22 2.39
3.15 12.29 2.39
2.90 12.35 2.39
2.65 12.40 2.39
2.40 12.46 2.39
2.15 12.50 2.39
1.90 12.54 2.39
1.65 12.58 2.39
1.46 13.16 2.49
1.19 13.18 2.49
0.93 13.21 2.49
0.66 13.22 2.49
0.40 13.23 2.49
0.13 13.24 2.49
-0.13 13.24 2.49
-0.40 13.24 2.49
-0.67 13.23 2.49
-0.93 13.21 2.49
-1.20 13.19 2.49
-1.46 13.17 2.49
-1.73 13.14 2.49
-1.99 13.10 2.49
-2.25 13.06 2.49
-2.51 13.01 2.49
-2.78 12.96 2.49
-3.03 12.90 2.49
-3.29 12.84 2.49
-3.55 12.77 2.49
-3.81 12.70 2.49
-4.06 12.62 2.49
-4.31 12.54 2.49
-4.57 12.45 2.49
-4.82 12.36 2.49
-5.06 12.26 2.49
-5.31 12.16 2.49
-5.55 12.05 2.49
-5.79 11.94 2.49
-6.03 11.82 2.49
-6.27 11.70 2.49
-6.49 11.54 2.49
-6.49 11.03 2.41
-6.70 10.87 2.40
-6.89 10.70 2.39
-7.11 10.56 2.39
-7.32 10.42 2.39
-7.53 10.27 2.39
-7.73 10.12 2.39
-7.93 9.96 2.39
-8.13 9.80 2.39
-8.33 9.63 2.39
-8.52 9.47 2.39
-8.71 9.29 2.39
-8.89 9.12 2.39
-9.08 8.94 2.39
-9.26 8.76 2.39
-9.43 8.57 2.39
-9.60 8.38 2.39
-9.77 8.18 2.39
-9.93 7.99 2.39
-10.09 7.79 2.39
-10.25 7.58 2.39
-10.40 7.38 2.39
-11.77 8.00 2.67
-11.86 7.72 2.65
-11.93 7.43 2.64
-12.00 7.14 2.62
-12.07 6.86 2.60
-12.14 6.58 2.59
-12.21 6.30 2.58
-12.27 6.03 2.56
-12.30 5.74 2.54
-12.31 5.45 2.52
-12.32 5.16 2.50
-12.33 4.87 2.48
-12.34 4.59 2.47
-12.34 4.31 2.45
-12.34 4.04 2.43
-12.32 3.76 2.41
-12.28 3.48 2.39
-12.25 3.20 2.37
-12.23 2.94 2.36
-12.22 2.68 2.34
-12.20 2.42 2.33
-12.18 2.16 2.32
-12.16 1.91 2.30
-12.10 1.65 2.29
-11.99 1.39 2.26
-6.91 0.66 1.30
-11.87 0.89 2.23
-11.84 0.65 2.22
-11.81 0.41 2.21
-11.79 0.18 2.21
-11.76 -0.06 2.20
-11.73 -0.30 2.20
-11.70 -0.53 2.19
-11.66 -0.76 2.19
-11.61 -0.99 2.18
-11.58 -1.23 2.18
-11.55 -1.46 2.18
-11.51 -1.69 2.18
-11.45 -1.92 2.17
-11.39 -2.14 2.17
-11.33 -2.37 2.17
-11.27 -2.59 2.16
-11.21 -2.81 2.16
-11.16 -3.04 2.16
-11.14 -3.28 2.17
-11.09 -3.51 2.18
-11.04 -3.74 2.18
-10.99 -3.97 2.19
-10.94 -4.20 2.19
-10.88 -4.43 2.20
-10.82 -4.66 2.20
-10.77 -4.89 2.21
-10.73 -5.14 2.22
-10.69 -5.39 2.24
-10.65 -5.64 2.25
-10.60 -5.89 2.27
-10.53 -6.13 2.28
-10.46 -6.37 2.29
-10.38 -6.61 2.30
-10.30 -6.86 2.32
-10.24 -7.12 2.33
-10.20 -7.40 2.36
-10.16 -7.68 2.38
-10.04 -7.91 2.39
-9.87 -8.11 2.39
-9.71 -8.30 2.39
-9.54 -8.50 2.39
-9.37 -8.69 2.39
-9.19 -8.87 2.39
-9.01 -9.06 2.39
-8.83 -9.23 2.39
-8.64 -9.41 2.39
-8.45 -9.58 2.39
-8.25 -9.75 2.39
-8.06 -9.91 2.39
-7.86 -10.07 2.39
-7.65 -10.23 2.39
-7.45 -10.38 2.39
-7.24 -10.52 2.39
-7.02 -10.67 2.39
-6.81 -10.80 2.39
-6.59 -10.94 2.39
-6.45 -11.21 2.42
-6.41 -11.68 2.49
-6.17 -11.80 2.49
-5.93 -11.92 2.49
-5.69 -12.04 2.49
-5.45 -12.15 2.49
-5.20 -12.26 2.49
-4.96 -12.36 2.49
-4.71 -12.45 2.49
-4.46 -12.54 2.49
-4.20 -12.63 2.49
-3.95 -12.71 2.49
-3.69 -12.79 2.49
-3.44 -12.86 2.49
-3.18 -12.92 2.49
-2.92 -12.98 2.49
-2.65 -13.04 2.49
-2.39 -13.09 2.49
-2.13 -13.13 2.49
-1.86 -13.17 2.49
-1.60 -13.21 2.49
-1.33 -13.23 2.49
-1.07 -13.26 2.49
-0.80 -13.27 2.49
-0.54 -13.29 2.49
-0.27 -13.29 2.49
-0.00 -11.82 2.49
0.24 -11.82 2.49
0.47 -11.81 2.49
0.71 -11.80 2.49
0.95 -11.78 2.49
1.18 -11.76 2.49
1.42 -11.73 2.49
1.61 -11.36 2.42
1.81 -11.18 2.39
2.03 -11.14 2.39
2.26 -11.10 2.39
2.48 -11.05 2.39
2.70 -10.99 2.39
2.92 -10.94 2.39
3.14 -10.88 2.39
3.35 -10.81 2.39
3.57 -10.74 2.39
3.79 -10.66 2.39
4.00 -10.59 2.39
4.21 -10.50 2.39
4.42 -10.41 2.39
4.63 -10.32 2.39
4.83 -10.23 2.39
5.04 -10.13 2.39
5.24 -10.02 2.39
5.44 -9.92 2.39
5.64 -9.82 2.39
5.84 -9.70 2.39
6.03 -9.58 2.39
6.22 -9.46 2.39
6.41 -9.33 2.39
6.60 -9.20 2.39
6.78 -9.06 2.39
6.96 -8.92 2.39
7.14 -8.78 2.39
7.31 -8.63 2.39
7.48 -8.49 2.39
7.65 -8.33 2.39
7.81 -8.18 2.39
7.98 -8.02 2.39
8.13 -7.86 2.39
8.29 -7.69 2.39
8.44 -7.52 2.39
8.59 -7.35 2.39
8.74 -7.18 2.39
8.88 -7.00 2.39
9.01 -6.82 2.39
9.15 -6.64 2.39
9.28 -6.45 2.39
9.41 -6.26 2.39
9.53 -6.07 2.39
9.65 -5.88 2.39
9.76 -5.68 2.39
9.88 -5.49 2.39
9.98 -5.29 2.39
10.09 -5.08 2.39
10.19 -4.88 2.39
10.28 -4.67 2.39
10.37 -4.47 2.39
10.46 -4.26 2.39
10.54 -4.05 2.39
10.62 -3.83 2.39
10.70 -3.62 2.39
10.76 -3.40 2.39
10.83 -3.19 2.39
10.89 -2.97 2.39
10.95 -2.75 2.39
11.00 -2.53 2.39
11.05 -2.31 2.39
11.09 -2.08 2.39
11.13 -1.86 2.39
11.17 -1.64 2.39
11.20 -1.41 2.39
11.22 -1.19 2.39
11.24 -0.96 2.39
11.26 -0.74 2.39
11.27 -0.51 2.39
11.28 -0.28 2.39
11.28 -0.06 2.39
11.28 0.17 2.39
11.27 0.40 2.39
11.26 0.62 2.39
11.25 0.85 2.39
11.23 1.07 2.39
11.21 1.30 2.39
11.18 1.52 2.39
11.14 1.75 2.39
11.11 1.97 2.39
11.06 2.19 2.39
11.02 2.41 2.39
10.97 2.64 2.39
10.91 2.85 2.39
10.85 3.07 2.39
10.79 3.29 2.39
10.72 3.51 2.39
10.65 3.72 2.39
10.57 3.93 2.39
10.49 4.15 2.39
10.40 4.35 2.39
10.31 4.56 2.39
10.22 4.77 2.39
10.12 4.97 2.39
10.02 5.18 2.39
9.91 5.38 2.39
9.80 5.57 2.39
9.69 5.77 2.39
9.57 5.96 2.39
9.45 6.15 2.39
9.33 6.34 2.39
9.20 6.53 2.39
9.06 6.71 2.39
8.93 6.89 2.39
8.79 7.07 2.39
8.64 7.25 2.39
8.50 7.42 2.39
8.35 7.59 2.39
8.19 7.75 2.39
8.04 7.92 2.39
7.88 8.08 2.39
7.71 8.23 2.39
7.55 8.39 2.39
7.38 8.54 2.39
7.20 8.68 2.39
7.03 8.83 2.39
6.85 8.97 2.39
6.67 9.10 2.39
6.48 9.23 2.39
6.30 9.36 2.39
6.11 9.49 2.39
5.92 9.61 2.39
5.72 9.73 2.39
5.52 9.83 2.39
5.32 9.94 2.39
5.12 10.04 2.39
4.92 10.14 2.39
4.72 10.24 2.39
4.51 10.33 2.39
4.30 10.42 2.39
4.09 10.51 2.39
3.88 10.59 2.39
3.67 10.67 2.39
3.45 10.74 2.39
3.24 10.81 2.39
3.02 10.87 2.39
2.80 10.93 2.39
2.58 10.98 2.39
2.36 11.03 2.39
2.14 11.08 2.39
1.91 11.12 2.39
1.69 11.16 2.39
1.53 11.67 2.49
1.30 11.70 2.49
1.06 11.73 2.49
0.82 11.75 2.49
0.59 11.76 2.49
0.35 11.77 2.49
0.12 11.78 2.49
-0.12 11.78 2.49
-0.36 11.77 2.49
-0.59 11.76 2.49
-0.83 11.75 2.49
-1.06 11.73 2.49
-1.30 11.71 2.49
-1.54 11.68 2.49
-1.77 11.65 2.49
-2.00 11.61 2.49
-2.24 11.57 2.49
-2.47 11.53 2.49
-2.70 11.47 2.49
-2.93 11.42 2.49
-3.16 11.36 2.49
-3.39 11.29 2.49
-3.61 11.23 2.49
-3.84 11.15 2.49
-4.06 11.07 2.49
-4.28 10.99 2.49
-4.50 10.90 2.49
-4.72 10.81 2.49
-4.94 10.71 2.49
-5.15 10.61 2.49
-5.36 10.51 2.49
-5.57 10.40 2.49
-5.78 10.29 2.49
-5.99 10.17 2.49
-6.19 10.05 2.49
-6.39 9.92 2.49
-6.48 9.63 2.45
-6.51 9.26 2.39
-6.70 9.13 2.39
-6.87 8.99 2.39
-7.05 8.85 2.39
-7.23 8.71 2.39
-7.40 8.57 2.39
-7.58 8.42 2.39
-7.74 8.26 2.39
-7.91 8.11 2.39
-8.07 7.95 2.39
-8.23 7.78 2.39
-8.38 7.62 2.39
-8.54 7.45 2.39
-8.68 7.28 2.39
-8.83 7.10 2.39
-8.97 6.92 2.39
-9.11 6.74 2.39
-9.24 6.56 2.39
-9.37 6.37 2.39
-9.50 6.18 2.39
-9.62 5.99 2.39
-9.74 5.80 2.39
-9.86 5.60 2.39
-9.97 5.40 2.39
-10.07 5.20 2.39
-10.18 5.00 2.39
-10.28 4.79 2.39
-10.37 4.59 2.39
-10.46 4.38 2.39
-11.73 4.63 2.66
-11.74 4.37 2.64
-11.74 4.10 2.62
-11.75 3.84 2.61
-11.75 3.58 2.59
-11.74 3.33 2.57
-11.73 3.07 2.55
-11.71 2.81 2.54
-11.70 2.56 2.52
-11.69 2.32 2.51
-11.67 2.07 2.50
-11.65 1.83 2.48
-11.63 1.58 2.47
-11.61 1.35 2.46
-6.88 0.66 1.46
-11.54 0.87 2.44
-11.51 0.64 2.43
-11.47 0.40 2.42
-11.42 0.17 2.41
-11.37 -0.06 2.40
-11.32 -0.29 2.39
-11.27 -0.51 2.38
-11.22 -0.73 2.37
-11.18 -0.96 2.36
-11.16 -1.18 2.36
-11.12 -1.40 2.36
-11.06 -1.62 2.35
-11.01 -1.84 2.35
-10.95 -2.06 2.35
-10.89 -2.27 2.34
-10.83 -2.49 2.34
-10.77 -2.70 2.34
-10.71 -2.92 2.34
-10.68 -3.14 2.34
-10.65 -3.37 2.35
-10.62 -3.59 2.36
-10.59 -3.82 2.37
-10.54 -4.05 2.38
-10.49 -4.27 2.38
-10.43 -4.49 2.39
-10.34 -4.70 2.39
-10.24 -4.91 2.39
-10.14 -5.11 2.39
-10.04 -5.31 2.39
-9.93 -5.51 2.39
-9.82 -5.71 2.39
-9.70 -5.91 2.39
-9.58 -6.10 2.39
-9.45 -6.29 2.39
-9.33 -6.48 2.39
-9.19 -6.67 2.39
-9.06 -6.85 2.39
-8.92 -7.03 2.39
-8.78 -7.21 2.39
-8.63 -7.38 2.39
-8.48 -7.55 2.39
-8.33 -7.72 2.39
-8.17 -7.89 2.39
-8.01 -8.05 2.39
-7.85 -8.21 2.39
-7.68 -8.36 2.39
-7.51 -8.52 2.39
-7.34 -8.66 2.39
-7.16 -8.81 2.39
-6.98 -8.95 2.39
-6.80 -9.09 2.39
-6.62 -9.22 2.39
-6.46 -9.39 2.40
-6.45 -9.79 2.47
-6.31 -10.02 2.49
-6.11 -10.14 2.49
-5.90 -10.26 2.49
-5.70 -10.38 2.49
-5.49 -10.49 2.49
-5.27 -10.60 2.49
-5.06 -10.70 2.49
-4.84 -10.80 2.49
-4.63 -10.89 2.49
-4.41 -10.98 2.49
-4.19 -11.07 2.49
-3.96 -11.15 2.49
-3.74 -11.23 2.49
-3.51 -11.30 2.49
-3.28 -11.37 2.49
-3.05 -11.43 2.49
-2.82 -11.49 2.49
-2.59 -11.54 2.49
-2.36 -11.59 2.49
-2.13 -11.64 2.49
-1.89 -11.67 2.49
-1.66 -11.71 2.49
-1.42 -11.74 2.49
-1.19 -11.76 2.49
-0.95 -11.79 2.49
-0.71 -11.80 2.49
-0.48 -11.81 2.49
-0.24 -11.82 2.49
-0.00 -10.63 2.49
0.21 -10.63 2.49
0.42 -10.62 2.49
0.64 -10.61 2.49
0.85 -10.59 2.49
1.06 -10.57 2.49
1.27 -10.55 2.49
1.49 -10.52 2.49
1.63 -10.05 2.39
1.83 -10.02 2.39
2.03 -9.98 2.39
2.23 -9.94 2.39
2.43 -9.89 2.39
2.62 -9.84 2.39
2.82 -9.78 2.39
3.02 -9.72 2.39
3.21 -9.66 2.39
3.40 -9.59 2.39
3.60 -9.52 2.39
3.79 -9.45 2.39
3.97 -9.37 2.39
4.16 -9.28 2.39
4.35 -9.20 2.39
4.53 -9.11 2.39
4.71 -9.02 2.39
4.89 -8.92 2.39
5.07 -8.82 2.39
5.24 -8.71 2.39
5.42 -8.61 2.39
5.59 -8.49 2.39
5.76 -8.39 2.39
5.93 -8.27 2.39
6.10 -8.15 2.39
6.26 -8.03 2.39
6.42 -7.90 2.39
6.57 -7.77 2.39
6.73 -7.63 2.39
6.88 -7.50 2.39
7.03 -7.36 2.39
7.17 -7.21 2.39
7.32 -7.07 2.39
7.46 -6.92 2.39
7.59 -6.77 2.39
7.73 -6.61 2.39
7.86 -6.46 2.39
7.99 -6.30 2.39
8.11 -6.13 2.39
8.23 -5.97 2.39
8.35 -5.80 2.39
8.46 -5.63 2.39
8.57 -5.46 2.39
8.68 -5.29 2.39
8.78 -5.11 2.39
8.88 -4.94 2.39
8.98 -4.76 2.39
9.07 -4.57 2.39
9.16 -4.39 2.39
9.25 -4.21 2.39
9.33 -4.02 2.39
9.41 -3.83 2.39
9.48 -3.64 2.39
9.55 -3.45 2.39
9.62 -3.26 2.39
9.68 -3.06 2.39
9.74 -2.87 2.39
9.80 -2.67 2.39
9.85 -2.47 2.39
9.90 -2.28 2.39
9.94 -2.08 2.39
9.98 -1.88 2.39
10.01 -1.68 2.39
10.05 -1.47 2.39
10.07 -1.27 2.39
10.10 -1.07 2.39
10.12 -0.87 2.39
10.13 -0.66 2.39
10.14 -0.46 2.39
10.15 -0.26 2.39
10.15 -0.05 2.39
10.15 0.15 2.39
10.14 0.36 2.39
10.13 0.56 2.39
10.12 0.76 2.39
10.10 0.97 2.39
10.08 1.17 2.39
10.06 1.37 2.39
10.03 1.57 2.39
9.99 1.77 2.39
9.95 1.97 2.39
9.91 2.17 2.39
9.87 2.37 2.39
9.82 2.57 2.39
9.76 2.77 2.39
9.71 2.96 2.39
9.64 3.15 2.39
9.58 3.35 2.39
9.51 3.54 2.39
9.44 3.73 2.39
9.36 3.92 2.39
9.28 4.11 2.39
9.19 4.29 2.39
9.11 4.47 2.39
9.02 4.66 2.39
8.92 4.84 2.39
8.82 5.01 2.39
8.72 5.19 2.39
8.61 5.36 2.39
8.50 5.54 2.39
8.39 5.71 2.39
8.27 5.87 2.39
8.16 6.04 2.39
8.03 6.20 2.39
7.91 6.36 2.39
7.78 6.52 2.39
7.64 6.67 2.39
7.51 6.83 2.39
7.37 6.98 2.39
7.23 7.12 2.39
7.09 7.27 2.39
6.94 7.41 2.39
6.79 7.55 2.39
6.64 7.68 2.39
6.48 7.81 2.39
6.32 7.94 2.39
6.16 8.07 2.39
6.00 8.19 2.39
5.83 8.31 2.39
5.67 8.42 2.39
5.49 8.53 2.39
5.32 8.64 2.39
5.14 8.74 2.39
4.97 8.84 2.39
4.79 8.94 2.39
4.61 9.04 2.39
4.43 9.13 2.39
4.24 9.21 2.39
4.06 9.30 2.39
3.87 9.38 2.39
3.68 9.45 2.39
3.49 9.53 2.39
3.30 9.60 2.39
3.11 9.66 2.39
2.91 9.72 2.39
2.72 9.78 2.39
2.52 9.83 2.39
2.32 9.88 2.39
2.12 9.93 2.39
1.92 9.97 2.39
1.72 10.00 2.39
1.56 10.31 2.46
1.38 10.50 2.49
1.17 10.53 2.49
0.95 10.55 2.49
0.74 10.57 2.49
0.53 10.58 2.49
0.32 10.59 2.49
0.10 10.59 2.49
-0.11 10.59 2.49
-0.32 10.59 2.49
-0.53 10.58 2.49
-0.75 10.57 2.49
-0.96 10.55 2.49
-1.17 10.53 2.49
-1.38 10.51 2.49
-1.59 10.48 2.49
-1.80 10.45 2.49
-2.01 10.41 2.49
-2.22 10.37 2.49
-2.43 10.32 2.49
-2.63 10.27 2.49
-2.84 10.22 2.49
-3.05 10.16 2.49
-3.25 10.10 2.49
-3.45 10.03 2.49
-3.65 9.96 2.49
-3.85 9.88 2.49
-4.05 9.81 2.49
-4.25 9.72 2.49
-4.44 9.64 2.49
-4.63 9.55 2.49
-4.82 9.45 2.49
-5.01 9.35 2.49
-5.20 9.25 2.49
-5.39 9.15 2.49
-5.57 9.04 2.49
-5.75 8.92 2.49
-5.93 8.81 2.49
-6.10 8.69 2.49
-6.28 8.56 2.49
-6.45 8.44 2.49
-6.48 8.13 2.44
-6.50 7.83 2.39
-6.66 7.70 2.39
-6.81 7.57 2.39
-6.96 7.43 2.39
-7.11 7.29 2.39
-7.26 7.15 2.39
-7.40 7.00 2.39
-7.54 6.85 2.39
-7.68 6.70 2.39
-7.81 6.54 2.39
-7.94 6.39 2.39
-8.07 6.23 2.39
-8.19 6.06 2.39
-8.31 5.90 2.39
-8.43 5.73 2.39
-8.54 5.56 2.39
-8.65 5.39 2.39
-8.76 5.21 2.39
-8.86 5.04 2.39
-8.96 4.86 2.39
-9.06 4.68 2.39
-9.15 4.49 2.39
-9.24 4.31 2.39
-9.33 4.12 2.39
-9.41 3.94 2.39
-9.48 3.75 2.39
-9.56 3.56 2.39
-9.63 3.36 2.39
-9.69 3.17 2.39
-9.76 2.98 2.39
-9.82 2.78 2.39
-9.87 2.58 2.39
-9.92 2.38 2.39
-9.97 2.18 2.39
-10.01 1.98 2.39
-10.05 1.78 2.39
-10.08 1.58 2.39
-10.11 1.38 2.39
-10.14 1.17 2.39
-6.88 0.66 1.62
-10.18 0.77 2.39
-10.19 0.56 2.39
-10.20 0.36 2.39
-10.21 0.15 2.39
-10.21 -0.05 2.39
-10.20 -0.26 2.39
-10.20 -0.46 2.39
-10.19 -0.67 2.39
-10.17 -0.87 2.39
-10.15 -1.07 2.39
-10.13 -1.28 2.39
-10.10 -1.48 2.39
-10.07 -1.68 2.39
-10.03 -1.89 2.39
-9.99 -2.09 2.39
-9.95 -2.29 2.39
-9.90 -2.49 2.39
-9.85 -2.68 2.39
-9.80 -2.88 2.39
-9.74 -3.08 2.39
-9.67 -3.27 2.39
-9.60 -3.47 2.39
-9.53 -3.66 2.39
-9.46 -3.85 2.39
-9.38 -4.04 2.39
-9.30 -4.22 2.39
-9.21 -4.41 2.39
-9.12 -4.59 2.39
-9.02 -4.78 2.39
-8.93 -4.96 2.39
-8.83 -5.13 2.39
-8.72 -5.31 2.39
-8.61 -5.48 2.39
-8.50 -5.66 2.39
-8.39 -5.83 2.39
-8.27 -5.99 2.39
-8.14 -6.16 2.39
-8.02 -6.32 2.39
-7.89 -6.48 2.39
-7.76 -6.64 2.39
-7.62 -6.79 2.39
-7.49 -6.94 2.39
-7.34 -7.09 2.39
-7.20 -7.24 2.39
-7.05 -7.38 2.39
-6.90 -7.52 2.39
-6.75 -7.66 2.39
-6.60 -7.79 2.39
-6.46 -7.95 2.40
-6.45 -8.27 2.46
-6.38 -8.52 2.49
-6.21 -8.65 2.49
-6.03 -8.77 2.49
-5.85 -8.89 2.49
-5.67 -9.01 2.49
-5.49 -9.12 2.49
-5.31 -9.23 2.49
-5.12 -9.33 2.49
-4.93 -9.43 2.49
-4.74 -9.53 2.49
-4.55 -9.62 2.49
-4.36 -9.71 2.49
-4.16 -9.80 2.49
-3.96 -9.88 2.49
-3.76 -9.95 2.49
-3.56 -10.03 2.49
-3.36 -10.10 2.49
-3.16 -10.16 2.49
-2.95 -10.22 2.49
-2.75 -10.28 2.49
-2.54 -10.33 2.49
-2.33 -10.38 2.49
-2.12 -10.42 2.49
-1.91 -10.46 2.49
-1.70 -10.50 2.49
-1.49 -10.53 2.49
-1.28 -10.56 2.49
-1.07 -10.58 2.49
-0.85 -10.60 2.49
-0.64 -10.61 2.49
-0.43 -10.62 2.49
-0.22 -10.63 2.49
-0.00 -9.65 2.49
0.19 -9.64 2.49
0.39 -9.64 2.49
0.58 -9.63 2.49
0.77 -9.61 2.49
0.96 -9.60 2.49
1.16 -9.57 2.49
1.35 -9.55 2.49
1.54 -9.52 2.49
1.66 -9.09 2.39
1.84 -9.06 2.39
2.02 -9.02 2.39
2.20 -8.97 2.39
2.38 -8.93 2.39
2.56 -8.88 2.39
2.74 -8.82 2.39
2.91 -8.77 2.39
3.09 -8.71 2.39
3.26 -8.64 2.39
3.44 -8.57 2.39
3.61 -8.50 2.39
3.78 -8.43 2.39
3.95 -8.35 2.39
4.11 -8.27 2.39
4.28 -8.18 2.39
4.44 -8.10 2.39
4.60 -8.00 2.39
4.76 -7.91 2.39
4.92 -7.81 2.39
5.07 -7.71 2.39
5.23 -7.61 2.39
5.38 -7.50 2.39
5.53 -7.39 2.39
5.68 -7.29 2.39
5.83 -7.17 2.39
5.97 -7.05 2.39
6.11 -6.93 2.39
6.24 -6.80 2.39
6.38 -6.68 2.39
6.51 -6.55 2.39
6.64 -6.42 2.39
6.77 -6.28 2.39
6.89 -6.14 2.39
7.01 -6.00 2.39
7.13 -5.86 2.39
7.25 -5.72 2.39
7.36 -5.57 2.39
7.47 -5.42 2.39
7.58 -5.27 2.39
7.68 -5.11 2.39
7.78 -4.96 2.39
7.88 -4.80 2.39
7.97 -4.64 2.39
8.07 -4.48 2.39
8.15 -4.32 2.39
8.24 -4.15 2.39
8.32 -3.99 2.39
8.40 -3.82 2.39
8.47 -3.65 2.39
8.54 -3.48 2.39
8.61 -3.31 2.39
8.67 -3.13 2.39
8.74 -2.96 2.39
8.79 -2.78 2.39
8.85 -2.60 2.39
8.90 -2.43 2.39
8.94 -2.25 2.39
8.99 -2.07 2.39
9.03 -1.88 2.39
9.06 -1.70 2.39
9.09 -1.52 2.39
9.12 -1.34 2.39
9.15 -1.15 2.39
9.17 -0.97 2.39
9.18 -0.79 2.39
9.20 -0.60 2.39
9.21 -0.42 2.39
9.21 -0.23 2.39
9.22 -0.05 2.39
9.22 0.14 2.39
9.21 0.32 2.39
9.20 0.51 2.39
9.19 0.69 2.39
9.17 0.88 2.39
9.15 1.06 2.39
9.13 1.24 2.39
9.10 1.43 2.39
9.07 1.61 2.39
9.04 1.79 2.39
9.00 1.97 2.39
8.96 2.15 2.39
8.91 2.33 2.39
8.87 2.51 2.39
8.81 2.69 2.39
8.76 2.86 2.39
8.70 3.04 2.39
8.63 3.21 2.39
8.57 3.39 2.39
8.50 3.56 2.39
8.43 3.73 2.39
8.35 3.90 2.39
8.27 4.06 2.39
8.19 4.23 2.39
8.10 4.39 2.39
8.01 4.55 2.39
7.92 4.71 2.39
7.82 4.87 2.39
7.72 5.03 2.39
7.62 5.18 2.39
7.51 5.33 2.39
7.40 5.48 2.39
7.29 5.63 2.39
7.18 5.78 2.39
7.06 5.92 2.39
6.94 6.06 2.39
6.82 6.20 2.39
6.69 6.33 2.39
6.56 6.47 2.39
6.43 6.60 2.39
6.30 6.73 2.39
6.16 6.85 2.39
6.02 6.97 2.39
5.88 7.09 2.39
5.74 7.21 2.39
5.59 7.32 2.39
5.44 7.43 2.39
5.29 7.53 2.39
5.14 7.64 2.39
4.98 7.74 2.39
4.83 7.84 2.39
4.67 7.94 2.39
4.51 8.03 2.39
4.35 8.12 2.39
4.18 8.20 2.39
4.02 8.29 2.39
3.85 8.37 2.39
3.68 8.44 2.39
3.51 8.51 2.39
3.34 8.58 2.39
3.17 8.65 2.39
2.99 8.71 2.39
2.82 8.77 2.39
2.64 8.83 2.39
2.46 8.88 2.39
2.29 8.93 2.39
2.11 8.97 2.39
1.93 9.01 2.39
1.75 9.09 2.40
1.57 9.13 2.40
1.44 9.51 2.49
1.25 9.53 2.49
1.06 9.56 2.49
0.87 9.58 2.49
0.67 9.59 2.49
0.48 9.60 2.49
0.29 9.61 2.49
0.09 9.62 2.49
-0.10 9.62 2.49
-0.29 9.61 2.49
-0.48 9.61 2.49
-0.68 9.60 2.49
-0.87 9.58 2.49
-1.06 9.56 2.49
-1.25 9.54 2.49
-1.45 9.51 2.49
-1.64 9.48 2.49
-1.83 9.45 2.49
-2.02 9.41 2.49
-2.20 9.37 2.49
-2.39 9.32 2.49
-2.58 9.27 2.49
-2.76 9.22 2.49
-2.95 9.16 2.49
-3.13 9.10 2.49
-3.32 9.04 2.49
-3.50 8.97 2.49
-3.68 8.90 2.49
-3.85 8.83 2.49
-4.03 8.75 2.49
-4.21 8.67 2.49
-4.38 8.58 2.49
-4.55 8.49 2.49
-4.72 8.40 2.49
-4.89 8.30 2.49
-5.05 8.20 2.49
-5.22 8.10 2.49
-5.38 7.99 2.49
-5.54 7.89 2.49
-5.70 7.77 2.49
-5.85 7.66 2.49
-6.01 7.54 2.49
-6.16 7.42 2.49
-6.31 7.29 2.49
-6.45 7.17 2.49
-6.48 6.91 2.45
-6.49 6.65 2.40
-6.59 6.49 2.39
-6.72 6.35 2.39
-6.84 6.22 2.39
-6.97 6.08 2.39
-7.09 5.94 2.39
-7.21 5.80 2.39
-7.32 5.65 2.39
-7.43 5.50 2.39
-7.54 5.35 2.39
-7.65 5.20 2.39
-7.75 5.05 2.39
-7.85 4.89 2.39
-7.95 4.73 2.39
-8.04 4.57 2.39
-8.13 4.41 2.39
-8.22 4.24 2.39
-8.31 4.08 2.39
-8.39 3.91 2.39
-8.46 3.74 2.39
-8.54 3.57 2.39
-8.61 3.40 2.39
-8.67 3.23 2.39
-8.74 3.05 2.39
-8.80 2.88 2.39
-8.85 2.70 2.39
-8.91 2.52 2.39
-8.96 2.34 2.39
-9.00 2.16 2.39
-9.04 1.98 2.39
-9.08 1.80 2.39
-9.12 1.62 2.39
-9.15 1.43 2.39
-9.18 1.25 2.39
-9.20 1.07 2.39
-6.88 0.66 1.78
-9.24 0.70 2.39
-9.25 0.51 2.39
-9.26 0.32 2.39
-9.26 0.14 2.39
-9.26 -0.05 2.39
-9.26 -0.23 2.39
-9.25 -0.42 2.39
-9.24 -0.60 2.39
-9.23 -0.79 2.39
-9.21 -0.98 2.39
-9.19 -1.16 2.39
-9.17 -1.34 2.39
-9.14 -1.53 2.39
-9.11 -1.71 2.39
-9.07 -1.89 2.39
-9.03 -2.07 2.39
-8.99 -2.26 2.39
-8.94 -2.44 2.39
-8.89 -2.61 2.39
-8.83 -2.79 2.39
-8.78 -2.97 2.39
-8.72 -3.14 2.39
-8.65 -3.32 2.39
-8.58 -3.49 2.39
-8.51 -3.66 2.39
-8.44 -3.83 2.39
-8.36 -4.00 2.39
-8.27 -4.17 2.39
-8.19 -4.33 2.39
-8.10 -4.50 2.39
-8.01 -4.66 2.39
-7.91 -4.82 2.39
-7.82 -4.98 2.39
-7.71 -5.13 2.39
-7.61 -5.29 2.39
-7.50 -5.44 2.39
-7.39 -5.59 2.39
-7.28 -5.73 2.39
-7.16 -5.88 2.39
-7.04 -6.02 2.39
-6.92 -6.16 2.39
-6.79 -6.30 2.39
-6.67 -6.44 2.39
-6.53 -6.57 2.39
-6.46 -6.76 2.41
-6.45 -7.03 2.46
-6.39 -7.25 2.49
-6.24 -7.37 2.49
-6.10 -7.50 2.49
-5.94 -7.62 2.49
-5.79 -7.74 2.49
-5.63 -7.85 2.49
-5.47 -7.96 2.49
-5.31 -8.07 2.49
-5.15 -8.17 2.49
-4.98 -8.28 2.49
-4.82 -8.37 2.49
-4.65 -8.47 2.49
-4.48 -8.56 2.49
-4.30 -8.65 2.49
-4.13 -8.73 2.49
-3.95 -8.81 2.49
-3.78 -8.89 2.49
-3.60 -8.96 2.49
-3.42 -9.03 2.49
-3.23 -9.10 2.49
-3.05 -9.16 2.49
-2.87 -9.22 2.49
-2.68 -9.28 2.49
-2.49 -9.33 2.49
-2.30 -9.37 2.49
-2.12 -9.42 2.49
-1.93 -9.46 2.49
-1.74 -9.49 2.49
-1.55 -9.53 2.49
-1.35 -9.56 2.49
-1.16 -9.58 2.49
-0.97 -9.60 2.49
-0.78 -9.62 2.49
-0.58 -9.63 2.49
-0.39 -9.64 2.49
-0.20 -9.65 2.49
-0.00 -8.82 2.49
0.18 -8.82 2.49
0.35 -8.81 2.49
0.53 -8.80 2.49
0.71 -8.79 2.49
0.88 -8.78 2.49
1.06 -8.76 2.49
1.23 -8.73 2.49
1.41 -8.71 2.49
1.58 -8.67 2.49
1.68 -8.28 2.39
1.85 -8.25 2.39
2.01 -8.21 2.39
2.18 -8.17 2.39
2.34 -8.12 2.39
2.50 -8.07 2.39
2.67 -8.02 2.39
2.83 -7.96 2.39
2.98 -7.90 2.39
3.14 -7.84 2.39
3.30 -7.78 2.39
3.45 -7.71 2.39
3.61 -7.64 2.39
3.76 -7.56 2.39
3.91 -7.48 2.39
4.06 -7.40 2.39
4.21 -7.32 2.39
4.35 -7.23 2.39
4.50 -7.15 2.39
4.64 -7.05 2.39
4.78 -6.96 2.39
4.92 -6.86 2.39
5.06 -6.76 2.39
5.19 -6.66 2.39
5.32 -6.55 2.39
5.45 -6.44 2.39
5.58 -6.33 2.39
5.71 -6.22 2.39
5.84 -6.11 2.39
5.96 -5.99 2.39
6.08 -5.87 2.39
6.19 -5.74 2.39
6.30 -5.62 2.39
6.42 -5.49 2.39
6.52 -5.36 2.39
6.63 -5.23 2.39
6.73 -5.09 2.39
6.83 -4.96 2.39
6.93 -4.82 2.39
7.03 -4.68 2.39
7.12 -4.54 2.39
7.21 -4.39 2.39
7.29 -4.25 2.39
7.38 -4.10 2.39
7.46 -3.95 2.39
7.54 -3.80 2.39
7.61 -3.65 2.39
7.68 -3.49 2.39
7.75 -3.34 2.39
7.81 -3.18 2.39
7.88 -3.02 2.39
7.94 -2.86 2.39
7.99 -2.70 2.39
8.04 -2.54 2.39
8.09 -2.38 2.39
8.14 -2.22 2.39
8.18 -2.05 2.39
8.22 -1.89 2.39
8.26 -1.72 2.39
8.29 -1.56 2.39
8.32 -1.39 2.39
8.34 -1.22 2.39
8.37 -1.06 2.39
8.39 -0.89 2.39
8.40 -0.72 2.39
8.41 -0.55 2.39
8.42 -0.38 2.39
8.43 -0.21 2.39
8.43 -0.04 2.39
8.43 0.13 2.39
8.43 0.30 2.39
8.42 0.46 2.39
8.41 0.63 2.39
8.39 0.80 2.39
8.37 0.97 2.39
8.35 1.14 2.39
8.33 1.31 2.39
8.30 1.47 2.39
8.27 1.64 2.39
8.23 1.80 2.39
8.20 1.97 2.39
8.15 2.13 2.39
8.11 2.30 2.39
8.06 2.46 2.39
8.01 2.62 2.39
7.96 2.78 2.39
7.90 2.94 2.39
7.84 3.10 2.39
7.77 3.25 2.39
7.71 3.41 2.39
7.64 3.56 2.39
7.56 3.72 2.39
7.49 3.87 2.39
7.41 4.02 2.39
7.33 4.17 2.39
7.24 4.31 2.39
7.15 4.46 2.39
7.06 4.60 2.39
6.97 4.74 2.39
6.87 4.88 2.39
6.77 5.02 2.39
6.67 5.15 2.39
6.57 5.28 2.39
6.46 5.41 2.39
6.35 5.54 2.39
6.24 5.67 2.39
6.12 5.79 2.39
6.01 5.92 2.39
5.89 6.04 2.39
5.76 6.15 2.39
5.64 6.27 2.39
5.51 6.37 2.39
5.38 6.48 2.39
5.25 6.59 2.39
5.11 6.69 2.39
4.98 6.79 2.39
4.84 6.89 2.39
4.70 6.99 2.39
4.56 7.08 2.39
4.42 7.17 2.39
4.27 7.26 2.39
4.13 7.34 2.39
3.98 7.43 2.39
3.83 7.50 2.39
3.68 7.58 2.39
3.52 7.65 2.39
3.37 7.72 2.39
3.21 7.79 2.39
3.06 7.85 2.39
2.90 7.91 2.39
2.74 7.97 2.39
2.58 8.02 2.39
2.42 8.07 2.39
2.25 8.12 2.39
2.09 8.16 2.39
1.93 8.21 2.39
1.76 8.24 2.39
1.60 8.28 2.39
1.49 8.67 2.49
1.32 8.69 2.49
1.14 8.72 2.49
0.97 8.74 2.49
0.79 8.76 2.49
0.62 8.77 2.49
0.44 8.79 2.49
0.26 8.79 2.49
0.09 8.80 2.49
-0.09 8.80 2.49
-0.27 8.79 2.49
-0.44 8.79 2.49
-0.62 8.78 2.49
-0.80 8.76 2.49
-0.97 8.75 2.49
-1.15 8.73 2.49
-1.32 8.70 2.49
-1.50 8.67 2.49
-1.67 8.64 2.49
-1.84 8.61 2.49
-2.02 8.57 2.49
-2.19 8.53 2.49
-2.36 8.48 2.49
-2.53 8.43 2.49
-2.70 8.38 2.49
-2.87 8.33 2.49
-3.03 8.27 2.49
-3.20 8.21 2.49
-3.36 8.14 2.49
-3.53 8.07 2.49
-3.69 8.00 2.49
-3.85 7.93 2.49
-4.01 7.85 2.49
-4.16 7.77 2.49
-4.32 7.68 2.49
-4.47 7.59 2.49
-4.62 7.50 2.49
-4.77 7.41 2.49
-4.92 7.31 2.49
-5.07 7.21 2.49
-5.21 7.11 2.49
-5.35 7.00 2.49
-5.49 6.90 2.49
-5.63 6.78 2.49
-5.77 6.67 2.49
-5.90 6.55 2.49
-6.03 6.43 2.49
-6.16 6.31 2.49
-6.28 6.19 2.49
-6.41 6.06 2.49
-6.48 5.88 2.47
-6.48 5.65 2.43
-6.49 5.44 2.39
-6.59 5.30 2.39
-6.70 5.17 2.39
-6.80 5.03 2.39
-6.90 4.89 2.39
-7.00 4.76 2.39
-7.09 4.61 2.39
-7.18 4.47 2.39
-7.27 4.33 2.39
-7.36 4.18 2.39
-7.44 4.03 2.39
-7.52 3.88 2.39
-7.60 3.73 2.39
-7.67 3.58 2.39
-7.74 3.42 2.39
-7.81 3.27 2.39
-7.87 3.11 2.39
-7.93 2.95 2.39
-7.99 2.79 2.39
-8.05 2.63 2.39
-8.10 2.47 2.39
-8.15 2.31 2.39
-8.19 2.14 2.39
-8.23 1.98 2.39
-8.27 1.81 2.39
-8.31 1.65 2.39
-8.34 1.48 2.39
-8.37 1.31 2.39
-8.39 1.14 2.39
-8.41 0.97 2.39
-6.88 0.66 1.95
-8.44 0.64 2.39
-8.46 0.47 2.39
-8.46 0.30 2.39
-8.47 0.13 2.39
-8.47 -0.04 2.39
-8.47 -0.21 2.39
-8.46 -0.38 2.39
-8.45 -0.55 2.39
-8.44 -0.72 2.39
-8.42 -0.89 2.39
-8.40 -1.06 2.39
-8.38 -1.23 2.39
-8.36 -1.40 2.39
-8.33 -1.56 2.39
-8.29 -1.73 2.39
-8.26 -1.90 2.39
-8.22 -2.06 2.39
-8.17 -2.23 2.39
-8.13 -2.39 2.39
-8.08 -2.55 2.39
-8.03 -2.72 2.39
-7.97 -2.88 2.39
-7.91 -3.03 2.39
-7.85 -3.19 2.39
-7.78 -3.35 2.39
-7.71 -3.51 2.39
-7.64 -3.66 2.39
-7.57 -3.81 2.39
-7.49 -3.96 2.39
-7.41 -4.11 2.39
-7.32 -4.26 2.39
-7.24 -4.41 2.39
-7.15 -4.55 2.39
-7.05 -4.69 2.39
-6.96 -4.83 2.39
-6.86 -4.97 2.39
-6.76 -5.11 2.39
-6.67 -5.25 2.40
-6.55 -5.38 2.39
-6.47 -5.53 2.40
-6.46 -5.75 2.44
-6.45 -5.99 2.48
-6.36 -6.14 2.49
-6.23 -6.26 2.49
-6.11 -6.39 2.49
-5.98 -6.51 2.49
-5.84 -6.63 2.49
-5.71 -6.74 2.49
-5.57 -6.86 2.49
-5.43 -6.97 2.49
-5.29 -7.07 2.49
-5.15 -7.18 2.49
-5.01 -7.28 2.49
-4.86 -7.38 2.49
-4.71 -7.47 2.49
-4.56 -7.57 2.49
-4.40 -7.66 2.49
-4.25 -7.74 2.49
-4.09 -7.83 2.49
-3.94 -7.91 2.49
-3.78 -7.98 2.49
-3.61 -8.06 2.49
-3.45 -8.13 2.49
-3.29 -8.20 2.49
-3.12 -8.26 2.49
-2.96 -8.32 2.49
-2.79 -8.38 2.49
-2.62 -8.43 2.49
-2.45 -8.48 2.49
-2.28 -8.53 2.49
-2.11 -8.57 2.49
-1.94 -8.61 2.49
-1.76 -8.65 2.49
-1.59 -8.68 2.49
-1.41 -8.71 2.49
-1.24 -8.74 2.49
-1.06 -8.76 2.49
-0.89 -8.78 2.49
-0.71 -8.80 2.49
-0.53 -8.81 2.49
-0.36 -8.82 2.49
-0.18 -8.82 2.49
-0.00 -8.12 2.49
0.16 -8.12 2.49
0.32 -8.11 2.49
0.49 -8.10 2.49
0.65 -8.09 2.49
0.81 -8.08 2.49
0.97 -8.06 2.49
1.13 -8.04 2.49
1.30 -8.01 2.49
1.46 -7.98 2.49
1.59 -7.85 2.46
1.70 -7.59 2.39
1.85 -7.55 2.39
2.00 -7.52 2.39
2.16 -7.47 2.39
2.30 -7.43 2.39
2.45 -7.38 2.39
2.60 -7.33 2.39
2.75 -7.27 2.39
2.89 -7.22 2.39
3.04 -7.16 2.39
3.18 -7.09 2.39
3.32 -7.03 2.39
3.46 -6.96 2.39
3.60 -6.89 2.39
3.74 -6.82 2.39
3.87 -6.74 2.39
4.01 -6.66 2.39
4.14 -6.58 2.39
4.27 -6.49 2.39
4.40 -6.40 2.39
4.53 -6.31 2.39
4.65 -6.22 2.39
4.78 -6.13 2.39
4.90 -6.03 2.39
5.02 -5.93 2.39
5.14 -5.83 2.39
5.25 -5.72 2.39
5.37 -5.62 2.39
5.48 -5.51 2.39
5.59 -5.40 2.39
5.70 -5.29 2.39
5.80 -5.17 2.39
5.91 -5.05 2.39
6.01 -4.93 2.39
6.10 -4.81 2.39
6.20 -4.69 2.39
6.29 -4.56 2.39
6.38 -4.44 2.39
6.47 -4.31 2.39
6.55 -4.18 2.39
6.64 -4.04 2.39
6.71 -3.91 2.39
6.79 -3.77 2.39
6.87 -3.64 2.39
6.94 -3.50 2.39
7.01 -3.36 2.39
7.07 -3.22 2.39
7.13 -3.07 2.39
7.19 -2.93 2.39
7.25 -2.78 2.39
7.30 -2.64 2.39
7.36 -2.49 2.39
7.40 -2.34 2.39
7.45 -2.19 2.39
7.49 -2.04 2.39
7.53 -1.89 2.39
7.57 -1.74 2.39
7.60 -1.59 2.39
7.63 -1.43 2.39
7.66 -1.28 2.39
7.68 -1.13 2.39
7.70 -0.97 2.39
7.72 -0.82 2.39
7.73 -0.66 2.39
7.75 -0.51 2.39
7.75 -0.35 2.39
7.76 -0.20 2.39
7.76 -0.04 2.39
7.76 0.12 2.39
7.76 0.27 2.39
7.75 0.43 2.39
7.74 0.58 2.39
7.73 0.74 2.39
7.71 0.89 2.39
7.69 1.05 2.39
7.67 1.20 2.39
7.64 1.36 2.39
7.61 1.51 2.39
7.58 1.66 2.39
7.55 1.81 2.39
7.51 1.96 2.39
7.47 2.11 2.39
7.42 2.26 2.39
7.37 2.41 2.39
7.32 2.56 2.39
7.27 2.71 2.39
7.22 2.85 2.39
7.16 3.00 2.39
7.10 3.14 2.39
7.03 3.28 2.39
6.96 3.42 2.39
6.89 3.56 2.39
6.82 3.70 2.39
6.75 3.83 2.39
6.67 3.97 2.39
6.59 4.10 2.39
6.50 4.23 2.39
6.42 4.36 2.39
6.33 4.49 2.39
6.24 4.62 2.39
6.14 4.74 2.39
6.05 4.86 2.39
5.95 4.98 2.39
5.85 5.10 2.39
5.74 5.22 2.39
5.64 5.33 2.39
5.52 5.44 2.39
5.41 5.55 2.39
5.30 5.66 2.39
5.18 5.76 2.39
5.07 5.87 2.39
4.95 5.97 2.39
4.83 6.07 2.39
4.71 6.16 2.39
4.58 6.25 2.39
4.46 6.35 2.39
4.33 6.43 2.39
4.20 6.52 2.39
4.07 6.60 2.39
3.93 6.68 2.39
3.80 6.76 2.39
3.66 6.84 2.39
3.52 6.91 2.39
3.38 6.98 2.39
3.24 7.05 2.39
3.10 7.11 2.39
2.96 7.17 2.39
2.81 7.23 2.39
2.67 7.28 2.39
2.52 7.34 2.39
2.37 7.39 2.39
2.22 7.43 2.39
2.08 7.48 2.39
1.93 7.52 2.39
1.77 7.55 2.39
1.62 7.59 2.39
1.53 7.95 2.49
1.37 7.98 2.49
1.21 8.00 2.49
1.05 8.03 2.49
0.89 8.05 2.49
0.73 8.06 2.49
0.57 8.08 2.49
0.40 8.09 2.49
0.24 8.09 2.49
0.08 8.10 2.49
-0.08 8.10 2.49
-0.25 8.10 2.49
-0.41 8.09 2.49
-0.57 8.08 2.49
-0.73 8.07 2.49
-0.89 8.05 2.49
-1.06 8.03 2.49
-1.22 8.01 2.49
-1.38 7.98 2.49
-1.54 7.96 2.49
-1.70 7.92 2.49
-1.86 7.89 2.49
-2.01 7.85 2.49
-2.17 7.81 2.49
-2.33 7.76 2.49
-2.48 7.72 2.49
-2.64 7.66 2.49
-2.79 7.61 2.49
-2.94 7.55 2.49
-3.09 7.49 2.49
-3.24 7.43 2.49
-3.39 7.36 2.49
-3.54 7.29 2.49
-3.69 7.22 2.49
-3.83 7.15 2.49
-3.97 7.07 2.49
-4.12 6.99 2.49
-4.26 6.91 2.49
-4.39 6.82 2.49
-4.53 6.73 2.49
-4.66 6.64 2.49
-4.80 6.54 2.49
-4.93 6.45 2.49
-5.06 6.35 2.49
-5.18 6.24 2.49
-5.31 6.14 2.49
-5.43 6.03 2.49
-5.55 5.92 2.49
-5.67 5.81 2.49
-5.78 5.69 2.49
-5.90 5.58 2.49
-6.01 5.46 2.49
-6.12 5.34 2.49
-6.22 5.21 2.49
-6.33 5.09 2.49
-6.43 4.96 2.49
-6.47 4.79 2.47
-6.47 4.59 2.44
-6.48 4.41 2.41
-6.52 4.25 2.39
-6.61 4.11 2.39
-6.69 3.98 2.39
-6.77 3.85 2.39
-6.85 3.71 2.39
-6.92 3.57 2.39
-6.99 3.43 2.39
-7.06 3.29 2.39
-7.12 3.15 2.39
-7.18 3.01 2.39
-7.24 2.86 2.39
-7.30 2.72 2.39
-7.35 2.57 2.39
-7.40 2.42 2.39
-7.45 2.27 2.39
-7.50 2.12 2.39
-7.54 1.97 2.39
-7.58 1.82 2.39
-7.61 1.67 2.39
-7.64 1.51 2.39
-7.67 1.36 2.39
-7.70 1.21 2.39
-7.72 1.05 2.39
-7.74 0.90 2.39
-6.88 0.66 2.12
-7.77 0.59 2.39
-7.78 0.43 2.39
-7.79 0.27 2.39
-7.79 0.12 2.39
-7.79 -0.04 2.39
-7.79 -0.20 2.39
-7.79 -0.35 2.39
-7.78 -0.51 2.39
-7.77 -0.66 2.39
-7.75 -0.82 2.39
-7.73 -0.98 2.39
-7.71 -1.13 2.39
-7.69 -1.29 2.39
-7.66 -1.44 2.39
-7.63 -1.59 2.39
-7.60 -1.75 2.39
-7.56 -1.90 2.39
-7.52 -2.05 2.39
-7.48 -2.20 2.39
-7.43 -2.35 2.39
-7.38 -2.50 2.39
-7.33 -2.65 2.39
-7.28 -2.79 2.39
-7.22 -2.94 2.39
-7.16 -3.08 2.39
-7.10 -3.23 2.39
-7.03 -3.37 2.39
-6.96 -3.51 2.39
-6.89 -3.65 2.39
-6.82 -3.78 2.39
-6.74 -3.92 2.39
-6.67 -4.06 2.40
-6.58 -4.19 2.39
-6.49 -4.32 2.39
-6.46 -4.49 2.41
-6.46 -4.68 2.45
-6.46 -4.88 2.48
-6.39 -5.03 2.49
-6.28 -5.16 2.49
-6.18 -5.29 2.49
-6.07 -5.41 2.49
-5.96 -5.53 2.49
-5.85 -5.65 2.49
-5.74 -5.76 2.49
-5.62 -5.88 2.49
-5.50 -5.99 2.49
-5.38 -6.10 2.49
-5.25 -6.20 2.49
-5.13 -6.31 2.49
-5.00 -6.41 2.49
-4.87 -6.51 2.49
-4.74 -6.61 2.49
-4.61 -6.70 2.49
-4.47 -6.79 2.49
-4.33 -6.88 2.49
-4.19 -6.96 2.49
-4.05 -7.05 2.49
-3.91 -7.13 2.49
-3.77 -7.20 2.49
-3.62 -7.28 2.49
-3.47 -7.35 2.49
-3.33 -7.42 2.49
-3.18 -7.48 2.49
-3.03 -7.54 2.49
-2.87 -7.60 2.49
-2.72 -7.66 2.49
-2.57 -7.71 2.49
-2.41 -7.76 2.49
-2.25 -7.81 2.49
-2.10 -7.85 2.49
-1.94 -7.89 2.49
-1.78 -7.93 2.49
-1.62 -7.96 2.49
-1.46 -7.99 2.49
-1.30 -8.02 2.49
-1.14 -8.04 2.49
-0.98 -8.06 2.49
-0.82 -8.08 2.49
-0.65 -8.09 2.49
-0.49 -8.11 2.49
-0.33 -8.11 2.49
-0.16 -8.12 2.49
-0.00 -7.51 2.49
0.15 -7.51 2.49
0.30 -7.51 2.49
0.45 -7.50 2.49
0.60 -7.49 2.49
0.75 -7.47 2.49
0.90 -7.46 2.49
1.05 -7.44 2.49
1.20 -7.41 2.49
1.35 -7.39 2.49
1.50 -7.36 2.49
1.60 -7.12 2.43
1.72 -6.99 2.39
1.85 -6.95 2.39
1.99 -6.91 2.39
2.13 -6.87 2.39
2.27 -6.83 2.39
2.41 -6.78 2.39
2.54 -6.73 2.39
2.68 -6.68 2.39
2.81 -6.62 2.39
2.94 -6.56 2.39
3.07 -6.50 2.39
3.20 -6.44 2.39
3.33 -6.37 2.39
3.46 -6.31 2.39
3.58 -6.24 2.39
3.71 -6.16 2.39
3.83 -6.09 2.39
3.95 -6.01 2.39
4.07 -5.93 2.39
4.19 -5.84 2.39
4.31 -5.76 2.39
4.42 -5.67 2.39
4.53 -5.58 2.39
4.64 -5.49 2.39
4.75 -5.39 2.39
4.86 -5.30 2.39
4.96 -5.20 2.39
5.07 -5.10 2.39
5.17 -4.99 2.39
5.27 -4.89 2.39
5.36 -4.78 2.39
5.46 -4.67 2.39
5.55 -4.56 2.39
5.65 -4.45 2.39
5.74 -4.34 2.39
5.82 -4.22 2.39
5.90 -4.10 2.39
5.99 -3.99 2.39
6.06 -3.86 2.39
6.14 -3.74 2.39
6.21 -3.62 2.39
6.28 -3.49 2.39
6.35 -3.36 2.39
6.42 -3.24 2.39
6.48 -3.11 2.39
6.54 -2.98 2.39
6.60 -2.84 2.39
6.66 -2.71 2.39
6.71 -2.58 2.39
6.76 -2.44 2.39
6.81 -2.30 2.39
6.85 -2.17 2.39
6.89 -2.03 2.39
6.93 -1.89 2.39
6.97 -1.75 2.39
7.00 -1.61 2.39
7.03 -1.47 2.39
7.06 -1.33 2.39
7.09 -1.19 2.39
7.11 -1.04 2.39
7.13 -0.90 2.39
7.14 -0.76 2.39
7.16 -0.61 2.39
7.17 -0.47 2.39
7.18 -0.33 2.39
7.18 -0.18 2.39
7.18 -0.04 2.39
7.18 0.11 2.39
7.18 0.25 2.39
7.17 0.40 2.39
7.16 0.54 2.39
7.15 0.68 2.39
7.13 0.83 2.39
7.12 0.97 2.39
7.10 1.11 2.39
7.07 1.25 2.39
7.04 1.40 2.39
7.02 1.54 2.39
6.98 1.68 2.39
6.95 1.82 2.39
6.91 1.96 2.39
6.87 2.10 2.39
6.83 2.23 2.39
6.78 2.37 2.39
6.73 2.50 2.39
6.68 2.64 2.39
6.62 2.77 2.39
6.57 2.91 2.39
6.51 3.04 2.39
6.45 3.17 2.39
6.38 3.30 2.39
6.31 3.42 2.39
6.24 3.55 2.39
6.17 3.67 2.39
6.10 3.80 2.39
6.02 3.92 2.39
5.94 4.04 2.39
5.86 4.16 2.39
5.77 4.27 2.39
5.68 4.39 2.39
5.59 4.50 2.39
5.50 4.61 2.39
5.40 4.72 2.39
5.31 4.83 2.39
5.21 4.93 2.39
5.11 5.03 2.39
5.01 5.14 2.39
4.90 5.24 2.39
4.80 5.33 2.39
4.69 5.43 2.39
4.58 5.52 2.39
4.47 5.61 2.39
4.36 5.70 2.39
4.24 5.79 2.39
4.12 5.87 2.39
4.00 5.95 2.39
3.88 6.03 2.39
3.76 6.11 2.39
3.64 6.19 2.39
3.51 6.26 2.39
3.39 6.33 2.39
3.26 6.39 2.39
3.13 6.46 2.39
3.00 6.52 2.39
2.87 6.58 2.39
2.74 6.64 2.39
2.60 6.69 2.39
2.47 6.74 2.39
2.33 6.79 2.39
2.20 6.83 2.39
2.06 6.88 2.39
1.92 6.92 2.39
1.78 6.96 2.39
1.64 6.99 2.39
1.57 7.32 2.49
1.42 7.35 2.49
1.27 7.38 2.49
1.12 7.41 2.49
0.97 7.43 2.49
0.82 7.45 2.49
0.67 7.46 2.49
0.52 7.47 2.49
0.37 7.48 2.49
0.22 7.49 2.49
0.07 7.49 2.49
-0.08 7.49 2.49
-0.23 7.49 2.49
-0.38 7.49 2.49
-0.53 7.48 2.49
-0.68 7.46 2.49
-0.83 7.45 2.49
-0.98 7.43 2.49
-1.13 7.41 2.49
-1.28 7.39 2.49
-1.42 7.36 2.49
-1.57 7.33 2.49
-1.72 7.30 2.49
-1.86 7.26 2.49
-2.01 7.22 2.49
-2.15 7.18 2.49
-2.30 7.14 2.49
-2.44 7.09 2.49
-2.58 7.04 2.49
-2.72 6.99 2.49
-2.86 6.93 2.49
-3.00 6.87 2.49
-3.14 6.81 2.49
-3.28 6.75 2.49
-3.41 6.68 2.49
-3.55 6.61 2.49
-3.68 6.54 2.49
-3.81 6.47 2.49
-3.94 6.39 2.49
-4.07 6.31 2.49
-4.19 6.23 2.49
-4.32 6.14 2.49
-4.44 6.05 2.49
-4.56 5.96 2.49
-4.68 5.87 2.49
-4.80 5.78 2.49
-4.91 5.68 2.49
-5.02 5.58 2.49
-5.14 5.48 2.49
-5.24 5.37 2.49
-5.35 5.27 2.49
-5.46 5.16 2.49
-5.56 5.05 2.49
-5.66 4.94 2.49
-5.76 4.82 2.49
-5.85 4.71 2.49
-5.95 4.59 2.49
-6.04 4.47 2.49
-6.13 4.35 2.49
-6.21 4.22 2.49
-6.30 4.10 2.49
-6.38 3.97 2.49
-6.46 3.84 2.49
-6.47 3.68 2.47
-6.47 3.51 2.44
-6.48 3.34 2.42
-6.48 3.18 2.40
-6.53 3.05 2.39
-6.59 2.91 2.39
-6.65 2.78 2.39
-6.70 2.65 2.39
-6.75 2.51 2.39
-6.80 2.38 2.39
-6.85 2.24 2.39
-6.89 2.10 2.39
-6.93 1.96 2.39
-6.97 1.82 2.39
-7.01 1.68 2.39
-7.04 1.54 2.39
-7.07 1.40 2.39
-7.10 1.26 2.39
-7.12 1.12 2.39
-7.14 0.97 2.39
-7.16 0.83 2.39
-6.88 0.66 2.29
-7.19 0.54 2.39
-7.20 0.40 2.39
-7.21 0.25 2.39
-7.21 0.11 2.39
-7.21 -0.04 2.39
-7.21 -0.18 2.39
-7.20 -0.33 2.39
-7.20 -0.47 2.39
-7.18 -0.62 2.39
-7.17 -0.76 2.39
-7.15 -0.90 2.39
-7.14 -1.05 2.39
-7.11 -1.19 2.39
-7.09 -1.33 2.39
-7.06 -1.47 2.39
-7.03 -1.62 2.39
-6.99 -1.76 2.39
-6.96 -1.90 2.39
-6.92 -2.04 2.39
-6.88 -2.17 2.39
-6.83 -2.31 2.39
-6.78 -2.45 2.39
-6.73 -2.58 2.39
-6.68 -2.72 2.39
-6.62 -2.85 2.39
-6.57 -2.98 2.39
-6.50 -3.12 2.39
-6.47 -3.26 2.40
-6.46 -3.42 2.42
-6.46 -3.59 2.45
-6.46 -3.76 2.48
-6.43 -3.91 2.49
-6.35 -4.04 2.49
-6.26 -4.17 2.49
-6.18 -4.29 2.49
-6.09 -4.42 2.49
-6.00 -4.54 2.49
-5.91 -4.66 2.49
-5.81 -4.77 2.49
-5.72 -4.89 2.49
-5.62 -5.00 2.49
-5.52 -5.12 2.49
-5.41 -5.22 2.49
-5.31 -5.33 2.49
-5.20 -5.44 2.49
-5.09 -5.54 2.49
-4.98 -5.64 2.49
-4.86 -5.74 2.49
-4.75 -5.84 2.49
-4.63 -5.93 2.49
-4.51 -6.02 2.49
-4.39 -6.11 2.49
-4.26 -6.20 2.49
-4.14 -6.28 2.49
-4.01 -6.36 2.49
-3.88 -6.44 2.49
-3.75 -6.52 2.49
-3.62 -6.59 2.49
-3.49 -6.66 2.49
-3.35 -6.73 2.49
-3.22 -6.80 2.49
-3.08 -6.86 2.49
-2.94 -6.92 2.49
-2.80 -6.98 2.49
-2.66 -7.03 2.49
-2.52 -7.08 2.49
-2.37 -7.13 2.49
-2.23 -7.18 2.49
-2.09 -7.22 2.49
-1.94 -7.26 2.49
-1.79 -7.30 2.49
-1.65 -7.33 2.49
-1.50 -7.36 2.49
-1.35 -7.39 2.49
-1.20 -7.42 2.49
-1.05 -7.44 2.49
-0.90 -7.46 2.49
-0.75 -7.48 2.49
-0.60 -7.49 2.49
-0.45 -7.50 2.49
-0.30 -7.51 2.49
-0.15 -7.51 2.49
-0.00 -6.98 2.49
0.14 -6.98 2.49
0.28 -6.98 2.49
0.42 -6.97 2.49
0.56 -6.96 2.49
0.70 -6.95 2.49
0.84 -6.93 2.49
0.98 -6.91 2.49
1.11 -6.89 2.49
1.25 -6.87 2.49
1.39 -6.84 2.49
1.53 -6.81 2.49
1.60 -6.53 2.40
1.72 -6.46 2.39
1.85 -6.43 2.39
1.98 -6.39 2.39
2.11 -6.35 2.39
2.24 -6.30 2.39
2.36 -6.26 2.39
2.49 -6.21 2.39
2.61 -6.16 2.39
2.73 -6.10 2.39
2.86 -6.05 2.39
2.98 -5.99 2.39
3.10 -5.93 2.39
3.21 -5.86 2.39
3.33 -5.80 2.39
3.45 -5.73 2.39
3.56 -5.66 2.39
3.67 -5.58 2.39
3.78 -5.51 2.39
3.89 -5.43 2.39
4.00 -5.35 2.39
4.11 -5.27 2.39
4.21 -5.19 2.39
4.32 -5.10 2.39
4.42 -5.01 2.39
4.52 -4.92 2.39
4.61 -4.83 2.39
4.71 -4.74 2.39
4.80 -4.64 2.39
4.90 -4.54 2.39
4.99 -4.44 2.39
5.07 -4.34 2.39
5.16 -4.24 2.39
5.24 -4.14 2.39
5.33 -4.03 2.39
5.41 -3.92 2.39
5.48 -3.81 2.39
5.56 -3.70 2.39
5.64 -3.59 2.39
5.71 -3.48 2.39
5.78 -3.36 2.39
5.84 -3.25 2.39
5.91 -3.13 2.39
5.97 -3.01 2.39
6.03 -2.89 2.39
6.08 -2.77 2.39
6.14 -2.64 2.39
6.19 -2.52 2.39
6.24 -2.39 2.39
6.28 -2.27 2.39
6.33 -2.14 2.39
6.37 -2.01 2.39
6.41 -1.89 2.39
6.45 -1.76 2.39
6.48 -1.63 2.39
6.51 -1.50 2.39
6.54 -1.37 2.39
6.56 -1.23 2.39
6.59 -1.10 2.39
6.61 -0.97 2.39
6.63 -0.84 2.39
6.64 -0.70 2.39
6.65 -0.57 2.39
6.66 -0.44 2.39
6.67 -0.30 2.39
6.68 -0.17 2.39
6.68 -0.03 2.39
6.68 0.10 2.39
6.67 0.23 2.39
6.67 0.37 2.39
6.66 0.50 2.39
6.65 0.63 2.39
6.63 0.77 2.39
6.62 0.90 2.39
6.60 1.03 2.39
6.57 1.17 2.39
6.55 1.30 2.39
6.52 1.43 2.39
6.49 1.56 2.39
6.46 1.69 2.39
6.42 1.82 2.39
6.39 1.95 2.39
6.35 2.08 2.39
6.30 2.20 2.39
6.26 2.33 2.39
6.21 2.45 2.39
6.16 2.58 2.39
6.11 2.70 2.39
6.05 2.82 2.39
5.99 2.94 2.39
5.93 3.06 2.39
5.87 3.18 2.39
5.80 3.30 2.39
5.74 3.42 2.39
5.67 3.53 2.39
5.59 3.64 2.39
5.51 3.75 2.39
5.44 3.86 2.39
5.36 3.97 2.39
5.28 4.08 2.39
5.20 4.18 2.39
5.11 4.28 2.39
5.02 4.39 2.39
4.93 4.49 2.39
4.84 4.58 2.39
4.75 4.68 2.39
4.66 4.78 2.39
4.56 4.87 2.39
4.46 4.96 2.39
4.36 5.05 2.39
4.26 5.13 2.39
4.15 5.22 2.39
4.05 5.30 2.39
3.94 5.38 2.39
3.83 5.46 2.39
3.72 5.54 2.39
3.61 5.61 2.39
3.50 5.68 2.39
3.38 5.75 2.39
3.27 5.82 2.39
3.15 5.88 2.39
3.03 5.94 2.39
2.91 6.00 2.39
2.79 6.06 2.39
2.67 6.12 2.39
2.54 6.17 2.39
2.42 6.22 2.39
2.30 6.27 2.39
2.17 6.31 2.39
2.04 6.35 2.39
1.91 6.39 2.39
1.79 6.43 2.39
1.66 6.47 2.39
1.57 6.68 2.46
1.46 6.81 2.49
1.32 6.84 2.49
1.18 6.86 2.49
1.04 6.89 2.49
0.90 6.91 2.49
0.77 6.92 2.49
0.63 6.94 2.49
0.49 6.95 2.49
0.35 6.96 2.49
0.21 6.96 2.49
0.07 6.97 2.49
-0.07 6.97 2.49
-0.21 6.96 2.49
-0.35 6.96 2.49
-0.49 6.95 2.49
-0.63 6.94 2.49
-0.77 6.93 2.49
-0.91 6.91 2.49
-1.05 6.89 2.49
-1.19 6.87 2.49
-1.32 6.84 2.49
-1.46 6.82 2.49
-1.60 6.78 2.49
-1.73 6.75 2.49
-1.87 6.72 2.49
-2.00 6.68 2.49
-2.14 6.64 2.49
-2.27 6.59 2.49
-2.40 6.55 2.49
-2.53 6.50 2.49
-2.66 6.44 2.49
-2.79 6.39 2.49
-2.92 6.33 2.49
-3.05 6.27 2.49
-3.17 6.21 2.49
-3.30 6.15 2.49
-3.42 6.08 2.49
-3.54 6.01 2.49
-3.66 5.94 2.49
-3.78 5.86 2.49
-3.90 5.79 2.49
-4.01 5.71 2.49
-4.13 5.63 2.49
-4.24 5.54 2.49
-4.35 5.46 2.49
-4.46 5.37 2.49
-4.56 5.28 2.49
-4.67 5.19 2.49
-4.77 5.09 2.49
-4.87 5.00 2.49
-4.97 4.90 2.49
-5.07 4.80 2.49
-5.17 4.69 2.49
-5.26 4.59 2.49
-5.35 4.48 2.49
-5.44 4.38 2.49
-5.53 4.27 2.49
-5.61 4.15 2.49
-5.70 4.04 2.49
-5.78 3.93 2.49
-5.85 3.81 2.49
-5.93 3.69 2.49
-6.00 3.57 2.49
-6.07 3.45 2.49
-6.14 3.33 2.49
-6.21 3.20 2.49
-6.27 3.08 2.49
-6.33 2.95 2.49
-6.39 2.83 2.49
-6.45 2.70 2.49
-6.47 2.56 2.48
-6.47 2.41 2.46
-6.47 2.26 2.45
-6.47 2.12 2.43
-6.48 1.97 2.42
-6.48 1.83 2.40
-6.48 1.69 2.39
-6.51 1.56 2.39
-6.54 1.43 2.39
-6.57 1.30 2.39
-6.60 1.17 2.39
-6.62 1.04 2.39
-6.64 0.90 2.39
-6.68 0.77 2.40
-6.68 0.64 2.39
-6.68 0.50 2.39
-6.69 0.37 2.39
-6.70 0.23 2.39
-6.70 0.10 2.39
-6.70 -0.03 2.39
-6.70 -0.17 2.39
-6.69 -0.30 2.39
-6.69 -0.44 2.39
-6.68 -0.57 2.39
-6.68 -0.71 2.40
-6.65 -0.84 2.39
-6.63 -0.97 2.39
-6.61 -1.11 2.39
-6.59 -1.24 2.39
-6.56 -1.37 2.39
-6.53 -1.50 2.39
-6.50 -1.63 2.39
-6.47 -1.76 2.39
-6.47 -1.90 2.41
-6.47 -2.04 2.42
-6.46 -2.19 2.43
-6.46 -2.33 2.45
-6.46 -2.48 2.47
-6.46 -2.63 2.49
-6.42 -2.76 2.49
-6.37 -2.89 2.49
-6.31 -3.02 2.49
-6.24 -3.15 2.49
-6.18 -3.27 2.49
-6.11 -3.39 2.49
-6.04 -3.52 2.49
-5.97 -3.64 2.49
-5.90 -3.76 2.49
-5.82 -3.87 2.49
-5.74 -3.99 2.49
-5.66 -4.10 2.49
-5.58 -4.22 2.49
-5.49 -4.33 2.49
-5.40 -4.44 2.49
-5.31 -4.54 2.49
-5.22 -4.65 2.49
-5.13 -4.75 2.49
-5.03 -4.86 2.49
-4.93 -4.96 2.49
-4.83 -5.05 2.49
-4.73 -5.15 2.49
-4.62 -5.24 2.49
-4.52 -5.33 2.49
-4.41 -5.42 2.49
-4.30 -5.51 2.49
-4.19 -5.60 2.49
-4.08 -5.68 2.49
-3.96 -5.76 2.49
-3.84 -5.84 2.49
-3.73 -5.91 2.49
-3.61 -5.99 2.49
-3.49 -6.06 2.49
-3.36 -6.13 2.49
-3.24 -6.19 2.49
-3.11 -6.26 2.49
-2.99 -6.32 2.49
-2.86 -6.38 2.49
-2.73 -6.43 2.49
-2.60 -6.49 2.49
-2.47 -6.54 2.49
-2.34 -6.58 2.49
-2.21 -6.63 2.49
-2.07 -6.67 2.49
-1.94 -6.71 2.49
-1.80 -6.75 2.49
-1.67 -6.78 2.49
-1.53 -6.82 2.49
-1.39 -6.84 2.49
-1.26 -6.87 2.49
-1.12 -6.89 2.49
-0.98 -6.92 2.49
-0.84 -6.93 2.49
-0.70 -6.95 2.49
-0.56 -6.96 2.49
-0.42 -6.97 2.49
-0.28 -6.98 2.49
-0.14 -6.98 2.49
-0.00 -6.52 2.49
0.13 -6.51 2.49
0.26 -6.51 2.49
0.39 -6.50 2.49
0.52 -6.49 2.49
0.65 -6.48 2.49
0.78 -6.47 2.49
0.91 -6.45 2.49
1.04 -6.43 2.49
1.17 -6.41 2.49
1.30 -6.38 2.49
1.42 -6.35 2.49
1.55 -6.32 2.49
1.61 -6.03 2.39
1.73 -6.00 2.39
1.85 -5.96 2.39
1.97 -5.92 2.39
2.09 -5.88 2.39
2.20 -5.84 2.39
2.32 -5.79 2.39
2.44 -5.74 2.39
2.55 -5.69 2.39
2.66 -5.64 2.39
2.78 -5.59 2.39
2.89 -5.53 2.39
3.00 -5.47 2.39
3.11 -5.41 2.39
3.22 -5.34 2.39
3.32 -5.28 2.39
3.43 -5.21 2.39
3.53 -5.14 2.39
3.63 -5.07 2.39
3.73 -4.99 2.39
3.83 -4.92 2.39
3.93 -4.84 2.39
4.03 -4.76 2.39
4.12 -4.68 2.39
4.22 -4.59 2.39
4.31 -4.51 2.39
4.40 -4.42 2.39
4.48 -4.33 2.39
4.57 -4.24 2.39
4.65 -4.15 2.39
4.74 -4.05 2.39
4.82 -3.96 2.39
4.89 -3.86 2.39
4.97 -3.76 2.39
5.04 -3.66 2.39
5.12 -3.56 2.39
5.19 -3.45 2.39
5.25 -3.35 2.39
5.32 -3.24 2.39
5.38 -3.13 2.39
5.45 -3.03 2.39
5.51 -2.92 2.39
5.56 -2.80 2.39
5.62 -2.70 2.39
5.68 -2.58 2.39
5.73 -2.47 2.39
5.78 -2.35 2.39
5.82 -2.24 2.39
5.86 -2.12 2.39
5.91 -2.00 2.39
5.94 -1.88 2.39
5.98 -1.76 2.39
6.01 -1.64 2.39
6.05 -1.52 2.39
6.08 -1.40 2.39
6.10 -1.27 2.39
6.13 -1.15 2.39
6.15 -1.03 2.39
6.17 -0.91 2.39
6.18 -0.78 2.39
6.20 -0.66 2.39
6.21 -0.53 2.39
6.22 -0.41 2.39
6.23 -0.28 2.39
6.23 -0.16 2.39
6.23 -0.03 2.39
6.23 0.09 2.39
6.23 0.22 2.39
6.22 0.34 2.39
6.21 0.47 2.39
6.20 0.59 2.39
6.19 0.72 2.39
6.17 0.84 2.39
6.16 0.96 2.39
6.14 1.09 2.39
6.11 1.21 2.39
