ply
format ascii 1.0
element vertex 2949
property float32 x
property float32 y
property float32 z
end_header
-12.11 -3.06 2.04
-12.10 -3.32 2.05
-12.07 -3.57 2.05
-12.04 -3.82 2.06
-12.01 -4.08 2.06
-11.98 -4.34 2.07
-11.95 -4.60 2.08
-11.91 -4.87 2.09
-11.88 -5.13 2.10
-11.85 -5.40 2.11
-11.80 -5.67 2.12
-11.73 -5.93 2.12
-11.72 -6.23 2.14
-11.72 -6.53 2.16
-11.72 -6.84 2.18
-11.71 -7.16 2.21
-11.71 -7.48 2.23
-11.70 -7.81 2.26
-11.70 -8.15 2.29
-11.70 -8.51 2.32
-11.71 -8.88 2.35
-11.72 -9.26 2.39
-11.72 -9.65 2.42
-11.80 -10.12 2.48
-11.75 -10.49 2.51
-11.70 -10.87 2.54
-11.64 -11.27 2.58
-11.50 -11.59 2.59
-10.40 -10.90 2.39
-10.19 -11.12 2.39
-9.97 -11.33 2.39
-9.75 -11.54 2.39
-9.53 -11.74 2.39
-9.30 -11.94 2.39
-9.06 -12.14 2.39
-8.82 -12.33 2.39
-8.58 -12.51 2.39
-8.34 -12.69 2.39
-8.09 -12.87 2.39
-7.83 -13.03 2.39
-7.58 -13.20 2.39
-7.31 -13.36 2.39
-7.35 -14.09 2.50
-7.07 -14.25 2.50
-6.79 -14.39 2.50
-6.51 -14.54 2.50
-6.22 -14.67 2.50
-5.92 -14.80 2.50
-5.63 -14.93 2.50
-5.33 -15.05 2.50
-5.03 -15.16 2.50
-4.73 -15.26 2.50
-4.43 -15.36 2.50
-4.12 -15.46 2.50
-3.81 -15.54 2.50
-3.50 -15.62 2.50
-3.19 -15.69 2.50
-2.87 -15.76 2.50
-1.79 -11.09 1.75
-1.56 -11.06 1.74
-1.33 -11.03 1.73
-1.10 -11.00 1.72
-0.88 -10.97 1.71
-0.66 -10.94 1.70
-0.44 -10.91 1.70
-0.22 -10.87 1.69
0.00 -10.53 1.88
0.21 -10.62 1.90
0.54 -13.37 2.39
0.84 -13.95 2.50
1.12 -13.93 2.50
1.40 -13.91 2.50
1.68 -13.88 2.50
1.96 -13.84 2.50
1.77 -10.93 1.98
2.41 -13.18 2.39
2.67 -13.13 2.39
2.04 -9.07 1.66
3.19 -13.01 2.39
3.45 -12.94 2.39
3.71 -12.87 2.39
3.97 -12.79 2.39
4.22 -12.70 2.39
4.47 -12.61 2.39
4.73 -12.52 2.39
4.97 -12.42 2.39
5.22 -12.31 2.39
5.46 -12.20 2.39
5.71 -12.10 2.40
5.95 -11.98 2.40
6.19 -11.86 2.40
6.42 -11.72 2.40
6.65 -11.59 2.40
6.88 -11.45 2.40
7.11 -11.30 2.40
7.33 -11.15 2.40
7.55 -11.00 2.40
7.76 -10.84 2.40
7.97 -10.68 2.40
8.18 -10.51 2.40
8.39 -10.34 2.40
8.59 -10.16 2.40
8.78 -9.98 2.40
8.98 -9.80 2.40
9.17 -9.61 2.40
9.35 -9.42 2.40
9.53 -9.22 2.40
9.71 -9.02 2.40
9.88 -8.82 2.40
10.05 -8.61 2.40
10.21 -8.40 2.40
10.37 -8.19 2.40
10.52 -7.98 2.40
10.67 -7.76 2.40
10.82 -7.54 2.40
10.96 -7.31 2.40
11.09 -7.09 2.40
11.22 -6.86 2.40
11.35 -6.62 2.40
11.47 -6.39 2.40
11.59 -6.15 2.40
11.70 -5.92 2.40
11.80 -5.67 2.40
11.91 -5.43 2.40
12.00 -5.19 2.40
12.09 -4.94 2.40
12.18 -4.69 2.40
12.26 -4.44 2.40
12.33 -4.19 2.40
12.40 -3.94 2.40
12.47 -3.69 2.40
12.53 -3.43 2.40
12.58 -3.18 2.40
12.63 -2.92 2.40
12.67 -2.67 2.40
12.71 -2.41 2.40
12.75 -2.15 2.40
12.77 -1.89 2.40
12.80 -1.64 2.40
12.81 -1.38 2.40
12.83 -1.12 2.40
12.83 -0.86 2.40
12.84 -0.60 2.40
12.83 -0.34 2.40
12.82 -0.09 2.40
12.81 0.17 2.40
12.79 0.43 2.40
12.77 0.68 2.40
12.74 0.94 2.40
12.70 1.19 2.40
12.66 1.45 2.40
12.62 1.70 2.40
12.57 1.95 2.40
12.52 2.20 2.40
12.46 2.45 2.40
12.39 2.69 2.40
12.32 2.94 2.40
12.25 3.18 2.40
12.17 3.43 2.40
12.09 3.67 2.40
12.00 3.90 2.40
11.91 4.14 2.40
11.81 4.37 2.40
11.71 4.61 2.40
11.60 4.83 2.40
11.49 5.06 2.40
11.38 5.29 2.40
11.26 5.51 2.40
11.14 5.73 2.40
11.01 5.95 2.40
10.88 6.16 2.40
10.74 6.37 2.40
10.60 6.58 2.40
10.46 6.78 2.40
10.31 6.99 2.40
10.16 7.19 2.40
10.00 7.38 2.40
9.84 7.58 2.40
9.68 7.77 2.40
9.52 7.95 2.40
9.35 8.13 2.40
9.17 8.31 2.40
9.00 8.49 2.40
8.82 8.66 2.40
8.64 8.83 2.40
8.45 9.00 2.40
8.26 9.16 2.40
8.07 9.31 2.40
7.88 9.47 2.40
7.68 9.62 2.40
7.48 9.76 2.40
7.28 9.90 2.40
7.07 10.04 2.40
6.86 10.18 2.40
6.65 10.31 2.40
6.44 10.43 2.40
6.23 10.55 2.40
6.01 10.67 2.40
5.78 10.77 2.39
5.56 10.87 2.39
5.34 10.98 2.39
5.11 11.08 2.39
4.89 11.17 2.39
4.66 11.26 2.39
4.43 11.35 2.39
4.20 11.43 2.39
3.97 11.51 2.39
3.73 11.58 2.39
3.50 11.65 2.39
3.26 11.71 2.39
3.03 11.77 2.39
2.79 11.83 2.39
2.55 11.88 2.39
2.31 11.92 2.39
2.07 11.99 2.40
1.89 12.40 2.47
1.65 12.55 2.50
1.40 12.57 2.50
1.15 12.60 2.50
0.89 12.62 2.50
0.64 12.63 2.50
0.38 12.64 2.50
0.13 12.64 2.50
-0.12 12.64 2.50
-0.38 12.63 2.50
-0.63 12.62 2.50
-0.89 12.61 2.50
-1.14 12.59 2.50
-1.39 12.56 2.50
-1.64 12.53 2.50
-1.90 12.49 2.50
-2.15 12.45 2.50
-2.40 12.41 2.50
-2.65 12.36 2.50
-2.89 12.30 2.50
-3.14 12.25 2.50
-3.39 12.18 2.50
-3.63 12.11 2.50
-3.88 12.04 2.50
-4.12 11.96 2.50
-4.36 11.88 2.50
-4.60 11.79 2.50
-4.84 11.70 2.50
-5.07 11.60 2.50
-5.30 11.50 2.50
-5.54 11.40 2.50
-5.77 11.29 2.50
-5.99 11.17 2.50
-6.18 10.99 2.48
-6.20 10.52 2.40
-6.41 10.38 2.40
-6.60 10.23 2.39
-6.81 10.10 2.39
-7.01 9.96 2.39
-7.21 9.83 2.39
-7.41 9.68 2.39
-7.61 9.54 2.39
-7.80 9.39 2.39
-8.00 9.23 2.39
-8.18 9.08 2.39
-8.37 8.92 2.39
-8.55 8.75 2.39
-8.73 8.58 2.39
-8.91 8.41 2.39
-9.08 8.23 2.39
-9.25 8.06 2.39
-9.42 7.87 2.39
-9.58 7.69 2.39
-9.74 7.50 2.39
-9.89 7.31 2.39
-10.05 7.11 2.39
-10.20 6.91 2.39
-10.42 6.77 2.41
-10.53 6.54 2.40
-10.64 6.32 2.40
-10.75 6.09 2.39
-10.85 5.86 2.39
-11.00 5.66 2.39
-11.15 5.46 2.40
-11.31 5.26 2.41
-11.39 5.02 2.40
-11.45 4.77 2.39
-11.51 4.53 2.38
-11.57 4.29 2.37
-11.61 4.04 2.36
-11.63 3.78 2.35
-11.65 3.53 2.33
-11.67 3.28 2.32
-11.68 3.04 2.31
-11.70 2.79 2.30
-11.72 2.55 2.29
-11.78 2.31 2.29
-11.81 2.08 2.29
-11.82 1.83 2.28
-11.83 1.59 2.27
-11.83 1.35 2.26
-11.83 1.11 2.26
-11.84 0.87 2.25
-11.84 0.63 2.25
-11.86 0.40 2.25
-11.87 0.16 2.25
-11.85 -0.08 2.24
-11.83 -0.32 2.24
-11.81 -0.55 2.23
-11.79 -0.79 2.23
-11.76 -1.03 2.22
-11.73 -1.26 2.22
-11.71 -1.50 2.22
-11.68 -1.73 2.22
-11.67 -1.97 2.22
-11.67 -2.21 2.23
-11.67 -2.46 2.23
-11.67 -2.70 2.24
-11.67 -2.95 2.25
-11.67 -3.20 2.26
-11.66 -3.45 2.27
-11.66 -3.71 2.28
-11.63 -3.96 2.28
-11.60 -4.21 2.29
-11.57 -4.46 2.30
-11.53 -4.71 2.31
-11.48 -4.96 2.32
-11.39 -5.20 2.32
-11.31 -5.44 2.32
-11.22 -5.67 2.32
-11.12 -5.91 2.32
-11.07 -6.17 2.34
-11.02 -6.44 2.35
-10.98 -6.71 2.37
-10.94 -6.99 2.39
-10.90 -7.28 2.41
-10.85 -7.56 2.43
-10.80 -7.85 2.45
-10.41 -7.89 2.39
-10.25 -8.11 2.39
-10.10 -8.32 2.39
-9.94 -8.53 2.39
-9.77 -8.73 2.39
-9.60 -8.93 2.39
-9.43 -9.13 2.39
-9.25 -9.33 2.39
-9.07 -9.52 2.39
-8.89 -9.70 2.39
-8.70 -9.89 2.39
-8.50 -10.07 2.39
-8.31 -10.25 2.39
-8.11 -10.42 2.39
-7.90 -10.59 2.39
-7.69 -10.75 2.39
-7.48 -10.91 2.39
-7.27 -11.07 2.39
-7.05 -11.22 2.39
-6.83 -11.36 2.39
-6.63 -11.55 2.40
-6.65 -12.14 2.50
-6.41 -12.28 2.50
-6.16 -12.41 2.50
-5.92 -12.54 2.50
-5.67 -12.67 2.50
-5.41 -12.78 2.50
-5.16 -12.90 2.50
-4.90 -13.00 2.50
-4.64 -13.11 2.50
-4.38 -13.20 2.50
-4.12 -13.29 2.50
-3.85 -13.38 2.50
-3.59 -13.46 2.50
-3.32 -13.53 2.50
-3.05 -13.60 2.50
-2.77 -13.66 2.50
-1.97 -10.84 1.97
-1.73 -10.71 1.94
-1.52 -10.75 1.94
-1.33 -11.03 1.99
-1.10 -10.99 1.97
-0.88 -10.96 1.97
-0.66 -10.93 1.96
-0.44 -10.90 1.95
-0.21 -10.60 1.89
0.00 -10.44 2.11
0.21 -10.51 2.12
0.50 -12.35 2.50
0.75 -12.34 2.50
0.99 -12.32 2.50
1.24 -12.30 2.50
1.49 -12.27 2.50
1.66 -11.73 2.39
1.89 -11.70 2.39
2.13 -11.66 2.39
2.36 -11.61 2.39
2.04 -9.07 1.88
2.82 -11.51 2.39
3.05 -11.45 2.39
3.28 -11.38 2.39
3.51 -11.31 2.39
3.73 -11.24 2.39
3.95 -11.13 2.39
4.18 -11.07 2.39
4.40 -10.98 2.39
4.62 -10.89 2.39
4.83 -10.79 2.39
5.05 -10.69 2.39
5.26 -10.58 2.39
5.47 -10.47 2.39
5.68 -10.37 2.40
5.89 -10.25 2.40
6.09 -10.13 2.40
6.29 -10.00 2.40
6.48 -9.87 2.40
6.68 -9.73 2.40
6.87 -9.59 2.40
7.06 -9.45 2.40
7.24 -9.30 2.40
7.42 -9.15 2.40
7.60 -9.00 2.40
7.77 -8.84 2.40
7.95 -8.67 2.40
8.11 -8.51 2.40
8.28 -8.34 2.40
8.44 -8.17 2.40
8.60 -7.99 2.40
8.75 -7.81 2.40
8.90 -7.63 2.40
9.04 -7.45 2.40
9.18 -7.26 2.40
9.32 -7.07 2.40
9.46 -6.88 2.40
9.58 -6.68 2.40
9.71 -6.48 2.40
9.83 -6.28 2.40
9.95 -6.08 2.40
10.06 -5.87 2.40
10.17 -5.67 2.40
10.27 -5.46 2.40
10.37 -5.25 2.40
10.47 -5.03 2.40
10.56 -4.82 2.40
10.64 -4.60 2.40
10.72 -4.38 2.40
10.80 -4.16 2.40
10.87 -3.94 2.40
10.94 -3.72 2.40
11.00 -3.50 2.40
11.06 -3.28 2.40
11.12 -3.05 2.40
11.17 -2.82 2.40
11.21 -2.60 2.40
11.25 -2.37 2.40
11.29 -2.14 2.40
11.32 -1.91 2.40
11.34 -1.68 2.40
11.36 -1.45 2.40
11.38 -1.23 2.40
11.39 -1.00 2.40
11.40 -0.77 2.40
11.40 -0.54 2.40
11.40 -0.31 2.40
11.40 -0.08 2.40
11.38 0.15 2.40
11.37 0.38 2.40
11.35 0.61 2.40
11.32 0.83 2.40
11.29 1.06 2.40
11.26 1.28 2.40
11.22 1.51 2.40
11.18 1.73 2.40
11.13 1.95 2.40
11.08 2.17 2.40
11.03 2.39 2.40
10.97 2.61 2.40
10.90 2.83 2.40
10.83 3.05 2.40
10.76 3.26 2.40
10.68 3.47 2.40
10.60 3.68 2.40
10.52 3.89 2.40
10.43 4.10 2.40
10.33 4.30 2.40
10.24 4.51 2.40
10.13 4.71 2.40
10.03 4.90 2.40
9.92 5.10 2.40
9.81 5.29 2.40
9.69 5.49 2.40
9.57 5.67 2.40
9.45 5.86 2.40
9.32 6.05 2.40
9.19 6.23 2.40
9.06 6.40 2.40
8.92 6.58 2.40
8.78 6.75 2.40
8.63 6.92 2.40
8.49 7.09 2.40
8.34 7.25 2.40
8.18 7.41 2.40
8.03 7.57 2.40
7.87 7.73 2.40
7.70 7.88 2.40
7.54 8.02 2.40
7.37 8.17 2.40
7.20 8.31 2.40
7.03 8.45 2.40
6.85 8.58 2.40
6.67 8.71 2.40
6.49 8.84 2.40
6.31 8.96 2.40
6.13 9.08 2.40
5.94 9.20 2.40
5.74 9.30 2.39
5.55 9.41 2.39
5.36 9.51 2.39
5.16 9.61 2.39
4.97 9.71 2.39
4.77 9.80 2.39
4.57 9.89 2.39
4.37 9.98 2.39
4.16 10.06 2.39
3.96 10.14 2.39
3.75 10.21 2.39
3.54 10.28 2.39
3.34 10.34 2.39
3.13 10.41 2.39
2.92 10.46 2.39
2.70 10.52 2.39
2.49 10.56 2.39
2.28 10.61 2.39
2.06 10.65 2.39
1.87 10.79 2.42
1.70 11.18 2.50
1.48 11.21 2.50
1.25 11.24 2.50
1.02 11.26 2.50
0.80 11.27 2.50
0.57 11.28 2.50
0.34 11.29 2.50
0.12 11.30 2.50
-0.11 11.29 2.50
-0.34 11.29 2.50
-0.57 11.28 2.50
-0.79 11.26 2.50
-1.02 11.25 2.50
-1.24 11.22 2.50
-1.47 11.20 2.50
-1.69 11.16 2.50
-1.92 11.13 2.50
-2.14 11.09 2.50
-2.37 11.04 2.50
-2.59 11.00 2.50
-2.81 10.94 2.50
-3.03 10.88 2.50
-3.25 10.82 2.50
-3.46 10.76 2.50
-3.68 10.69 2.50
-3.90 10.61 2.50
-4.11 10.54 2.50
-4.32 10.45 2.50
-4.53 10.37 2.50
-4.74 10.28 2.50
-4.95 10.18 2.50
-5.15 10.08 2.50
-5.36 9.98 2.50
-5.56 9.87 2.50
-5.76 9.76 2.50
-5.95 9.65 2.50
-6.15 9.53 2.50
-6.21 9.22 2.44
-6.26 8.90 2.39
-6.44 8.78 2.39
-6.62 8.65 2.39
-6.80 8.52 2.39
-6.97 8.38 2.39
-7.14 8.24 2.39
-7.31 8.10 2.39
-7.47 7.96 2.39
-7.64 7.81 2.39
-7.80 7.66 2.39
-7.95 7.51 2.39
-8.11 7.35 2.39
-8.26 7.19 2.39
-8.41 7.03 2.39
-8.55 6.86 2.39
-8.69 6.69 2.39
-8.83 6.52 2.39
-8.97 6.34 2.39
-9.10 6.17 2.39
-9.23 5.99 2.39
-9.35 5.80 2.39
-9.47 5.62 2.39
-9.59 5.43 2.39
-9.70 5.24 2.39
-9.81 5.05 2.39
-9.92 4.85 2.39
-10.02 4.66 2.39
-10.12 4.46 2.39
-10.22 4.26 2.39
-10.31 4.05 2.39
-11.16 4.13 2.57
-11.22 3.90 2.56
-11.27 3.66 2.55
-11.31 3.43 2.54
-11.35 3.19 2.54
-11.39 2.96 2.53
-11.40 2.72 2.52
-11.42 2.48 2.51
-11.43 2.24 2.50
-11.45 2.01 2.49
-11.46 1.78 2.48
-11.47 1.54 2.47
-11.47 1.31 2.47
-11.48 1.08 2.46
-11.48 0.84 2.45
-11.48 0.61 2.45
-11.48 0.38 2.44
-11.48 0.15 2.44
-11.46 -0.08 2.44
-11.44 -0.31 2.43
-11.40 -0.54 2.42
-11.35 -0.76 2.41
-11.30 -0.99 2.40
-11.24 -1.21 2.39
-11.19 -1.43 2.38
-11.13 -1.65 2.37
-11.06 -1.87 2.37
-11.04 -2.10 2.37
-11.02 -2.32 2.37
-11.01 -2.55 2.38
-11.00 -2.78 2.38
-10.98 -3.01 2.39
-10.96 -3.25 2.40
-10.94 -3.48 2.41
-10.92 -3.72 2.41
-10.88 -3.95 2.42
-10.83 -4.18 2.43
-10.77 -4.41 2.43
-10.71 -4.63 2.44
-10.44 -4.77 2.39
-10.35 -4.98 2.39
-10.26 -5.19 2.39
-10.16 -5.40 2.39
-10.06 -5.61 2.39
-9.95 -5.81 2.39
-9.84 -6.02 2.39
-9.73 -6.22 2.39
-9.61 -6.42 2.39
-9.48 -6.61 2.39
-9.36 -6.81 2.39
-9.23 -7.00 2.39
-9.09 -7.19 2.39
-8.95 -7.38 2.39
-8.81 -7.56 2.39
-8.66 -7.74 2.39
-8.51 -7.92 2.39
-8.30 -8.04 2.37
-8.14 -8.21 2.38
-7.98 -8.38 2.38
-7.82 -8.54 2.37
-7.71 -8.76 2.39
-7.53 -8.92 2.39
-7.36 -9.08 2.39
-7.18 -9.23 2.39
-7.00 -9.38 2.39
-6.81 -9.52 2.39
-6.62 -9.66 2.39
-6.55 -9.97 2.43
-6.51 -10.36 2.50
-6.30 -10.50 2.50
-6.09 -10.63 2.50
-5.88 -10.75 2.50
-5.67 -10.87 2.50
-5.45 -10.99 2.50
-5.24 -11.10 2.50
-5.01 -11.21 2.50
-4.79 -11.31 2.50
-4.57 -11.41 2.50
-4.34 -11.51 2.50
-4.11 -11.60 2.50
-3.88 -11.68 2.50
-3.64 -11.76 2.50
-3.41 -11.84 2.50
-3.17 -11.91 2.50
-2.93 -11.97 2.50
-2.69 -12.03 2.50
-2.45 -12.09 2.50
-1.97 -10.80 2.22
-1.72 -10.66 2.18
-1.51 -10.71 2.19
-1.48 -12.26 2.50
-1.23 -12.29 2.50
-0.99 -12.31 2.50
-0.66 -10.93 2.21
-0.43 -10.90 2.20
-0.21 -10.50 2.12
0.00 -10.53 2.37
0.22 -11.07 2.50
0.45 -11.06 2.50
0.67 -11.05 2.50
0.89 -11.04 2.50
1.11 -11.02 2.50
1.33 -10.99 2.50
1.52 -10.71 2.44
1.70 -10.48 2.39
1.91 -10.44 2.39
2.11 -10.40 2.39
2.03 -9.07 2.10
2.53 -10.30 2.39
2.73 -10.25 2.39
2.94 -10.19 2.39
3.14 -10.13 2.39
3.34 -10.06 2.39
3.54 -9.99 2.39
3.74 -9.92 2.39
3.94 -9.84 2.39
4.13 -9.76 2.39
4.33 -9.67 2.39
4.52 -9.58 2.39
4.71 -9.48 2.39
4.90 -9.38 2.39
5.08 -9.28 2.39
5.27 -9.17 2.39
5.45 -9.06 2.39
5.63 -8.96 2.40
5.81 -8.84 2.40
5.98 -8.72 2.40
6.15 -8.60 2.40
6.32 -8.47 2.40
6.49 -8.34 2.40
6.65 -8.20 2.40
6.81 -8.06 2.40
6.97 -7.92 2.40
7.12 -7.78 2.40
7.27 -7.63 2.40
7.42 -7.48 2.40
7.56 -7.32 2.40
7.70 -7.16 2.40
7.84 -7.01 2.40
7.98 -6.84 2.40
8.11 -6.68 2.40
8.23 -6.51 2.40
8.36 -6.34 2.40
8.48 -6.17 2.40
8.60 -5.99 2.40
8.71 -5.82 2.40
8.82 -5.64 2.40
8.92 -5.45 2.40
9.02 -5.27 2.40
9.12 -5.09 2.40
9.22 -4.90 2.40
9.31 -4.71 2.40
9.39 -4.52 2.40
9.47 -4.33 2.40
9.55 -4.13 2.40
9.62 -3.94 2.40
9.69 -3.74 2.40
9.76 -3.54 2.40
9.82 -3.34 2.40
9.88 -3.14 2.40
9.93 -2.94 2.40
9.98 -2.74 2.40
10.03 -2.54 2.40
10.07 -2.33 2.40
10.11 -2.13 2.40
10.14 -1.93 2.40
10.17 -1.72 2.40
10.19 -1.52 2.40
10.21 -1.31 2.40
10.23 -1.10 2.40
10.24 -0.90 2.40
10.25 -0.69 2.40
10.25 -0.48 2.40
10.25 -0.28 2.40
10.24 -0.07 2.40
10.23 0.13 2.40
10.22 0.34 2.40
10.20 0.54 2.40
10.18 0.75 2.40
10.16 0.95 2.40
10.13 1.15 2.40
10.09 1.35 2.40
10.06 1.56 2.40
10.02 1.76 2.40
9.97 1.95 2.40
9.92 2.15 2.40
9.87 2.35 2.40
9.81 2.54 2.40
9.75 2.74 2.40
9.68 2.93 2.40
9.62 3.12 2.40
9.54 3.31 2.40
9.47 3.50 2.40
9.39 3.69 2.40
9.30 3.87 2.40
9.22 4.06 2.40
9.13 4.24 2.40
9.03 4.42 2.40
8.94 4.59 2.40
8.84 4.77 2.40
8.73 4.94 2.40
8.62 5.11 2.40
8.51 5.28 2.40
8.40 5.45 2.40
8.28 5.61 2.40
8.16 5.77 2.40
8.04 5.93 2.40
7.91 6.08 2.40
7.78 6.24 2.40
7.65 6.39 2.40
7.52 6.54 2.40
7.38 6.68 2.40
7.24 6.82 2.40
7.09 6.96 2.40
6.95 7.10 2.40
6.80 7.23 2.40
6.65 7.37 2.40
6.50 7.49 2.40
6.34 7.62 2.40
6.18 7.74 2.40
6.02 7.86 2.40
5.86 7.97 2.40
5.69 8.07 2.39
5.52 8.18 2.39
5.35 8.29 2.39
5.18 8.39 2.39
5.01 8.49 2.39
4.84 8.58 2.39
4.66 8.67 2.39
4.48 8.76 2.39
4.30 8.85 2.39
4.12 8.93 2.39
3.94 9.00 2.39
3.76 9.08 2.39
3.57 9.15 2.39
3.39 9.21 2.39
3.20 9.28 2.39
3.01 9.34 2.39
2.82 9.39 2.39
2.63 9.44 2.39
2.44 9.49 2.39
2.25 9.54 2.39
2.06 9.58 2.39
1.86 9.61 2.39
1.74 10.06 2.50
1.54 10.09 2.50
1.33 10.12 2.50
1.13 10.14 2.50
0.93 10.16 2.50
0.72 10.18 2.50
0.52 10.19 2.50
0.31 10.20 2.50
0.11 10.20 2.50
-0.10 10.20 2.50
-0.31 10.19 2.50
-0.51 10.18 2.50
-0.71 10.17 2.50
-0.92 10.16 2.50
-1.12 10.13 2.50
-1.33 10.11 2.50
-1.53 10.08 2.50
-1.73 10.05 2.50
-1.93 10.01 2.50
-2.14 9.97 2.50
-2.34 9.93 2.50
-2.54 9.88 2.50
-2.73 9.83 2.50
-2.93 9.77 2.50
-3.13 9.71 2.50
-3.32 9.65 2.50
-3.52 9.58 2.50
-3.71 9.51 2.50
-3.90 9.44 2.50
-4.09 9.36 2.50
-4.28 9.28 2.50
-4.47 9.19 2.50
-4.65 9.10 2.50
-4.84 9.01 2.50
-5.02 8.91 2.50
-5.20 8.81 2.50
-5.38 8.71 2.50
-5.55 8.60 2.50
-5.73 8.49 2.50
-5.90 8.38 2.50
-6.07 8.26 2.50
-6.23 8.14 2.49
-6.24 7.82 2.43
-6.29 7.56 2.39
-6.46 7.45 2.40
-6.60 7.31 2.39
-6.74 7.18 2.39
-6.89 7.05 2.39
-7.03 6.91 2.39
-7.18 6.77 2.39
-7.31 6.63 2.39
-7.45 6.48 2.39
-7.58 6.34 2.39
-7.71 6.19 2.39
-7.84 6.03 2.39
-7.96 5.88 2.39
-8.09 5.72 2.39
-8.20 5.56 2.39
-8.32 5.40 2.39
-8.43 5.23 2.39
-8.54 5.06 2.39
-8.65 4.89 2.39
-8.75 4.72 2.39
-8.85 4.55 2.39
-8.94 4.37 2.39
-9.04 4.20 2.39
-9.12 4.02 2.39
-9.21 3.83 2.39
-9.29 3.65 2.39
-9.37 3.47 2.39
-9.44 3.28 2.39
-9.52 3.09 2.39
-9.58 2.90 2.39
-9.65 2.71 2.39
-9.71 2.52 2.39
-9.76 2.33 2.39
-9.81 2.13 2.39
-9.86 1.93 2.39
-9.91 1.74 2.39
-9.95 1.54 2.39
-9.98 1.34 2.39
-10.02 1.14 2.39
-10.05 0.94 2.39
-10.07 0.74 2.39
-10.09 0.54 2.39
-10.11 0.33 2.39
-10.12 0.13 2.39
-10.13 -0.07 2.39
-10.14 -0.28 2.39
-10.14 -0.48 2.39
-10.13 -0.68 2.39
-10.13 -0.89 2.39
-10.11 -1.09 2.39
-10.10 -1.30 2.39
-10.08 -1.50 2.39
-10.06 -1.70 2.39
-10.03 -1.91 2.39
-10.00 -2.11 2.39
-9.96 -2.31 2.39
-9.92 -2.51 2.39
-9.87 -2.71 2.39
-9.83 -2.91 2.39
-9.77 -3.11 2.39
-9.72 -3.31 2.39
-9.66 -3.51 2.39
-9.59 -3.70 2.39
-9.52 -3.90 2.39
-9.45 -4.09 2.39
-9.37 -4.28 2.39
-9.29 -4.47 2.39
-9.21 -4.66 2.39
-9.12 -4.85 2.39
-9.03 -5.04 2.39
-8.93 -5.22 2.39
-8.83 -5.40 2.39
-8.73 -5.58 2.39
-8.62 -5.76 2.39
-8.51 -5.94 2.39
-8.40 -6.11 2.39
-8.28 -6.28 2.39
-8.16 -6.45 2.39
-8.03 -6.62 2.39
-7.90 -6.79 2.39
-7.77 -6.95 2.39
-7.64 -7.11 2.39
-7.50 -7.26 2.39
-7.35 -7.42 2.39
-7.21 -7.57 2.39
-7.06 -7.72 2.39
-6.91 -7.86 2.39
-6.75 -8.00 2.39
-6.60 -8.14 2.39
-6.51 -8.37 2.42
-6.51 -8.73 2.48
-6.37 -8.91 2.50
-6.19 -9.04 2.50
-6.01 -9.16 2.50
-5.83 -9.29 2.50
-5.65 -9.41 2.50
-5.46 -9.52 2.50
-5.27 -9.64 2.50
-5.08 -9.75 2.50
-4.89 -9.85 2.50
-4.69 -9.95 2.50
-4.49 -10.05 2.50
-4.29 -10.14 2.50
-4.09 -10.23 2.50
-3.89 -10.31 2.50
-3.68 -10.39 2.50
-3.47 -10.47 2.50
-3.26 -10.54 2.50
-3.05 -10.60 2.50
-2.84 -10.67 2.50
-2.63 -10.72 2.50
-2.41 -10.78 2.50
-2.20 -10.83 2.50
-1.98 -10.87 2.50
-1.76 -10.91 2.50
-1.54 -10.95 2.50
-1.32 -10.98 2.50
-1.10 -11.01 2.50
-0.88 -11.03 2.50
-0.66 -11.04 2.50
-0.44 -11.06 2.50
-0.21 -10.68 2.41
0.00 -10.01 2.50
0.20 -10.01 2.50
0.40 -10.01 2.50
0.60 -10.00 2.50
0.80 -9.98 2.50
1.00 -9.96 2.50
1.20 -9.94 2.50
1.40 -9.92 2.50
1.54 -9.51 2.40
1.74 -9.53 2.41
1.91 -9.41 2.39
2.03 -9.08 2.32
2.29 -9.32 2.39
2.47 -9.27 2.39
2.66 -9.22 2.39
2.84 -9.16 2.39
3.02 -9.10 2.39
3.21 -9.04 2.39
3.38 -8.97 2.39
3.56 -8.90 2.39
3.74 -8.83 2.39
3.92 -8.75 2.39
4.09 -8.66 2.39
4.26 -8.58 2.39
4.43 -8.49 2.39
4.60 -8.40 2.39
4.76 -8.30 2.39
4.93 -8.20 2.39
5.09 -8.10 2.39
5.25 -7.99 2.39
5.41 -7.88 2.39
5.56 -7.77 2.39
5.72 -7.66 2.40
5.87 -7.54 2.40
6.02 -7.42 2.40
6.16 -7.30 2.40
6.31 -7.17 2.40
6.44 -7.04 2.40
6.58 -6.90 2.40
6.72 -6.77 2.40
6.85 -6.63 2.40
6.97 -6.49 2.40
7.10 -6.34 2.40
7.22 -6.20 2.40
7.34 -6.05 2.40
7.46 -5.90 2.40
7.57 -5.74 2.40
7.68 -5.59 2.40
7.78 -5.43 2.40
7.89 -5.27 2.40
7.98 -5.11 2.40
8.08 -4.94 2.40
8.17 -4.78 2.40
8.26 -4.61 2.40
8.35 -4.44 2.40
8.43 -4.27 2.40
8.51 -4.10 2.40
8.58 -3.92 2.40
8.65 -3.75 2.40
8.72 -3.57 2.40
8.79 -3.39 2.40
8.85 -3.21 2.40
8.90 -3.03 2.40
8.95 -2.85 2.40
9.00 -2.67 2.40
9.05 -2.49 2.40
9.09 -2.30 2.40
9.13 -2.12 2.40
9.16 -1.93 2.40
9.19 -1.75 2.40
9.22 -1.56 2.40
9.24 -1.38 2.40
9.26 -1.19 2.40
9.28 -1.00 2.40
9.29 -0.82 2.40
9.29 -0.63 2.40
9.30 -0.44 2.40
9.30 -0.26 2.40
9.29 -0.07 2.40
9.29 0.12 2.40
9.28 0.30 2.40
9.26 0.49 2.40
9.24 0.68 2.40
9.22 0.86 2.40
9.19 1.04 2.40
9.16 1.23 2.40
9.13 1.41 2.40
9.09 1.59 2.40
9.05 1.77 2.40
9.01 1.95 2.40
8.96 2.13 2.40
8.91 2.31 2.40
8.85 2.49 2.40
8.80 2.66 2.40
8.73 2.83 2.40
8.67 3.01 2.40
8.60 3.18 2.40
8.53 3.35 2.40
8.45 3.52 2.40
8.38 3.68 2.40
8.29 3.85 2.40
8.21 4.01 2.40
8.12 4.17 2.40
8.03 4.33 2.40
7.94 4.49 2.40
7.84 4.64 2.40
7.74 4.80 2.40
7.64 4.95 2.40
7.53 5.10 2.40
7.42 5.24 2.40
7.31 5.39 2.40
7.20 5.53 2.40
7.08 5.67 2.40
6.96 5.81 2.40
6.84 5.94 2.40
6.71 6.08 2.40
6.58 6.21 2.40
6.45 6.33 2.40
6.32 6.46 2.40
6.19 6.58 2.40
6.05 6.70 2.40
5.91 6.82 2.40
5.76 6.92 2.39
5.62 7.03 2.39
5.47 7.14 2.39
5.33 7.24 2.39
5.18 7.35 2.39
5.02 7.44 2.39
4.87 7.54 2.39
4.72 7.63 2.39
4.56 7.72 2.39
4.40 7.81 2.39
4.24 7.89 2.39
4.08 7.97 2.39
3.92 8.05 2.39
3.75 8.12 2.39
3.59 8.20 2.39
3.42 8.26 2.39
3.25 8.33 2.39
3.08 8.39 2.39
2.91 8.45 2.39
2.74 8.50 2.39
2.57 8.55 2.39
2.40 8.60 2.39
2.22 8.64 2.39
2.05 8.68 2.39
1.87 8.72 2.39
1.77 9.13 2.50
1.59 9.16 2.50
1.40 9.19 2.50
1.21 9.22 2.50
1.03 9.24 2.50
0.84 9.25 2.50
0.66 9.27 2.50
0.47 9.28 2.50
0.28 9.29 2.50
0.10 9.29 2.50
-0.09 9.29 2.50
-0.28 9.28 2.50
-0.46 9.27 2.50
-0.65 9.26 2.50
-0.84 9.25 2.50
-1.02 9.23 2.50
-1.21 9.21 2.50
-1.39 9.18 2.50
-1.58 9.15 2.50
-1.76 9.12 2.50
-1.95 9.08 2.50
-2.13 9.04 2.50
-2.31 9.00 2.50
-2.49 8.95 2.50
-2.67 8.90 2.50
-2.85 8.84 2.50
-3.03 8.79 2.50
-3.20 8.73 2.50
-3.38 8.66 2.50
-3.55 8.59 2.50
-3.73 8.52 2.50
-3.90 8.45 2.50
-4.07 8.37 2.50
-4.24 8.29 2.50
-4.40 8.20 2.50
-4.57 8.11 2.50
-4.73 8.02 2.50
-4.89 7.93 2.50
-5.05 7.83 2.50
-5.21 7.73 2.50
-5.37 7.63 2.50
-5.52 7.52 2.50
-5.68 7.41 2.50
-5.83 7.30 2.50
-5.97 7.18 2.50
-6.12 7.06 2.50
-6.25 6.93 2.49
-6.26 6.66 2.44
-6.27 6.41 2.39
-6.40 6.29 2.39
-6.53 6.16 2.39
-6.66 6.03 2.39
-6.78 5.90 2.39
-6.90 5.76 2.39
-7.02 5.63 2.39
-7.13 5.49 2.39
-7.25 5.35 2.39
-7.36 5.20 2.39
-7.46 5.06 2.39
-7.57 4.91 2.39
-7.67 4.76 2.39
-7.77 4.60 2.39
-7.86 4.45 2.39
-7.96 4.29 2.39
-8.05 4.14 2.39
-8.13 3.98 2.39
-8.22 3.81 2.39
-8.30 3.65 2.39
-8.37 3.49 2.39
-8.45 3.32 2.39
-8.52 3.15 2.39
-8.59 2.98 2.39
-8.65 2.81 2.39
-8.71 2.64 2.39
-8.77 2.46 2.39
-8.82 2.29 2.39
-8.87 2.11 2.39
-8.92 1.93 2.39
-8.96 1.76 2.39
-9.00 1.58 2.39
-9.04 1.40 2.39
-9.07 1.22 2.39
-9.10 1.03 2.39
-9.13 0.85 2.39
-9.15 0.67 2.39
-9.17 0.48 2.39
-9.18 0.30 2.39
-9.19 0.12 2.39
-9.20 -0.07 2.39
-9.20 -0.25 2.39
-9.20 -0.44 2.39
-9.20 -0.62 2.39
-9.19 -0.81 2.39
-9.18 -0.99 2.39
-9.17 -1.18 2.39
-9.15 -1.36 2.39
-9.13 -1.55 2.39
-9.10 -1.73 2.39
-9.07 -1.92 2.39
-9.04 -2.10 2.39
-9.00 -2.28 2.39
-8.96 -2.46 2.39
-8.91 -2.64 2.39
-8.87 -2.82 2.39
-8.81 -3.00 2.39
-8.76 -3.18 2.39
-8.70 -3.36 2.39
-8.64 -3.54 2.39
-8.57 -3.71 2.39
-8.50 -3.89 2.39
-8.43 -4.06 2.39
-8.35 -4.23 2.39
-8.27 -4.40 2.39
-8.18 -4.57 2.39
-8.10 -4.73 2.39
-8.01 -4.90 2.39
-7.91 -5.06 2.39
-7.81 -5.22 2.39
-7.71 -5.38 2.39
-7.61 -5.54 2.39
-7.50 -5.70 2.39
-7.39 -5.85 2.39
-7.28 -6.00 2.39
-7.16 -6.15 2.39
-7.04 -6.29 2.39
-6.92 -6.44 2.39
-6.79 -6.58 2.39
-6.67 -6.73 2.39
-6.53 -6.86 2.39
-6.49 -7.09 2.43
-6.49 -7.38 2.48
-6.38 -7.56 2.50
-6.23 -7.69 2.50
-6.08 -7.82 2.50
-5.92 -7.94 2.50
-5.77 -8.06 2.50
-5.61 -8.18 2.50
-5.44 -8.30 2.50
-5.28 -8.41 2.50
-5.11 -8.52 2.50
-4.94 -8.62 2.50
-4.77 -8.72 2.50
-4.60 -8.82 2.50
-4.42 -8.91 2.50
-4.24 -9.01 2.50
-4.06 -9.09 2.50
-3.88 -9.18 2.50
-3.70 -9.26 2.50
-3.51 -9.33 2.50
-3.33 -9.40 2.50
-3.14 -9.47 2.50
-2.95 -9.53 2.50
-2.76 -9.59 2.50
-2.57 -9.65 2.50
-2.38 -9.70 2.50
-2.18 -9.75 2.50
-1.99 -9.80 2.50
-1.79 -9.84 2.50
-1.59 -9.87 2.50
-1.39 -9.90 2.50
-1.20 -9.93 2.50
-1.00 -9.96 2.50
-0.80 -9.98 2.50
-0.60 -9.99 2.50
-0.40 -10.00 2.50
-0.20 -10.01 2.50
0.00 -9.13 2.50
0.19 -9.13 2.50
0.37 -9.12 2.50
0.55 -9.12 2.50
0.73 -9.10 2.50
0.92 -9.09 2.50
1.10 -9.07 2.50
1.28 -9.04 2.50
1.46 -9.02 2.50
1.57 -8.61 2.39
1.75 -8.62 2.40
1.91 -8.54 2.39
2.09 -8.50 2.39
2.25 -8.46 2.39
2.42 -8.41 2.39
2.59 -8.36 2.39
2.76 -8.30 2.39
2.92 -8.24 2.39
3.09 -8.18 2.39
3.25 -8.12 2.39
3.41 -8.05 2.39
3.57 -7.98 2.39
3.73 -7.90 2.39
3.89 -7.83 2.39
4.04 -7.74 2.39
4.19 -7.66 2.39
4.34 -7.57 2.39
4.49 -7.48 2.39
4.64 -7.39 2.39
4.79 -7.29 2.39
4.93 -7.19 2.39
5.07 -7.09 2.39
5.21 -6.98 2.39
5.35 -6.87 2.39
5.48 -6.76 2.39
5.62 -6.66 2.40
5.75 -6.54 2.40
5.88 -6.42 2.40
6.00 -6.30 2.40
6.13 -6.18 2.40
6.25 -6.05 2.40
6.36 -5.92 2.40
6.48 -5.79 2.40
6.59 -5.66 2.40
6.70 -5.52 2.40
6.80 -5.38 2.40
6.91 -5.24 2.40
7.01 -5.10 2.40
7.10 -4.96 2.40
7.20 -4.81 2.40
7.29 -4.66 2.40
7.38 -4.51 2.40
7.46 -4.36 2.40
7.54 -4.21 2.40
7.62 -4.05 2.40
7.70 -3.90 2.40
7.77 -3.74 2.40
7.84 -3.58 2.40
7.90 -3.42 2.40
7.96 -3.26 2.40
8.02 -3.10 2.40
8.08 -2.94 2.40
8.13 -2.77 2.40
8.18 -2.61 2.40
8.23 -2.44 2.40
8.27 -2.27 2.40
8.31 -2.11 2.40
8.34 -1.94 2.40
8.37 -1.77 2.40
8.40 -1.60 2.40
8.42 -1.43 2.40
8.45 -1.26 2.40
8.46 -1.09 2.40
8.48 -0.92 2.40
8.49 -0.75 2.40
8.50 -0.58 2.40
8.50 -0.41 2.40
8.50 -0.24 2.40
8.50 -0.06 2.40
8.49 0.11 2.40
8.48 0.28 2.40
8.47 0.45 2.40
8.45 0.62 2.40
8.43 0.78 2.40
8.41 0.95 2.40
8.38 1.12 2.40
8.35 1.29 2.40
8.32 1.45 2.40
8.28 1.62 2.40
8.24 1.78 2.40
8.20 1.95 2.40
8.15 2.11 2.40
8.10 2.27 2.40
8.05 2.43 2.40
7.99 2.59 2.40
7.93 2.75 2.40
7.87 2.91 2.40
7.81 3.06 2.40
7.74 3.22 2.40
7.67 3.37 2.40
7.59 3.52 2.40
7.52 3.67 2.40
7.44 3.82 2.40
7.35 3.96 2.40
7.27 4.11 2.40
7.18 4.25 2.40
7.09 4.39 2.40
6.99 4.53 2.40
6.90 4.67 2.40
6.80 4.80 2.40
6.70 4.93 2.40
6.59 5.06 2.40
6.48 5.19 2.40
6.37 5.32 2.40
6.26 5.44 2.40
6.15 5.56 2.40
6.03 5.68 2.40
5.91 5.80 2.40
5.78 5.91 2.39
5.66 6.02 2.39
5.54 6.13 2.39
5.41 6.24 2.39
5.28 6.34 2.39
5.15 6.44 2.39
5.02 6.54 2.39
4.88 6.64 2.39
4.74 6.73 2.39
4.61 6.82 2.39
4.47 6.91 2.39
4.32 7.00 2.39
4.18 7.08 2.39
4.04 7.16 2.39
3.89 7.23 2.39
3.74 7.31 2.39
3.59 7.38 2.39
3.44 7.45 2.39
3.29 7.51 2.39
3.14 7.58 2.39
2.98 7.63 2.39
2.83 7.69 2.39
2.67 7.74 2.39
2.52 7.79 2.39
2.36 7.84 2.39
2.20 7.88 2.39
2.04 7.92 2.39
1.88 7.96 2.39
1.79 8.34 2.50
1.62 8.37 2.50
1.45 8.40 2.50
1.28 8.43 2.50
1.11 8.45 2.50
0.94 8.47 2.50
0.77 8.49 2.50
0.60 8.50 2.50
0.43 8.51 2.50
0.26 8.51 2.50
0.09 8.52 2.50
-0.08 8.52 2.50
-0.25 8.51 2.50
-0.43 8.51 2.50
-0.60 8.50 2.50
-0.77 8.48 2.50
-0.94 8.46 2.50
-1.11 8.44 2.50
-1.28 8.42 2.50
-1.45 8.39 2.50
-1.62 8.36 2.50
-1.78 8.33 2.50
-1.95 8.29 2.50
-2.12 8.25 2.50
-2.28 8.21 2.50
-2.45 8.16 2.50
-2.61 8.11 2.50
-2.78 8.06 2.50
-2.94 8.00 2.50
-3.10 7.94 2.50
-3.26 7.88 2.50
-3.42 7.81 2.50
-3.57 7.74 2.50
-3.73 7.67 2.50
-3.89 7.60 2.50
-4.04 7.52 2.50
-4.19 7.44 2.50
-4.34 7.36 2.50
-4.49 7.27 2.50
-4.63 7.18 2.50
-4.78 7.09 2.50
-4.92 6.99 2.50
-5.06 6.89 2.50
-5.20 6.79 2.50
-5.34 6.69 2.50
-5.48 6.58 2.50
-5.61 6.47 2.50
-5.74 6.36 2.50
-5.87 6.25 2.50
-6.00 6.13 2.50
-6.12 6.01 2.50
-6.24 5.89 2.50
-6.27 5.68 2.46
-6.28 5.46 2.42
-6.32 5.28 2.39
-6.43 5.16 2.39
-6.54 5.03 2.39
-6.64 4.90 2.39
-6.74 4.77 2.39
-6.84 4.63 2.39
-6.93 4.50 2.39
-7.03 4.36 2.39
-7.12 4.22 2.39
-7.21 4.08 2.39
-7.29 3.93 2.39
-7.37 3.79 2.39
-7.45 3.64 2.39
-7.53 3.49 2.39
-7.60 3.34 2.39
-7.67 3.19 2.39
-7.74 3.04 2.39
-7.80 2.88 2.39
-7.86 2.73 2.39
-7.92 2.57 2.39
-7.98 2.41 2.39
-8.03 2.25 2.39
-8.08 2.09 2.39
-8.12 1.93 2.39
-8.16 1.77 2.39
-8.20 1.61 2.39
-8.24 1.44 2.39
-8.27 1.28 2.39
-8.30 1.11 2.39
-8.33 0.94 2.39
-8.35 0.78 2.39
-8.37 0.61 2.39
-8.39 0.44 2.39
-8.40 0.27 2.39
-8.41 0.10 2.39
-8.42 -0.06 2.39
-8.42 -0.23 2.39
-8.42 -0.40 2.39
-8.42 -0.57 2.39
-8.41 -0.74 2.39
-8.40 -0.91 2.39
-8.38 -1.08 2.39
-8.37 -1.25 2.39
-8.34 -1.42 2.39
-8.32 -1.59 2.39
-8.29 -1.75 2.39
-8.26 -1.92 2.39
-8.23 -2.09 2.39
-8.19 -2.25 2.39
-8.15 -2.42 2.39
-8.10 -2.58 2.39
-8.06 -2.75 2.39
-8.00 -2.91 2.39
-7.95 -3.07 2.39
-7.89 -3.23 2.39
-7.83 -3.39 2.39
-7.77 -3.55 2.39
-7.70 -3.71 2.39
-7.63 -3.87 2.39
-7.55 -4.02 2.39
-7.48 -4.18 2.39
-7.40 -4.33 2.39
-7.31 -4.48 2.39
-7.23 -4.63 2.39
-7.14 -4.77 2.39
-7.04 -4.92 2.39
-6.95 -5.06 2.39
-6.85 -5.20 2.39
-6.75 -5.34 2.39
-6.65 -5.48 2.39
-6.54 -5.62 2.39
-6.47 -5.79 2.41
-6.46 -6.02 2.45
-6.47 -6.27 2.50
-6.34 -6.40 2.50
-6.22 -6.53 2.50
-6.09 -6.66 2.50
-5.96 -6.78 2.50
-5.82 -6.90 2.50
-5.69 -7.02 2.50
-5.55 -7.14 2.50
-5.40 -7.25 2.50
-5.26 -7.36 2.50
-5.12 -7.47 2.50
-4.97 -7.57 2.50
-4.82 -7.67 2.50
-4.66 -7.77 2.50
-4.51 -7.87 2.50
-4.35 -7.96 2.50
-4.19 -8.05 2.50
-4.03 -8.13 2.50
-3.87 -8.22 2.50
-3.71 -8.30 2.50
-3.54 -8.37 2.50
-3.37 -8.44 2.50
-3.21 -8.51 2.50
-3.04 -8.58 2.50
-2.86 -8.64 2.50
-2.69 -8.70 2.50
-2.52 -8.75 2.50
-2.34 -8.80 2.50
-2.17 -8.85 2.50
-1.99 -8.89 2.50
-1.81 -8.93 2.50
-1.63 -8.97 2.50
-1.45 -9.00 2.50
-1.27 -9.03 2.50
-1.09 -9.06 2.50
-0.91 -9.08 2.50
-0.73 -9.10 2.50
-0.55 -9.11 2.50
-0.36 -9.12 2.50
-0.18 -9.13 2.50
0.00 -8.38 2.50
0.17 -8.38 2.50
0.34 -8.38 2.50
0.51 -8.37 2.50
0.67 -8.36 2.50
0.84 -8.34 2.50
1.01 -8.32 2.50
1.17 -8.30 2.50
1.34 -8.28 2.50
1.51 -8.25 2.50
1.60 -7.88 2.39
1.77 -7.87 2.40
1.91 -7.80 2.39
2.07 -7.76 2.39
2.23 -7.72 2.39
2.38 -7.67 2.39
2.53 -7.62 2.39
2.68 -7.57 2.39
2.83 -7.51 2.39
2.98 -7.45 2.39
3.13 -7.39 2.39
3.28 -7.33 2.39
3.42 -7.26 2.39
3.57 -7.19 2.39
3.71 -7.11 2.39
3.85 -7.03 2.39
3.99 -6.95 2.39
4.13 -6.87 2.39
4.26 -6.78 2.39
4.40 -6.70 2.39
4.53 -6.60 2.39
4.66 -6.51 2.39
4.79 -6.41 2.39
4.91 -6.31 2.39
5.03 -6.21 2.39
5.16 -6.11 2.39
5.28 -6.00 2.39
5.39 -5.89 2.39
5.51 -5.78 2.39
5.63 -5.68 2.40
5.74 -5.56 2.40
5.85 -5.44 2.40
5.95 -5.32 2.40
6.05 -5.20 2.40
6.15 -5.07 2.40
6.25 -4.95 2.40
6.35 -4.82 2.40
6.44 -4.69 2.40
6.53 -4.56 2.40
6.61 -4.42 2.40
6.70 -4.29 2.40
6.78 -4.15 2.40
6.86 -4.01 2.40
6.93 -3.87 2.40
7.00 -3.73 2.40
7.07 -3.58 2.40
7.14 -3.44 2.40
7.20 -3.29 2.40
7.26 -3.15 2.40
7.32 -3.00 2.40
7.38 -2.85 2.40
7.43 -2.70 2.40
7.48 -2.55 2.40
7.52 -2.40 2.40
7.56 -2.25 2.40
7.60 -2.09 2.40
7.64 -1.94 2.40
7.67 -1.78 2.40
7.70 -1.63 2.40
7.73 -1.47 2.40
7.75 -1.32 2.40
7.77 -1.16 2.40
7.79 -1.00 2.40
7.80 -0.85 2.40
7.81 -0.69 2.40
7.82 -0.53 2.40
7.82 -0.38 2.40
7.82 -0.22 2.40
7.82 -0.06 2.40
7.81 0.10 2.40
7.81 0.25 2.40
7.79 0.41 2.40
7.78 0.56 2.40
7.76 0.72 2.40
7.74 0.88 2.40
7.72 1.03 2.40
7.69 1.18 2.40
7.66 1.34 2.40
7.62 1.49 2.40
7.59 1.64 2.40
7.55 1.79 2.40
7.51 1.94 2.40
7.46 2.09 2.40
7.41 2.24 2.40
7.36 2.39 2.40
7.31 2.53 2.40
7.25 2.68 2.40
7.19 2.82 2.40
7.13 2.96 2.40
7.06 3.10 2.40
6.99 3.24 2.40
6.92 3.38 2.40
6.85 3.52 2.40
6.77 3.65 2.40
6.70 3.78 2.40
6.61 3.91 2.40
6.53 4.04 2.40
6.44 4.17 2.40
6.36 4.30 2.40
6.26 4.42 2.40
6.17 4.55 2.40
6.07 4.67 2.40
5.98 4.78 2.40
5.88 4.90 2.40
5.76 5.01 2.39
5.66 5.12 2.39
5.55 5.23 2.39
5.44 5.34 2.39
5.33 5.44 2.39
5.22 5.55 2.39
5.10 5.65 2.39
4.99 5.75 2.39
4.87 5.84 2.39
4.75 5.94 2.39
4.63 6.03 2.39
4.50 6.12 2.39
4.38 6.21 2.39
4.25 6.29 2.39
4.12 6.37 2.39
3.99 6.45 2.39
3.86 6.53 2.39
3.72 6.60 2.39
3.59 6.67 2.39
3.45 6.74 2.39
3.31 6.81 2.39
3.18 6.87 2.39
3.04 6.93 2.39
2.89 6.99 2.39
2.75 7.04 2.39
2.61 7.09 2.39
2.47 7.14 2.39
2.32 7.19 2.39
2.18 7.23 2.39
2.03 7.27 2.39
1.88 7.31 2.39
1.81 7.66 2.49
1.65 7.69 2.50
1.50 7.72 2.50
1.34 7.75 2.50
1.19 7.77 2.50
1.03 7.80 2.50
0.87 7.81 2.50
0.71 7.83 2.50
0.56 7.84 2.50
0.40 7.85 2.50
0.24 7.85 2.50
0.08 7.86 2.50
-0.08 7.86 2.50
-0.23 7.85 2.50
-0.39 7.85 2.50
-0.55 7.84 2.50
-0.71 7.82 2.50
-0.87 7.81 2.50
-1.02 7.79 2.50
-1.18 7.77 2.50
-1.34 7.74 2.50
-1.49 7.71 2.50
-1.65 7.68 2.50
-1.80 7.65 2.50
-1.95 7.61 2.50
-2.11 7.57 2.50
-2.26 7.53 2.50
-2.41 7.48 2.50
-2.56 7.43 2.50
-2.71 7.38 2.50
-2.86 7.33 2.50
-3.01 7.27 2.50
-3.15 7.21 2.50
-3.30 7.14 2.50
-3.44 7.08 2.50
-3.58 7.01 2.50
-3.73 6.94 2.50
-3.86 6.86 2.50
-4.00 6.78 2.50
-4.14 6.70 2.50
-4.28 6.62 2.50
-4.41 6.54 2.50
-4.54 6.45 2.50
-4.67 6.36 2.50
-4.80 6.26 2.50
-4.93 6.17 2.50
-5.05 6.07 2.50
-5.17 5.97 2.50
-5.30 5.87 2.50
-5.41 5.76 2.50
-5.53 5.65 2.50
-5.65 5.54 2.50
-5.76 5.43 2.50
-5.87 5.31 2.50
-5.98 5.20 2.50
-6.08 5.08 2.50
-6.19 4.96 2.50
-6.29 4.83 2.49
-6.29 4.64 2.46
-6.30 4.45 2.42
-6.31 4.27 2.39
-6.39 4.14 2.39
-6.48 4.02 2.39
-6.56 3.89 2.39
-6.64 3.76 2.39
-6.72 3.62 2.39
-6.79 3.49 2.39
-6.87 3.35 2.39
-6.94 3.22 2.39
-7.00 3.08 2.39
-7.07 2.94 2.39
-7.13 2.80 2.39
-7.19 2.65 2.39
-7.24 2.51 2.39
-7.30 2.37 2.39
-7.35 2.22 2.39
-7.40 2.07 2.39
-7.44 1.93 2.39
-7.48 1.78 2.39
-7.52 1.63 2.39
-7.56 1.48 2.39
-7.59 1.33 2.39
-7.62 1.17 2.39
-7.65 1.02 2.39
-7.67 0.87 2.39
-7.69 0.71 2.39
-7.71 0.56 2.39
-7.72 0.41 2.39
-7.73 0.25 2.39
-7.74 0.09 2.39
-7.75 -0.06 2.39
-7.75 -0.22 2.39
-7.75 -0.37 2.39
-7.75 -0.53 2.39
-7.74 -0.68 2.39
-7.73 -0.84 2.39
-7.72 -1.00 2.39
-7.70 -1.15 2.39
-7.68 -1.31 2.39
-7.66 -1.46 2.39
-7.63 -1.62 2.39
-7.60 -1.77 2.39
-7.57 -1.92 2.39
-7.53 -2.08 2.39
-7.50 -2.23 2.39
-7.46 -2.38 2.39
-7.41 -2.53 2.39
-7.36 -2.68 2.39
-7.31 -2.83 2.39
-7.26 -2.98 2.39
-7.20 -3.12 2.39
-7.14 -3.27 2.39
-7.08 -3.41 2.39
-7.01 -3.56 2.39
-6.95 -3.70 2.39
-6.87 -3.84 2.39
-6.80 -3.98 2.39
-6.72 -4.12 2.39
-6.64 -4.25 2.39
-6.56 -4.39 2.39
-6.48 -4.52 2.39
-6.45 -4.70 2.41
-6.44 -4.90 2.45
-6.45 -5.10 2.49
-6.37 -5.26 2.50
-6.27 -5.39 2.50
-6.16 -5.51 2.50
-6.05 -5.64 2.50
-5.94 -5.76 2.50
-5.83 -5.88 2.50
-5.71 -6.00 2.50
-5.59 -6.12 2.50
-5.47 -6.23 2.50
-5.35 -6.34 2.50
-5.22 -6.45 2.50
-5.10 -6.56 2.50
-4.96 -6.66 2.50
-4.83 -6.76 2.50
-4.70 -6.86 2.50
-4.56 -6.96 2.50
-4.42 -7.05 2.50
-4.28 -7.14 2.50
-4.14 -7.23 2.50
-4.00 -7.31 2.50
-3.85 -7.39 2.50
-3.70 -7.47 2.50
-3.55 -7.55 2.50
-3.40 -7.62 2.50
-3.25 -7.69 2.50
-3.10 -7.76 2.50
-2.94 -7.82 2.50
-2.79 -7.88 2.50
-2.63 -7.93 2.50
-2.47 -7.99 2.50
-2.31 -8.04 2.50
-2.15 -8.08 2.50
-1.99 -8.13 2.50
-1.83 -8.17 2.50
-1.66 -8.20 2.50
-1.50 -8.24 2.50
-1.33 -8.27 2.50
-1.17 -8.29 2.50
-1.00 -8.32 2.50
-0.83 -8.34 2.50
-0.67 -8.35 2.50
-0.50 -8.37 2.50
-0.33 -8.38 2.50
-0.17 -8.38 2.50
0.00 -7.74 2.50
0.16 -7.74 2.50
0.31 -7.74 2.50
0.47 -7.73 2.50
0.62 -7.72 2.50
0.78 -7.70 2.50
0.93 -7.69 2.50
1.08 -7.67 2.50
1.24 -7.64 2.50
1.39 -7.62 2.50
1.54 -7.59 2.50
1.62 -7.24 2.39
1.78 -7.24 2.40
1.91 -7.17 2.39
2.05 -7.13 2.39
2.20 -7.09 2.39
2.34 -7.04 2.39
2.48 -6.99 2.39
2.62 -6.94 2.39
2.75 -6.88 2.39
2.89 -6.83 2.39
3.03 -6.77 2.39
3.16 -6.70 2.39
3.29 -6.64 2.39
3.43 -6.57 2.39
3.56 -6.50 2.39
3.68 -6.42 2.39
3.81 -6.35 2.39
3.94 -6.27 2.39
4.06 -6.18 2.39
4.18 -6.10 2.39
4.30 -6.01 2.39
4.42 -5.92 2.39
4.54 -5.83 2.39
4.65 -5.74 2.39
4.76 -5.64 2.39
4.87 -5.54 2.39
4.98 -5.44 2.39
5.09 -5.34 2.39
5.19 -5.24 2.39
5.29 -5.13 2.39
5.39 -5.02 2.39
5.49 -4.91 2.39
5.58 -4.80 2.39
5.68 -4.69 2.40
5.78 -4.57 2.40
5.86 -4.45 2.40
5.95 -4.33 2.40
6.03 -4.21 2.40
6.11 -4.09 2.40
6.19 -3.96 2.40
6.26 -3.84 2.40
6.34 -3.71 2.40
6.41 -3.58 2.40
6.47 -3.45 2.40
6.54 -3.31 2.40
6.60 -3.18 2.40
6.66 -3.05 2.40
6.71 -2.91 2.40
6.77 -2.77 2.40
6.82 -2.64 2.40
6.87 -2.50 2.40
6.91 -2.36 2.40
6.95 -2.22 2.40
6.99 -2.08 2.40
7.03 -1.94 2.40
7.06 -1.79 2.40
7.09 -1.65 2.40
7.12 -1.51 2.40
7.14 -1.36 2.40
7.17 -1.22 2.40
7.18 -1.07 2.40
7.20 -0.93 2.40
7.21 -0.78 2.40
7.22 -0.64 2.40
7.23 -0.49 2.40
7.23 -0.35 2.40
7.24 -0.20 2.40
7.23 -0.06 2.40
7.23 0.09 2.40
7.22 0.23 2.40
7.21 0.38 2.40
7.20 0.52 2.40
7.18 0.66 2.40
7.16 0.81 2.40
7.14 0.95 2.40
7.11 1.09 2.40
7.09 1.24 2.40
7.06 1.38 2.40
7.02 1.52 2.40
6.99 1.66 2.40
6.95 1.80 2.40
6.91 1.93 2.40
6.86 2.07 2.40
6.81 2.21 2.40
6.77 2.34 2.40
6.71 2.48 2.40
6.66 2.61 2.40
6.60 2.74 2.40
6.54 2.87 2.40
6.48 3.00 2.40
6.41 3.13 2.40
6.34 3.25 2.40
6.27 3.38 2.40
6.20 3.50 2.40
6.13 3.62 2.40
6.05 3.74 2.40
5.97 3.86 2.40
5.89 3.98 2.40
5.80 4.10 2.40
5.71 4.20 2.39
5.62 4.31 2.39
5.53 4.42 2.39
5.44 4.53 2.39
5.34 4.64 2.39
5.24 4.74 2.39
5.15 4.84 2.39
5.04 4.94 2.39
4.94 5.04 2.39
4.84 5.14 2.39
4.73 5.23 2.39
4.62 5.32 2.39
4.51 5.41 2.39
4.40 5.50 2.39
4.29 5.59 2.39
4.17 5.67 2.39
4.06 5.75 2.39
3.94 5.83 2.39
3.82 5.90 2.39
3.70 5.98 2.39
3.57 6.05 2.39
3.45 6.12 2.39
3.33 6.18 2.39
3.20 6.25 2.39
3.07 6.31 2.39
2.94 6.37 2.39
2.81 6.42 2.39
2.68 6.47 2.39
2.55 6.53 2.39
2.42 6.57 2.39
2.29 6.62 2.39
2.15 6.66 2.39
2.02 6.70 2.39
1.88 6.74 2.39
1.80 6.97 2.46
1.68 7.10 2.50
1.53 7.13 2.50
1.39 7.16 2.50
1.24 7.19 2.50
1.10 7.21 2.50
0.95 7.23 2.50
0.81 7.24 2.50
0.66 7.26 2.50
0.52 7.27 2.50
0.37 7.28 2.50
0.22 7.28 2.50
0.08 7.28 2.50
-0.07 7.28 2.50
-0.22 7.28 2.50
-0.36 7.27 2.50
-0.51 7.27 2.50
-0.66 7.25 2.50
-0.80 7.24 2.50
-0.95 7.22 2.50
-1.09 7.20 2.50
-1.24 7.18 2.50
-1.38 7.15 2.50
-1.53 7.12 2.50
-1.67 7.09 2.50
-1.81 7.06 2.50
-1.95 7.02 2.50
-2.09 6.98 2.50
-2.24 6.94 2.50
-2.37 6.89 2.50
-2.51 6.84 2.50
-2.65 6.79 2.50
-2.79 6.74 2.50
-2.92 6.68 2.50
-3.06 6.62 2.50
-3.19 6.56 2.50
-3.32 6.50 2.50
-3.45 6.43 2.50
-3.58 6.36 2.50
-3.71 6.29 2.50
-3.84 6.21 2.50
-3.96 6.14 2.50
-4.09 6.06 2.50
-4.21 5.98 2.50
-4.33 5.89 2.50
-4.45 5.80 2.50
-4.57 5.72 2.50
-4.68 5.62 2.50
-4.80 5.53 2.50
-4.91 5.44 2.50
-5.02 5.34 2.50
-5.13 5.24 2.50
-5.23 5.13 2.50
-5.34 5.03 2.50
-5.44 4.92 2.50
-5.54 4.82 2.50
-5.64 4.70 2.50
-5.73 4.59 2.50
-5.83 4.48 2.50
-5.92 4.36 2.50
-6.01 4.24 2.50
-6.09 4.12 2.50
-6.18 4.00 2.50
-6.26 3.88 2.50
-6.31 3.73 2.48
-6.31 3.57 2.45
-6.32 3.40 2.43
-6.32 3.25 2.40
-6.36 3.10 2.39
-6.43 2.98 2.39
-6.49 2.85 2.39
-6.55 2.72 2.39
-6.60 2.59 2.39
-6.66 2.46 2.39
-6.71 2.32 2.39
-6.76 2.19 2.39
-6.81 2.06 2.39
-6.85 1.92 2.39
-6.89 1.78 2.39
-6.93 1.64 2.39
-6.96 1.51 2.39
-7.00 1.37 2.39
-7.03 1.23 2.39
-7.05 1.09 2.39
-7.08 0.94 2.39
-7.10 0.80 2.39
-7.12 0.66 2.39
-7.14 0.52 2.39
-7.15 0.37 2.39
-7.16 0.23 2.39
-7.17 0.09 2.39
-7.17 -0.06 2.39
-7.17 -0.20 2.39
-7.17 -0.35 2.39
-7.17 -0.49 2.39
-7.16 -0.63 2.39
-7.15 -0.78 2.39
-7.14 -0.92 2.39
-7.12 -1.07 2.39
-7.11 -1.21 2.39
-7.08 -1.35 2.39
-7.06 -1.50 2.39
-7.03 -1.64 2.39
-7.00 -1.78 2.39
-6.97 -1.92 2.39
-6.93 -2.06 2.39
-6.90 -2.20 2.39
-6.85 -2.34 2.39
-6.81 -2.48 2.39
-6.76 -2.62 2.39
-6.71 -2.75 2.39
-6.66 -2.89 2.39
-6.60 -3.02 2.39
-6.55 -3.16 2.39
-6.49 -3.29 2.39
-6.43 -3.43 2.39
-6.43 -3.59 2.42
-6.42 -3.76 2.44
-6.43 -3.94 2.47
-6.41 -4.10 2.50
-6.33 -4.23 2.50
-6.24 -4.36 2.50
-6.16 -4.49 2.50
-6.07 -4.61 2.50
-5.98 -4.74 2.50
-5.89 -4.86 2.50
-5.79 -4.98 2.50
-5.69 -5.10 2.50
-5.59 -5.21 2.50
-5.49 -5.33 2.50
-5.38 -5.44 2.50
-5.28 -5.55 2.50
-5.17 -5.65 2.50
-5.06 -5.76 2.50
-4.94 -5.86 2.50
-4.83 -5.96 2.50
-4.71 -6.06 2.50
-4.59 -6.16 2.50
-4.46 -6.25 2.50
-4.34 -6.34 2.50
-4.21 -6.43 2.50
-4.09 -6.51 2.50
-3.96 -6.60 2.50
-3.82 -6.68 2.50
-3.69 -6.76 2.50
-3.56 -6.83 2.50
-3.42 -6.90 2.50
-3.28 -6.97 2.50
-3.14 -7.04 2.50
-3.00 -7.10 2.50
-2.86 -7.16 2.50
-2.72 -7.22 2.50
-2.57 -7.28 2.50
-2.43 -7.33 2.50
-2.28 -7.38 2.50
-2.13 -7.42 2.50
-1.99 -7.47 2.50
-1.84 -7.51 2.50
-1.69 -7.54 2.50
-1.53 -7.58 2.50
-1.38 -7.61 2.50
-1.23 -7.64 2.50
-1.08 -7.66 2.50
-0.92 -7.68 2.50
-0.77 -7.70 2.50
-0.62 -7.71 2.50
-0.46 -7.73 2.50
-0.31 -7.73 2.50
-0.15 -7.74 2.50
0.00 -7.18 2.50
0.15 -7.18 2.50
0.29 -7.18 2.50
0.43 -7.17 2.50
0.58 -7.16 2.50
0.72 -7.15 2.50
0.86 -7.13 2.50
1.01 -7.11 2.50
1.15 -7.09 2.50
1.29 -7.07 2.50
1.43 -7.04 2.50
1.57 -6.99 2.49
1.64 -6.69 2.39
1.78 -6.69 2.41
1.91 -6.62 2.39
2.04 -6.58 2.39
2.17 -6.53 2.39
2.30 -6.49 2.39
2.43 -6.44 2.39
2.56 -6.39 2.39
2.68 -6.33 2.39
2.81 -6.28 2.39
2.93 -6.22 2.39
3.06 -6.16 2.39
3.18 -6.10 2.39
3.30 -6.03 2.39
3.42 -5.96 2.39
3.54 -5.89 2.39
3.65 -5.82 2.39
3.77 -5.74 2.39
3.88 -5.66 2.39
3.99 -5.58 2.39
4.10 -5.50 2.39
4.21 -5.41 2.39
4.32 -5.33 2.39
4.42 -5.24 2.39
4.52 -5.15 2.39
4.62 -5.05 2.39
4.72 -4.96 2.39
4.82 -4.86 2.39
4.91 -4.76 2.39
5.00 -4.66 2.39
5.10 -4.56 2.39
5.18 -4.45 2.39
5.27 -4.35 2.39
5.35 -4.24 2.39
5.43 -4.13 2.39
5.51 -4.02 2.39
5.59 -3.90 2.39
5.67 -3.80 2.40
5.75 -3.68 2.40
5.82 -3.56 2.40
5.88 -3.44 2.40
5.95 -3.32 2.40
6.01 -3.20 2.40
6.07 -3.08 2.40
6.13 -2.96 2.40
6.18 -2.83 2.40
6.24 -2.70 2.40
6.29 -2.58 2.40
6.33 -2.45 2.40
6.38 -2.32 2.40
6.42 -2.19 2.40
6.46 -2.06 2.40
6.49 -1.93 2.40
6.53 -1.80 2.40
6.56 -1.67 2.40
6.59 -1.53 2.40
6.61 -1.40 2.40
6.64 -1.27 2.40
6.66 -1.13 2.40
6.67 -1.00 2.40
6.69 -0.87 2.40
6.70 -0.73 2.40
6.71 -0.60 2.40
6.72 -0.46 2.40
6.72 -0.33 2.40
6.72 -0.19 2.40
6.72 -0.06 2.40
6.72 0.08 2.40
6.71 0.21 2.40
6.70 0.35 2.40
6.69 0.48 2.40
6.67 0.62 2.40
6.66 0.75 2.40
6.64 0.88 2.40
6.61 1.02 2.40
6.59 1.15 2.40
6.56 1.28 2.40
6.53 1.41 2.40
6.50 1.54 2.40
6.46 1.67 2.40
6.42 1.80 2.40
6.38 1.92 2.40
6.34 2.05 2.40
6.29 2.18 2.40
6.24 2.30 2.40
6.19 2.42 2.40
6.14 2.55 2.40
6.08 2.67 2.40
6.02 2.79 2.40
5.96 2.91 2.40
5.90 3.02 2.40
5.84 3.14 2.40
5.77 3.26 2.40
5.69 3.37 2.39
5.62 3.48 2.39
5.55 3.59 2.39
5.47 3.70 2.39
5.39 3.80 2.39
5.31 3.91 2.39
5.23 4.01 2.39
5.14 4.12 2.39
5.06 4.22 2.39
4.97 4.31 2.39
4.88 4.41 2.39
4.79 4.51 2.39
4.69 4.60 2.39
4.60 4.69 2.39
4.50 4.78 2.39
4.40 4.87 2.39
4.30 4.95 2.39
4.20 5.04 2.39
4.10 5.12 2.39
3.99 5.20 2.39
3.88 5.28 2.39
3.78 5.35 2.39
3.67 5.42 2.39
3.55 5.49 2.39
3.44 5.56 2.39
3.33 5.63 2.39
3.21 5.69 2.39
3.10 5.75 2.39
2.98 5.81 2.39
2.86 5.87 2.39
2.74 5.92 2.39
2.62 5.98 2.39
2.50 6.03 2.39
2.38 6.07 2.39
2.25 6.12 2.39
2.13 6.16 2.39
2.00 6.20 2.39
1.88 6.24 2.39
1.79 6.40 2.44
1.69 6.58 2.50
1.56 6.61 2.50
1.43 6.64 2.50
1.29 6.67 2.50
1.16 6.69 2.50
1.02 6.71 2.50
0.89 6.73 2.50
0.75 6.74 2.50
0.62 6.76 2.50
0.48 6.77 2.50
0.34 6.78 2.50
0.21 6.78 2.50
0.07 6.78 2.50
-0.07 6.78 2.50
-0.20 6.78 2.50
-0.34 6.77 2.50
-0.48 6.76 2.50
-0.61 6.75 2.50
-0.75 6.74 2.50
-0.88 6.72 2.50
-1.02 6.70 2.50
-1.15 6.68 2.50
-1.29 6.66 2.50
-1.42 6.63 2.50
-1.55 6.60 2.50
-1.69 6.57 2.50
-1.82 6.53 2.50
-1.95 6.50 2.50
-2.08 6.46 2.50
-2.21 6.42 2.50
-2.34 6.37 2.50
-2.47 6.32 2.50
-2.60 6.27 2.50
-2.72 6.22 2.50
-2.85 6.16 2.50
-2.97 6.11 2.50
-3.09 6.05 2.50
-3.22 5.99 2.50
-3.34 5.92 2.50
-3.46 5.85 2.50
-3.57 5.78 2.50
-3.69 5.71 2.50
-3.81 5.64 2.50
-3.92 5.56 2.50
-4.03 5.48 2.50
-4.14 5.40 2.50
-4.25 5.32 2.50
-4.36 5.23 2.50
-4.46 5.15 2.50
-4.57 5.06 2.50
-4.67 4.97 2.50
-4.77 4.87 2.50
-4.87 4.78 2.50
-4.97 4.68 2.50
-5.06 4.58 2.50
-5.16 4.48 2.50
-5.25 4.38 2.50
-5.34 4.27 2.50
-5.42 4.17 2.50
-5.51 4.06 2.50
-5.59 3.95 2.50
-5.67 3.84 2.50
-5.75 3.72 2.50
-5.83 3.61 2.50
-5.90 3.49 2.50
-5.97 3.37 2.50
-6.04 3.25 2.50
-6.11 3.13 2.50
-6.17 3.01 2.50
-6.24 2.89 2.50
-6.30 2.76 2.50
-6.32 2.63 2.48
-6.33 2.48 2.46
-6.33 2.33 2.44
-6.34 2.19 2.43
-6.34 2.05 2.41
-6.35 1.92 2.40
-6.37 1.78 2.39
-6.41 1.66 2.39
-6.44 1.53 2.39
-6.48 1.40 2.39
-6.51 1.27 2.39
-6.54 1.14 2.39
-6.56 1.01 2.39
-6.58 0.88 2.39
-6.60 0.74 2.39
-6.62 0.61 2.39
-6.64 0.48 2.39
-6.65 0.35 2.39
-6.66 0.21 2.39
-6.66 0.08 2.39
-6.67 -0.06 2.39
-6.67 -0.19 2.39
-6.67 -0.32 2.39
-6.66 -0.46 2.39
-6.66 -0.59 2.39
-6.65 -0.73 2.39
-6.64 -0.86 2.39
-6.62 -0.99 2.39
-6.60 -1.13 2.39
-6.58 -1.26 2.39
-6.58 -1.39 2.40
-6.54 -1.52 2.39
-6.51 -1.66 2.39
-6.48 -1.79 2.39
-6.44 -1.92 2.39
-6.41 -2.05 2.39
-6.41 -2.19 2.41
-6.40 -2.33 2.42
-6.40 -2.48 2.44
-6.40 -2.63 2.46
-6.41 -2.78 2.48
-6.40 -2.93 2.50
-6.34 -3.06 2.50
-6.28 -3.19 2.50
-6.22 -3.32 2.50
-6.16 -3.44 2.50
-6.09 -3.57 2.50
-6.02 -3.69 2.50
-5.95 -3.81 2.50
-5.87 -3.93 2.50
-5.80 -4.05 2.50
-5.72 -4.17 2.50
-5.64 -4.29 2.50
-5.55 -4.40 2.50
-5.47 -4.51 2.50
-5.38 -4.62 2.50
-5.29 -4.73 2.50
-5.19 -4.84 2.50
-5.10 -4.95 2.50
-5.00 -5.05 2.50
-4.90 -5.15 2.50
-4.80 -5.25 2.50
-4.69 -5.35 2.50
-4.59 -5.44 2.50
-4.48 -5.54 2.50
-4.37 -5.63 2.50
-4.26 -5.72 2.50
-4.14 -5.80 2.50
-4.03 -5.89 2.50
-3.91 -5.97 2.50
-3.79 -6.05 2.50
-3.67 -6.12 2.50
-3.55 -6.20 2.50
-3.43 -6.27 2.50
-3.30 -6.34 2.50
-3.17 -6.41 2.50
-3.05 -6.47 2.50
-2.92 -6.53 2.50
-2.79 -6.59 2.50
-2.65 -6.65 2.50
-2.52 -6.70 2.50
-2.39 -6.75 2.50
-2.25 -6.80 2.50
-2.12 -6.85 2.50
-1.98 -6.89 2.50
-1.84 -6.93 2.50
-1.70 -6.97 2.50
-1.56 -7.00 2.50
-1.42 -7.03 2.50
-1.28 -7.06 2.50
-1.14 -7.09 2.50
-1.00 -7.11 2.50
-0.86 -7.13 2.50
-0.71 -7.14 2.50
-0.57 -7.16 2.50
-0.43 -7.17 2.50
-0.28 -7.18 2.50
-0.14 -7.18 2.50
0.00 -6.69 2.50
0.14 -6.69 2.50
0.27 -6.69 2.50
0.40 -6.68 2.50
0.54 -6.67 2.50
0.67 -6.66 2.50
0.80 -6.65 2.50
0.94 -6.63 2.50
1.07 -6.61 2.50
1.20 -6.59 2.50
1.33 -6.56 2.50
1.46 -6.53 2.50
1.58 -6.43 2.47
1.65 -6.20 2.39
1.79 -6.22 2.41
1.90 -6.13 2.39
2.02 -6.09 2.39
2.14 -6.04 2.39
2.26 -6.00 2.39
2.38 -5.95 2.39
2.50 -5.90 2.39
2.62 -5.85 2.39
2.73 -5.80 2.39
2.85 -5.74 2.39
2.96 -5.68 2.39
3.07 -5.62 2.39
3.18 -5.55 2.39
3.29 -5.49 2.39
3.40 -5.42 2.39
3.51 -5.35 2.39
3.62 -5.28 2.39
3.72 -5.20 2.39
3.82 -5.13 2.39
3.92 -5.05 2.39
4.02 -4.97 2.39
4.12 -4.88 2.39
4.21 -4.80 2.39
4.31 -4.71 2.39
4.40 -4.62 2.39
4.49 -4.53 2.39
4.58 -4.44 2.39
4.66 -4.35 2.39
4.75 -4.25 2.39
4.83 -4.15 2.39
4.91 -4.05 2.39
4.99 -3.95 2.39
5.07 -3.85 2.39
5.14 -3.75 2.39
5.21 -3.64 2.39
5.28 -3.53 2.39
5.35 -3.43 2.39
5.41 -3.32 2.39
5.48 -3.21 2.39
5.54 -3.10 2.39
5.60 -2.98 2.39
5.66 -2.87 2.40
5.71 -2.76 2.40
5.76 -2.64 2.40
5.81 -2.52 2.40
5.86 -2.41 2.40
5.90 -2.29 2.40
5.95 -2.17 2.40
5.99 -2.05 2.40
6.02 -1.92 2.40
6.06 -1.80 2.40
6.09 -1.68 2.40
6.12 -1.56 2.40
6.14 -1.43 2.40
6.17 -1.31 2.40
6.19 -1.18 2.40
6.21 -1.06 2.40
6.23 -0.93 2.40
6.24 -0.81 2.40
6.25 -0.68 2.40
6.26 -0.56 2.40
6.27 -0.43 2.40
6.27 -0.31 2.40
6.27 -0.18 2.40
6.27 -0.05 2.40
6.27 0.07 2.40
6.26 0.20 2.40
6.25 0.32 2.40
6.24 0.45 2.40
6.23 0.57 2.40
6.21 0.70 2.40
6.19 0.82 2.40
6.17 0.95 2.40
6.15 1.07 2.40
6.12 1.19 2.40
6.09 1.31 2.40
6.06 1.43 2.40
6.03 1.56 2.40
5.99 1.68 2.40
5.96 1.79 2.40
5.92 1.91 2.40
5.87 2.03 2.40
5.83 2.15 2.40
5.78 2.26 2.40
5.72 2.37 2.39
5.67 2.49 2.39
5.62 2.60 2.39
5.56 2.71 2.39
5.50 2.82 2.39
5.44 2.93 2.39
5.38 3.03 2.39
5.31 3.14 2.39
5.25 3.25 2.39
5.18 3.35 2.39
5.11 3.45 2.39
5.04 3.55 2.39
4.96 3.65 2.39
4.88 3.75 2.39
4.81 3.84 2.39
4.72 3.94 2.39
4.64 4.03 2.39
4.56 4.12 2.39
4.47 4.21 2.39
4.39 4.30 2.39
4.30 4.38 2.39
4.21 4.47 2.39
4.11 4.55 2.39
4.02 4.63 2.39
3.92 4.70 2.39
3.83 4.78 2.39
3.73 4.86 2.39
3.63 4.93 2.39
3.53 5.00 2.39
3.42 5.07 2.39
3.32 5.13 2.39
3.22 5.20 2.39
3.11 5.26 2.39
3.00 5.32 2.39
2.89 5.38 2.39
2.78 5.43 2.39
2.67 5.48 2.39
2.56 5.54 2.39
2.45 5.58 2.39
2.34 5.63 2.39
2.22 5.68 2.39
2.11 5.72 2.39
1.99 5.76 2.39
1.87 5.79 2.39
1.78 5.92 2.43
1.71 6.12 2.50
1.58 6.15 2.50
1.46 6.18 2.50
1.33 6.20 2.50
1.21 6.23 2.50
1.08 6.25 2.50
0.96 6.27 2.50
0.83 6.29 2.50
0.70 6.30 2.50
0.58 6.31 2.50
0.45 6.32 2.50
0.32 6.33 2.50
0.19 6.34 2.50
0.07 6.34 2.50
-0.06 6.34 2.50
-0.19 6.33 2.50
-0.32 6.33 2.50
-0.44 6.32 2.50
-0.57 6.31 2.50
-0.70 6.30 2.50
-0.82 6.28 2.50
-0.95 6.27 2.50
-1.08 6.24 2.50
-1.20 6.22 2.50
-1.33 6.20 2.50
-1.45 6.17 2.50
-1.58 6.14 2.50
-1.70 6.11 2.50
-1.82 6.07 2.50
-1.95 6.03 2.50
-2.07 5.99 2.50
-2.19 5.95 2.50
-2.31 5.91 2.50
-2.43 5.86 2.50
-2.54 5.81 2.50
-2.66 5.76 2.50
-2.78 5.71 2.50
-2.89 5.65 2.50
-3.01 5.59 2.50
-3.12 5.53 2.50
-3.23 5.47 2.50
-3.34 5.40 2.50
-3.45 5.34 2.50
-3.56 5.27 2.50
-3.66 5.20 2.50
-3.77 5.12 2.50
-3.87 5.05 2.50
-3.97 4.97 2.50
-4.07 4.89 2.50
-4.17 4.81 2.50
-4.27 4.73 2.50
-4.37 4.64 2.50
-4.46 4.55 2.50
-4.55 4.46 2.50
-4.64 4.37 2.50
-4.73 4.28 2.50
-4.82 4.18 2.50
-4.90 4.09 2.50
-4.99 3.99 2.50
-5.07 3.89 2.50
-5.15 3.79 2.50
-5.22 3.69 2.50
-5.30 3.58 2.50
-5.37 3.48 2.50
-5.44 3.37 2.50
-5.51 3.26 2.50
-5.58 3.15 2.50
-5.64 3.04 2.50
-5.71 2.93 2.50
-5.77 2.81 2.50
-5.82 2.70 2.50
-5.88 2.58 2.50
-5.93 2.46 2.50
-5.99 2.34 2.50
-6.03 2.22 2.50
-6.08 2.10 2.50
-6.12 1.98 2.50
-6.17 1.86 2.50
-6.21 1.74 2.50
-6.24 1.61 2.50
-6.28 1.49 2.50
-6.31 1.36 2.50
-6.34 1.23 2.50
-6.35 1.10 2.49
-6.35 0.97 2.48
-6.35 0.84 2.47
-6.36 0.71 2.47
-6.36 0.59 2.46
-6.36 0.46 2.46
-6.36 0.33 2.45
-6.37 0.20 2.45
-6.37 0.07 2.45
-6.37 -0.05 2.45
-6.37 -0.18 2.45
-6.37 -0.31 2.45
-6.38 -0.44 2.45
-6.38 -0.57 2.46
-6.37 -0.70 2.46
-6.37 -0.83 2.46
-6.38 -0.96 2.47
-6.38 -1.09 2.48
-6.38 -1.22 2.48
-6.38 -1.36 2.49
-6.36 -1.48 2.50
-6.33 -1.61 2.50
-6.30 -1.74 2.50
-6.27 -1.87 2.50
-6.23 -1.99 2.50
-6.20 -2.12 2.50
-6.16 -2.24 2.50
-6.11 -2.37 2.50
-6.07 -2.49 2.50
-6.02 -2.62 2.50
-5.97 -2.74 2.50
-5.92 -2.86 2.50
-5.86 -2.98 2.50
-5.80 -3.10 2.50
-5.74 -3.21 2.50
-5.68 -3.33 2.50
-5.61 -3.44 2.50
-5.55 -3.56 2.50
-5.48 -3.67 2.50
-5.41 -3.78 2.50
-5.33 -3.89 2.50
-5.25 -4.00 2.50
-5.18 -4.10 2.50
-5.10 -4.21 2.50
-5.01 -4.31 2.50
-4.93 -4.41 2.50
-4.84 -4.51 2.50
-4.75 -4.61 2.50
-4.66 -4.71 2.50
-4.57 -4.80 2.50
-4.47 -4.90 2.50
-4.37 -4.99 2.50
-4.27 -5.07 2.50
-4.17 -5.16 2.50
-4.07 -5.25 2.50
-3.97 -5.33 2.50
-3.86 -5.41 2.50
-3.75 -5.49 2.50
-3.64 -5.56 2.50
-3.53 -5.64 2.50
-3.42 -5.71 2.50
-3.31 -5.78 2.50
-3.19 -5.84 2.50
-3.08 -5.91 2.50
-2.96 -5.97 2.50
-2.84 -6.03 2.50
-2.72 -6.09 2.50
-2.60 -6.14 2.50
-2.47 -6.20 2.50
-2.35 -6.25 2.50
-2.22 -6.29 2.50
-2.10 -6.34 2.50
-1.97 -6.38 2.50
-1.84 -6.42 2.50
-1.72 -6.46 2.50
-1.59 -6.49 2.50
-1.46 -6.52 2.50
-1.33 -6.55 2.50
-1.19 -6.58 2.50
-1.06 -6.60 2.50
-0.93 -6.62 2.50
-0.80 -6.64 2.50
-0.67 -6.66 2.50
-0.53 -6.67 2.50
-0.40 -6.68 2.50
-0.26 -6.69 2.50
-0.13 -6.69 2.50
0.00 -6.26 2.50
0.13 -6.26 2.50
0.25 -6.25 2.50
0.38 -6.25 2.50
0.50 -6.24 2.50
0.63 -6.23 2.50
0.75 -6.21 2.50
0.88 -6.20 2.50
1.00 -6.18 2.50
1.12 -6.16 2.50
1.25 -6.13 2.50
1.37 -6.11 2.50
1.49 -6.08 2.50
1.59 -5.95 2.46
1.66 -5.76 2.39
1.78 -5.73 2.39
1.89 -5.69 2.39
2.00 -5.65 2.39
2.11 -5.61 2.39
2.23 -5.57 2.39
2.34 -5.52 2.39
2.45 -5.47 2.39
2.55 -5.42 2.39
2.66 -5.37 2.39
2.77 -5.31 2.39
2.87 -5.25 2.39
2.98 -5.20 2.39
3.08 -5.13 2.39
3.18 -5.07 2.39
3.28 -5.00 2.39
3.38 -4.94 2.39
3.48 -4.87 2.39
3.57 -4.79 2.39
3.67 -4.72 2.39
3.76 -4.64 2.39
3.85 -4.57 2.39
3.94 -4.49 2.39
4.03 -4.41 2.39
4.11 -4.32 2.39
4.20 -4.24 2.39
4.28 -4.15 2.39
4.36 -4.07 2.39
4.44 -3.98 2.39
4.52 -3.88 2.39
4.59 -3.79 2.39
4.67 -3.70 2.39
4.74 -3.60 2.39
4.81 -3.51 2.39
4.87 -3.41 2.39
4.94 -3.31 2.39
5.00 -3.21 2.39
5.06 -3.10 2.39
5.12 -3.00 2.39
5.18 -2.90 2.39
5.23 -2.79 2.39
5.29 -2.68 2.39
5.34 -2.58 2.39
5.39 -2.47 2.39
5.43 -2.36 2.39
5.48 -2.25 2.39
5.52 -2.14 2.39
5.56 -2.03 2.39
5.59 -1.91 2.39
5.63 -1.80 2.39
5.66 -1.69 2.39
5.70 -1.57 2.40
