ply
format ascii 1.0
element vertex 2748
property float32 x
property float32 y
property float32 z
end_header
21.40 -14.88 -1.21
21.34 -14.21 -1.19
21.37 -13.62 -1.18
21.41 -13.05 -1.17
21.44 -12.48 -1.16
21.47 -11.93 -1.16
21.50 -11.39 -1.15
21.53 -10.85 -1.14
21.56 -10.33 -1.13
21.58 -9.82 -1.13
22.55 -9.71 -1.17
24.06 -9.80 -1.24
25.76 -9.89 -1.32
26.82 -9.69 -1.37
22.51 -7.62 -1.15
22.83 -7.22 -1.16
22.86 -6.73 -1.15
22.91 -6.25 -1.15
23.03 -5.78 -1.16
23.05 -5.30 -1.15
22.96 -4.80 -1.15
22.99 -4.32 -1.14
23.02 -3.85 -1.14
23.14 -3.40 -1.15
23.18 -2.93 -1.15
23.21 -2.46 -1.15
23.12 -1.98 -1.14
23.14 -1.52 -1.15
23.17 -1.05 -1.15
23.31 -0.59 -1.16
23.34 -0.12 -1.16
23.35 0.35 -1.16
23.27 0.82 -1.16
23.30 1.29 -1.16
23.03 1.73 -1.15
39.62 3.79 -1.98
34.91 4.04 -1.75
34.12 4.65 -1.72
34.16 5.36 -1.72
34.20 6.07 -1.73
34.24 6.79 -1.74
18.22 3.99 -0.93
16.91 4.07 -0.87
15.77 4.13 -0.81
14.77 4.18 -0.77
13.87 4.23 -0.72
13.07 4.28 -0.69
12.34 4.31 -0.65
12.25 4.56 -0.65
12.26 4.85 -0.66
12.10 5.07 -0.65
12.11 5.36 -0.66
12.05 5.62 -0.66
12.06 5.93 -0.67
12.08 6.24 -0.68
12.21 6.62 -0.69
12.38 7.04 -0.71
12.40 7.39 -0.71
12.42 7.74 -0.72
12.15 7.91 -0.72
11.67 7.94 -0.70
11.28 8.01 -0.68
10.97 8.12 -0.67
10.83 8.37 -0.67
10.76 8.66 -0.68
10.81 9.06 -0.69
10.85 9.47 -0.70
10.90 9.91 -0.72
12.49 11.82 -0.84
12.69 12.50 -0.86
12.59 12.92 -0.87
12.75 13.61 -0.90
12.55 13.95 -0.90
12.12 14.04 -0.89
11.85 14.29 -0.89
11.56 14.52 -0.89
11.27 14.76 -0.89
11.08 15.14 -0.89
11.14 15.88 -0.92
12.73 18.93 -1.08
12.82 19.92 -1.12
12.85 20.88 -1.15
12.82 21.80 -1.18
12.33 21.96 -1.18
11.92 22.27 -1.18
11.62 22.79 -1.19
14.50 29.91 -1.54
19.74 42.90 -2.17
19.00 43.58 -2.18
18.36 44.53 -2.20
-5.49 14.97 -0.61
13.03 -45.16 -0.81
13.70 -44.13 -0.80
2.17 -6.54 -0.12
14.35 -40.44 -0.77
14.94 -39.55 -0.76
15.50 -38.68 -0.76
16.05 -37.83 -0.76
16.59 -37.01 -0.76
17.11 -36.21 -0.76
17.62 -35.43 -0.76
18.12 -34.67 -0.75
18.92 -34.50 -0.77
20.38 -35.45 -0.81
21.96 -36.48 -0.85
23.67 -37.60 -0.89
25.54 -38.82 -0.94
22.41 -21.64 -0.70
22.45 -20.83 -0.69
22.37 -19.93 -0.68
22.41 -19.18 -0.68
22.45 -18.45 -0.67
22.49 -17.73 -0.67
22.53 -17.04 -0.66
22.57 -16.37 -0.66
22.60 -15.71 -0.65
22.64 -15.07 -0.65
22.67 -14.45 -0.65
22.71 -13.83 -0.64
23.13 -13.46 -0.65
23.77 -13.20 -0.67
23.87 -12.64 -0.67
23.96 -12.08 -0.67
24.06 -11.53 -0.67
24.10 -10.96 -0.66
24.11 -10.38 -0.66
24.11 -9.82 -0.66
23.69 -9.09 -0.65
23.52 -8.49 -0.64
22.51 -7.62 -0.61
22.83 -7.22 -0.62
22.86 -6.73 -0.62
22.88 -6.24 -0.62
22.91 -5.75 -0.62
22.94 -5.27 -0.62
22.96 -4.80 -0.62
22.99 -4.32 -0.62
23.01 -3.85 -0.62
23.04 -3.38 -0.62
23.06 -2.91 -0.62
23.09 -2.44 -0.62
23.11 -1.98 -0.62
23.14 -1.51 -0.62
23.16 -1.05 -0.62
23.18 -0.58 -0.63
23.21 -0.12 -0.63
23.23 0.35 -0.63
23.25 0.82 -0.63
23.30 1.29 -0.63
23.03 1.74 -0.63
23.18 2.22 -0.63
22.89 2.65 -0.63
22.60 3.08 -0.62
22.32 3.50 -0.62
22.04 3.91 -0.61
21.64 4.29 -0.60
18.22 3.99 -0.51
16.91 4.07 -0.48
15.77 4.13 -0.45
14.77 4.18 -0.42
13.87 4.23 -0.40
13.07 4.28 -0.38
12.34 4.31 -0.36
12.25 4.56 -0.36
12.26 4.85 -0.36
12.10 5.07 -0.36
12.11 5.36 -0.36
12.05 5.62 -0.36
12.06 5.93 -0.37
12.08 6.24 -0.37
12.21 6.62 -0.38
12.38 7.04 -0.38
12.40 7.39 -0.39
12.09 7.53 -0.38
11.60 7.55 -0.37
11.24 7.64 -0.36
10.94 7.76 -0.36
10.64 7.88 -0.35
10.50 8.10 -0.35
10.40 8.37 -0.35
10.31 8.65 -0.35
10.33 9.02 -0.36
10.36 9.41 -0.37
10.38 9.82 -0.37
10.58 10.43 -0.39
12.72 13.04 -0.47
12.75 13.61 -0.48
12.55 13.95 -0.48
12.12 14.03 -0.47
11.85 14.29 -0.47
11.56 14.52 -0.47
11.28 14.76 -0.47
11.08 15.13 -0.47
11.15 15.88 -0.48
12.77 18.98 -0.57
12.88 20.01 -0.58
12.83 20.84 -0.60
12.82 21.80 -0.61
12.37 22.03 -0.61
11.97 22.35 -0.61
11.62 22.78 -0.61
14.45 29.81 -0.78
20.13 43.72 -1.13
19.22 44.06 -1.12
18.62 45.12 -1.13
11.53 45.02 -1.02
10.26 43.67 -0.98
-5.49 14.98 -0.25
-15.79 22.48 -0.36
-15.76 21.51 -0.35
-15.79 20.67 -0.33
-15.82 19.87 -0.32
-15.85 19.10 -0.31
-15.87 18.36 -0.30
-15.88 17.64 -0.29
-15.89 16.96 -0.28
-15.90 16.30 -0.27
-15.89 15.64 -0.26
-15.87 15.02 -0.25
-15.96 14.51 -0.24
-15.99 13.95 -0.23
-16.01 13.41 -0.23
-16.03 12.89 -0.22
-16.03 12.37 -0.21
-16.03 11.87 -0.21
-16.03 11.38 -0.20
-16.03 10.90 -0.19
-15.96 10.39 -0.19
-15.91 9.91 -0.18
-15.91 9.47 -0.18
-15.91 9.04 -0.17
-15.84 8.59 -0.17
-15.40 7.95 -0.16
-14.99 7.36 -0.15
-14.63 6.83 -0.14
-14.58 6.45 -0.14
-14.57 6.10 -0.13
-14.56 5.75 -0.13
-14.55 5.41 -0.13
-14.54 5.08 -0.13
-14.53 4.75 -0.12
-14.54 4.43 -0.12
-14.56 4.12 -0.12
-14.58 3.82 -0.12
-14.61 3.51 -0.11
-14.63 3.21 -0.11
-14.65 2.90 -0.11
-14.68 2.60 -0.11
-14.69 2.30 -0.11
-14.71 2.00 -0.11
-14.72 1.71 -0.11
-14.73 1.41 -0.10
-14.75 1.11 -0.10
-14.76 0.82 -0.10
-14.78 0.52 -0.10
-14.81 0.22 -0.10
-14.83 -0.07 -0.10
-14.85 -0.37 -0.10
-14.87 -0.67 -0.10
-14.89 -0.97 -0.10
-14.91 -1.28 -0.10
-14.93 -1.58 -0.10
-14.94 -1.88 -0.10
-14.97 -2.19 -0.10
-14.99 -2.51 -0.10
-15.01 -2.82 -0.10
-15.04 -3.14 -0.10
-15.06 -3.46 -0.10
-15.09 -3.79 -0.10
-15.11 -4.12 -0.10
-15.12 -4.45 -0.10
-15.14 -4.78 -0.10
-15.16 -5.13 -0.10
-15.17 -5.47 -0.10
-15.21 -5.83 -0.11
-15.27 -6.21 -0.11
-15.33 -6.60 -0.11
-15.39 -6.99 -0.11
-15.70 -7.52 -0.12
-16.41 -8.27 -0.12
-16.64 -8.81 -0.13
-16.68 -9.26 -0.13
-16.81 -9.78 -0.13
-17.04 -10.38 -0.14
-17.08 -10.87 -0.14
-17.11 -11.39 -0.14
-17.18 -11.94 -0.15
-17.23 -12.49 -0.15
-17.28 -13.06 -0.16
-17.32 -13.65 -0.16
-17.32 -14.22 -0.17
-17.37 -14.85 -0.17
-17.42 -15.51 -0.18
-17.46 -16.19 -0.18
-17.51 -16.91 -0.19
-17.58 -17.66 -0.20
-17.74 -18.56 -0.21
-17.85 -19.44 -0.21
-17.90 -20.30 -0.22
-17.96 -21.20 -0.23
-17.91 -22.03 -0.24
-17.93 -22.98 -0.25
-17.88 -23.89 -0.26
-17.53 -24.43 -0.27
-17.17 -24.97 -0.27
-17.01 -25.84 -0.28
-16.74 -26.57 -0.29
-16.52 -27.42 -0.30
-16.50 -28.68 -0.32
-16.56 -30.17 -0.33
13.04 -45.15 0.25
2.18 -6.54 0.03
14.98 -42.17 0.21
15.90 -42.07 0.20
17.72 -44.18 0.20
16.11 -37.95 0.17
17.39 -38.79 0.16
20.22 -40.63 0.16
18.13 -34.66 0.13
18.94 -34.51 0.12
22.34 -37.10 0.11
25.58 -38.86 0.10
30.60 -34.70 0.04
31.18 -33.96 0.03
31.77 -33.23 0.02
22.37 -19.93 -0.01
22.41 -19.17 -0.01
22.45 -18.44 -0.02
22.49 -17.73 -0.02
22.53 -17.03 -0.03
22.57 -16.36 -0.03
22.60 -15.71 -0.03
22.64 -15.07 -0.04
22.67 -14.44 -0.04
22.71 -13.83 -0.04
23.14 -13.46 -0.05
21.33 -11.84 -0.05
21.31 -11.28 -0.05
21.29 -10.73 -0.05
21.27 -10.19 -0.06
21.26 -9.66 -0.06
21.65 -9.32 -0.06
22.82 -9.28 -0.07
23.69 -9.09 -0.07
23.52 -8.49 -0.08
22.51 -7.62 -0.07
22.54 -7.12 -0.08
22.57 -6.64 -0.08
22.59 -6.16 -0.08
22.62 -5.68 -0.08
22.65 -5.20 -0.09
22.67 -4.73 -0.09
22.70 -4.26 -0.09
22.72 -3.80 -0.09
22.75 -3.33 -0.09
22.78 -2.87 -0.09
22.80 -2.41 -0.10
22.83 -1.95 -0.10
22.85 -1.49 -0.10
22.88 -1.03 -0.10
22.90 -0.58 -0.10
22.93 -0.12 -0.10
22.95 0.35 -0.10
22.98 0.81 -0.11
23.00 1.27 -0.11
23.03 1.74 -0.11
23.18 2.22 -0.11
22.89 2.65 -0.11
22.60 3.08 -0.11
22.32 3.50 -0.11
22.04 3.91 -0.11
21.64 4.29 -0.11
18.22 3.99 -0.09
16.91 4.07 -0.08
15.78 4.13 -0.08
14.77 4.18 -0.07
13.88 4.23 -0.07
13.07 4.28 -0.07
12.34 4.31 -0.06
12.25 4.56 -0.06
12.26 4.85 -0.06
12.28 5.14 -0.06
12.30 5.44 -0.06
12.21 5.70 -0.06
12.31 6.05 -0.06
12.35 6.38 -0.06
12.37 6.70 -0.06
12.38 7.04 -0.06
12.40 7.38 -0.06
12.16 7.57 -0.06
11.67 7.60 -0.06
11.29 7.67 -0.06
10.98 7.79 -0.06
10.68 7.91 -0.05
10.53 8.13 -0.05
10.44 8.40 -0.05
10.43 8.74 -0.05
10.51 9.17 -0.05
10.60 9.63 -0.05
10.70 10.12 -0.05
10.81 10.65 -0.05
12.71 13.04 -0.06
12.75 13.61 -0.06
12.55 13.95 -0.06
12.13 14.03 -0.06
11.85 14.28 -0.05
11.56 14.52 -0.05
11.28 14.76 -0.05
11.08 15.13 -0.05
11.15 15.88 -0.05
12.77 18.98 -0.05
12.88 20.00 -0.05
12.83 20.83 -0.05
12.83 21.79 -0.04
12.38 22.03 -0.04
11.98 22.35 -0.04
11.62 22.78 -0.03
14.45 29.79 -0.04
19.94 43.29 -0.05
19.08 43.70 -0.04
12.82 39.85 0.00
11.55 45.04 0.03
10.27 43.68 0.03
-5.49 14.98 0.11
-13.09 24.44 0.23
-13.12 23.36 0.22
-13.20 22.44 0.22
-13.35 21.68 0.22
-13.50 20.97 0.22
-13.64 20.28 0.22
-13.76 19.59 0.22
-13.87 18.94 0.22
-13.96 18.27 0.22
-14.01 17.59 0.22
-14.05 16.94 0.22
-14.10 16.32 0.22
-14.15 15.72 0.22
-14.20 15.16 0.22
-14.28 14.64 0.22
-14.43 14.22 0.22
-14.59 13.80 0.23
-14.74 13.40 0.23
-14.82 12.94 0.23
-14.85 12.45 0.23
-14.86 11.96 0.23
-14.87 11.48 0.23
-14.89 11.02 0.23
-14.88 10.57 0.23
-14.80 10.07 0.22
-14.72 9.59 0.22
-14.65 9.12 0.22
-14.57 8.68 0.22
-14.48 8.24 0.22
-14.41 7.81 0.22
-14.33 7.40 0.22
-14.26 7.01 0.22
-14.19 6.62 0.21
-14.16 6.27 0.21
-14.14 5.92 0.21
-14.14 5.59 0.21
-14.13 5.26 0.21
-14.13 4.94 0.21
-14.12 4.62 0.22
-14.14 4.31 0.22
-14.16 4.01 0.22
-14.18 3.71 0.22
-14.21 3.42 0.22
-14.23 3.12 0.22
-14.26 2.83 0.22
-14.28 2.54 0.22
-14.30 2.24 0.22
-14.32 1.95 0.22
-14.33 1.66 0.22
-14.34 1.37 0.22
-14.36 1.08 0.22
-14.37 0.79 0.22
-14.38 0.51 0.23
-14.42 0.22 0.23
-14.45 -0.07 0.23
-14.47 -0.36 0.23
-14.49 -0.65 0.23
-14.51 -0.95 0.23
-14.53 -1.24 0.23
-14.55 -1.54 0.23
-14.56 -1.84 0.24
-14.56 -2.13 0.24
-14.58 -2.44 0.24
-14.60 -2.74 0.24
-14.62 -3.05 0.24
-14.64 -3.36 0.24
-14.66 -3.68 0.24
-14.70 -4.00 0.25
-14.72 -4.33 0.25
-14.73 -4.66 0.25
-14.74 -4.99 0.25
-14.76 -5.32 0.25
-14.77 -5.67 0.25
-14.81 -6.02 0.26
-14.85 -6.39 0.26
-14.91 -6.77 0.26
-14.96 -7.17 0.26
-15.02 -7.57 0.27
-15.12 -8.00 0.27
-15.21 -8.44 0.27
-15.29 -8.90 0.28
-15.38 -9.37 0.28
-15.46 -9.85 0.29
-15.56 -10.36 0.29
-15.80 -10.98 0.30
-15.98 -11.59 0.30
-16.04 -12.13 0.31
-16.10 -12.69 0.31
-16.17 -13.28 0.32
-16.18 -13.84 0.32
-16.16 -14.39 0.32
-16.13 -14.96 0.33
-16.11 -15.56 0.33
-16.12 -16.21 0.33
-16.13 -16.88 0.34
-16.14 -17.58 0.34
-16.31 -18.49 0.35
-16.51 -19.50 0.36
-16.51 -20.32 0.37
-16.48 -21.13 0.37
-16.42 -21.95 0.38
-16.24 -22.64 0.38
-16.14 -23.48 0.39
-15.95 -24.24 0.39
-15.75 -25.01 0.39
-15.54 -25.81 0.39
-15.29 -26.59 0.40
-15.03 -27.40 0.40
-14.83 -28.36 0.40
-14.53 -29.21 0.41
-14.36 -30.38 0.41
-14.42 -32.17 0.43
-14.31 -33.72 0.44
-14.26 -35.55 0.45
-14.36 -38.02 0.47
-14.65 -41.25 0.50
-15.40 -46.29 0.55
12.32 -46.07 1.34
12.91 -44.68 1.29
13.57 -43.66 1.26
2.18 -6.54 0.19
14.20 -39.95 1.15
14.78 -39.06 1.13
15.33 -38.21 1.10
15.88 -37.37 1.08
16.41 -36.56 1.06
16.92 -35.77 1.04
17.43 -35.00 1.02
17.92 -34.25 1.00
18.63 -33.93 0.99
20.07 -34.87 1.02
21.62 -35.89 1.05
23.31 -36.99 1.09
25.16 -38.20 1.13
30.67 -34.76 1.08
31.32 -34.09 1.07
31.83 -33.29 1.06
34.83 -34.99 1.13
22.37 -19.92 0.67
22.41 -19.16 0.65
22.45 -18.43 0.64
22.46 -17.69 0.62
22.50 -17.01 0.61
22.57 -16.36 0.60
22.59 -15.69 0.59
22.62 -15.05 0.57
22.67 -14.43 0.56
22.71 -13.82 0.55
23.15 -13.46 0.55
21.33 -11.84 0.50
21.31 -11.27 0.49
21.29 -10.72 0.48
21.27 -10.18 0.47
21.26 -9.66 0.47
20.35 -8.76 0.44
22.83 -9.28 0.49
23.69 -9.08 0.50
23.52 -8.48 0.49
22.80 -7.71 0.47
22.83 -7.21 0.46
22.86 -6.72 0.46
22.88 -6.23 0.45
22.91 -5.75 0.45
22.94 -5.27 0.44
22.96 -4.79 0.44
22.99 -4.32 0.44
23.02 -3.84 0.43
23.04 -3.38 0.43
23.07 -2.91 0.43
23.09 -2.44 0.43
23.12 -1.98 0.42
23.14 -1.51 0.42
23.17 -1.05 0.42
23.20 -0.58 0.42
23.22 -0.12 0.42
23.25 0.35 0.42
23.27 0.82 0.42
23.30 1.29 0.42
23.32 1.76 0.42
23.18 2.22 0.41
22.89 2.65 0.41
22.60 3.08 0.40
22.32 3.50 0.40
22.04 3.91 0.40
21.64 4.29 0.39
18.22 3.99 0.33
16.91 4.07 0.31
15.78 4.13 0.29
14.77 4.18 0.27
13.88 4.23 0.26
13.07 4.28 0.24
12.35 4.31 0.23
12.25 4.56 0.23
12.26 4.85 0.23
12.28 5.14 0.24
12.30 5.44 0.24
12.31 5.75 0.24
12.33 6.06 0.25
12.35 6.38 0.25
12.37 6.70 0.25
12.38 7.04 0.26
12.40 7.38 0.26
12.42 7.74 0.27
12.44 8.10 0.27
12.42 8.44 0.27
12.38 8.78 0.28
11.04 8.17 0.25
12.42 9.59 0.29
12.49 10.04 0.30
12.58 10.54 0.31
12.60 11.00 0.31
12.63 11.48 0.32
12.66 11.97 0.33
12.68 12.49 0.34
12.71 13.03 0.35
12.75 13.60 0.36
12.56 13.95 0.36
12.13 14.03 0.36
11.75 14.16 0.36
11.47 14.40 0.36
11.28 14.76 0.37
11.08 15.12 0.38
11.10 15.80 0.39
11.87 17.63 0.43
12.35 19.17 0.47
11.84 19.22 0.47
12.30 20.90 0.50
12.31 21.91 0.53
11.91 22.21 0.53
11.62 22.77 0.54
14.45 29.78 0.71
12.82 39.84 0.94
-12.16 23.86 0.82
-12.20 22.79 0.79
-12.35 22.01 0.78
-12.51 21.27 0.77
-12.67 20.59 0.76
-12.83 19.94 0.75
-12.97 19.30 0.74
-13.11 18.67 0.73
-13.32 18.19 0.72
-13.42 17.57 0.71
-13.48 16.93 0.70
-13.55 16.34 0.69
-13.61 15.76 0.68
-13.67 15.20 0.67
-13.72 14.65 0.67
-13.76 14.12 0.66
-13.85 13.65 0.65
-13.94 13.20 0.65
-14.02 12.75 0.64
-14.10 12.31 0.64
-14.13 11.85 0.63
-14.15 11.39 0.63
-14.18 10.95 0.62
-14.21 10.52 0.61
-14.21 10.09 0.61
-14.21 9.67 0.60
-14.20 9.25 0.60
-14.20 8.85 0.59
-14.15 8.43 0.59
-14.03 7.98 0.58
-13.96 7.58 0.57
-13.90 7.18 0.56
-13.83 6.80 0.56
-13.78 6.44 0.55
-13.77 6.10 0.55
-13.75 5.76 0.54
-13.74 5.43 0.54
-13.74 5.12 0.54
-13.74 4.81 0.54
-13.74 4.50 0.53
-13.76 4.20 0.53
-13.78 3.91 0.53
-13.81 3.62 0.53
-13.83 3.33 0.53
-13.86 3.04 0.53
-13.88 2.75 0.53
-13.90 2.47 0.53
-13.92 2.19 0.53
-13.94 1.90 0.53
-13.96 1.62 0.53
-13.97 1.34 0.53
-13.99 1.06 0.53
-14.00 0.78 0.54
-14.01 0.49 0.54
-14.04 0.21 0.54
-14.08 -0.07 0.54
-14.11 -0.35 0.54
-14.14 -0.64 0.54
-14.15 -0.92 0.55
-14.17 -1.21 0.55
-14.19 -1.50 0.55
-14.20 -1.79 0.55
-14.20 -2.08 0.55
-14.19 -2.37 0.56
-14.20 -2.67 0.56
-14.22 -2.97 0.56
-14.24 -3.27 0.56
-14.25 -3.58 0.57
-14.28 -3.89 0.57
-14.31 -4.21 0.58
-14.34 -4.53 0.58
-14.35 -4.86 0.59
-14.36 -5.18 0.59
-14.38 -5.52 0.59
-14.40 -5.86 0.60
-14.42 -6.21 0.61
-14.45 -6.57 0.61
-14.50 -6.95 0.62
-14.55 -7.33 0.63
-14.61 -7.73 0.63
-14.72 -8.17 0.64
-14.81 -8.62 0.66
-14.89 -9.07 0.67
-14.97 -9.53 0.68
-15.01 -9.99 0.69
-15.07 -10.47 0.70
-15.16 -10.99 0.71
-15.26 -11.54 0.72
-15.29 -12.05 0.73
-15.32 -12.58 0.75
-15.36 -13.14 0.76
-15.39 -13.72 0.77
-15.42 -14.31 0.79
-15.42 -14.89 0.80
-15.41 -15.49 0.81
-15.46 -16.18 0.83
-15.48 -16.86 0.85
-15.49 -17.57 0.86
-15.50 -18.31 0.88
-15.59 -19.19 0.90
-15.65 -20.07 0.93
-15.63 -20.90 0.95
-15.61 -21.77 0.97
-15.53 -22.60 0.99
-15.41 -23.42 1.01
-15.23 -24.19 1.02
-14.96 -24.86 1.03
-14.69 -25.56 1.05
-14.43 -26.31 1.06
-14.19 -27.16 1.08
-13.94 -28.03 1.10
-13.77 -29.15 1.12
-13.56 -30.27 1.15
-13.51 -31.85 1.19
-13.37 -33.36 1.23
-13.27 -35.15 1.28
-13.27 -37.41 1.35
-13.39 -40.28 1.44
-13.96 -45.00 1.59
-3.24 -32.27 1.03
-2.61 -32.50 1.03
-1.96 -32.72 1.03
0.02 -44.83 2.39
0.93 -44.99 2.39
1.84 -45.14 2.39
2.75 -45.27 2.39
3.68 -45.39 2.39
4.61 -45.54 2.39
5.55 -45.62 2.39
6.49 -45.69 2.39
7.43 -45.73 2.39
8.38 -45.76 2.39
9.34 -45.77 2.39
10.30 -45.76 2.39
11.26 -45.74 2.39
12.23 -45.69 2.39
12.92 -44.66 2.34
13.58 -43.65 2.29
2.18 -6.54 0.34
14.21 -39.93 2.11
14.78 -39.05 2.07
15.34 -38.20 2.03
15.88 -37.36 2.00
16.41 -36.55 1.96
16.93 -35.76 1.93
17.43 -34.99 1.90
17.93 -34.24 1.87
18.65 -33.94 1.86
20.08 -34.88 1.93
21.64 -35.90 2.00
23.33 -37.00 2.08
25.18 -38.21 2.16
30.60 -34.67 2.12
31.30 -34.07 2.12
31.75 -33.19 2.09
34.85 -34.99 2.24
22.37 -19.91 1.34
22.41 -19.16 1.32
22.28 -18.28 1.28
22.46 -17.69 1.27
22.50 -17.00 1.25
22.57 -16.35 1.23
22.59 -15.68 1.21
22.62 -15.04 1.19
22.67 -14.43 1.17
22.71 -13.82 1.15
23.16 -13.47 1.16
20.99 -11.65 1.03
20.98 -11.09 1.02
21.00 -10.57 1.01
21.27 -10.18 1.01
21.26 -9.65 0.99
20.35 -8.75 0.94
22.83 -9.28 1.04
23.69 -9.08 1.07
23.52 -8.48 1.05
22.80 -7.71 1.01
22.83 -7.21 1.00
22.86 -6.72 0.99
22.88 -6.23 0.99
22.91 -5.75 0.98
22.94 -5.26 0.97
22.96 -4.79 0.97
22.99 -4.31 0.96
23.02 -3.84 0.96
23.04 -3.37 0.96
23.07 -2.91 0.95
23.09 -2.44 0.95
23.12 -1.97 0.95
23.14 -1.51 0.94
23.17 -1.04 0.94
23.20 -0.58 0.94
23.20 -0.11 0.94
23.22 0.35 0.94
23.25 0.82 0.94
23.30 1.29 0.94
23.32 1.76 0.94
23.18 2.22 0.94
22.89 2.65 0.93
22.60 3.08 0.92
22.32 3.50 0.91
22.04 3.91 0.90
21.64 4.29 0.89
18.22 3.99 0.75
16.91 4.07 0.70
15.78 4.13 0.66
14.77 4.18 0.62
13.88 4.23 0.58
13.07 4.28 0.55
12.35 4.32 0.53
12.25 4.56 0.53
12.26 4.85 0.53
12.28 5.14 0.54
12.30 5.44 0.54
12.31 5.74 0.55
12.33 6.06 0.56
12.35 6.38 0.56
12.37 6.70 0.57
12.38 7.04 0.58
12.40 7.38 0.59
12.42 7.73 0.60
12.44 8.10 0.61
12.42 8.44 0.61
12.38 8.78 0.62
11.04 8.17 0.56
12.42 9.58 0.64
12.49 10.04 0.66
12.58 10.54 0.68
12.60 11.00 0.69
12.63 11.47 0.71
12.66 11.97 0.72
12.68 12.49 0.74
12.71 13.03 0.76
12.75 13.60 0.78
12.56 13.95 0.79
12.13 14.03 0.78
11.85 14.28 0.78
11.57 14.52 0.79
11.28 14.75 0.79
11.09 15.12 0.80
11.16 15.88 0.83
11.89 17.67 0.91
11.40 17.70 0.91
11.83 19.19 0.97
11.30 19.18 0.96
11.77 20.92 1.04
11.28 21.03 1.04
11.62 22.76 1.12
12.51 25.76 1.26
-3.41 48.84 2.39
-4.37 48.56 2.39
-5.32 48.26 2.39
-6.26 47.94 2.39
-7.19 47.60 2.39
-7.45 43.39 2.20
-7.65 39.76 2.03
-7.82 36.66 1.89
-7.97 33.99 1.76
-8.10 31.67 1.66
-8.20 29.59 1.56
-11.25 24.46 1.42
-11.31 23.35 1.37
-11.37 22.31 1.33
-11.55 21.58 1.30
-11.72 20.88 1.28
-11.89 20.23 1.26
-12.06 19.61 1.24
-12.23 19.02 1.22
-12.41 18.46 1.21
-12.62 18.00 1.20
-12.84 17.54 1.19
-12.92 16.93 1.17
-13.00 16.34 1.15
-13.09 15.79 1.13
-13.16 15.24 1.12
-13.22 14.70 1.10
-13.26 14.17 1.08
-13.31 13.66 1.07
-13.40 13.22 1.06
-13.49 12.78 1.05
-13.59 12.36 1.04
-13.68 11.96 1.03
-13.72 11.51 1.02
-13.75 11.07 1.01
-13.78 10.64 1.00
-13.82 10.24 0.99
-13.85 9.84 0.98
-13.85 9.42 0.97
-13.84 9.02 0.96
-13.84 8.63 0.95
-13.74 8.19 0.93
-13.63 7.76 0.91
-13.55 7.35 0.90
-13.49 6.97 0.89
-13.43 6.61 0.88
-13.41 6.26 0.87
-13.40 5.93 0.86
-13.39 5.61 0.86
-13.37 5.29 0.85
-13.37 4.98 0.85
-13.37 4.68 0.84
-13.38 4.38 0.84
-13.40 4.09 0.84
-13.43 3.81 0.83
-13.45 3.52 0.83
-13.48 3.24 0.83
-13.50 2.96 0.83
-13.52 2.68 0.83
-13.55 2.41 0.83
-13.56 2.13 0.83
-13.58 1.86 0.83
-13.60 1.58 0.83
-13.62 1.31 0.83
-13.63 1.03 0.83
-13.65 0.76 0.83
-13.66 0.48 0.83
-13.69 0.21 0.83
-13.72 -0.07 0.84
-13.75 -0.34 0.84
-13.78 -0.62 0.84
-13.81 -0.90 0.84
-13.83 -1.18 0.85
-13.85 -1.46 0.85
-13.85 -1.75 0.85
-13.85 -2.03 0.86
-13.85 -2.31 0.86
-13.85 -2.60 0.86
-13.84 -2.89 0.87
-13.86 -3.18 0.87
-13.87 -3.48 0.88
-13.89 -3.78 0.88
-13.92 -4.09 0.89
-13.94 -4.41 0.90
-13.97 -4.73 0.90
-13.99 -5.05 0.91
-14.00 -5.37 0.92
-14.01 -5.70 0.92
-14.03 -6.04 0.93
-14.05 -6.39 0.94
-14.08 -6.74 0.95
-14.11 -7.11 0.96
-14.15 -7.49 0.98
-14.22 -7.90 0.99
-14.32 -8.33 1.01
-14.42 -8.79 1.03
-14.49 -9.23 1.04
-14.56 -9.70 1.06
-14.58 -10.14 1.08
-14.60 -10.59 1.09
-14.67 -11.10 1.11
-14.76 -11.64 1.13
-14.76 -12.13 1.15
-14.75 -12.62 1.17
-14.77 -13.16 1.19
-14.80 -13.73 1.21
-14.84 -14.33 1.23
-14.86 -14.94 1.26
-14.84 -15.53 1.28
-14.88 -16.21 1.31
-14.94 -16.96 1.34
-14.94 -17.66 1.37
-14.94 -18.39 1.40
-14.95 -19.17 1.44
-14.99 -20.05 1.47
-14.94 -20.84 1.51
-14.90 -21.69 1.54
-14.81 -22.52 1.58
-14.70 -23.35 1.61
-14.52 -24.14 1.64
-14.24 -24.78 1.66
-13.92 -25.39 1.68
-13.59 -26.01 1.69
-13.42 -26.99 1.74
-13.17 -27.88 1.77
-12.98 -28.97 1.82
-12.79 -30.16 1.87
-12.65 -31.59 1.94
-12.40 -32.86 1.99
-12.10 -34.12 2.05
-11.97 -36.03 2.14
-11.80 -38.05 2.24
-11.65 -40.44 2.36
-11.02 -41.35 2.39
-10.22 -41.70 2.39
-9.41 -42.03 2.39
-8.60 -42.36 2.39
-8.11 -44.51 2.49
-7.24 -44.82 2.49
-6.36 -45.12 2.49
-5.47 -45.40 2.49
-3.18 -31.78 1.74
-2.54 -31.81 1.73
-1.90 -31.85 1.72
-1.37 -34.63 1.86
-0.91 -46.58 2.49
0.02 -32.84 2.49
0.66 -31.56 2.39
1.29 -31.62 2.39
1.93 -31.68 2.39
2.58 -31.72 2.39
3.22 -31.75 2.39
3.87 -31.77 2.39
4.52 -31.81 2.39
5.18 -31.80 2.39
5.83 -31.78 2.39
6.49 -31.75 2.39
7.14 -31.70 2.39
7.80 -31.65 2.39
8.46 -31.57 2.39
9.12 -31.49 2.39
9.77 -31.39 2.39
2.18 -6.55 0.50
11.09 -31.15 2.39
11.75 -31.01 2.39
12.40 -30.86 2.39
13.06 -30.70 2.39
13.71 -30.52 2.39
14.36 -30.32 2.39
15.01 -30.12 2.39
15.66 -29.90 2.39
16.30 -29.66 2.39
16.94 -29.41 2.39
17.58 -29.15 2.39
18.22 -28.88 2.39
18.85 -28.59 2.39
19.47 -28.28 2.39
20.09 -27.97 2.39
20.71 -27.64 2.39
21.32 -27.29 2.39
21.92 -26.93 2.39
22.52 -26.56 2.39
23.11 -26.18 2.39
23.70 -25.78 2.39
24.28 -25.37 2.39
24.85 -24.94 2.39
25.41 -24.50 2.39
25.96 -24.05 2.39
22.37 -19.90 2.02
22.41 -19.15 1.98
22.29 -18.28 1.93
22.46 -17.68 1.91
22.50 -16.99 1.88
22.57 -16.34 1.86
22.59 -15.68 1.83
22.62 -15.04 1.80
22.67 -14.42 1.78
22.71 -13.81 1.75
20.67 -12.01 1.57
20.63 -11.44 1.55
20.61 -10.90 1.53
20.60 -10.36 1.51
20.58 -9.84 1.49
20.74 -9.42 1.48
20.34 -8.75 1.44
22.84 -9.28 1.60
23.68 -9.08 1.64
23.52 -8.48 1.62
22.80 -7.70 1.55
22.83 -7.21 1.54
22.86 -6.71 1.53
22.88 -6.23 1.52
22.91 -5.74 1.51
22.94 -5.26 1.51
22.96 -4.79 1.50
22.99 -4.31 1.49
23.02 -3.84 1.49
23.04 -3.37 1.48
23.07 -2.90 1.48
23.09 -2.44 1.47
23.12 -1.97 1.47
23.14 -1.51 1.47
23.17 -1.04 1.47
23.20 -0.58 1.47
23.20 -0.11 1.46
23.22 0.35 1.47
23.25 0.82 1.47
23.30 1.29 1.47
23.32 1.76 1.47
23.18 2.22 1.47
22.89 2.66 1.45
22.60 3.08 1.43
22.32 3.50 1.42
22.04 3.91 1.41
21.64 4.29 1.39
18.22 3.99 1.17
16.91 4.07 1.09
15.78 4.13 1.02
14.77 4.18 0.96
13.88 4.23 0.91
13.08 4.28 0.86
12.35 4.32 0.82
12.25 4.56 0.82
12.26 4.85 0.83
12.28 5.14 0.84
12.30 5.44 0.85
12.31 5.74 0.86
12.33 6.06 0.87
12.35 6.37 0.88
12.37 6.70 0.89
12.38 7.04 0.90
12.40 7.38 0.91
12.42 7.73 0.93
12.44 8.10 0.94
12.42 8.44 0.95
12.38 8.78 0.96
11.04 8.17 0.87
12.42 9.58 1.00
12.49 10.04 1.02
12.58 10.53 1.05
12.60 10.99 1.07
12.63 11.47 1.09
12.66 11.97 1.12
12.68 12.49 1.14
12.71 13.03 1.17
12.75 13.59 1.20
12.56 13.95 1.21
12.14 14.03 1.20
11.79 14.20 1.20
11.51 14.44 1.20
11.28 14.75 1.21
11.09 15.11 1.22
11.10 15.79 1.26
11.90 17.67 1.39
11.41 17.70 1.38
10.93 17.72 1.37
11.33 19.22 1.47
10.81 19.21 1.46
10.38 19.36 1.45
10.71 20.96 1.56
12.51 25.75 1.90
15.03 32.59 2.39
13.45 30.77 2.24
13.65 33.00 2.39
12.95 33.19 2.39
12.25 33.35 2.39
11.55 33.51 2.39
10.84 33.64 2.39
10.14 33.76 2.39
9.43 33.87 2.39
8.73 33.96 2.39
8.01 34.00 2.39
7.31 34.06 2.39
6.61 34.10 2.39
5.91 34.13 2.39
5.20 34.15 2.39
4.51 34.15 2.39
3.97 35.61 2.49
3.25 35.58 2.49
2.53 35.54 2.49
1.81 35.48 2.49
1.09 35.41 2.49
0.38 35.32 2.49
-0.33 35.22 2.49
-1.03 35.10 2.49
-1.73 34.97 2.49
-2.42 34.83 2.49
-3.11 34.67 2.49
-3.80 34.50 2.49
-4.29 32.90 2.39
-4.94 32.71 2.39
-5.58 32.51 2.39
-6.21 32.30 2.39
-6.84 32.07 2.39
-7.46 31.84 2.39
-8.07 31.59 2.39
-8.21 29.64 2.26
-8.31 27.82 2.14
-8.40 26.19 2.03
-8.48 24.72 1.94
-8.73 23.88 1.89
-9.06 23.33 1.87
-9.39 22.79 1.84
-9.74 22.35 1.83
-10.22 22.24 1.84
-10.62 21.93 1.84
-10.76 21.13 1.79
-10.92 20.43 1.76
-11.03 19.67 1.72
-11.24 19.13 1.69
-11.43 18.60 1.67
-11.62 18.08 1.65
-11.94 17.77 1.65
-12.17 17.36 1.63
-12.38 16.92 1.62
-12.47 16.34 1.59
-12.56 15.80 1.57
-12.66 15.28 1.54
-12.73 14.75 1.52
-12.79 14.23 1.50
-12.84 13.72 1.47
-12.89 13.23 1.45
-12.98 12.81 1.44
-13.08 12.39 1.42
-13.18 12.00 1.41
-13.28 11.61 1.40
-13.33 11.18 1.38
-13.36 10.76 1.37
-13.40 10.36 1.35
-13.45 9.97 1.34
-13.50 9.59 1.33
-13.50 9.19 1.31
-13.50 8.80 1.30
-13.47 8.40 1.28
-13.36 7.97 1.26
-13.26 7.55 1.23
-13.16 7.15 1.21
-13.10 6.78 1.20
-13.06 6.43 1.18
-13.05 6.10 1.17
-13.04 5.78 1.16
-13.04 5.46 1.16
-13.03 5.16 1.15
-13.02 4.85 1.14
-13.02 4.56 1.13
-13.04 4.27 1.13
-13.06 3.99 1.12
-13.09 3.71 1.12
-13.11 3.44 1.12
-13.14 3.16 1.12
-13.16 2.89 1.11
-13.18 2.62 1.11
-13.21 2.35 1.11
-13.22 2.08 1.11
-13.24 1.81 1.11
-13.26 1.54 1.11
-13.28 1.27 1.11
-13.29 1.01 1.11
-13.31 0.74 1.11
-13.32 0.47 1.11
-13.35 0.20 1.11
-13.38 -0.06 1.12
-13.41 -0.33 1.12
-13.44 -0.60 1.13
-13.47 -0.88 1.13
-13.50 -1.15 1.13
-13.52 -1.43 1.14
-13.53 -1.70 1.14
-13.52 -1.98 1.15
-13.52 -2.26 1.15
-13.52 -2.54 1.15
-13.51 -2.82 1.16
-13.51 -3.10 1.16
-13.51 -3.39 1.17
-13.52 -3.68 1.18
-13.54 -3.98 1.18
-13.57 -4.29 1.19
-13.59 -4.60 1.20
-13.61 -4.91 1.21
-13.63 -5.23 1.22
-13.64 -5.55 1.23
-13.66 -5.88 1.25
-13.67 -6.22 1.26
-13.69 -6.56 1.27
-13.71 -6.91 1.28
-13.73 -7.27 1.30
-13.76 -7.65 1.32
-13.84 -8.06 1.34
-13.93 -8.49 1.36
-14.03 -8.94 1.39
-14.11 -9.39 1.41
-14.16 -9.84 1.43
-14.17 -10.28 1.46
-14.18 -10.73 1.48
-14.20 -11.20 1.50
-14.27 -11.73 1.53
-14.26 -12.20 1.55
-14.24 -12.69 1.58
-14.22 -13.19 1.60
-14.22 -13.74 1.63
-14.25 -14.33 1.66
-14.27 -14.95 1.70
-14.28 -15.57 1.74
-14.31 -16.24 1.78
-14.38 -17.00 1.82
-14.41 -17.74 1.87
-14.39 -18.46 1.91
-14.36 -19.21 1.96
-14.35 -20.03 2.01
-14.29 -20.81 2.05
-14.22 -21.63 2.10
-14.05 -22.33 2.14
-13.81 -22.96 2.17
-13.56 -23.61 2.20
-13.32 -24.30 2.23
-13.09 -25.07 2.27
-12.80 -25.77 2.31
-12.53 -26.55 2.35
-12.27 -27.40 2.40
-11.92 -28.12 2.43
-11.17 -27.89 2.39
-10.63 -28.17 2.39
-10.08 -28.44 2.39
-9.53 -28.71 2.39
-8.97 -28.96 2.39
-8.41 -29.20 2.39
-7.84 -29.43 2.39
-7.58 -30.93 2.49
-6.97 -31.15 2.49
-6.36 -31.36 2.49
-5.74 -31.56 2.49
-5.12 -31.75 2.49
-4.49 -31.93 2.49
-3.86 -32.09 2.49
-3.17 -31.75 2.46
-2.58 -32.39 2.49
-1.94 -32.52 2.49
-1.26 -31.94 2.44
-0.63 -32.74 2.49
0.02 -25.28 2.49
0.53 -25.33 2.49
1.00 -24.32 2.39
1.49 -24.34 2.39
1.98 -24.36 2.39
2.48 -24.37 2.39
2.97 -24.37 2.39
3.47 -24.36 2.39
3.97 -24.33 2.39
4.46 -24.30 2.39
4.97 -24.29 2.39
5.47 -24.24 2.39
5.96 -24.18 2.39
6.46 -24.10 2.39
6.96 -24.02 2.39
7.46 -23.93 2.39
2.19 -6.55 0.66
8.45 -23.72 2.39
8.94 -23.60 2.39
9.44 -23.46 2.39
9.93 -23.32 2.39
10.42 -23.17 2.39
10.90 -23.01 2.39
11.39 -22.83 2.39
11.87 -22.65 2.39
12.35 -22.46 2.39
12.83 -22.25 2.39
13.30 -22.04 2.39
13.77 -21.82 2.39
14.23 -21.58 2.39
12.34 -17.91 2.01
12.90 -17.94 2.04
15.61 -20.82 2.39
16.06 -20.55 2.39
16.50 -20.26 2.39
16.94 -19.97 2.39
17.37 -19.67 2.39
17.80 -19.35 2.39
18.22 -19.03 2.39
18.64 -18.70 2.39
19.05 -18.36 2.39
19.45 -18.01 2.39
19.85 -17.65 2.39
20.24 -17.28 2.39
20.62 -16.91 2.39
20.99 -16.52 2.39
21.36 -16.13 2.39
21.72 -15.72 2.39
22.07 -15.31 2.39
22.41 -14.89 2.39
22.67 -14.42 2.39
22.71 -13.81 2.36
20.66 -12.00 2.11
20.63 -11.44 2.08
20.61 -10.89 2.06
20.59 -10.36 2.03
20.58 -9.84 2.01
20.75 -9.42 2.00
20.34 -8.74 1.94
24.11 -9.80 2.28
23.68 -9.07 2.22
23.52 -8.47 2.18
22.80 -7.70 2.10
22.83 -7.20 2.08
22.86 -6.71 2.07
22.88 -6.22 2.06
22.91 -5.74 2.05
22.94 -5.26 2.04
22.96 -4.78 2.03
22.99 -4.31 2.02
23.02 -3.84 2.01
23.04 -3.37 2.01
23.07 -2.90 2.00
23.09 -2.44 2.00
23.12 -1.97 2.00
23.14 -1.51 1.99
23.17 -1.04 1.99
23.20 -0.58 1.99
23.20 -0.11 1.99
23.22 0.35 1.99
23.25 0.82 1.99
20.20 1.12 1.73
19.77 1.49 1.70
19.37 1.86 1.66
19.02 2.21 1.64
19.42 2.65 1.68
19.85 3.12 1.72
20.31 3.61 1.76
21.64 4.29 1.89
18.22 3.99 1.59
16.91 4.07 1.49
15.78 4.13 1.39
14.77 4.18 1.31
13.88 4.23 1.24
13.08 4.28 1.18
12.35 4.32 1.12
12.25 4.56 1.12
12.26 4.85 1.13
12.28 5.14 1.14
12.30 5.44 1.15
12.31 5.74 1.16
12.33 6.05 1.18
12.35 6.37 1.19
12.37 6.70 1.21
12.38 7.04 1.22
12.40 7.38 1.24
12.42 7.73 1.26
12.44 8.10 1.28
12.42 8.44 1.29
12.38 8.78 1.31
11.04 8.17 1.18
12.42 9.58 1.35
12.49 10.04 1.38
12.58 10.53 1.42
12.60 10.99 1.45
12.63 11.47 1.48
12.75 12.05 1.52
12.78 12.57 1.56
12.75 13.06 1.59
12.75 13.59 1.62
12.57 13.95 1.64
12.14 14.03 1.62
11.83 14.24 1.62
11.55 14.48 1.62
11.28 14.75 1.63
11.09 15.11 1.65
11.16 15.87 1.71
11.90 17.67 1.88
11.41 17.70 1.86
10.93 17.72 1.84
10.46 17.75 1.82
10.83 19.25 1.96
10.34 19.27 1.94
10.72 20.98 2.10
11.73 24.14 2.39
11.23 24.32 2.39
10.71 24.50 2.39
10.20 24.66 2.39
9.69 24.81 2.39
9.17 24.96 2.39
8.65 25.09 2.39
8.13 25.20 2.39
7.61 25.31 2.39
7.07 25.38 2.39
6.55 25.46 2.39
6.03 25.54 2.39
5.50 25.60 2.39
4.98 25.65 2.39
4.45 25.69 2.39
3.93 25.72 2.39
3.55 26.85 2.49
3.00 26.86 2.49
2.46 26.86 2.49
1.91 26.84 2.49
1.37 26.82 2.49
0.83 26.78 2.49
0.29 26.73 2.49
-0.24 26.68 2.49
-0.78 26.61 2.49
-1.31 26.53 2.49
-1.83 26.44 2.49
-2.36 26.34 2.49
-2.88 26.22 2.49
-3.40 26.10 2.49
-3.91 25.97 2.49
-4.42 25.83 2.49
-4.73 24.66 2.39
-5.21 24.46 2.39
-5.69 24.30 2.39
-6.16 24.13 2.39
-6.63 23.94 2.39
-7.09 23.75 2.39
-7.55 23.56 2.39
-8.00 23.35 2.39
-5.47 14.97 1.55
-9.06 23.34 2.43
-9.38 22.80 2.40
-9.73 22.35 2.38
-9.90 21.56 2.32
-10.02 20.70 2.26
-10.15 19.95 2.20
-10.27 19.22 2.15
-10.44 18.63 2.11
-10.60 18.06 2.07
-10.75 17.49 2.04
-11.01 17.13 2.02
-11.31 16.84 2.02
-11.59 16.54 2.01
-11.76 16.08 1.99
-11.97 15.69 1.98
-12.15 15.29 1.96
-12.25 14.79 1.93
-12.32 14.29 1.90
-12.38 13.79 1.87
-12.44 13.30 1.84
-12.49 12.83 1.81
-12.59 12.42 1.79
-12.69 12.03 1.78
-12.79 11.65 1.76
-12.89 11.27 1.75
-12.96 10.88 1.73
-13.00 10.48 1.71
-13.05 10.09 1.69
-13.10 9.72 1.67
-13.15 9.35 1.66
-13.17 8.97 1.64
-13.18 8.60 1.62
-13.10 8.17 1.59
-13.00 7.75 1.57
-12.91 7.35 1.54
-12.82 6.96 1.51
-12.73 6.59 1.49
-12.72 6.26 1.47
-12.71 5.94 1.46
-12.71 5.63 1.45
-12.70 5.33 1.44
-12.69 5.03 1.43
-12.67 4.73 1.42
-12.66 4.43 1.41
-12.68 4.16 1.40
-12.72 3.89 1.40
-12.75 3.62 1.39
-12.78 3.35 1.39
-12.81 3.09 1.39
-12.84 2.82 1.39
-12.86 2.56 1.38
-12.88 2.29 1.38
-12.90 2.03 1.38
-12.92 1.77 1.38
-12.93 1.50 1.38
-12.95 1.24 1.38
-12.97 0.98 1.38
-12.98 0.72 1.38
-13.00 0.46 1.38
-13.02 0.20 1.38
-13.05 -0.06 1.39
-13.08 -0.33 1.39
-13.11 -0.59 1.40
-13.14 -0.86 1.40
-13.17 -1.12 1.41
-13.20 -1.39 1.41
-13.21 -1.66 1.42
-13.21 -1.93 1.42
-13.21 -2.21 1.43
-13.20 -2.48 1.43
-13.20 -2.75 1.44
-13.19 -3.03 1.44
-13.18 -3.31 1.45
-13.17 -3.59 1.46
-13.18 -3.88 1.46
-13.20 -4.17 1.48
-13.22 -4.47 1.49
-13.24 -4.78 1.50
-13.26 -5.09 1.51
-13.28 -5.41 1.53
-13.30 -5.73 1.54
-13.31 -6.05 1.56
-13.32 -6.38 1.57
-13.33 -6.72 1.59
-13.34 -7.06 1.60
-13.35 -7.41 1.62
-13.35 -7.77 1.64
-13.48 -8.21 1.67
-13.56 -8.64 1.71
-13.64 -9.09 1.74
-13.73 -9.55 1.77
-13.76 -9.98 1.80
-13.76 -10.41 1.83
-13.77 -10.86 1.85
-13.77 -11.32 1.88
-13.79 -11.81 1.92
-13.77 -12.27 1.94
-13.74 -12.75 1.97
-13.70 -13.24 2.00
-13.56 -13.64 2.02
-13.54 -14.18 2.06
-13.52 -14.75 2.10
-13.50 -15.33 2.14
-13.48 -15.94 2.18
-13.50 -16.63 2.24
-13.59 -17.45 2.31
-13.59 -18.18 2.37
-13.44 -18.76 2.40
-13.27 -19.33 2.44
-13.09 -19.92 2.48
-12.96 -20.60 2.52
-12.81 -21.32 2.58
-12.60 -21.95 2.62
-12.38 -22.60 2.66
-10.73 -20.56 2.39
-10.33 -20.80 2.39
-9.93 -21.04 2.39
-9.52 -21.27 2.39
-9.10 -21.49 2.39
-8.68 -21.70 2.39
-8.26 -21.91 2.39
-7.83 -22.11 2.39
-7.40 -22.30 2.39
-7.15 -23.10 2.46
-6.80 -23.64 2.49
-6.34 -23.81 2.49
-5.87 -23.98 2.49
-5.40 -24.14 2.49
-4.92 -24.29 2.49
-4.44 -24.43 2.49
-3.96 -24.56 2.49
-3.47 -24.68 2.49
-2.98 -24.80 2.49
-2.48 -24.90 2.49
-1.99 -25.00 2.49
-1.49 -25.08 2.49
-0.99 -25.16 2.49
-0.48 -25.22 2.49
0.02 -20.54 2.49
0.44 -20.57 2.49
0.85 -20.59 2.49
1.22 -19.75 2.39
1.61 -19.76 2.39
2.01 -19.76 2.39
2.41 -19.75 2.39
2.82 -19.73 2.39
3.22 -19.70 2.39
3.62 -19.67 2.39
4.02 -19.63 2.39
4.42 -19.58 2.39
4.82 -19.52 2.39
4.27 -15.93 1.96
5.63 -19.40 2.39
6.03 -19.32 2.39
2.19 -6.55 0.81
6.82 -19.13 2.39
7.22 -19.03 2.39
7.61 -18.91 2.39
8.00 -18.79 2.39
6.73 -14.97 1.92
7.00 -14.77 1.91
9.17 -18.37 2.39
9.55 -18.22 2.39
9.93 -18.05 2.39
10.31 -17.88 2.39
10.69 -17.70 2.39
11.06 -17.51 2.39
11.43 -17.32 2.39
11.79 -17.12 2.39
12.16 -16.91 2.39
12.52 -16.69 2.39
12.87 -16.46 2.39
13.22 -16.23 2.39
13.57 -15.99 2.39
12.46 -14.10 2.14
12.99 -14.12 2.18
14.57 -15.22 2.39
14.90 -14.95 2.39
15.22 -14.67 2.39
15.54 -14.38 2.39
15.85 -14.09 2.39
16.15 -13.79 2.39
13.25 -10.86 1.93
13.35 -10.50 1.91
17.03 -12.85 2.39
17.31 -12.53 2.39
17.58 -12.19 2.39
17.85 -11.86 2.39
18.11 -11.51 2.39
18.36 -11.16 2.39
18.61 -10.81 2.39
18.85 -10.44 2.39
19.08 -10.08 2.39
19.30 -9.70 2.39
19.51 -9.33 2.39
19.72 -8.95 2.39
19.92 -8.56 2.39
20.11 -8.17 2.39
20.29 -7.77 2.39
20.47 -7.37 2.39
20.63 -6.97 2.39
20.79 -6.56 2.39
20.94 -6.15 2.39
21.08 -5.73 2.39
21.21 -5.31 2.39
21.33 -4.89 2.39
21.44 -4.46 2.39
21.55 -4.04 2.39
21.64 -3.61 2.39
21.73 -3.17 2.39
21.80 -2.74 2.39
21.87 -2.30 2.39
21.92 -1.87 2.39
21.97 -1.43 2.39
22.01 -0.99 2.39
22.04 -0.55 2.39
22.05 -0.10 2.39
22.06 0.34 2.39
22.06 0.78 2.39
22.05 1.22 2.39
20.06 1.52 2.18
19.65 1.88 2.14
19.25 2.23 2.10
19.42 2.65 2.12
19.85 3.12 2.17
20.31 3.61 2.23
21.70 4.30 2.39
18.21 3.99 2.02
16.91 4.07 1.88
15.78 4.13 1.76
14.77 4.18 1.66
13.88 4.23 1.57
13.08 4.28 1.49
12.35 4.32 1.42
12.25 4.56 1.41
12.26 4.84 1.43
12.37 5.18 1.45
12.39 5.48 1.47
12.40 5.78 1.48
12.42 6.10 1.50
12.44 6.42 1.52
12.46 6.75 1.54
12.38 7.03 1.55
12.40 7.38 1.57
12.42 7.73 1.59
12.44 8.09 1.61
12.42 8.44 1.63
12.38 8.78 1.65
11.05 8.17 1.50
12.42 9.58 1.71
12.49 10.03 1.75
12.58 10.53 1.79
12.60 10.99 1.83
12.63 11.46 1.87
12.75 12.05 1.92
12.78 12.57 1.96
12.75 13.06 2.00
12.75 13.59 2.05
12.57 13.95 2.06
12.14 14.03 2.04
11.86 14.28 2.05
11.57 14.51 2.05
11.28 14.74 2.05
11.09 15.11 2.07
11.17 15.87 2.15
11.91 17.67 2.36
11.42 17.69 2.34
10.94 17.72 2.31
10.47 17.75 2.29
10.54 18.71 2.39
10.14 18.89 2.39
9.75 19.07 2.39
9.35 19.23 2.39
8.95 19.39 2.39
8.55 19.53 2.39
8.14 19.67 2.39
7.73 19.80 2.39
7.32 19.92 2.39
6.90 20.01 2.39
6.49 20.11 2.39
6.08 20.20 2.39
5.66 20.29 2.39
5.24 20.37 2.39
4.83 20.43 2.39
4.41 20.49 2.39
3.99 20.54 2.39
3.57 20.58 2.39
3.29 21.50 2.49
2.85 21.53 2.49
2.41 21.54 2.49
1.98 21.55 2.49
1.54 21.55 2.49
1.11 21.54 2.49
0.67 21.52 2.49
0.24 21.49 2.49
-0.19 21.45 2.49
-0.62 21.40 2.49
-1.05 21.35 2.49
-1.47 21.29 2.49
-1.90 21.21 2.49
-2.32 21.13 2.49
-2.74 21.04 2.49
-3.15 20.95 2.49
-3.56 20.84 2.49
-3.97 20.73 2.49
-4.38 20.61 2.49
-4.76 20.36 2.48
-4.97 19.50 2.39
-5.35 19.36 2.39
-5.73 19.22 2.39
-6.10 19.06 2.39
-6.47 18.90 2.39
-5.46 14.97 1.91
-7.20 18.56 2.39
-7.56 18.38 2.39
-7.91 18.19 2.39
-8.26 18.00 2.39
-8.61 17.80 2.39
-9.09 17.88 2.43
-9.38 17.55 2.41
-9.67 17.27 2.41
-9.97 16.98 2.40
-10.16 16.54 2.37
-10.35 16.11 2.34
-10.51 15.67 2.31
-10.67 15.23 2.28
-10.86 14.86 2.26
-11.06 14.51 2.24
-11.22 14.13 2.22
-11.38 13.75 2.20
-11.51 13.35 2.18
-11.63 12.95 2.15
-11.74 12.56 2.13
-11.89 12.22 2.12
-12.09 11.94 2.11
-12.31 11.67 2.11
-12.43 11.32 2.10
-12.53 10.96 2.08
-12.61 10.59 2.06
-12.66 10.21 2.04
-12.72 9.84 2.01
-12.77 9.47 2.00
-12.82 9.12 1.98
-12.86 8.76 1.96
-12.83 8.37 1.93
-12.74 7.95 1.89
-12.66 7.55 1.86
-12.56 7.15 1.83
-12.36 6.72 1.78
-12.25 6.34 1.75
-12.27 6.04 1.74
-12.26 5.73 1.72
-12.25 5.43 1.70
-12.24 5.14 1.69
-12.23 4.84 1.68
-12.22 4.56 1.66
-12.22 4.28 1.65
-12.22 4.01 1.64
-12.24 3.74 1.64
-12.27 3.49 1.63
-12.30 3.23 1.63
-12.33 2.97 1.63
-12.36 2.72 1.62
-12.39 2.46 1.62
-12.43 2.21 1.62
-12.47 1.96 1.62
-12.49 1.71 1.62
-12.51 1.46 1.62
-12.53 1.20 1.62
-12.55 0.95 1.62
-12.56 0.70 1.62
-12.58 0.45 1.62
-12.59 0.19 1.63
-12.61 -0.06 1.63
-12.64 -0.31 1.63
-12.68 -0.57 1.64
-12.71 -0.83 1.65
-12.74 -1.09 1.65
-12.77 -1.35 1.66
-12.80 -1.61 1.67
-12.80 -1.87 1.67
-12.79 -2.14 1.68
-12.77 -2.40 1.68
-12.75 -2.66 1.69
-12.73 -2.93 1.69
-12.71 -3.19 1.70
-12.69 -3.46 1.70
-12.67 -3.73 1.71
-12.66 -4.00 1.72
-12.64 -4.28 1.73
-12.65 -4.57 1.74
-12.67 -4.86 1.76
-12.68 -5.16 1.77
-12.69 -5.47 1.79
-12.70 -5.77 1.80
-12.66 -6.07 1.81
-12.62 -6.36 1.83
-12.61 -6.68 1.84
-12.60 -7.00 1.86
-12.60 -7.34 1.88
-12.60 -7.68 1.90
-12.57 -8.01 1.92
-12.53 -8.35 1.94
-12.49 -8.69 1.96
-12.67 -9.20 2.01
-12.95 -9.80 2.09
-12.88 -10.16 2.11
-12.80 -10.53 2.13
-12.73 -10.91 2.15
-12.66 -11.29 2.18
-12.58 -11.68 2.20
-12.48 -12.06 2.22
-12.36 -12.44 2.24
-12.23 -12.82 2.26
-12.10 -13.20 2.29
-11.97 -13.59 2.31
-11.85 -14.02 2.34
-11.94 -14.72 2.41
-12.04 -15.46 2.49
-12.03 -16.10 2.55
-11.96 -16.69 2.61
-10.67 -15.54 2.39
-10.36 -15.77 2.39
-10.06 -16.00 2.39
-9.74 -16.21 2.39
-9.43 -16.43 2.39
-9.11 -16.63 2.39
-8.78 -16.83 2.39
-8.45 -17.03 2.39
-8.12 -17.22 2.39
-7.78 -17.40 2.39
-7.44 -17.58 2.39
-7.10 -17.75 2.39
-6.89 -18.28 2.44
-6.67 -18.85 2.49
-6.30 -19.00 2.49
-5.93 -19.16 2.49
-5.55 -19.30 2.49
-5.17 -19.44 2.49
-4.78 -19.56 2.49
-4.40 -19.69 2.49
-4.01 -19.80 2.49
-3.61 -19.91 2.49
-3.22 -20.01 2.49
-2.82 -20.10 2.49
-2.42 -20.19 2.49
-2.02 -20.27 2.49
-1.61 -20.33 2.49
-1.21 -20.40 2.49
-0.80 -20.45 2.49
-0.39 -20.50 2.49
0.02 -17.28 2.49
0.37 -17.30 2.49
0.72 -17.31 2.49
1.07 -17.32 2.49
1.36 -16.60 2.39
1.70 -16.60 2.39
2.03 -16.58 2.39
2.37 -16.56 2.39
2.70 -16.54 2.39
3.04 -16.51 2.39
3.38 -16.47 2.39
3.71 -16.42 2.39
4.00 -16.19 2.36
4.38 -16.31 2.39
4.71 -16.24 2.39
5.05 -16.17 2.39
2.19 -6.55 0.97
5.72 -16.02 2.39
6.04 -15.92 2.39
5.02 -12.47 1.89
5.28 -12.38 1.88
7.02 -15.60 2.39
7.35 -15.48 2.39
7.67 -15.35 2.39
7.99 -15.22 2.39
8.30 -15.08 2.39
8.62 -14.93 2.39
8.93 -14.78 2.39
9.23 -14.62 2.39
9.54 -14.45 2.39
7.75 -11.24 1.88
7.99 -11.10 1.88
10.44 -13.91 2.39
10.73 -13.72 2.39
11.02 -13.52 2.39
11.30 -13.31 2.39
11.58 -13.10 2.39
11.86 -12.89 2.39
12.13 -12.66 2.39
12.40 -12.43 2.39
12.67 -12.20 2.39
12.93 -11.96 2.39
13.18 -11.71 2.39
12.64 -10.79 2.25
12.75 -10.44 2.23
13.35 -10.50 2.30
14.15 -10.67 2.39
14.38 -10.40 2.39
14.60 -10.12 2.39
14.82 -9.84 2.39
15.03 -9.55 2.39
15.24 -9.26 2.39
12.83 -7.45 1.99
12.84 -7.12 1.97
13.50 -7.13 2.04
16.00 -8.04 2.39
16.17 -7.73 2.39
16.34 -7.41 2.39
16.50 -7.09 2.39
16.66 -6.76 2.39
16.81 -6.43 2.39
16.95 -6.10 2.39
17.08 -5.76 2.39
17.21 -5.43 2.39
17.33 -5.08 2.39
14.03 -3.81 1.93
17.55 -4.39 2.39
17.65 -4.04 2.39
17.74 -3.69 2.39
17.82 -3.34 2.39
17.89 -2.98 2.39
17.96 -2.62 2.39
18.02 -2.26 2.39
18.07 -1.90 2.39
18.12 -1.54 2.39
18.15 -1.18 2.39
18.18 -0.81 2.39
18.20 -0.45 2.39
18.22 -0.09 2.39
18.22 0.28 2.39
18.22 0.65 2.39
18.21 1.01 2.39
18.19 1.38 2.39
18.17 1.74 2.39
18.13 2.11 2.39
18.09 2.47 2.39
18.04 2.83 2.39
17.98 3.19 2.39
17.92 3.55 2.39
17.84 3.91 2.39
16.91 4.07 2.28
15.78 4.13 2.14
14.77 4.18 2.01
13.88 4.23 1.90
13.08 4.28 1.80
12.35 4.31 1.71
12.25 4.56 1.71
12.26 4.84 1.73
12.37 5.18 1.76
12.39 5.48 1.78
12.40 5.78 1.80
12.42 6.10 1.82
12.44 6.42 1.84
12.46 6.75 1.86
12.38 7.03 1.87
12.40 7.38 1.90
12.42 7.73 1.92
12.44 8.09 1.95
12.42 8.43 1.98
12.38 8.77 2.00
11.05 8.17 1.81
12.42 9.58 2.07
12.49 10.03 2.11
12.58 10.53 2.17
12.60 10.99 2.21
12.63 11.46 2.26
12.66 11.96 2.30
12.68 12.48 2.36
12.61 12.91 2.39
12.34 13.15 2.39
12.06 13.39 2.39
11.78 13.61 2.39
11.50 13.83 2.39
11.21 14.05 2.39
10.91 14.26 2.39
10.61 14.46 2.39
10.31 14.65 2.39
10.00 14.84 2.39
9.69 15.02 2.39
9.38 15.20 2.39
9.06 15.36 2.39
8.74 15.53 2.39
8.42 15.68 2.39
8.10 15.83 2.39
7.77 15.97 2.39
7.44 16.10 2.39
7.10 16.21 2.39
6.76 16.33 2.39
6.42 16.44 2.39
6.08 16.54 2.39
5.74 16.64 2.39
5.40 16.73 2.39
5.06 16.81 2.39
4.71 16.89 2.39
4.37 16.95 2.39
4.02 17.01 2.39
3.68 17.07 2.39
3.33 17.11 2.39
3.11 17.89 2.49
2.74 17.93 2.49
2.38 17.95 2.49
2.02 17.97 2.49
1.65 17.98 2.49
1.29 17.98 2.49
0.93 17.98 2.49
0.57 17.97 2.49
0.21 17.95 2.49
-0.15 17.92 2.49
-0.51 17.89 2.49
-0.87 17.85 2.49
-1.23 17.80 2.49
-1.58 17.74 2.49
-1.93 17.68 2.49
-2.28 17.61 2.49
-2.63 17.54 2.49
-2.98 17.45 2.49
-3.33 17.36 2.49
-3.67 17.27 2.49
-4.01 17.17 2.49
-4.34 17.06 2.49
-4.68 16.94 2.49
-4.96 16.66 2.47
-5.12 16.00 2.39
-5.43 15.87 2.39
-5.46 14.97 2.27
-6.04 15.59 2.39
-6.35 15.44 2.39
-6.65 15.29 2.39
-6.94 15.13 2.39
-7.23 14.96 2.39
-7.52 14.80 2.39
-7.80 14.62 2.39
-8.08 14.44 2.39
-8.36 14.25 2.39
-8.63 14.06 2.39
-8.90 13.87 2.39
-9.50 14.17 2.48
-9.75 13.93 2.47
-9.98 13.66 2.46
-10.20 13.39 2.46
-10.37 13.05 2.43
-10.52 12.72 2.41
-10.66 12.37 2.39
-10.81 12.05 2.37
-10.97 11.74 2.36
-11.12 11.43 2.34
-11.30 11.16 2.34
-11.50 10.91 2.34
-11.70 10.66 2.34
-11.87 10.39 2.33
-11.97 10.06 2.31
-12.11 9.77 2.30
-12.25 9.48 2.30
-12.39 9.19 2.29
-12.50 8.90 2.28
-12.55 8.56 2.26
-12.43 8.12 2.21
-12.24 7.64 2.15
-12.06 7.20 2.10
-11.89 6.77 2.04
-11.74 6.38 2.00
-11.77 6.10 1.98
-11.80 5.81 1.97
-11.82 5.53 1.96
-11.81 5.24 1.94
-11.81 4.96 1.92
-11.80 4.68 1.91
-11.79 4.40 1.89
-11.80 4.14 1.88
-11.81 3.87 1.87
-11.82 3.62 1.86
-11.83 3.36 1.86
-11.86 3.11 1.85
-11.89 2.87 1.85
-11.92 2.62 1.85
-11.95 2.38 1.84
-11.99 2.14 1.84
-12.03 1.90 1.85
-12.08 1.65 1.85
-12.10 1.41 1.85
-12.12 1.17 1.85
-12.14 0.92 1.85
-12.15 0.68 1.85
-12.17 0.43 1.85
-12.18 0.19 1.85
-12.19 -0.06 1.85
-12.20 -0.30 1.86
-12.22 -0.55 1.86
-12.25 -0.80 1.87
-12.28 -1.05 1.88
-12.31 -1.30 1.88
-12.33 -1.55 1.89
-12.34 -1.81 1.90
-12.33 -2.06 1.91
-12.32 -2.31 1.91
-12.31 -2.57 1.92
-12.29 -2.82 1.92
-12.27 -3.08 1.93
-12.25 -3.34 1.93
-12.22 -3.60 1.94
-12.20 -3.86 1.95
-12.18 -4.12 1.96
-12.16 -4.39 1.97
-12.14 -4.66 1.98
-12.13 -4.94 1.99
-12.14 -5.23 2.01
-12.14 -5.52 2.03
-12.14 -5.82 2.05
-12.10 -6.10 2.06
-12.05 -6.39 2.07
-12.01 -6.67 2.09
-11.96 -6.97 2.10
-11.92 -7.26 2.12
-11.90 -7.59 2.14
-11.88 -7.91 2.17
-11.83 -8.23 2.19
-11.79 -8.55 2.21
-11.73 -8.88 2.23
-11.68 -9.22 2.25
-11.62 -9.56 2.28
-11.60 -9.94 2.31
-11.52 -10.27 2.33
-11.40 -10.58 2.35
-11.27 -10.89 2.37
-11.13 -11.21 2.38
-10.99 -11.52 2.40
-10.85 -11.83 2.42
-10.49 -11.92 2.39
-10.26 -12.14 2.39
-10.02 -12.35 2.39
-9.78 -12.56 2.39
-9.53 -12.77 2.39
-9.28 -12.97 2.39
-9.03 -13.16 2.39
-8.77 -13.35 2.39
-8.51 -13.54 2.39
-8.24 -13.72 2.39
-7.97 -13.90 2.39
-7.70 -14.07 2.39
-7.43 -14.24 2.39
-7.15 -14.40 2.39
-6.86 -14.56 2.39
-6.71 -15.00 2.44
-6.56 -15.50 2.49
-6.25 -15.64 2.49
-5.94 -15.79 2.49
-5.63 -15.92 2.49
-5.32 -16.05 2.49
-5.00 -16.17 2.49
-4.68 -16.29 2.49
-4.36 -16.40 2.49
-4.03 -16.51 2.49
-3.70 -16.61 2.49
-3.37 -16.70 2.49
-3.04 -16.79 2.49
-2.71 -16.87 2.49
-2.37 -16.94 2.49
-2.03 -17.01 2.49
-1.69 -17.07 2.49
-1.35 -17.12 2.49
-1.01 -17.17 2.49
-0.67 -17.21 2.49
-0.32 -17.25 2.49
0.02 -14.90 2.49
0.32 -14.91 2.49
0.62 -14.92 2.49
0.93 -14.92 2.49
1.23 -14.92 2.49
1.46 -14.30 2.39
1.75 -14.28 2.39
2.04 -14.26 2.39
2.33 -14.24 2.39
2.62 -14.21 2.39
2.91 -14.17 2.39
3.20 -14.13 2.39
3.48 -14.08 2.39
3.77 -14.02 2.39
4.06 -13.96 2.39
4.34 -13.90 2.39
2.19 -6.55 1.13
4.91 -13.75 2.39
5.19 -13.66 2.39
5.48 -13.59 2.39
5.76 -13.49 2.39
6.03 -13.39 2.39
6.31 -13.29 2.39
6.58 -13.18 2.39
6.86 -13.06 2.39
7.12 -12.93 2.39
7.39 -12.81 2.39
7.66 -12.67 2.39
7.92 -12.53 2.39
8.18 -12.38 2.39
8.44 -12.23 2.39
8.69 -12.08 2.39
8.94 -11.91 2.39
9.19 -11.75 2.39
9.44 -11.58 2.39
9.68 -11.40 2.39
9.92 -11.21 2.39
10.15 -11.03 2.39
10.39 -10.83 2.39
10.61 -10.64 2.39
10.84 -10.43 2.39
11.06 -10.22 2.39
11.27 -10.01 2.39
11.48 -9.80 2.39
11.69 -9.57 2.39
11.89 -9.35 2.39
12.09 -9.12 2.39
12.28 -8.88 2.39
12.47 -8.64 2.39
12.66 -8.40 2.39
12.84 -8.15 2.39
13.01 -7.90 2.39
12.85 -7.46 2.33
12.87 -7.13 2.31
13.50 -7.13 2.39
13.65 -6.86 2.39
13.80 -6.59 2.39
13.94 -6.32 2.39
14.08 -6.04 2.39
14.21 -5.76 2.39
14.33 -5.48 2.39
14.45 -5.20 2.39
14.56 -4.91 2.39
14.67 -4.62 2.39
13.03 -3.82 2.11
13.21 -3.59 2.13
14.95 -3.74 2.39
15.03 -3.44 2.39
15.11 -3.14 2.39
15.18 -2.84 2.39
15.24 -2.54 2.39
15.30 -2.23 2.39
15.34 -1.93 2.39
15.39 -1.62 2.39
15.42 -1.31 2.39
15.45 -1.00 2.39
15.48 -0.69 2.39
13.31 -0.33 2.06
13.23 -0.06 2.04
15.51 0.24 2.39
15.51 0.55 2.39
15.50 0.86 2.39
15.48 1.17 2.39
15.46 1.48 2.39
15.43 1.79 2.39
15.39 2.10 2.39
15.35 2.41 2.39
15.30 2.72 2.39
15.24 3.02 2.39
15.18 3.33 2.39
15.11 3.63 2.39
15.03 3.93 2.39
14.77 4.18 2.36
13.88 4.23 2.23
13.08 4.28 2.12
12.35 4.31 2.01
12.25 4.56 2.01
12.26 4.84 2.03
12.30 5.14 2.05
12.30 5.44 2.07
12.31 5.74 2.09
12.33 6.05 2.12
12.35 6.37 2.14
12.37 6.70 2.17
12.38 7.03 2.20
12.40 7.38 2.23
12.42 7.73 2.26
12.22 7.95 2.25
11.74 7.98 2.20
11.36 8.05 2.15
11.03 8.15 2.12
11.02 8.49 2.15
10.84 8.71 2.15
10.81 9.04 2.18
10.83 9.44 2.23
10.85 9.85 2.27
10.87 10.27 2.32
10.98 10.79 2.39
10.75 11.00 2.39
10.52 11.21 2.39
10.29 11.41 2.39
10.05 11.60 2.39
9.80 11.79 2.39
9.56 11.98 2.39
9.31 12.16 2.39
9.06 12.33 2.39
8.80 12.50 2.39
8.54 12.66 2.39
8.28 12.82 2.39
8.01 12.97 2.39
7.74 13.11 2.39
7.47 13.25 2.39
7.19 13.39 2.39
6.91 13.50 2.39
6.63 13.62 2.39
6.35 13.74 2.39
6.07 13.85 2.39
5.78 13.95 2.39
5.49 14.05 2.39
5.21 14.14 2.39
4.92 14.23 2.39
4.62 14.31 2.39
4.33 14.38 2.39
4.04 14.45 2.39
3.74 14.51 2.39
3.45 14.56 2.39
3.15 14.61 2.39
2.98 15.28 2.49
2.66 15.32 2.49
2.35 15.35 2.49
2.04 15.38 2.49
1.73 15.40 2.49
1.42 15.41 2.49
1.11 15.42 2.49
0.80 15.42 2.49
0.49 15.41 2.49
0.18 15.40 2.49
-0.13 15.38 2.49
-0.44 15.35 2.49
-0.74 15.32 2.49
-1.05 15.28 2.49
-1.35 15.24 2.49
-1.66 15.19 2.49
-1.96 15.13 2.49
-2.26 15.07 2.49
-2.56 15.00 2.49
-2.85 14.93 2.49
-3.15 14.85 2.49
-3.44 14.76 2.49
-3.73 14.67 2.49
-4.02 14.57 2.49
-4.31 14.47 2.49
-4.59 14.36 2.49
-4.87 14.25 2.49
-5.11 14.01 2.47
-5.20 13.43 2.39
-5.46 13.30 2.39
-5.72 13.17 2.39
-5.98 13.04 2.39
-6.23 12.90 2.39
-6.48 12.75 2.39
-6.73 12.61 2.39
-6.97 12.45 2.39
-7.21 12.29 2.39
-7.44 12.13 2.39
-7.68 11.97 2.39
-7.91 11.80 2.39
-8.13 11.62 2.39
-8.35 11.44 2.39
-8.57 11.26 2.39
-8.79 11.07 2.39
-9.00 10.88 2.39
-9.20 10.68 2.39
-10.04 11.19 2.55
-10.26 10.98 2.55
-10.43 10.73 2.55
-10.60 10.47 2.54
-10.72 10.17 2.52
-10.83 9.87 2.50
-10.93 9.57 2.48
-11.03 9.27 2.46
-11.13 8.98 2.45
-11.27 8.72 2.44
-11.39 8.46 2.43
-11.51 8.19 2.43
-11.61 7.92 2.42
-11.72 7.65 2.41
-11.58 7.24 2.35
-11.43 6.82 2.29
-11.28 6.43 2.24
-11.29 6.14 2.22
-11.32 5.87 2.20
-11.35 5.59 2.19
-11.38 5.33 2.17
-11.40 5.06 2.16
-11.40 4.79 2.14
-11.39 4.52 2.13
-11.40 4.26 2.11
-11.41 4.00 2.10
-11.42 3.75 2.09
-11.43 3.50 2.08
-11.44 3.25 2.07
-11.45 3.01 2.06
-11.48 2.77 2.06
-11.50 2.53 2.05
-11.53 2.30 2.05
-11.58 2.06 2.05
-11.62 1.83 2.05
-11.66 1.60 2.06
-11.70 1.36 2.06
-11.73 1.13 2.06
-11.75 0.89 2.06
-11.76 0.66 2.06
-11.78 0.42 2.06
-11.79 0.18 2.07
-11.80 -0.05 2.07
-11.81 -0.29 2.07
-11.82 -0.53 2.07
-11.83 -0.77 2.08
-11.84 -1.01 2.08
-11.87 -1.25 2.09
-11.89 -1.50 2.10
-11.91 -1.74 2.11
-11.90 -1.99 2.12
-11.89 -2.23 2.12
-11.88 -2.48 2.13
-11.86 -2.73 2.14
-11.85 -2.97 2.14
-11.83 -3.22 2.15
-11.80 -3.47 2.16
-11.78 -3.72 2.17
-11.76 -3.98 2.18
-11.74 -4.24 2.19
-11.71 -4.50 2.20
-11.69 -4.76 2.21
-11.66 -5.02 2.23
-11.64 -5.29 2.24
-11.62 -5.57 2.26
-11.61 -5.86 2.28
-11.57 -6.13 2.29
-11.52 -6.40 2.31
-11.47 -6.68 2.33
-11.42 -6.96 2.34
-11.37 -7.25 2.36
-11.27 -7.51 2.37
-11.15 -7.76 2.37
-11.02 -8.00 2.38
-10.89 -8.24 2.39
-10.75 -8.49 2.39
-10.62 -8.73 2.40
-10.49 -8.99 2.41
-10.23 -9.13 2.39
-10.05 -9.34 2.39
-9.87 -9.54 2.39
-9.68 -9.75 2.39
-9.49 -9.95 2.39
-9.29 -10.14 2.39
-9.09 -10.33 2.39
-8.89 -10.52 2.39
-8.68 -10.71 2.39
-8.47 -10.89 2.39
-8.26 -11.06 2.39
-8.04 -11.24 2.39
-7.82 -11.40 2.39
-7.60 -11.57 2.39
-7.37 -11.73 2.39
-7.14 -11.89 2.39
-6.90 -12.04 2.39
-6.67 -12.18 2.39
-6.57 -12.61 2.45
-6.45 -13.00 2.49
-6.19 -13.14 2.49
-5.93 -13.28 2.49
-5.67 -13.41 2.49
-5.41 -13.53 2.49
-5.14 -13.65 2.49
-4.87 -13.77 2.49
-4.59 -13.88 2.49
-4.32 -13.98 2.49
-4.04 -14.08 2.49
-3.76 -14.18 2.49
-3.48 -14.26 2.49
-3.20 -14.35 2.49
-2.91 -14.43 2.49
-2.62 -14.50 2.49
-2.34 -14.56 2.49
-2.04 -14.63 2.49
-1.75 -14.68 2.49
-1.46 -14.73 2.49
-1.16 -14.78 2.49
-0.87 -14.81 2.49
-0.57 -14.85 2.49
-0.27 -14.87 2.49
0.02 -13.08 2.49
0.29 -13.09 2.49
0.55 -13.10 2.49
0.82 -13.10 2.49
1.08 -13.09 2.49
1.34 -13.08 2.49
1.54 -12.53 2.39
1.79 -12.51 2.39
2.05 -12.49 2.39
2.30 -12.46 2.39
2.55 -12.42 2.39
2.81 -12.38 2.39
3.06 -12.34 2.39
3.31 -12.29 2.39
2.20 -7.56 1.48
2.34 -7.49 1.47
2.19 -6.55 1.29
4.30 -12.04 2.39
4.55 -11.96 2.39
4.79 -11.88 2.39
5.04 -11.80 2.39
5.28 -11.71 2.39
5.52 -11.61 2.39
5.76 -11.53 2.39
6.00 -11.42 2.39
6.24 -11.31 2.39
6.47 -11.20 2.39
6.70 -11.08 2.39
6.93 -10.95 2.39
7.15 -10.83 2.39
7.38 -10.69 2.39
7.60 -10.55 2.39
7.82 -10.41 2.39
8.03 -10.26 2.39
8.25 -10.11 2.39
8.46 -9.95 2.39
8.66 -9.79 2.39
8.87 -9.63 2.39
9.07 -9.46 2.39
9.27 -9.28 2.39
9.46 -9.10 2.39
9.65 -8.92 2.39
9.84 -8.73 2.39
10.02 -8.54 2.39
8.03 -6.58 1.88
8.17 -6.42 1.88
10.55 -7.95 2.39
10.71 -7.74 2.39
10.88 -7.53 2.39
11.04 -7.32 2.39
11.19 -7.10 2.39
11.34 -6.88 2.39
11.49 -6.66 2.39
11.63 -6.44 2.39
11.76 -6.21 2.39
11.89 -5.97 2.39
12.02 -5.74 2.39
12.14 -5.50 2.39
12.26 -5.26 2.39
12.37 -5.02 2.39
12.48 -4.77 2.39
12.58 -4.52 2.39
12.68 -4.27 2.39
12.77 -4.02 2.39
12.85 -3.77 2.39
12.94 -3.51 2.39
13.01 -3.25 2.39
13.08 -2.99 2.39
13.15 -2.73 2.39
13.20 -2.47 2.39
13.26 -2.21 2.39
13.31 -1.94 2.39
13.35 -1.67 2.39
13.39 -1.41 2.39
13.42 -1.14 2.39
13.44 -0.87 2.39
13.46 -0.60 2.39
13.48 -0.33 2.39
13.26 -0.06 2.35
13.49 0.21 2.39
13.48 0.48 2.39
13.47 0.75 2.39
13.46 1.02 2.39
13.44 1.29 2.39
13.41 1.56 2.39
13.38 1.83 2.39
13.34 2.10 2.39
13.30 2.36 2.39
13.25 2.63 2.39
13.20 2.89 2.39
13.14 3.16 2.39
13.07 3.42 2.39
13.00 3.68 2.39
12.92 3.94 2.39
12.84 4.20 2.39
12.35 4.31 2.32
12.25 4.56 2.32
12.26 4.84 2.34
12.28 5.14 2.36
12.30 5.44 2.38
12.23 5.70 2.39
12.11 5.95 2.39
11.99 6.19 2.39
11.86 6.42 2.39
11.72 6.66 2.39
11.58 6.89 2.39
11.44 7.12 2.39
11.29 7.34 2.39
11.14 7.56 2.39
10.98 7.78 2.39
10.82 8.00 2.39
10.65 8.21 2.39
10.48 8.41 2.39
10.30 8.62 2.39
10.12 8.82 2.39
9.94 9.01 2.39
9.75 9.21 2.39
9.56 9.39 2.39
9.36 9.58 2.39
9.16 9.76 2.39
8.96 9.93 2.39
8.75 10.10 2.39
8.54 10.27 2.39
8.33 10.43 2.39
8.11 10.59 2.39
7.89 10.74 2.39
7.67 10.89 2.39
7.44 11.03 2.39
7.21 11.17 2.39
6.98 11.30 2.39
6.74 11.42 2.39
6.50 11.54 2.39
