ply
format ascii 1.0
element vertex 2807
property float32 x
property float32 y
property float32 z
end_header
12.26 -3.87 0.35
12.25 -3.60 0.35
12.24 -3.33 0.35
12.23 -3.07 0.34
12.22 -2.81 0.34
12.20 -2.55 0.34
12.19 -2.29 0.34
12.18 -2.04 0.33
12.17 -1.78 0.33
12.16 -1.53 0.33
12.15 -1.28 0.33
12.14 -1.04 0.33
12.13 -0.79 0.33
12.12 -0.55 0.33
10.63 -0.27 0.28
12.10 -0.06 0.32
12.03 0.18 0.32
11.98 0.42 0.32
11.97 0.66 0.32
11.96 0.90 0.32
11.95 1.14 0.32
11.95 1.39 0.32
11.98 1.63 0.32
12.02 1.89 0.32
10.54 1.87 0.28
12.00 2.38 0.32
11.99 2.63 0.32
11.98 2.88 0.32
11.97 3.13 0.33
11.96 3.39 0.33
11.95 3.65 0.33
11.94 3.91 0.33
11.93 4.17 0.33
11.92 4.44 0.33
11.91 4.71 0.33
11.90 4.98 0.34
11.88 5.26 0.34
11.87 5.54 0.34
11.46 5.63 0.33
11.04 5.70 0.32
10.89 5.90 0.32
10.66 6.06 0.32
10.38 6.18 0.31
10.26 6.39 0.31
10.10 6.57 0.31
10.19 6.93 0.32
10.18 7.22 0.32
10.05 7.44 0.32
10.29 7.94 0.34
11.45 9.21 0.38
11.01 9.23 0.37
10.70 9.34 0.37
11.45 10.41 0.40
11.35 10.74 0.40
10.91 10.74 0.39
10.46 10.72 0.39
10.36 11.06 0.39
11.23 12.49 0.43
10.77 12.47 0.42
10.38 12.51 0.42
10.73 13.48 0.44
10.41 13.62 0.44
10.15 13.85 0.44
9.96 14.18 0.45
9.76 14.50 0.45
9.65 14.98 0.46
12.11 19.66 0.59
12.07 20.51 0.61
12.04 21.42 0.63
12.00 22.39 0.65
15.73 36.04 1.01
9.41 31.41 0.85
6.86 35.52 0.94
-14.77 14.55 0.58
-14.36 13.59 0.55
-14.31 13.01 0.54
-14.29 12.48 0.53
-14.27 11.97 0.52
-14.32 11.52 0.52
-14.36 11.09 0.51
-14.41 10.67 0.50
-14.46 10.27 0.50
-14.51 9.87 0.50
-14.57 9.49 0.49
-14.62 9.11 0.49
-14.65 8.72 0.48
-14.69 8.35 0.48
-14.72 7.98 0.48
-14.80 7.65 0.48
-14.85 7.30 0.47
-14.84 6.93 0.47
-14.83 6.56 0.47
-14.83 6.21 0.46
-14.82 5.86 0.46
-14.83 5.52 0.46
-14.83 5.18 0.45
-14.83 4.85 0.45
-14.82 4.52 0.45
-14.82 4.20 0.45
-14.82 3.88 0.44
-14.81 3.56 0.44
-14.83 3.25 0.44
-14.85 2.95 0.44
-14.88 2.64 0.44
-14.90 2.34 0.44
-14.93 2.04 0.44
-14.95 1.73 0.44
-14.93 1.43 0.44
-14.92 1.13 0.44
-14.90 0.82 0.44
-14.89 0.52 0.44
-14.87 0.22 0.44
-14.85 -0.07 0.44
-14.83 -0.37 0.44
-14.80 -0.67 0.44
-14.76 -0.96 0.44
-14.72 -1.26 0.44
-14.69 -1.55 0.44
-14.65 -1.85 0.44
-14.61 -2.14 0.44
-14.54 -2.43 0.44
-14.44 -2.71 0.44
-14.36 -3.00 0.44
-14.28 -3.28 0.44
-14.19 -3.56 0.44
-14.11 -3.84 0.44
-14.03 -4.13 0.44
-13.96 -4.41 0.44
-13.91 -4.71 0.44
-13.87 -5.00 0.44
-13.82 -5.30 0.45
-13.79 -5.61 0.45
-13.75 -5.92 0.45
-13.71 -6.23 0.46
-13.69 -6.56 0.46
-13.68 -6.89 0.46
-13.67 -7.23 0.47
-13.66 -7.58 0.47
-13.65 -7.94 0.48
-13.63 -8.30 0.49
-13.62 -8.67 0.49
-13.60 -9.05 0.50
-13.58 -9.43 0.50
-13.55 -9.82 0.51
-13.52 -10.22 0.52
-13.52 -10.65 0.52
-13.52 -11.10 0.53
-13.51 -11.55 0.54
-13.49 -12.01 0.55
-13.46 -12.48 0.56
-13.41 -12.95 0.57
-13.35 -13.42 0.58
-13.33 -13.95 0.59
-13.30 -14.49 0.60
-13.30 -15.08 0.61
-13.27 -15.68 0.63
-13.23 -16.27 0.64
-13.20 -16.93 0.66
-13.19 -17.63 0.67
-13.21 -18.41 0.69
-13.33 -19.40 0.72
-13.40 -20.36 0.75
-13.39 -21.27 0.77
-13.48 -22.39 0.80
-13.44 -23.36 0.82
-13.40 -24.42 0.85
-13.34 -25.51 0.88
-13.22 -26.57 0.91
-13.18 -27.88 0.94
-13.07 -29.14 0.97
-13.06 -30.77 1.02
-12.89 -32.14 1.06
-12.65 -33.48 1.09
-12.34 -34.76 1.12
-11.87 -35.68 1.14
-11.38 -36.63 1.17
-10.91 -37.78 1.20
-10.44 -39.11 1.23
-10.00 -40.70 1.27
-9.66 -43.04 1.34
-9.22 -45.33 1.40
-8.92 -48.85 1.51
0.00 -31.23 1.64
0.63 -31.20 1.64
1.25 -31.17 1.64
2.86 -47.35 2.49
3.81 -47.31 2.49
4.57 -45.30 2.39
5.48 -45.23 2.39
6.39 -45.14 2.39
7.30 -45.03 2.39
8.22 -44.96 2.39
3.22 -15.83 0.85
10.03 -44.65 2.39
10.93 -44.47 2.39
11.83 -44.28 2.39
12.72 -44.06 2.39
13.62 -43.83 2.39
14.50 -43.58 2.39
15.39 -43.31 2.39
16.27 -43.03 2.39
17.14 -42.73 2.39
18.01 -42.41 2.39
18.87 -42.07 2.39
19.73 -41.72 2.39
20.58 -41.35 2.39
21.42 -40.96 2.39
22.26 -40.56 2.39
23.09 -40.14 2.39
23.91 -39.70 2.39
24.73 -39.25 2.39
25.53 -38.78 2.39
26.33 -38.29 2.39
27.12 -37.79 2.39
27.89 -37.27 2.39
28.66 -36.74 2.39
29.42 -36.19 2.39
30.17 -35.62 2.39
30.91 -35.04 2.39
24.67 -26.86 1.87
24.42 -25.54 1.81
24.55 -24.67 1.78
24.54 -23.68 1.74
24.48 -22.70 1.70
24.46 -21.78 1.67
22.14 -18.93 1.48
22.03 -18.09 1.45
21.94 -17.29 1.42
21.80 -16.48 1.39
23.00 -16.67 1.44
23.84 -16.56 1.47
25.44 -16.93 1.55
24.77 -15.77 1.48
23.92 -14.56 1.41
23.89 -13.90 1.39
23.87 -13.25 1.38
23.84 -12.62 1.36
23.82 -12.00 1.34
23.79 -11.39 1.33
23.77 -10.80 1.31
23.74 -10.22 1.30
23.72 -9.65 1.28
23.70 -9.09 1.27
23.67 -8.54 1.26
23.65 -8.00 1.25
12.26 -3.87 0.64
12.25 -3.60 0.64
12.24 -3.33 0.63
12.23 -3.07 0.63
12.22 -2.81 0.62
12.20 -2.55 0.62
12.19 -2.29 0.62
12.18 -2.04 0.61
12.17 -1.78 0.61
12.16 -1.53 0.61
12.15 -1.28 0.60
12.14 -1.04 0.60
12.13 -0.79 0.60
12.12 -0.55 0.60
10.63 -0.27 0.52
12.10 -0.06 0.60
12.03 0.18 0.59
11.98 0.42 0.59
11.97 0.66 0.59
11.96 0.90 0.59
11.95 1.14 0.59
11.95 1.39 0.59
11.99 1.64 0.59
12.02 1.89 0.60
10.54 1.87 0.52
12.00 2.38 0.60
11.99 2.63 0.60
11.98 2.88 0.60
11.97 3.13 0.60
11.96 3.39 0.61
11.95 3.65 0.61
11.94 3.91 0.61
11.93 4.17 0.62
11.92 4.44 0.62
11.91 4.71 0.62
11.90 4.98 0.63
11.88 5.26 0.63
11.87 5.54 0.64
11.46 5.63 0.62
10.99 5.68 0.60
10.71 5.81 0.59
10.52 5.98 0.59
10.38 6.18 0.59
10.26 6.39 0.59
10.10 6.57 0.58
10.05 6.83 0.59
10.01 7.11 0.59
10.05 7.44 0.61
10.29 7.94 0.63
11.45 9.21 0.71
11.06 9.27 0.70
10.55 9.21 0.68
11.45 10.41 0.75
11.35 10.74 0.76
10.95 10.78 0.74
10.46 10.72 0.72
10.28 10.97 0.73
9.94 11.05 0.72
10.81 12.51 0.80
10.33 12.45 0.78
10.00 12.55 0.78
10.51 13.76 0.84
10.23 13.96 0.84
9.96 14.18 0.84
9.76 14.50 0.84
9.80 15.22 0.87
10.64 17.27 0.98
12.07 20.51 1.15
12.04 21.42 1.19
12.00 22.39 1.23
15.70 35.98 1.90
17.99 46.20 2.40
17.00 46.38 2.39
16.06 46.70 2.39
15.12 47.00 2.39
9.41 31.41 1.59
13.21 47.53 2.39
12.25 47.77 2.39
11.28 47.99 2.39
10.31 48.18 2.39
6.87 35.59 1.76
8.36 48.52 2.39
7.38 48.65 2.39
6.40 48.77 2.39
5.42 48.86 2.39
4.44 48.94 2.39
3.45 48.99 2.39
2.47 49.02 2.39
1.48 49.04 2.39
-8.12 47.17 2.35
-9.23 47.83 2.39
-10.18 47.60 2.39
-11.12 47.35 2.39
-11.58 45.19 2.29
-11.41 41.09 2.10
-11.27 37.63 1.94
-11.15 34.68 1.80
-11.04 32.12 1.68
-10.94 29.86 1.57
-14.87 15.87 1.09
-13.84 14.20 1.00
-13.70 13.50 0.97
-13.67 12.94 0.95
-13.63 12.40 0.93
-13.63 11.90 0.91
-13.69 11.47 0.90
-13.74 11.05 0.89
-13.79 10.65 0.88
-13.84 10.25 0.87
-13.89 9.87 0.86
-13.95 9.49 0.86
-14.01 9.13 0.85
-14.07 8.77 0.84
-14.11 8.40 0.84
-14.15 8.04 0.83
-14.22 7.71 0.83
-14.33 7.40 0.82
-14.42 7.09 0.82
-14.42 6.73 0.81
-14.42 6.38 0.81
-14.42 6.04 0.80
-14.42 5.70 0.80
-14.44 5.38 0.79
-14.45 5.05 0.79
-14.44 4.73 0.78
-14.44 4.41 0.78
-14.44 4.09 0.77
-14.44 3.78 0.77
-14.43 3.47 0.77
-14.43 3.16 0.76
-14.45 2.87 0.76
-14.47 2.57 0.76
-14.50 2.28 0.76
-14.52 1.98 0.76
-14.55 1.69 0.76
-14.58 1.40 0.76
-14.56 1.10 0.76
-14.55 0.81 0.76
-14.53 0.51 0.76
-14.52 0.22 0.76
-14.50 -0.07 0.76
-14.49 -0.36 0.76
-14.49 -0.65 0.76
-14.45 -0.94 0.76
-14.42 -1.23 0.76
-14.38 -1.52 0.76
-14.34 -1.81 0.76
-14.31 -2.10 0.76
-14.24 -2.38 0.76
-14.14 -2.65 0.75
-14.03 -2.93 0.75
-13.94 -3.20 0.75
-13.86 -3.48 0.75
-13.78 -3.75 0.75
-13.70 -4.03 0.75
-13.62 -4.30 0.75
-13.57 -4.59 0.75
-13.52 -4.88 0.76
-13.47 -5.17 0.76
-13.42 -5.46 0.76
-13.38 -5.76 0.77
-13.34 -6.06 0.77
-13.31 -6.37 0.78
-13.29 -6.70 0.79
-13.28 -7.03 0.79
-13.26 -7.36 0.80
-13.25 -7.71 0.81
-13.23 -8.06 0.82
-13.21 -8.41 0.83
-13.19 -8.78 0.84
-13.17 -9.15 0.85
-13.14 -9.53 0.86
-13.11 -9.91 0.87
-13.08 -10.31 0.88
-13.07 -10.73 0.90
-13.07 -11.18 0.91
-13.06 -11.64 0.93
-13.04 -12.09 0.94
-13.00 -12.55 0.96
-12.94 -13.01 0.97
-12.88 -13.47 0.99
-12.82 -13.96 1.01
-12.79 -14.50 1.03
-12.77 -15.08 1.05
-12.75 -15.68 1.07
-12.70 -16.29 1.10
-12.67 -16.93 1.12
-12.64 -17.62 1.15
-12.62 -18.36 1.18
-12.72 -19.33 1.23
-12.81 -20.33 1.28
-12.77 -21.21 1.32
-12.76 -22.18 1.36
-12.70 -23.15 1.40
-12.59 -24.09 1.44
-12.54 -25.20 1.49
-12.45 -26.34 1.55
-12.44 -27.73 1.61
-12.32 -29.02 1.67
-12.19 -30.40 1.74
-12.01 -31.77 1.80
-11.76 -33.11 1.86
-11.44 -34.40 1.92
-10.96 -35.30 1.96
-10.42 -36.10 1.99
-9.91 -37.12 2.03
-9.48 -38.59 2.10
-9.00 -40.08 2.17
-8.47 -41.63 2.25
-7.96 -43.61 2.34
-7.23 -44.64 2.39
-6.33 -44.80 2.39
-5.44 -44.93 2.39
-4.53 -45.05 2.39
-3.79 -47.11 2.49
-2.84 -47.20 2.49
-1.90 -47.27 2.49
-0.95 -47.32 2.49
0.00 -30.92 2.33
0.67 -33.14 2.49
1.33 -33.13 2.49
1.87 -30.89 2.33
2.67 -33.08 2.49
3.33 -33.03 2.49
3.83 -31.61 2.39
4.47 -31.54 2.39
5.10 -31.46 2.39
5.73 -31.36 2.39
3.22 -15.83 1.21
6.99 -31.14 2.39
6.11 -24.84 1.92
6.93 -25.93 2.01
8.88 -30.74 2.39
9.50 -30.57 2.39
10.12 -30.39 2.39
10.73 -30.20 2.39
8.93 -23.62 1.88
9.82 -24.48 1.97
12.55 -29.55 2.39
13.15 -29.31 2.39
13.74 -29.05 2.39
14.33 -28.79 2.39
14.91 -28.51 2.39
14.42 -26.26 2.23
15.02 -26.10 2.24
16.63 -27.61 2.39
14.27 -22.65 1.99
14.68 -22.29 1.98
18.30 -26.61 2.39
18.84 -26.25 2.39
19.37 -25.88 2.39
19.90 -25.51 2.39
20.42 -25.12 2.39
20.94 -24.72 2.39
21.44 -24.31 2.39
21.94 -23.89 2.39
22.43 -23.46 2.39
22.91 -23.02 2.39
23.38 -22.57 2.39
23.85 -22.11 2.39
24.30 -21.64 2.39
22.54 -19.28 2.18
22.03 -18.08 2.09
21.92 -17.27 2.05
21.80 -16.48 2.00
23.00 -16.67 2.08
23.85 -16.56 2.13
25.44 -16.93 2.24
24.77 -15.77 2.15
23.92 -14.56 2.05
23.89 -13.90 2.02
23.87 -13.25 1.99
23.84 -12.61 1.97
23.82 -11.99 1.94
23.79 -11.39 1.92
23.77 -10.80 1.90
23.74 -10.22 1.88
23.72 -9.65 1.86
23.70 -9.09 1.84
23.67 -8.54 1.83
23.65 -8.00 1.81
12.26 -3.87 0.93
12.25 -3.60 0.93
12.24 -3.33 0.92
12.23 -3.07 0.91
12.22 -2.80 0.91
12.20 -2.55 0.90
12.19 -2.29 0.90
12.18 -2.03 0.89
12.17 -1.78 0.89
12.16 -1.53 0.88
12.15 -1.28 0.88
12.14 -1.04 0.88
12.13 -0.79 0.88
12.12 -0.55 0.87
10.63 -0.27 0.76
12.10 -0.06 0.87
12.03 0.18 0.86
11.98 0.42 0.86
11.97 0.66 0.86
11.96 0.90 0.86
11.95 1.14 0.86
11.95 1.39 0.86
11.99 1.64 0.87
12.02 1.89 0.87
10.54 1.87 0.77
12.00 2.38 0.88
11.99 2.63 0.88
11.98 2.88 0.88
11.97 3.13 0.88
11.96 3.39 0.89
11.95 3.65 0.89
11.94 3.91 0.90
11.93 4.17 0.90
11.92 4.44 0.91
11.91 4.71 0.91
11.90 4.98 0.92
11.88 5.26 0.93
11.87 5.54 0.93
11.46 5.63 0.91
11.02 5.69 0.88
10.89 5.90 0.88
10.66 6.06 0.87
10.38 6.18 0.86
10.26 6.39 0.86
10.10 6.57 0.86
10.19 6.93 0.88
10.13 7.19 0.88
10.05 7.44 0.89
10.29 7.94 0.92
11.45 9.21 1.04
11.06 9.27 1.02
10.60 9.25 1.00
10.16 9.23 0.97
9.92 9.38 0.97
10.95 10.78 1.09
10.50 10.77 1.07
10.07 10.75 1.04
9.78 10.87 1.04
10.81 12.51 1.17
10.36 12.49 1.15
9.93 12.47 1.13
9.62 12.59 1.12
10.15 13.85 1.22
9.96 14.18 1.23
9.76 14.50 1.24
9.71 15.07 1.27
10.56 17.15 1.43
12.07 20.51 1.69
12.04 21.42 1.74
12.00 22.39 1.80
15.40 30.19 2.40
14.79 30.48 2.40
14.17 30.77 2.40
13.55 31.05 2.40
12.92 31.31 2.40
12.29 31.55 2.40
11.65 31.79 2.40
11.01 32.01 2.40
10.36 32.22 2.40
9.41 31.41 2.33
9.06 32.59 2.40
8.40 32.76 2.40
7.74 32.91 2.40
7.07 33.05 2.40
6.41 33.18 2.40
5.74 33.29 2.40
5.04 33.20 2.39
4.37 33.29 2.39
3.70 33.36 2.39
3.03 33.41 2.39
2.36 33.45 2.39
1.69 33.48 2.39
1.06 34.93 2.49
0.35 34.93 2.49
-0.35 34.91 2.49
-1.05 34.88 2.49
-1.75 34.84 2.49
-2.44 34.78 2.49
-3.14 34.71 2.49
-3.84 34.64 2.49
-4.53 34.54 2.49
-5.22 34.43 2.49
-5.91 34.30 2.49
-6.59 34.16 2.49
-7.12 33.30 2.44
-7.62 32.43 2.39
-8.26 32.26 2.39
-8.91 32.07 2.39
-9.54 31.87 2.39
-10.17 31.65 2.39
-10.80 31.42 2.39
-10.95 29.90 2.29
-10.87 27.93 2.16
-10.80 26.18 2.04
-10.73 24.61 1.94
-10.68 23.19 1.84
-10.62 21.91 1.76
-10.58 20.74 1.68
-10.53 19.67 1.61
-10.58 18.84 1.56
-13.81 15.36 1.50
-13.09 13.97 1.40
-13.09 13.42 1.37
-13.07 12.88 1.34
-13.05 12.35 1.31
-13.03 11.85 1.29
-13.07 11.42 1.27
-13.14 11.01 1.25
-13.19 10.62 1.24
-13.25 10.23 1.23
-13.31 9.86 1.21
-13.37 9.50 1.20
-13.44 9.14 1.19
-13.50 8.79 1.18
-13.56 8.45 1.17
-13.60 8.10 1.16
-13.68 7.78 1.16
-13.78 7.47 1.15
-13.88 7.17 1.15
-13.98 6.87 1.15
-14.02 6.55 1.14
-14.02 6.21 1.13
-14.03 5.87 1.12
-14.04 5.55 1.12
-14.06 5.24 1.11
-14.08 4.92 1.10
-14.08 4.61 1.10
-14.08 4.30 1.09
-14.08 3.99 1.09
-14.08 3.69 1.08
-14.07 3.38 1.07
-14.06 3.09 1.07
-14.07 2.79 1.07
-14.09 2.50 1.06
-14.11 2.22 1.06
-14.14 1.93 1.06
-14.16 1.64 1.06
-14.19 1.36 1.06
-14.23 1.08 1.06
-14.21 0.79 1.06
-14.20 0.50 1.06
-14.18 0.22 1.06
-14.17 -0.07 1.06
-14.16 -0.35 1.06
-14.15 -0.64 1.06
-14.15 -0.92 1.06
-14.12 -1.21 1.06
-14.08 -1.49 1.06
-14.05 -1.77 1.06
-14.01 -2.05 1.06
-13.96 -2.33 1.06
-13.85 -2.60 1.06
-13.75 -2.87 1.06
-13.65 -3.13 1.05
-13.54 -3.40 1.05
-13.46 -3.66 1.05
-13.38 -3.93 1.05
-13.30 -4.20 1.05
-13.24 -4.48 1.05
-13.20 -4.76 1.06
-13.15 -5.04 1.06
-13.10 -5.33 1.07
-13.05 -5.61 1.07
-12.99 -5.90 1.08
-12.95 -6.20 1.08
-12.93 -6.51 1.09
-12.91 -6.83 1.10
-12.89 -7.16 1.11
-12.87 -7.49 1.12
-12.85 -7.82 1.14
-12.83 -8.17 1.15
-12.80 -8.52 1.16
-12.78 -8.88 1.18
-12.75 -9.24 1.19
-12.72 -9.61 1.21
-12.69 -10.00 1.22
-12.65 -10.39 1.24
-12.64 -10.81 1.26
-12.63 -11.25 1.28
-12.62 -11.70 1.30
-12.60 -12.17 1.33
-12.55 -12.62 1.35
-12.49 -13.06 1.37
-12.42 -13.53 1.39
-12.35 -14.00 1.41
-12.28 -14.51 1.44
-12.25 -15.07 1.47
-12.22 -15.67 1.50
-12.18 -16.28 1.54
-12.12 -16.90 1.58
-12.06 -17.54 1.61
-11.99 -18.22 1.65
-12.12 -19.25 1.72
-12.23 -20.30 1.79
-12.17 -21.17 1.85
-12.10 -22.05 1.90
-12.01 -22.96 1.96
-11.84 -23.80 2.01
-11.55 -24.42 2.04
-11.47 -25.59 2.12
-11.35 -26.74 2.20
-11.44 -28.52 2.33
-11.14 -29.49 2.38
-10.79 -30.39 2.44
-10.48 -31.49 2.51
-10.09 -32.50 2.57
-9.66 -33.48 2.63
-8.16 -30.56 2.39
-7.55 -30.72 2.39
-6.93 -30.88 2.39
-6.31 -31.02 2.39
-5.69 -31.15 2.39
-5.06 -31.27 2.39
-4.47 -31.64 2.41
-3.97 -32.82 2.49
-3.31 -32.90 2.49
-2.65 -32.98 2.49
-1.99 -33.03 2.49
-1.33 -33.08 2.49
-0.66 -33.11 2.49
0.00 -25.46 2.49
0.51 -25.46 2.49
1.03 -25.45 2.49
1.54 -25.43 2.49
2.05 -25.41 2.49
2.56 -25.37 2.49
3.07 -25.32 2.49
3.43 -24.22 2.39
3.92 -24.15 2.39
4.40 -24.08 2.39
3.21 -15.78 1.57
5.37 -23.90 2.39
5.85 -23.80 2.39
6.33 -23.68 2.39
5.94 -20.55 2.09
7.29 -23.45 2.39
7.76 -23.31 2.39
8.23 -23.16 2.39
8.70 -23.00 2.39
9.16 -22.83 2.39
9.62 -22.65 2.39
10.08 -22.47 2.39
10.53 -22.27 2.39
10.98 -22.06 2.39
11.43 -21.85 2.39
11.87 -21.62 2.39
12.31 -21.39 2.39
12.74 -21.15 2.39
13.17 -20.90 2.39
13.59 -20.64 2.39
14.01 -20.37 2.39
14.42 -20.10 2.39
14.14 -18.89 2.28
14.56 -18.66 2.29
15.63 -19.22 2.39
16.02 -18.91 2.39
16.40 -18.59 2.39
14.05 -15.30 2.00
14.61 -15.28 2.04
17.52 -17.60 2.39
17.88 -17.25 2.39
18.23 -16.90 2.39
18.58 -16.54 2.39
18.91 -16.17 2.39
19.24 -15.80 2.39
19.57 -15.41 2.39
19.88 -15.03 2.39
20.19 -14.63 2.39
20.49 -14.23 2.39
20.78 -13.82 2.39
21.07 -13.41 2.39
21.34 -12.99 2.39
21.61 -12.57 2.39
21.87 -12.14 2.39
22.12 -11.70 2.39
22.36 -11.26 2.39
22.59 -10.81 2.39
22.82 -10.36 2.39
23.03 -9.91 2.39
23.24 -9.45 2.39
23.43 -8.99 2.39
23.62 -8.52 2.39
23.65 -8.00 2.38
12.26 -3.87 1.22
12.25 -3.60 1.21
12.24 -3.33 1.21
12.23 -3.07 1.20
12.22 -2.80 1.19
12.20 -2.54 1.18
12.19 -2.29 1.18
12.18 -2.03 1.17
12.17 -1.78 1.17
12.16 -1.53 1.16
12.15 -1.28 1.16
12.14 -1.04 1.15
12.13 -0.79 1.15
12.12 -0.55 1.15
10.63 -0.26 1.01
12.10 -0.06 1.14
12.03 0.18 1.14
11.98 0.42 1.13
11.97 0.66 1.13
11.96 0.90 1.13
11.95 1.14 1.13
11.95 1.39 1.14
11.99 1.64 1.14
12.02 1.89 1.15
10.54 1.87 1.01
12.00 2.38 1.15
11.99 2.63 1.16
11.98 2.88 1.16
11.97 3.13 1.16
11.96 3.39 1.17
11.95 3.65 1.18
11.94 3.91 1.18
11.93 4.17 1.19
11.92 4.44 1.20
11.91 4.71 1.20
11.90 4.98 1.21
11.88 5.26 1.22
11.87 5.54 1.23
11.46 5.63 1.20
11.05 5.71 1.17
10.77 5.84 1.15
10.56 6.01 1.14
10.38 6.18 1.13
10.26 6.39 1.13
10.14 6.61 1.13
10.09 6.86 1.14
10.07 7.15 1.16
10.11 7.48 1.18
10.29 7.95 1.22
11.45 9.21 1.38
11.06 9.27 1.35
10.59 9.25 1.32
10.16 9.23 1.28
9.70 9.18 1.25
9.45 9.31 1.24
10.50 10.77 1.41
10.07 10.75 1.38
9.65 10.73 1.35
9.33 10.80 1.34
10.27 12.38 1.51
9.93 12.47 1.49
9.51 12.45 1.47
9.25 12.62 1.46
9.96 14.18 1.62
9.76 14.50 1.64
9.80 15.22 1.69
10.56 17.15 1.88
10.54 17.91 1.95
12.04 21.42 2.30
12.00 22.39 2.38
11.41 22.36 2.35
10.77 22.20 2.31
10.28 22.33 2.30
10.23 23.43 2.39
9.75 23.62 2.39
9.27 23.81 2.39
8.79 23.99 2.39
8.31 24.16 2.39
7.82 24.31 2.39
7.33 24.46 2.39
6.84 24.60 2.39
6.34 24.73 2.39
5.84 24.85 2.39
5.34 24.95 2.39
4.83 25.02 2.39
4.33 25.11 2.39
3.82 25.18 2.39
3.32 25.25 2.39
2.81 25.30 2.39
2.30 25.35 2.39
1.79 25.38 2.39
1.28 25.40 2.39
0.80 26.52 2.49
0.27 26.52 2.49
-0.26 26.51 2.49
-0.79 26.49 2.49
-1.33 26.46 2.49
-1.86 26.42 2.49
-2.38 26.37 2.49
-2.91 26.31 2.49
-3.44 26.23 2.49
-3.96 26.15 2.49
-4.48 26.06 2.49
-5.01 25.95 2.49
-5.52 25.83 2.49
-6.04 25.71 2.49
-6.55 25.57 2.49
-6.77 24.37 2.39
-7.25 24.22 2.39
-7.73 24.06 2.39
-8.21 23.89 2.39
-8.69 23.71 2.39
-9.16 23.52 2.39
-9.62 23.33 2.39
-10.08 23.12 2.39
-10.54 22.90 2.39
-10.62 21.91 2.31
-10.58 20.74 2.21
-10.53 19.67 2.12
-10.49 18.68 2.04
-10.45 17.77 1.96
-10.42 16.92 1.89
-10.39 16.14 1.83
-10.36 15.40 1.77
-10.33 14.71 1.71
-10.30 14.07 1.66
-10.40 13.62 1.63
-10.57 13.28 1.62
-10.73 12.94 1.60
-10.89 12.61 1.59
-11.04 12.27 1.58
-11.20 11.96 1.57
-11.41 11.70 1.56
-11.85 11.68 1.59
-12.30 11.64 1.62
-12.50 11.37 1.62
-12.54 10.95 1.60
-12.61 10.57 1.58
-12.67 10.20 1.56
-12.71 9.82 1.54
-12.73 9.43 1.52
-12.81 9.10 1.51
-12.89 8.77 1.50
-12.97 8.45 1.49
-13.05 8.13 1.48
-13.13 7.82 1.47
-13.26 7.54 1.47
-13.36 7.25 1.46
-13.46 6.95 1.46
-13.56 6.66 1.46
-13.65 6.37 1.45
-13.65 6.04 1.44
-13.66 5.72 1.43
-13.68 5.41 1.42
-13.70 5.10 1.41
-13.72 4.80 1.41
-13.73 4.50 1.40
-13.74 4.19 1.39
-13.74 3.90 1.38
-13.74 3.60 1.38
-13.73 3.30 1.37
-13.72 3.01 1.36
-13.72 2.72 1.36
-13.72 2.44 1.35
-13.75 2.16 1.35
-13.77 1.88 1.35
-13.80 1.60 1.35
-13.83 1.33 1.35
-13.86 1.05 1.35
-13.89 0.77 1.35
-13.88 0.49 1.35
-13.86 0.21 1.35
-13.85 -0.07 1.35
-13.84 -0.34 1.35
-13.83 -0.62 1.35
-13.83 -0.90 1.35
-13.82 -1.18 1.35
-13.80 -1.46 1.35
-13.76 -1.73 1.35
-13.73 -2.01 1.36
-13.68 -2.28 1.36
-13.58 -2.55 1.35
-13.48 -2.81 1.35
-13.38 -3.07 1.34
-13.28 -3.33 1.34
-13.18 -3.59 1.34
-13.08 -3.84 1.34
-13.00 -4.11 1.34
-12.93 -4.37 1.34
-12.88 -4.65 1.34
-12.83 -4.92 1.35
-12.78 -5.20 1.35
-12.73 -5.48 1.36
-12.68 -5.76 1.37
-12.63 -6.05 1.37
-12.56 -6.33 1.38
-12.54 -6.63 1.39
-12.51 -6.95 1.41
-12.49 -7.26 1.42
-12.46 -7.58 1.43
-12.43 -7.91 1.45
-12.39 -8.25 1.46
-12.37 -8.59 1.48
-12.33 -8.94 1.50
-12.29 -9.29 1.51
-12.24 -9.65 1.53
-12.20 -10.02 1.55
-12.15 -10.39 1.57
-12.11 -10.79 1.60
-12.09 -11.21 1.62
-12.07 -11.65 1.65
-12.05 -12.11 1.68
-12.00 -12.55 1.71
-11.90 -12.96 1.73
-11.80 -13.38 1.76
-11.69 -13.81 1.78
-11.58 -14.25 1.81
-11.48 -14.71 1.84
-11.37 -15.20 1.87
-11.31 -15.76 1.91
-11.24 -16.36 1.95
-11.10 -16.87 1.99
-10.95 -17.39 2.02
-10.83 -17.98 2.07
-10.71 -18.62 2.11
-10.55 -19.22 2.16
-10.38 -19.85 2.20
-10.31 -20.73 2.28
-10.08 -21.33 2.32
-9.82 -21.89 2.36
-9.50 -22.39 2.39
-9.24 -23.06 2.44
-8.59 -22.74 2.39
-8.13 -22.91 2.39
-7.67 -23.07 2.39
-7.21 -23.22 2.39
-6.74 -23.37 2.39
-6.27 -23.50 2.39
-5.80 -23.63 2.39
-5.33 -23.75 2.39
-4.85 -23.85 2.39
-4.56 -24.98 2.49
-4.06 -25.08 2.49
-3.56 -25.16 2.49
-3.05 -25.23 2.49
-2.54 -25.29 2.49
-2.04 -25.35 2.49
-1.53 -25.39 2.49
-1.02 -25.42 2.49
-0.51 -25.44 2.49
0.00 -20.65 2.49
0.42 -20.65 2.49
0.83 -20.65 2.49
1.25 -20.63 2.49
1.66 -20.61 2.49
2.08 -20.57 2.49
2.49 -20.53 2.49
2.90 -20.49 2.49
3.18 -19.58 2.39
3.57 -19.52 2.39
3.21 -15.78 1.94
4.35 -19.37 2.39
4.74 -19.29 2.39
5.13 -19.20 2.39
5.52 -19.10 2.39
5.90 -18.99 2.39
6.28 -18.87 2.39
6.66 -18.75 2.39
7.04 -18.62 2.39
7.42 -18.50 2.39
7.80 -18.35 2.39
8.17 -18.20 2.39
8.53 -18.04 2.39
8.90 -17.87 2.39
9.26 -17.69 2.39
9.61 -17.51 2.39
9.97 -17.32 2.39
10.32 -17.12 2.39
10.66 -16.92 2.39
11.00 -16.71 2.39
11.34 -16.49 2.39
11.67 -16.27 2.39
12.00 -16.03 2.39
12.33 -15.80 2.39
12.65 -15.55 2.39
12.96 -15.30 2.39
13.27 -15.04 2.39
13.58 -14.78 2.39
13.88 -14.51 2.39
14.17 -14.23 2.39
14.46 -13.95 2.39
14.74 -13.67 2.39
15.02 -13.37 2.39
13.82 -11.82 2.16
14.34 -11.77 2.21
15.82 -12.46 2.39
16.07 -12.14 2.39
16.32 -11.82 2.39
16.56 -11.50 2.39
16.79 -11.17 2.39
17.02 -10.83 2.39
13.93 -8.48 1.93
13.93 -8.10 1.91
14.53 -8.06 1.97
17.86 -9.45 2.39
18.06 -9.09 2.39
18.24 -8.73 2.39
18.42 -8.37 2.39
18.60 -8.00 2.39
18.76 -7.63 2.39
18.92 -7.25 2.39
19.07 -6.87 2.39
19.21 -6.49 2.39
12.26 -3.87 1.52
12.25 -3.60 1.51
12.24 -3.33 1.50
12.32 -3.09 1.50
12.30 -2.82 1.49
12.29 -2.56 1.48
12.28 -2.30 1.47
12.27 -2.05 1.46
12.26 -1.79 1.46
12.16 -1.53 1.44
12.15 -1.28 1.44
12.14 -1.04 1.43
12.13 -0.79 1.43
12.12 -0.55 1.42
10.63 -0.26 1.25
12.10 -0.06 1.42
12.03 0.18 1.41
11.98 0.42 1.41
11.97 0.66 1.41
11.96 0.90 1.41
11.95 1.15 1.41
11.95 1.39 1.41
11.99 1.64 1.42
12.02 1.89 1.42
10.54 1.87 1.25
12.00 2.38 1.43
11.99 2.63 1.44
11.98 2.88 1.44
11.97 3.14 1.45
12.05 3.41 1.46
12.04 3.67 1.47
12.03 3.94 1.48
12.02 4.20 1.49
12.01 4.47 1.50
11.99 4.74 1.51
11.90 4.98 1.50
11.88 5.26 1.52
11.87 5.54 1.53
11.45 5.63 1.49
11.04 5.70 1.45
10.89 5.90 1.44
10.66 6.06 1.43
10.38 6.18 1.41
10.26 6.39 1.41
10.10 6.58 1.40
10.19 6.93 1.44
10.18 7.23 1.45
10.05 7.44 1.46
10.29 7.95 1.51
11.45 9.21 1.71
11.06 9.27 1.68
10.59 9.25 1.64
10.16 9.23 1.60
9.74 9.22 1.56
9.32 9.18 1.52
9.05 9.28 1.51
10.07 10.75 1.71
9.65 10.73 1.68
9.22 10.67 1.64
8.84 10.66 1.61
8.77 11.01 1.64
9.51 12.45 1.82
9.11 12.43 1.79
8.75 12.46 1.77
9.76 14.50 2.03
9.80 15.22 2.11
10.55 17.12 2.34
10.40 17.67 2.39
10.08 17.93 2.39
9.71 18.13 2.39
9.35 18.32 2.39
8.98 18.50 2.39
8.60 18.68 2.39
8.23 18.84 2.39
7.84 19.00 2.39
7.46 19.15 2.39
7.07 19.30 2.39
6.68 19.43 2.39
6.29 19.56 2.39
5.90 19.68 2.39
5.50 19.77 2.39
5.10 19.87 2.39
4.70 19.97 2.39
4.29 20.06 2.39
3.89 20.13 2.39
3.48 20.20 2.39
3.08 20.27 2.39
2.67 20.32 2.39
2.26 20.37 2.39
1.85 20.40 2.39
1.45 20.58 2.41
1.07 21.33 2.49
0.65 21.34 2.49
0.22 21.35 2.49
-0.21 21.34 2.49
-0.64 21.33 2.49
-1.07 21.31 2.49
-1.49 21.27 2.49
-1.92 21.23 2.49
-2.34 21.19 2.49
-2.77 21.13 2.49
-3.19 21.06 2.49
-3.61 20.99 2.49
-4.03 20.91 2.49
-4.45 20.81 2.49
-4.86 20.71 2.49
-5.28 20.61 2.49
-5.69 20.49 2.49
-6.10 20.36 2.49
-6.50 20.23 2.49
-6.62 19.26 2.39
-7.00 19.11 2.39
-7.38 18.96 2.39
-7.76 18.80 2.39
-8.13 18.64 2.39
-8.50 18.46 2.39
-8.86 18.28 2.39
-9.23 18.10 2.39
-9.58 17.90 2.39
-9.94 17.70 2.39
-10.29 17.49 2.39
-10.42 16.93 2.34
-10.39 16.14 2.26
-10.36 15.40 2.19
-10.33 14.72 2.12
-10.30 14.07 2.06
-10.40 13.63 2.02
-10.57 13.28 2.01
-10.73 12.94 1.99
-10.89 12.61 1.97
-11.04 12.28 1.95
-11.20 11.96 1.94
-11.41 11.71 1.94
-11.85 11.68 1.97
-12.00 11.36 1.96
-12.01 10.92 1.92
-12.05 10.53 1.90
-12.12 10.16 1.88
-12.16 9.79 1.85
-12.18 9.41 1.83
-12.20 9.04 1.80
-12.27 8.71 1.79
-12.35 8.40 1.78
-12.43 8.10 1.76
-12.49 7.78 1.75
-12.53 7.46 1.74
-12.65 7.20 1.73
-12.82 6.96 1.74
-13.00 6.72 1.74
-13.16 6.47 1.75
-13.25 6.19 1.74
-13.29 5.89 1.73
-13.32 5.58 1.72
-13.34 5.28 1.71
-13.36 4.98 1.70
-13.38 4.68 1.69
-13.40 4.39 1.69
-13.41 4.09 1.68
-13.41 3.80 1.67
-13.41 3.51 1.66
-13.40 3.23 1.65
-13.40 2.94 1.64
-13.40 2.66 1.64
-13.39 2.38 1.63
-13.40 2.11 1.63
-13.42 1.83 1.63
-13.45 1.56 1.63
-13.48 1.29 1.63
-13.51 1.02 1.63
-13.54 0.75 1.63
-13.57 0.48 1.63
-13.55 0.21 1.63
-13.54 -0.06 1.63
-13.53 -0.34 1.63
-13.53 -0.61 1.63
-13.52 -0.88 1.63
-13.52 -1.15 1.63
-13.51 -1.43 1.64
-13.49 -1.70 1.64
-13.45 -1.97 1.64
-13.42 -2.24 1.64
-13.32 -2.50 1.63
-13.22 -2.76 1.63
-13.12 -3.01 1.62
-13.03 -3.27 1.62
-12.93 -3.52 1.62
-12.83 -3.77 1.61
-12.73 -4.02 1.61
-12.60 -4.26 1.61
-12.54 -4.52 1.61
-12.48 -4.79 1.61
-12.41 -5.05 1.62
-12.34 -5.31 1.62
-12.28 -5.58 1.63
-12.21 -5.84 1.64
-12.13 -6.11 1.64
-12.07 -6.39 1.65
-12.01 -6.67 1.66
-11.97 -6.96 1.68
-11.93 -7.27 1.69
-11.90 -7.58 1.71
-11.86 -7.89 1.73
-11.82 -8.21 1.74
-11.80 -8.56 1.77
-11.79 -8.91 1.79
-11.75 -9.26 1.81
-11.70 -9.60 1.83
-11.65 -9.96 1.86
-11.59 -10.32 1.88
-11.53 -10.69 1.91
-11.47 -11.08 1.93
-11.43 -11.48 1.96
-11.39 -11.92 2.00
-11.35 -12.36 2.03
-11.25 -12.76 2.06
-11.15 -13.17 2.09
-11.05 -13.59 2.12
-10.93 -14.01 2.15
-10.81 -14.45 2.19
-10.70 -14.91 2.22
-10.58 -15.39 2.26
-10.45 -15.88 2.30
-10.33 -16.41 2.35
-10.17 -16.90 2.39
-9.93 -17.26 2.41
-9.65 -17.58 2.43
-9.36 -17.90 2.45
-8.79 -17.66 2.39
-8.43 -17.83 2.39
-8.07 -18.00 2.39
-7.71 -18.16 2.39
-7.34 -18.31 2.39
-6.97 -18.46 2.39
-6.60 -18.60 2.39
-6.23 -18.73 2.39
-5.85 -18.85 2.39
-5.47 -18.97 2.39
-5.09 -19.08 2.39
-4.91 -20.01 2.49
-4.51 -20.11 2.49
-4.11 -20.20 2.49
-3.70 -20.28 2.49
-3.29 -20.35 2.49
-2.89 -20.42 2.49
-2.48 -20.48 2.49
-2.06 -20.53 2.49
-1.65 -20.57 2.49
-1.24 -20.60 2.49
-0.83 -20.63 2.49
-0.41 -20.64 2.49
0.00 -17.36 2.49
0.35 -17.36 2.49
0.70 -17.35 2.49
1.05 -17.34 2.49
1.40 -17.32 2.49
1.75 -17.29 2.49
2.09 -17.25 2.49
2.44 -17.21 2.49
2.78 -17.16 2.49
3.00 -16.40 2.39
3.21 -15.78 2.31
3.66 -16.28 2.39
3.99 -16.20 2.39
4.31 -16.13 2.39
4.64 -16.04 2.39
4.96 -15.95 2.39
5.28 -15.85 2.39
5.60 -15.75 2.39
5.89 -15.58 2.38
6.23 -15.52 2.39
6.54 -15.39 2.39
6.85 -15.26 2.39
7.17 -15.14 2.39
5.88 -11.81 1.88
6.16 -11.78 1.90
8.07 -14.70 2.39
8.36 -14.53 2.39
8.61 -14.29 2.38
8.95 -14.20 2.39
9.24 -14.02 2.39
9.52 -13.84 2.39
9.80 -13.65 2.39
10.07 -13.45 2.39
10.34 -13.25 2.39
8.36 -10.27 1.88
8.56 -10.11 1.88
11.14 -12.62 2.39
11.39 -12.40 2.39
11.64 -12.17 2.39
11.89 -11.94 2.39
12.13 -11.70 2.39
12.36 -11.46 2.39
12.60 -11.21 2.39
12.82 -10.96 2.39
13.05 -10.71 2.39
13.26 -10.45 2.39
13.47 -10.18 2.39
13.68 -9.91 2.39
13.88 -9.64 2.39
14.08 -9.36 2.39
14.27 -9.08 2.39
13.70 -8.34 2.27
13.95 -8.11 2.28
14.57 -8.09 2.36
14.97 -7.92 2.39
15.13 -7.62 2.39
15.29 -7.31 2.39
15.44 -7.01 2.39
15.58 -6.70 2.39
15.71 -6.39 2.39
15.85 -6.07 2.39
15.97 -5.76 2.39
16.09 -5.44 2.39
12.26 -3.87 1.81
12.25 -3.60 1.80
12.24 -3.33 1.79
12.32 -3.09 1.79
12.30 -2.82 1.78
12.29 -2.56 1.77
12.28 -2.30 1.76
12.27 -2.05 1.75
12.26 -1.79 1.74
12.16 -1.53 1.72
12.15 -1.28 1.72
12.14 -1.03 1.71
12.13 -0.79 1.71
12.12 -0.54 1.70
10.63 -0.26 1.49
12.10 -0.06 1.70
12.03 0.18 1.69
11.98 0.42 1.68
11.97 0.66 1.68
11.96 0.90 1.68
11.95 1.15 1.68
11.95 1.39 1.68
11.99 1.64 1.69
12.02 1.89 1.70
10.54 1.87 1.50
12.00 2.38 1.71
11.99 2.63 1.72
11.98 2.88 1.72
11.97 3.14 1.73
12.05 3.42 1.75
12.04 3.67 1.76
12.03 3.94 1.77
12.02 4.20 1.78
12.01 4.47 1.79
11.99 4.74 1.80
11.90 4.98 1.80
11.88 5.26 1.81
11.87 5.54 1.83
11.45 5.63 1.78
11.04 5.70 1.73
10.89 5.90 1.73
10.66 6.06 1.71
10.38 6.18 1.68
10.26 6.39 1.68
10.10 6.58 1.68
10.19 6.93 1.72
10.18 7.23 1.74
10.05 7.44 1.74
10.29 7.95 1.81
11.45 9.21 2.05
11.06 9.27 2.01
10.59 9.25 1.96
10.16 9.23 1.91
9.74 9.22 1.87
9.34 9.20 1.83
8.96 9.18 1.79
9.79 10.45 1.99
9.65 10.73 2.01
9.26 10.71 1.97
8.87 10.70 1.94
8.82 11.07 1.97
9.44 12.35 2.16
9.11 12.43 2.15
8.77 12.48 2.12
9.59 14.26 2.39
9.31 14.45 2.39
9.01 14.63 2.39
8.72 14.81 2.39
8.42 14.98 2.39
8.12 15.15 2.39
7.81 15.31 2.39
7.50 15.46 2.39
7.19 15.61 2.39
6.87 15.75 2.39
6.56 15.88 2.39
6.24 16.01 2.39
5.91 16.13 2.39
5.58 16.22 2.39
5.25 16.33 2.39
4.92 16.43 2.39
4.59 16.52 2.39
4.26 16.61 2.39
3.93 16.69 2.39
3.59 16.76 2.39
3.25 16.83 2.39
2.91 16.89 2.39
2.57 16.94 2.39
2.23 16.99 2.39
1.89 17.02 2.39
1.58 17.37 2.43
1.26 17.82 2.49
0.90 17.84 2.49
0.54 17.85 2.49
0.18 17.85 2.49
-0.18 17.85 2.49
-0.53 17.84 2.49
-0.89 17.82 2.49
-1.25 17.79 2.49
-1.60 17.76 2.49
-1.96 17.72 2.49
-2.31 17.67 2.49
-2.67 17.62 2.49
-3.02 17.56 2.49
-3.37 17.49 2.49
-3.72 17.41 2.49
-4.07 17.33 2.49
-4.41 17.24 2.49
-4.76 17.14 2.49
-5.10 17.04 2.49
-5.44 16.93 2.49
-5.78 16.81 2.49
-6.11 16.69 2.49
-6.44 16.56 2.49
-6.49 15.74 2.39
-6.80 15.60 2.39
-7.11 15.46 2.39
-7.42 15.31 2.39
-7.72 15.15 2.39
-8.02 14.99 2.39
-8.32 14.82 2.39
-8.61 14.64 2.39
-8.90 14.46 2.39
-9.19 14.28 2.39
-9.47 14.08 2.39
-9.75 13.89 2.39
-10.02 13.68 2.39
-10.29 13.48 2.39
-10.57 13.28 2.39
-10.73 12.94 2.37
-10.89 12.61 2.35
-11.04 12.28 2.33
-11.20 11.96 2.31
-11.41 11.71 2.31
-11.51 11.35 2.28
-11.53 10.92 2.24
-11.55 10.50 2.21
-11.60 10.13 2.18
-11.64 9.76 2.15
-11.66 9.39 2.12
-11.69 9.03 2.09
-11.71 8.68 2.06
-11.77 8.36 2.05
-11.85 8.06 2.03
-11.91 7.76 2.02
-11.95 7.45 2.00
-11.99 7.14 1.98
-12.04 6.85 1.97
-12.21 6.62 1.97
-12.37 6.40 1.98
-12.54 6.16 1.99
-12.70 5.93 1.99
-12.75 5.64 1.98
-12.82 5.37 1.98
-12.90 5.10 1.97
-12.98 4.83 1.97
-13.05 4.57 1.97
-13.07 4.28 1.96
-13.09 4.00 1.95
-13.09 3.71 1.94
-13.09 3.43 1.93
-13.09 3.15 1.92
-13.09 2.87 1.91
-13.09 2.60 1.90
-13.08 2.33 1.90
-13.08 2.06 1.89
-13.09 1.79 1.89
-13.12 1.53 1.89
-13.15 1.26 1.89
-13.18 1.00 1.89
-13.20 0.73 1.89
-13.23 0.47 1.89
-13.26 0.20 1.90
-13.25 -0.06 1.90
-13.24 -0.33 1.90
-13.23 -0.59 1.90
-13.23 -0.86 1.90
-13.22 -1.13 1.90
-13.22 -1.39 1.90
-13.21 -1.66 1.91
-13.19 -1.93 1.91
-13.15 -2.20 1.91
-13.07 -2.45 1.91
-12.97 -2.70 1.90
-12.88 -2.96 1.90
-12.78 -3.20 1.89
-12.66 -3.45 1.88
-12.50 -3.67 1.87
-12.34 -3.90 1.86
-12.19 -4.12 1.85
-12.10 -4.36 1.85
-12.05 -4.62 1.86
-12.01 -4.88 1.86
-11.94 -5.14 1.87
-11.87 -5.39 1.88
-11.81 -5.65 1.88
-11.73 -5.91 1.89
-11.66 -6.17 1.90
-11.60 -6.44 1.91
-11.54 -6.71 1.92
-11.48 -6.99 1.94
-11.42 -7.27 1.95
-11.37 -7.57 1.97
-11.33 -7.87 1.99
-11.29 -8.18 2.01
-11.26 -8.51 2.03
-11.23 -8.85 2.06
-11.21 -9.20 2.09
-11.18 -9.56 2.12
-11.12 -9.90 2.15
-11.06 -10.26 2.17
-11.00 -10.62 2.20
-10.93 -10.98 2.23
-10.86 -11.36 2.26
-10.78 -11.74 2.30
-10.73 -12.16 2.34
-10.64 -12.56 2.37
-10.53 -12.96 2.41
-10.42 -13.36 2.44
-10.31 -13.77 2.48
-10.12 -14.11 2.50
-9.89 -14.39 2.52
-9.12 -13.85 2.39
-8.84 -14.03 2.39
-8.55 -14.21 2.39
-8.27 -14.38 2.39
-7.98 -14.54 2.39
-7.68 -14.70 2.39
-7.39 -14.85 2.39
-7.09 -15.00 2.39
-6.79 -15.14 2.39
-6.48 -15.27 2.39
-6.17 -15.40 2.39
-5.87 -15.52 2.39
-5.55 -15.64 2.39
-5.24 -15.75 2.39
-5.09 -16.40 2.47
-4.80 -16.64 2.49
-4.47 -16.73 2.49
-4.13 -16.82 2.49
-3.79 -16.90 2.49
-3.45 -16.98 2.49
-3.11 -17.05 2.49
-2.77 -17.11 2.49
-2.43 -17.16 2.49
-2.08 -17.21 2.49
-1.73 -17.25 2.49
-1.39 -17.29 2.49
-1.04 -17.32 2.49
-0.69 -17.34 2.49
-0.34 -17.35 2.49
0.00 -14.96 2.49
0.30 -14.96 2.49
0.60 -14.95 2.49
0.90 -14.94 2.49
1.20 -14.92 2.49
1.50 -14.90 2.49
1.80 -14.86 2.49
2.10 -14.83 2.49
2.40 -14.79 2.49
2.70 -14.74 2.49
2.88 -14.12 2.40
3.15 -14.02 2.39
3.43 -13.96 2.39
3.71 -13.89 2.39
3.99 -13.81 2.39
4.27 -13.74 2.39
4.55 -13.65 2.39
4.82 -13.56 2.39
5.09 -13.46 2.39
5.36 -13.36 2.39
5.63 -13.25 2.39
5.90 -13.14 2.39
6.16 -13.02 2.39
6.43 -12.90 2.39
6.36 -12.14 2.27
6.95 -12.65 2.39
7.20 -12.52 2.39
7.46 -12.37 2.39
7.70 -12.22 2.39
7.95 -12.07 2.39
8.19 -11.91 2.39
8.43 -11.75 2.39
8.67 -11.58 2.39
8.90 -11.41 2.39
9.13 -11.23 2.39
9.15 -10.80 2.34
9.58 -10.86 2.39
9.80 -10.67 2.39
10.02 -10.47 2.39
10.23 -10.27 2.39
10.43 -10.07 2.39
10.64 -9.86 2.39
10.84 -9.65 2.39
11.03 -9.43 2.39
11.22 -9.21 2.39
11.41 -8.98 2.39
11.59 -8.76 2.39
11.77 -8.52 2.39
11.94 -8.29 2.39
12.11 -8.05 2.39
12.27 -7.81 2.39
12.43 -7.56 2.39
12.58 -7.31 2.39
12.73 -7.06 2.39
12.87 -6.81 2.39
13.01 -6.55 2.39
13.14 -6.29 2.39
13.27 -6.02 2.39
13.39 -5.76 2.39
13.51 -5.49 2.39
13.62 -5.22 2.39
13.73 -4.95 2.39
13.83 -4.67 2.39
12.26 -3.87 2.11
12.25 -3.60 2.09
12.24 -3.33 2.08
12.23 -3.06 2.06
12.23 -2.80 2.05
12.28 -2.56 2.05
12.28 -2.30 2.05
12.27 -2.05 2.04
12.26 -1.79 2.03
12.16 -1.53 2.00
12.15 -1.28 2.00
12.14 -1.03 1.99
12.13 -0.79 1.99
12.12 -0.54 1.98
10.63 -0.26 1.74
12.10 -0.06 1.98
12.03 0.18 1.96
11.98 0.42 1.96
11.97 0.66 1.96
11.96 0.91 1.96
11.95 1.15 1.96
11.95 1.39 1.96
11.99 1.64 1.97
12.02 1.89 1.98
10.54 1.87 1.74
12.00 2.38 1.99
11.99 2.63 2.00
11.98 2.88 2.01
11.97 3.14 2.01
12.05 3.42 2.04
12.04 3.68 2.05
12.00 3.93 2.05
11.93 4.17 2.06
11.92 4.44 2.07
11.91 4.71 2.08
11.90 4.98 2.10
11.88 5.26 2.11
11.87 5.54 2.13
11.45 5.63 2.07
11.04 5.70 2.02
10.89 5.91 2.01
10.66 6.06 1.99
10.38 6.18 1.96
10.26 6.39 1.96
10.10 6.58 1.96
10.19 6.93 2.00
10.18 7.23 2.03
10.05 7.44 2.03
10.29 7.95 2.11
11.45 9.21 2.39
11.06 9.27 2.34
10.59 9.25 2.28
10.16 9.23 2.23
9.74 9.21 2.18
9.34 9.20 2.13
8.96 9.18 2.08
9.44 10.08 2.24
9.42 10.47 2.29
9.26 10.71 2.30
8.87 10.70 2.26
8.83 11.09 2.30
8.95 11.72 2.39
8.72 11.90 2.39
8.48 12.07 2.39
8.23 12.24 2.39
7.99 12.40 2.39
7.73 12.56 2.39
7.48 12.71 2.39
7.22 12.86 2.39
6.96 13.00 2.39
6.70 13.14 2.39
6.44 13.27 2.39
6.17 13.39 2.39
5.90 13.51 2.39
5.62 13.61 2.39
5.35 13.72 2.39
5.07 13.82 2.39
4.79 13.92 2.39
4.51 14.01 2.39
4.23 14.10 2.39
3.94 14.18 2.39
3.66 14.26 2.39
3.37 14.32 2.39
3.08 14.39 2.39
2.79 14.44 2.39
2.50 14.49 2.39
2.21 14.54 2.39
1.92 14.58 2.39
1.67 15.04 2.46
1.39 15.27 2.49
1.08 15.29 2.49
0.77 15.31 2.49
0.46 15.32 2.49
0.16 15.32 2.49
-0.15 15.32 2.49
-0.46 15.31 2.49
-0.76 15.30 2.49
-1.07 15.27 2.49
-1.38 15.25 2.49
-1.68 15.21 2.49
-1.99 15.17 2.49
-2.29 15.13 2.49
-2.59 15.08 2.49
-2.89 15.02 2.49
-3.19 14.95 2.49
-3.49 14.88 2.49
-3.79 14.81 2.49
-4.09 14.72 2.49
-4.38 14.63 2.49
-4.67 14.54 2.49
-4.96 14.44 2.49
-5.25 14.33 2.49
-5.53 14.22 2.49
-5.82 14.10 2.49
-6.10 13.98 2.49
-6.33 13.76 2.48
-6.37 13.15 2.39
-6.63 13.02 2.39
-6.89 12.88 2.39
-7.15 12.73 2.39
-7.40 12.58 2.39
-7.65 12.43 2.39
-7.89 12.27 2.39
-8.14 12.10 2.39
-8.38 11.93 2.39
-8.61 11.76 2.39
-8.84 11.58 2.39
-9.07 11.40 2.39
-9.29 11.21 2.39
-9.51 11.02 2.39
-9.73 10.82 2.39
-9.94 10.62 2.39
-10.15 10.42 2.39
-10.74 10.59 2.48
-10.83 10.26 2.45
-10.90 9.91 2.42
-10.98 9.59 2.40
-11.09 9.30 2.38
-11.20 9.02 2.37
-6.40 4.94 1.33
-6.51 4.83 1.34
-11.30 8.03 2.28
-11.36 7.73 2.26
-11.41 7.43 2.24
-11.45 7.14 2.23
-11.50 6.85 2.21
-11.54 6.57 2.19
-11.64 6.32 2.19
-11.80 6.10 2.19
-11.92 5.86 2.19
-11.96 5.59 2.18
-12.01 5.32 2.17
-12.05 5.05 2.16
-12.11 4.79 2.15
-12.19 4.54 2.15
-12.26 4.29 2.15
-12.33 4.04 2.15
-12.38 3.78 2.14
-12.42 3.52 2.14
-12.46 3.26 2.13
-12.47 3.00 2.13
-12.49 2.74 2.12
-12.50 2.48 2.11
-12.51 2.22 2.11
-12.52 1.97 2.10
-12.54 1.71 2.10
-12.59 1.46 2.10
-12.68 1.22 2.11
-12.77 0.97 2.13
-12.86 0.72 2.14
-12.91 0.46 2.15
-12.93 0.20 2.15
-12.96 -0.06 2.15
-12.95 -0.32 2.15
-12.95 -0.58 2.16
-12.94 -0.84 2.16
-12.94 -1.10 2.16
-12.93 -1.36 2.16
-12.92 -1.63 2.17
-12.91 -1.89 2.17
-12.90 -2.15 2.18
-12.82 -2.40 2.17
-12.71 -2.65 2.16
-12.56 -2.88 2.15
-12.41 -3.11 2.13
-12.26 -3.34 2.12
-12.11 -3.56 2.10
-11.96 -3.78 2.09
-11.81 -3.99 2.08
-11.66 -4.21 2.07
-11.62 -4.46 2.08
-11.58 -4.71 2.09
-11.53 -4.96 2.09
-11.48 -5.22 2.11
-11.43 -5.47 2.11
-11.36 -5.72 2.12
-11.29 -5.97 2.13
-11.21 -6.22 2.14
-11.16 -6.49 2.16
-11.10 -6.75 2.17
-11.03 -7.02 2.18
-10.97 -7.30 2.20
-10.90 -7.57 2.22
-10.83 -7.85 2.24
-10.78 -8.15 2.26
-10.74 -8.47 2.29
-10.71 -8.79 2.32
-10.68 -9.13 2.35
-10.64 -9.48 2.38
-10.60 -9.83 2.42
-10.56 -10.19 2.45
-10.48 -10.54 2.49
-10.41 -10.89 2.52
-10.28 -11.20 2.54
-10.11 -11.46 2.55
-9.24 -10.91 2.39
-9.02 -11.09 2.39
-8.79 -11.27 2.39
-8.56 -11.45 2.39
-8.33 -11.62 2.39
-8.10 -11.78 2.39
-7.86 -11.94 2.39
-7.62 -12.10 2.39
-7.37 -12.25 2.39
-7.13 -12.39 2.39
-6.88 -12.54 2.39
-6.62 -12.67 2.39
-6.37 -12.80 2.39
-6.11 -12.93 2.39
-5.85 -13.05 2.39
-5.59 -13.17 2.39
-5.32 -13.28 2.39
-5.20 -13.76 2.46
-4.99 -14.06 2.49
-4.71 -14.16 2.49
-4.42 -14.25 2.49
-4.14 -14.34 2.49
-3.85 -14.42 2.49
-3.56 -14.50 2.49
-3.27 -14.57 2.49
-2.98 -14.63 2.49
-2.68 -14.69 2.49
-2.39 -14.75 2.49
-2.09 -14.79 2.49
-1.79 -14.83 2.49
-1.49 -14.87 2.49
-1.20 -14.90 2.49
-0.90 -14.92 2.49
-0.60 -14.94 2.49
-0.30 -14.95 2.49
0.00 -13.13 2.49
0.27 -13.13 2.49
0.53 -13.12 2.49
0.79 -13.11 2.49
1.06 -13.09 2.49
1.32 -13.07 2.49
1.58 -13.04 2.49
1.84 -13.01 2.49
2.11 -12.98 2.49
2.37 -12.93 2.49
2.63 -12.89 2.49
2.80 -12.47 2.42
3.01 -12.25 2.39
3.26 -12.19 2.39
3.50 -12.12 2.39
3.75 -12.05 2.39
3.99 -11.98 2.39
4.23 -11.90 2.39
4.47 -11.81 2.39
4.71 -11.72 2.39
4.94 -11.63 2.39
5.18 -11.53 2.39
5.39 -11.40 2.38
5.59 -11.22 2.37
5.86 -11.20 2.39
6.09 -11.09 2.39
6.31 -10.96 2.39
6.53 -10.84 2.39
6.75 -10.71 2.39
6.97 -10.58 2.39
7.19 -10.44 2.39
7.40 -10.30 2.39
7.60 -10.15 2.39
7.81 -10.00 2.39
8.01 -9.84 2.39
8.21 -9.68 2.39
8.40 -9.52 2.39
8.59 -9.35 2.39
8.78 -9.18 2.39
8.97 -9.00 2.39
9.15 -8.82 2.39
9.33 -8.64 2.39
9.50 -8.45 2.39
9.67 -8.26 2.39
9.84 -8.07 2.39
10.00 -7.87 2.39
10.16 -7.67 2.39
10.31 -7.47 2.39
10.46 -7.26 2.39
10.61 -7.05 2.39
10.75 -6.84 2.39
10.89 -6.63 2.39
11.02 -6.41 2.39
11.15 -6.19 2.39
11.28 -5.96 2.39
11.40 -5.74 2.39
11.51 -5.51 2.39
11.63 -5.28 2.39
11.73 -5.04 2.39
11.83 -4.81 2.39
11.93 -4.57 2.39
12.02 -4.33 2.39
12.11 -4.09 2.39
12.19 -3.85 2.39
12.25 -3.60 2.39
12.24 -3.33 2.37
12.23 -3.06 2.36
12.22 -2.80 2.34
12.20 -2.54 2.33
12.19 -2.29 2.32
12.18 -2.03 2.31
12.17 -1.78 2.30
12.16 -1.53 2.29
12.15 -1.28 2.28
12.14 -1.03 2.27
12.13 -0.79 2.27
12.12 -0.54 2.26
10.62 -0.26 1.98
11.55 -0.05 2.15
11.55 0.18 2.15
11.55 0.41 2.15
11.54 0.64 2.15
11.53 0.87 2.15
11.51 1.10 2.15
11.49 1.34 2.15
11.46 1.57 2.15
11.43 1.80 2.15
10.52 1.87 1.99
12.00 2.38 2.28
11.99 2.63 2.28
11.98 2.88 2.29
11.97 3.14 2.30
11.96 3.39 2.31
11.95 3.65 2.32
11.94 3.91 2.34
11.93 4.17 2.35
11.92 4.44 2.36
11.91 4.71 2.38
11.88 4.98 2.39
11.78 5.21 2.39
11.67 5.45 2.39
11.45 5.63 2.37
10.99 5.68 2.30
10.71 5.81 2.26
10.51 5.98 2.25
10.38 6.18 2.24
10.26 6.39 2.24
10.10 6.58 2.24
10.04 6.83 2.25
10.01 7.11 2.28
10.05 7.44 2.32
10.21 7.88 2.39
10.05 8.09 2.39
9.89 8.29 2.39
9.72 8.48 2.39
9.55 8.68 2.39
9.37 8.87 2.39
9.19 9.05 2.39
8.96 9.19 2.38
8.82 9.42 2.39
8.63 9.59 2.39
8.44 9.76 2.39
8.24 9.93 2.39
8.04 10.09 2.39
7.83 10.25 2.39
7.63 10.41 2.39
7.42 10.56 2.39
7.20 10.71 2.39
6.99 10.85 2.39
6.77 10.99 2.39
6.55 11.12 2.39
6.32 11.25 2.39
6.09 11.37 2.39
5.86 11.49 2.39
5.63 11.59 2.39
5.39 11.70 2.39
5.16 11.81 2.39
4.92 11.91 2.39
4.68 12.00 2.39
4.43 12.10 2.39
4.19 12.18 2.39
3.95 12.26 2.39
3.70 12.34 2.39
3.45 12.41 2.39
3.20 12.47 2.39
2.95 12.53 2.39
2.70 12.59 2.39
2.44 12.64 2.39
2.19 12.68 2.39
1.93 12.72 2.39
1.74 13.27 2.49
1.48 13.34 2.49
1.21 13.36 2.49
0.95 13.38 2.49
0.68 13.40 2.49
0.41 13.41 2.49
0.14 13.41 2.49
-0.13 13.41 2.49
-0.40 13.40 2.49
-0.67 13.39 2.49
-0.94 13.37 2.49
-1.20 13.35 2.49
-1.47 13.32 2.49
-1.74 13.28 2.49
-2.00 13.24 2.49
-2.27 13.20 2.49
-2.53 13.15 2.49
-2.80 13.09 2.49
-3.06 13.03 2.49
-3.32 12.96 2.49
-3.58 12.89 2.49
-3.83 12.81 2.49
-4.09 12.73 2.49
-4.34 12.64 2.49
-4.59 12.55 2.49
-4.84 12.45 2.49
-5.09 12.35 2.49
-5.34 12.24 2.49
-5.58 12.13 2.49
-5.82 12.01 2.49
-6.06 11.89 2.49
-6.24 11.67 2.47
-6.26 11.15 2.39
-6.48 11.02 2.39
-6.70 10.89 2.39
-6.91 10.75 2.39
-7.13 10.60 2.39
-7.34 10.46 2.39
-7.54 10.30 2.39
-7.75 10.15 2.39
-7.95 9.99 2.39
-8.14 9.82 2.39
-8.34 9.66 2.39
-8.53 9.48 2.39
-8.71 9.31 2.39
-8.89 9.13 2.39
-9.07 8.95 2.39
-9.25 8.76 2.39
-9.42 8.57 2.39
-9.59 8.38 2.39
-9.75 8.18 2.39
-9.91 7.98 2.39
-6.38 4.93 1.51
-6.51 4.82 1.52
-10.46 7.43 2.41
-10.58 7.20 2.41
-10.71 6.98 2.41
-10.84 6.76 2.40
-10.96 6.53 2.40
-11.08 6.30 2.40
-11.13 6.04 2.38
-11.20 5.79 2.38
-11.25 5.53 2.36
-11.30 5.28 2.35
-11.35 5.03 2.34
-11.39 4.77 2.33
-11.43 4.52 2.32
-11.48 4.28 2.31
-11.55 4.04 2.31
-11.60 3.80 2.30
-11.65 3.56 2.30
-11.69 3.32 2.29
-11.73 3.07 2.29
-11.76 2.83 2.29
-11.79 2.59 2.28
-11.80 2.34 2.27
-11.81 2.10 2.27
-11.82 1.86 2.26
-11.86 1.62 2.26
-11.90 1.38 2.27
-11.93 1.15 2.27
-11.97 0.91 2.27
-12.05 0.67 2.28
-12.13 0.43 2.30
-12.20 0.19 2.31
-12.28 -0.06 2.33
-12.30 -0.30 2.33
-12.28 -0.55 2.33
-12.26 -0.80 2.33
-12.27 -1.04 2.33
-12.27 -1.29 2.34
-12.27 -1.54 2.35
-12.26 -1.79 2.35
-12.26 -2.04 2.36
-12.24 -2.30 2.36
-12.21 -2.54 2.37
-12.16 -2.79 2.37
-12.02 -3.01 2.35
-11.88 -3.23 2.34
-11.73 -3.45 2.32
-11.59 -3.66 2.31
-11.45 -3.87 2.30
-11.31 -4.08 2.28
-11.22 -4.30 2.28
-11.17 -4.54 2.29
-11.13 -4.79 2.30
-11.08 -5.03 2.31
-11.03 -5.28 2.33
-10.98 -5.53 2.34
-10.92 -5.78 2.35
-10.86 -6.03 2.36
-10.79 -6.28 2.37
-10.73 -6.53 2.39
-10.67 -6.79 2.41
-10.60 -7.05 2.42
-10.54 -7.32 2.44
-10.39 -7.53 2.44
-10.23 -7.73 2.44
-10.07 -7.93 2.44
-9.91 -8.13 2.44
-9.78 -8.37 2.45
-9.38 -8.35 2.39
-9.21 -8.54 2.39
-9.03 -8.72 2.39
-8.85 -8.90 2.39
-8.67 -9.07 2.39
-8.49 -9.25 2.39
-8.30 -9.41 2.39
-8.11 -9.58 2.39
-7.92 -9.74 2.39
-7.72 -9.90 2.39
-7.52 -10.05 2.39
-7.32 -10.20 2.39
-7.11 -10.34 2.39
-6.90 -10.48 2.39
-6.69 -10.62 2.39
-6.47 -10.75 2.39
-6.26 -10.88 2.39
-6.04 -11.01 2.39
-5.82 -11.12 2.39
-5.59 -11.24 2.39
-5.36 -11.35 2.39
-5.28 -11.78 2.46
-5.12 -12.06 2.49
-4.87 -12.16 2.49
-4.63 -12.25 2.49
-4.38 -12.35 2.49
-4.13 -12.43 2.49
-3.88 -12.51 2.49
-3.63 -12.59 2.49
-3.38 -12.66 2.49
-3.12 -12.73 2.49
-2.87 -12.79 2.49
-2.61 -12.85 2.49
-2.35 -12.90 2.49
-2.09 -12.94 2.49
-1.83 -12.99 2.49
-1.57 -13.02 2.49
-1.31 -13.05 2.49
-1.05 -13.08 2.49
-0.79 -13.10 2.49
-0.52 -13.11 2.49
-0.26 -13.12 2.49
0.00 -11.69 2.49
0.24 -11.68 2.49
0.47 -11.68 2.49
0.71 -11.67 2.49
0.94 -11.65 2.49
1.18 -11.63 2.49
1.41 -11.61 2.49
1.64 -11.58 2.49
1.88 -11.55 2.49
2.11 -11.51 2.49
2.34 -11.47 2.49
2.57 -11.42 2.49
2.75 -11.16 2.45
2.90 -10.84 2.39
3.12 -10.79 2.39
3.34 -10.72 2.39
3.55 -10.66 2.39
3.76 -10.59 2.39
3.98 -10.51 2.39
4.19 -10.43 2.39
4.40 -10.35 2.39
4.61 -10.26 2.39
4.81 -10.17 2.39
5.02 -10.07 2.39
5.22 -9.97 2.39
5.42 -9.86 2.39
5.62 -9.75 2.39
5.81 -9.64 2.39
6.01 -9.53 2.39
6.20 -9.41 2.39
6.39 -9.28 2.39
6.57 -9.15 2.39
6.76 -9.03 2.39
6.95 -8.90 2.39
7.12 -8.76 2.39
7.30 -8.61 2.39
7.47 -8.47 2.39
7.64 -8.32 2.39
7.81 -8.16 2.39
7.98 -8.01 2.39
8.14 -7.85 2.39
8.29 -7.68 2.39
8.45 -7.52 2.39
8.60 -7.35 2.39
8.75 -7.18 2.39
8.89 -7.00 2.39
9.03 -6.82 2.39
9.17 -6.64 2.39
9.30 -6.46 2.39
9.43 -6.27 2.39
9.56 -6.08 2.39
9.68 -5.89 2.39
9.80 -5.70 2.39
9.92 -5.50 2.39
10.03 -5.30 2.39
10.13 -5.10 2.39
10.24 -4.90 2.39
10.34 -4.69 2.39
10.43 -4.48 2.39
10.52 -4.27 2.39
10.61 -4.06 2.39
10.69 -3.85 2.39
10.77 -3.64 2.39
10.84 -3.42 2.39
10.91 -3.20 2.39
10.97 -2.98 2.39
11.03 -2.76 2.39
11.09 -2.54 2.39
11.14 -2.32 2.39
11.19 -2.10 2.39
11.23 -1.87 2.39
11.27 -1.65 2.39
11.30 -1.42 2.39
11.33 -1.19 2.39
11.35 -0.97 2.39
11.37 -0.74 2.39
11.39 -0.51 2.39
10.42 -0.26 2.19
10.41 -0.05 2.19
10.41 0.16 2.18
10.40 0.37 2.18
10.39 0.58 2.18
10.38 0.79 2.18
10.37 1.00 2.18
10.36 1.21 2.19
10.35 1.42 2.19
10.35 1.63 2.19
10.34 1.84 2.20
10.33 2.05 2.21
11.16 2.45 2.39
11.11 2.67 2.39
11.05 2.90 2.39
11.00 3.12 2.39
10.93 3.34 2.39
10.87 3.56 2.39
10.79 3.78 2.39
10.72 3.99 2.39
10.64 4.21 2.39
10.55 4.42 2.39
10.46 4.63 2.39
10.37 4.84 2.39
10.27 5.05 2.39
10.17 5.25 2.39
10.06 5.46 2.39
9.95 5.66 2.39
9.84 5.86 2.39
9.72 6.05 2.39
9.59 6.25 2.39
9.47 6.44 2.39
9.34 6.63 2.39
9.20 6.82 2.39
9.07 7.00 2.39
8.92 7.18 2.39
8.78 7.36 2.39
8.63 7.53 2.39
8.48 7.71 2.39
8.32 7.87 2.39
8.16 8.04 2.39
8.00 8.20 2.39
7.83 8.36 2.39
7.66 8.52 2.39
7.49 8.67 2.39
7.32 8.82 2.39
7.14 8.96 2.39
6.96 9.11 2.39
6.77 9.24 2.39
6.59 9.38 2.39
6.40 9.51 2.39
6.20 9.63 2.39
6.01 9.76 2.39
5.81 9.86 2.39
5.61 9.98 2.39
5.41 10.09 2.39
5.20 10.19 2.39
5.00 10.30 2.39
4.79 10.39 2.39
4.58 10.49 2.39
4.37 10.58 2.39
4.15 10.66 2.39
3.94 10.74 2.39
3.72 10.82 2.39
3.50 10.89 2.39
3.28 10.96 2.39
3.06 11.02 2.39
2.84 11.08 2.39
2.62 11.13 2.39
2.39 11.18 2.39
2.17 11.22 2.39
1.94 11.26 2.39
1.79 11.79 2.49
1.55 11.82 2.49
1.32 11.85 2.49
1.08 11.87 2.49
0.84 11.89 2.49
0.60 11.90 2.49
0.36 11.91 2.49
0.12 11.91 2.49
-0.12 11.91 2.49
-0.35 11.90 2.49
-0.59 11.89 2.49
-0.83 11.88 2.49
-1.07 11.86 2.49
-1.31 11.83 2.49
-1.54 11.80 2.49
-1.78 11.76 2.49
-2.02 11.72 2.49
-2.25 11.68 2.49
-2.48 11.63 2.49
-2.72 11.57 2.49
-2.95 11.52 2.49
-3.18 11.45 2.49
-3.41 11.38 2.49
-3.63 11.31 2.49
-3.86 11.23 2.49
-4.08 11.15 2.49
-4.30 11.07 2.49
-4.52 10.97 2.49
-4.74 10.88 2.49
-4.96 10.78 2.49
-5.17 10.68 2.49
-5.39 10.57 2.49
-5.59 10.46 2.49
-5.80 10.34 2.49
-6.01 10.22 2.49
-6.18 10.04 2.48
-6.17 9.59 2.40
-6.33 9.42 2.39
-6.52 9.29 2.39
-6.70 9.16 2.39
-6.88 9.02 2.39
-7.06 8.88 2.39
-7.24 8.73 2.39
-7.41 8.58 2.39
-7.58 8.43 2.39
-7.74 8.27 2.39
-7.91 8.12 2.39
-8.07 7.95 2.39
-8.22 7.79 2.39
-8.38 7.62 2.39
-8.52 7.45 2.39
-8.67 7.27 2.39
-8.81 7.10 2.39
-6.38 4.93 1.70
-6.50 4.82 1.71
-9.22 6.55 2.39
-9.34 6.36 2.39
-9.47 6.17 2.39
-9.59 5.98 2.39
-9.70 5.78 2.39
-9.81 5.59 2.39
-9.92 5.39 2.39
-10.31 5.33 2.46
-10.40 5.11 2.45
-10.48 4.90 2.45
-10.56 4.68 2.45
-10.64 4.46 2.45
-10.72 4.24 2.44
-10.79 4.02 2.44
-10.87 3.80 2.44
-10.94 3.58 2.44
-10.99 3.36 2.44
-11.03 3.13 2.43
-11.07 2.90 2.43
-11.10 2.67 2.43
-11.14 2.45 2.42
-11.17 2.22 2.42
-11.18 1.99 2.41
-11.21 1.76 2.41
-11.25 1.54 2.41
-11.28 1.31 2.41
-11.31 1.09 2.42
-11.34 0.86 2.42
-11.36 0.63 2.42
-11.39 0.41 2.43
-11.46 0.18 2.44
-11.53 -0.05 2.45
-11.54 -0.28 2.46
-11.52 -0.52 2.46
-11.50 -0.75 2.45
-11.47 -0.98 2.45
-11.45 -1.21 2.45
-11.42 -1.44 2.45
-11.40 -1.67 2.46
-11.39 -1.90 2.46
-11.38 -2.13 2.47
-11.35 -2.37 2.47
-11.32 -2.60 2.48
-11.29 -2.83 2.48
-11.25 -3.06 2.49
-11.21 -3.29 2.49
-11.17 -3.53 2.50
-11.11 -3.76 2.50
-10.98 -3.96 2.49
-10.84 -4.16 2.48
-10.79 -4.39 2.49
-10.74 -4.62 2.50
-10.70 -4.86 2.51
-10.65 -5.10 2.52
-10.57 -5.32 2.53
-10.43 -5.52 2.52
-10.30 -5.71 2.52
-10.16 -5.91 2.51
-10.01 -6.09 2.50
-9.44 -6.01 2.39
-9.31 -6.19 2.39
-9.18 -6.38 2.39
-9.05 -6.56 2.39
-8.92 -6.74 2.39
-8.78 -6.92 2.39
-8.64 -7.09 2.39
-8.50 -7.27 2.39
-8.35 -7.43 2.39
-8.20 -7.60 2.39
-8.04 -7.76 2.39
-7.88 -7.92 2.39
-7.72 -8.08 2.39
-7.56 -8.23 2.39
-7.39 -8.38 2.39
-7.22 -8.53 2.39
-7.05 -8.67 2.39
-6.87 -8.81 2.39
-6.70 -8.95 2.39
-6.51 -9.08 2.39
-6.33 -9.21 2.39
-6.14 -9.34 2.39
-5.96 -9.46 2.39
-5.76 -9.57 2.39
-5.58 -9.70 2.39
-5.38 -9.80 2.39
-5.34 -10.22 2.47
-5.19 -10.44 2.49
-4.98 -10.54 2.49
-4.77 -10.64 2.49
-4.56 -10.74 2.49
-4.34 -10.83 2.49
-4.12 -10.91 2.49
-3.90 -10.99 2.49
-3.68 -11.07 2.49
-3.46 -11.14 2.49
-3.23 -11.21 2.49
-3.01 -11.27 2.49
-2.78 -11.33 2.49
-2.55 -11.39 2.49
-2.32 -11.44 2.49
-2.09 -11.48 2.49
-1.86 -11.52 2.49
-1.63 -11.56 2.49
-1.40 -11.59 2.49
-1.17 -11.62 2.49
-0.93 -11.64 2.49
-0.70 -11.66 2.49
-0.47 -11.67 2.49
-0.23 -11.68 2.49
0.00 -10.52 2.49
0.21 -10.52 2.49
0.43 -10.51 2.49
0.64 -10.50 2.49
0.85 -10.49 2.49
1.06 -10.47 2.49
1.27 -10.45 2.49
1.48 -10.42 2.49
1.69 -10.39 2.49
1.90 -10.36 2.49
2.10 -10.32 2.49
2.31 -10.28 2.49
2.52 -10.23 2.49
2.70 -10.10 2.47
2.81 -9.71 2.39
3.00 -9.65 2.39
3.20 -9.59 2.39
3.39 -9.53 2.39
3.58 -9.46 2.39
3.77 -9.39 2.39
3.96 -9.31 2.39
4.14 -9.23 2.39
4.33 -9.15 2.39
4.51 -9.06 2.39
4.70 -8.97 2.39
4.88 -8.87 2.39
5.05 -8.78 2.39
5.23 -8.68 2.39
5.40 -8.57 2.39
5.58 -8.46 2.39
5.75 -8.35 2.39
5.91 -8.23 2.39
6.08 -8.12 2.39
6.24 -7.99 2.39
6.40 -7.87 2.39
6.56 -7.74 2.39
6.72 -7.62 2.39
6.88 -7.48 2.39
7.03 -7.34 2.39
7.17 -7.20 2.39
7.32 -7.06 2.39
7.46 -6.91 2.39
7.60 -6.76 2.39
7.74 -6.61 2.39
7.87 -6.45 2.39
8.00 -6.30 2.39
8.13 -6.14 2.39
8.25 -5.97 2.39
8.37 -5.81 2.39
8.49 -5.64 2.39
8.60 -5.47 2.39
8.71 -5.30 2.39
8.82 -5.12 2.39
8.92 -4.95 2.39
9.02 -4.77 2.39
9.11 -4.59 2.39
9.21 -4.40 2.39
9.29 -4.22 2.39
9.38 -4.03 2.39
9.46 -3.84 2.39
9.54 -3.65 2.39
9.61 -3.46 2.39
9.68 -3.27 2.39
9.75 -3.07 2.39
9.81 -2.88 2.39
9.87 -2.68 2.39
9.92 -2.48 2.39
9.97 -2.28 2.39
10.01 -2.08 2.39
10.06 -1.88 2.39
10.09 -1.68 2.39
10.13 -1.48 2.39
10.16 -1.28 2.39
10.18 -1.07 2.39
10.20 -0.87 2.39
10.22 -0.66 2.39
10.23 -0.46 2.39
10.24 -0.25 2.39
10.25 -0.05 2.39
10.25 0.16 2.39
10.25 0.36 2.39
10.24 0.57 2.39
10.23 0.78 2.39
10.21 0.98 2.39
10.19 1.19 2.39
10.17 1.39 2.39
10.14 1.59 2.39
10.11 1.80 2.39
10.07 2.00 2.39
10.03 2.20 2.39
9.98 2.40 2.39
9.93 2.60 2.39
9.88 2.80 2.39
9.82 3.00 2.39
9.76 3.20 2.39
9.70 3.39 2.39
9.63 3.59 2.39
9.56 3.78 2.39
9.48 3.97 2.39
9.40 4.16 2.39
9.32 4.35 2.39
9.23 4.54 2.39
9.14 4.72 2.39
9.04 4.90 2.39
8.94 5.08 2.39
8.84 5.26 2.39
8.73 5.44 2.39
8.62 5.61 2.39
8.51 5.79 2.39
8.39 5.96 2.39
8.27 6.12 2.39
8.14 6.29 2.39
8.02 6.45 2.39
7.89 6.61 2.39
7.75 6.77 2.39
7.62 6.92 2.39
7.48 7.08 2.39
7.33 7.22 2.39
7.19 7.37 2.39
7.04 7.51 2.39
6.89 7.65 2.39
6.73 7.79 2.39
6.57 7.92 2.39
6.41 8.05 2.39
6.25 8.18 2.39
6.08 8.30 2.39
5.91 8.42 2.39
5.74 8.53 2.39
5.57 8.65 2.39
5.39 8.76 2.39
5.22 8.86 2.39
5.04 8.96 2.39
4.86 9.06 2.39
4.67 9.16 2.39
4.49 9.25 2.39
4.30 9.34 2.39
4.11 9.42 2.39
3.92 9.50 2.39
3.73 9.58 2.39
3.54 9.65 2.39
3.34 9.72 2.39
3.15 9.78 2.39
2.95 9.84 2.39
2.75 9.90 2.39
2.55 9.95 2.39
2.35 10.00 2.39
2.15 10.05 2.39
1.95 10.09 2.39
1.82 10.56 2.49
1.61 10.59 2.49
1.40 10.62 2.49
1.18 10.65 2.49
0.97 10.67 2.49
0.75 10.68 2.49
0.54 10.69 2.49
0.33 10.70 2.49
0.11 10.70 2.49
-0.10 10.70 2.49
-0.32 10.70 2.49
-0.53 10.69 2.49
-0.75 10.67 2.49
-0.96 10.65 2.49
-1.17 10.63 2.49
