ply
format ascii 1.0
element vertex 2843
property float32 x
property float32 y
property float32 z
end_header
-13.73 -15.56 0.97
-6.40 -7.55 0.47
-13.42 -16.50 1.00
-13.30 -17.04 1.02
-13.20 -17.62 1.05
-13.08 -18.22 1.07
-13.00 -18.90 1.10
-12.96 -19.68 1.13
-12.92 -20.49 1.17
-12.87 -21.35 1.21
-12.81 -22.24 1.25
-12.77 -23.24 1.29
-12.76 -24.38 1.35
-12.66 -25.42 1.39
-12.53 -26.47 1.44
-12.45 -27.72 1.50
-12.39 -29.15 1.57
-12.31 -30.66 1.65
-12.60 -33.30 1.78
-12.51 -35.18 1.87
-12.30 -36.92 1.96
-12.26 -39.43 2.09
-12.18 -42.14 2.22
-11.73 -43.83 2.31
-11.16 -45.36 2.39
-10.54 -46.87 2.46
-9.88 -48.46 2.54
-8.34 -45.57 2.39
-7.40 -45.57 2.39
-6.46 -45.55 2.39
-5.53 -45.52 2.39
-4.80 -47.43 2.49
-3.83 -47.36 2.49
-2.87 -47.27 2.49
-1.92 -47.16 2.49
-0.58 -28.09 1.49
-0.02 -28.08 2.13
0.54 -27.82 2.11
1.10 -27.81 2.12
1.95 -32.62 2.49
2.60 -32.51 2.49
2.93 -29.32 2.26
3.72 -30.90 2.39
4.33 -30.76 2.39
4.94 -30.60 2.39
5.54 -30.43 2.39
6.14 -30.25 2.39
5.33 -23.82 1.89
7.33 -29.89 2.39
7.91 -29.68 2.39
8.49 -29.46 2.39
9.06 -29.22 2.39
9.62 -28.98 2.39
8.03 -22.64 1.89
8.58 -22.74 1.91
11.29 -28.19 2.39
11.83 -27.91 2.39
12.37 -27.62 2.39
12.90 -27.32 2.39
13.42 -27.01 2.39
13.94 -26.69 2.39
13.65 -24.90 2.26
14.18 -24.68 2.27
15.45 -25.68 2.39
15.94 -25.33 2.39
13.79 -20.97 2.01
14.39 -20.96 2.04
17.36 -24.22 2.39
12.21 -16.33 1.64
12.28 -15.76 1.61
12.27 -15.10 1.57
12.16 -14.38 1.52
12.15 -13.79 1.49
12.14 -13.23 1.45
12.05 -12.62 1.41
12.01 -12.07 1.38
11.99 -11.59 1.35
12.05 -11.18 1.34
12.08 -10.77 1.32
12.07 -10.33 1.29
12.06 -9.91 1.27
12.05 -9.50 1.25
12.04 -9.11 1.23
12.03 -8.73 1.21
12.02 -8.36 1.20
12.02 -8.00 1.18
10.70 -6.82 1.04
10.33 -6.29 0.99
10.19 -5.93 0.97
10.17 -5.65 0.95
10.21 -5.40 0.95
10.32 -5.20 0.95
10.42 -4.99 0.95
10.51 -4.78 0.95
10.68 -4.60 0.96
10.90 -4.44 0.97
11.17 -4.29 0.98
11.65 -4.21 1.02
10.20 -3.45 0.89
10.62 -3.36 0.92
11.35 -3.34 0.97
11.67 -3.18 0.99
11.68 -2.93 0.99
11.68 -2.68 0.99
11.67 -2.43 0.98
10.20 -1.92 0.85
10.20 -1.70 0.85
11.06 -1.62 0.92
11.55 -1.46 0.96
11.64 -1.23 0.96
11.64 -0.99 0.96
11.63 -0.76 0.96
11.63 -0.52 0.95
10.02 -0.25 0.82
11.56 -0.06 0.95
11.55 0.18 0.95
11.55 0.41 0.95
11.34 0.63 0.93
10.77 0.81 0.88
10.67 1.02 0.88
10.33 1.20 0.85
10.22 1.40 0.84
10.12 1.59 0.83
10.17 1.81 0.84
10.16 2.02 0.84
10.16 2.23 0.84
10.03 2.42 0.84
10.16 2.66 0.85
10.28 2.92 0.86
10.47 3.20 0.88
12.55 4.11 1.07
11.52 4.03 0.98
11.19 4.17 0.96
11.05 4.37 0.96
10.97 4.60 0.95
10.93 4.84 0.96
11.10 5.18 0.98
12.51 6.15 1.11
12.50 6.46 1.12
12.49 6.78 1.13
12.48 7.11 1.14
12.48 7.44 1.15
12.47 7.78 1.17
12.46 8.12 1.18
12.45 8.48 1.19
12.44 8.84 1.20
12.44 9.22 1.22
12.43 9.60 1.23
12.42 10.00 1.25
23.51 19.73 2.40
23.16 20.24 2.40
22.79 20.74 2.40
22.41 21.23 2.40
21.91 21.60 2.39
21.51 22.09 2.39
21.11 22.56 2.39
18.11 20.15 2.09
17.58 20.36 2.07
19.84 23.94 2.39
19.39 24.38 2.39
18.94 24.82 2.39
19.27 26.34 2.49
16.24 23.16 2.16
18.28 27.22 2.49
17.77 27.64 2.49
17.25 28.05 2.49
16.73 28.46 2.49
10.44 18.61 1.61
9.95 18.60 1.59
9.47 18.58 1.56
14.52 29.99 2.49
13.95 30.34 2.49
13.37 30.69 2.49
12.78 31.03 2.49
12.19 31.35 2.49
11.58 31.67 2.49
10.97 31.97 2.49
10.35 32.26 2.49
9.73 32.54 2.49
9.09 32.81 2.49
8.43 32.99 2.49
7.73 32.99 2.47
7.03 32.98 2.45
6.36 33.06 2.44
5.70 33.21 2.44
2.07 13.73 1.00
4.40 33.68 2.45
3.76 34.15 2.47
3.12 34.65 2.49
2.43 34.81 2.49
1.73 34.94 2.49
1.03 35.05 2.49
0.33 35.15 2.49
-0.38 35.23 2.49
-1.09 35.30 2.49
-1.80 35.36 2.49
-2.51 35.40 2.49
-3.23 35.43 2.49
-3.95 35.44 2.49
-4.67 35.44 2.49
-5.39 35.42 2.49
-6.12 35.39 2.49
-6.82 35.21 2.48
-7.26 33.82 2.39
-7.95 33.74 2.39
-8.65 33.65 2.39
-9.34 33.54 2.39
-10.03 33.42 2.39
-10.72 33.29 2.39
-10.69 31.04 2.24
-10.65 29.00 2.10
-10.60 27.19 1.98
-10.57 25.56 1.87
-10.53 24.10 1.78
-10.50 22.77 1.69
-10.47 21.57 1.62
-10.47 20.49 1.55
-29.49 12.34 2.06
-20.15 7.96 1.40
-18.81 7.00 1.29
-17.38 6.07 1.19
-16.66 5.45 1.13
-16.05 4.90 1.08
-15.49 4.39 1.04
-15.06 3.94 1.00
-14.77 3.55 0.98
-14.55 3.19 0.96
-14.35 2.85 0.94
-14.15 2.51 0.93
-13.95 2.19 0.91
-13.76 1.88 0.90
-13.60 1.58 0.88
-13.58 1.30 0.88
-13.56 1.02 0.88
-13.53 0.75 0.88
-13.51 0.48 0.87
-13.49 0.21 0.87
-13.46 -0.07 0.87
-13.45 -0.34 0.87
-13.46 -0.61 0.87
-13.49 -0.88 0.88
-13.51 -1.15 0.88
-13.53 -1.43 0.89
-13.55 -1.71 0.89
-13.57 -1.99 0.89
-13.59 -2.27 0.90
-13.62 -2.55 0.91
-13.65 -2.85 0.91
-13.68 -3.14 0.92
-13.71 -3.44 0.93
-13.74 -3.74 0.94
-13.76 -4.04 0.94
-13.78 -4.35 0.95
-13.84 -4.68 0.96
-13.93 -5.02 0.98
-14.03 -5.38 0.99
-14.04 -5.71 1.00
-14.02 -6.03 1.01
-14.01 -6.36 1.02
-14.00 -6.70 1.03
-14.00 -7.05 1.05
-14.01 -7.41 1.06
-13.99 -7.76 1.07
-13.98 -8.12 1.09
-13.96 -8.49 1.10
-13.94 -8.87 1.11
-13.91 -9.25 1.13
-13.89 -9.64 1.14
-13.90 -10.07 1.16
-13.92 -10.51 1.19
-13.95 -10.98 1.21
-13.98 -11.47 1.23
-13.94 -11.91 1.25
-13.90 -12.37 1.28
-13.87 -12.85 1.30
-13.85 -13.35 1.32
-13.80 -13.85 1.35
-13.72 -14.34 1.37
-13.60 -14.80 1.39
-13.43 -15.21 1.41
-13.25 -15.64 1.43
-13.07 -16.06 1.45
-12.89 -16.50 1.47
-12.76 -17.03 1.49
-12.62 -17.57 1.52
-12.46 -18.11 1.55
-12.30 -18.66 1.58
-12.18 -19.31 1.62
-12.09 -20.06 1.66
-12.02 -20.87 1.71
-11.95 -21.76 1.77
-11.85 -22.62 1.83
-11.73 -23.53 1.89
-11.68 -24.67 1.96
-11.50 -25.60 2.02
-11.28 -26.53 2.08
-11.07 -27.54 2.15
-10.87 -28.72 2.23
-10.60 -29.79 2.30
-10.25 -30.73 2.36
-9.73 -31.27 2.40
-9.06 -31.32 2.39
-8.41 -31.42 2.39
-7.76 -31.50 2.39
-7.11 -31.58 2.39
-6.46 -31.64 2.39
-5.81 -31.68 2.39
-5.28 -32.44 2.44
-4.71 -33.11 2.49
-4.03 -33.12 2.49
-3.36 -33.12 2.49
-2.68 -33.10 2.49
-2.01 -33.07 2.49
-1.14 -27.83 2.10
-0.58 -27.88 2.11
-0.02 -25.32 2.49
0.49 -25.27 2.49
0.99 -25.21 2.49
1.50 -25.15 2.49
2.00 -25.07 2.49
2.50 -24.98 2.49
2.87 -23.85 2.39
3.34 -23.75 2.39
3.81 -23.64 2.39
4.28 -23.52 2.39
4.74 -23.39 2.39
5.20 -23.26 2.39
5.66 -23.11 2.39
6.11 -22.96 2.39
6.56 -22.80 2.39
7.02 -22.65 2.39
7.46 -22.47 2.39
7.90 -22.29 2.39
8.33 -22.09 2.39
8.76 -21.89 2.39
9.19 -21.68 2.39
9.61 -21.46 2.39
10.02 -21.23 2.39
10.43 -21.00 2.39
10.84 -20.76 2.39
11.24 -20.51 2.39
11.63 -20.26 2.39
12.02 -20.00 2.39
12.41 -19.73 2.39
12.79 -19.45 2.39
13.16 -19.17 2.39
13.53 -18.88 2.39
12.21 -16.33 2.10
12.23 -15.69 2.05
12.27 -15.11 2.01
12.16 -14.38 1.95
12.15 -13.79 1.90
12.14 -13.23 1.86
12.05 -12.62 1.81
12.01 -12.08 1.77
11.99 -11.59 1.73
12.05 -11.18 1.71
12.08 -10.77 1.68
12.07 -10.33 1.65
12.06 -9.91 1.63
12.14 -9.58 1.61
12.13 -9.18 1.59
12.12 -8.79 1.56
12.11 -8.42 1.54
12.02 -8.00 1.51
10.48 -6.68 1.30
10.33 -6.29 1.27
10.19 -5.93 1.23
10.17 -5.65 1.22
10.26 -5.43 1.22
10.32 -5.20 1.21
10.42 -4.99 1.21
10.56 -4.80 1.22
10.68 -4.60 1.22
10.90 -4.44 1.23
11.17 -4.29 1.26
9.96 -3.59 1.11
9.97 -3.37 1.10
10.62 -3.36 1.17
11.12 -3.27 1.22
11.18 -3.04 1.22
11.23 -2.82 1.22
11.28 -2.59 1.21
9.97 -2.08 1.07
9.97 -1.87 1.06
9.97 -1.67 1.06
11.06 -1.62 1.17
11.49 -1.45 1.21
11.52 -1.22 1.21
11.55 -0.99 1.22
11.58 -0.75 1.22
11.60 -0.52 1.22
9.80 -0.24 1.03
11.56 -0.06 1.21
11.55 0.18 1.21
11.55 0.41 1.21
11.34 0.63 1.19
10.78 0.82 1.13
10.52 1.01 1.10
10.33 1.20 1.08
10.22 1.40 1.08
10.12 1.59 1.07
10.08 1.79 1.07
10.04 2.00 1.06
10.05 2.21 1.07
10.08 2.43 1.08
10.16 2.66 1.09
10.28 2.92 1.11
10.57 3.23 1.14
11.91 3.90 1.30
11.35 3.97 1.24
11.04 4.12 1.22
10.91 4.32 1.21
10.83 4.54 1.21
10.79 4.78 1.21
10.93 5.11 1.24
12.51 6.15 1.43
12.50 6.47 1.44
12.49 6.78 1.46
12.48 7.11 1.47
12.48 7.44 1.48
12.47 7.78 1.50
12.46 8.13 1.52
12.45 8.48 1.53
12.44 8.85 1.55
12.44 9.22 1.57
12.43 9.61 1.59
12.42 10.00 1.61
18.15 15.23 2.39
17.94 15.69 2.40
17.65 16.07 2.40
17.35 16.44 2.40
17.04 16.81 2.40
16.73 17.18 2.40
16.41 17.54 2.40
16.08 17.90 2.40
15.74 18.24 2.40
15.40 18.59 2.40
15.04 18.92 2.40
14.69 19.25 2.40
14.32 19.58 2.40
13.95 19.90 2.40
13.57 20.21 2.40
13.18 20.51 2.40
12.79 20.81 2.40
12.39 21.10 2.40
10.44 18.62 2.09
11.51 21.54 2.39
9.46 18.59 2.04
10.68 22.06 2.39
10.25 22.31 2.39
9.82 22.55 2.39
9.38 22.79 2.39
8.94 23.01 2.39
8.49 23.23 2.39
8.04 23.44 2.39
7.58 23.64 2.39
7.12 23.83 2.39
6.65 24.02 2.39
6.18 24.19 2.39
5.70 24.36 2.39
5.45 25.56 2.49
4.94 25.71 2.49
4.43 25.85 2.49
2.07 13.74 1.32
3.40 26.11 2.49
2.88 26.22 2.49
2.36 26.32 2.49
1.84 26.41 2.49
1.31 26.49 2.49
0.78 26.56 2.49
0.25 26.62 2.49
-0.29 26.67 2.49
-0.83 26.71 2.49
-1.36 26.74 2.49
-1.90 26.75 2.49
-2.44 26.76 2.49
-2.99 26.76 2.49
-3.53 26.75 2.49
-4.07 26.72 2.49
-4.62 26.68 2.49
-5.16 26.62 2.49
-5.70 26.56 2.49
-6.25 26.49 2.49
-6.60 25.66 2.42
-7.03 25.22 2.39
-7.54 25.11 2.39
-8.06 25.00 2.39
-8.57 24.87 2.39
-9.08 24.73 2.39
-9.59 24.59 2.39
-10.10 24.43 2.39
-10.53 24.09 2.37
-10.50 22.77 2.26
-10.47 21.56 2.16
-10.45 20.45 2.06
-10.43 19.43 1.98
-10.40 18.49 1.90
-10.38 17.62 1.83
-10.37 16.81 1.77
-10.35 16.05 1.70
-10.33 15.34 1.65
-10.32 14.67 1.60
-10.29 14.03 1.55
-20.93 9.77 2.01
-19.38 8.57 1.85
-18.65 7.81 1.76
-17.40 6.88 1.63
-16.66 6.20 1.55
-16.01 5.59 1.48
-15.45 5.05 1.42
-15.04 4.59 1.37
-14.72 4.17 1.33
-14.42 3.77 1.30
-14.19 3.41 1.27
-13.99 3.07 1.25
-13.81 2.74 1.23
-13.63 2.42 1.21
-13.45 2.11 1.19
-13.28 1.81 1.17
-13.17 1.53 1.16
-13.15 1.26 1.15
-13.13 0.99 1.15
-13.11 0.73 1.15
-13.09 0.46 1.14
-13.07 0.20 1.14
-13.05 -0.06 1.14
-13.02 -0.32 1.14
-13.02 -0.59 1.14
-13.04 -0.85 1.14
-13.06 -1.11 1.15
-13.08 -1.38 1.15
-13.10 -1.65 1.16
-13.12 -1.92 1.16
-13.13 -2.19 1.17
-13.15 -2.47 1.18
-13.18 -2.75 1.19
-13.20 -3.03 1.19
-13.23 -3.31 1.20
-13.26 -3.61 1.21
-13.28 -3.90 1.22
-13.30 -4.20 1.24
-13.32 -4.50 1.25
-13.41 -4.83 1.26
-13.49 -5.17 1.28
-13.58 -5.52 1.30
-13.65 -5.87 1.32
-13.64 -6.19 1.34
-13.62 -6.51 1.35
-13.62 -6.85 1.36
-13.61 -7.20 1.38
-13.61 -7.55 1.40
-13.60 -7.90 1.41
-13.58 -8.26 1.43
-13.56 -8.63 1.45
-13.53 -8.99 1.47
-13.50 -9.37 1.48
-13.47 -9.75 1.50
-13.45 -10.15 1.53
-13.45 -10.59 1.55
-13.47 -11.05 1.58
-13.49 -11.53 1.62
-13.50 -12.01 1.65
-13.46 -12.46 1.68
-13.42 -12.94 1.71
-13.39 -13.44 1.74
-13.35 -13.95 1.77
-13.28 -14.45 1.81
-13.14 -14.88 1.83
-12.97 -15.29 1.85
-12.79 -15.71 1.87
-12.53 -16.04 1.89
-12.26 -16.36 1.90
-12.01 -16.72 1.91
-11.89 -17.26 1.95
-11.74 -17.80 1.99
-11.57 -18.33 2.03
-11.40 -18.90 2.07
-11.25 -19.52 2.11
-11.09 -20.16 2.16
-10.99 -20.97 2.23
-10.92 -21.91 2.31
-10.82 -22.84 2.39
-10.67 -23.74 2.47
-10.48 -24.64 2.54
-9.38 -23.32 2.39
-8.89 -23.46 2.39
-8.40 -23.59 2.39
-7.91 -23.71 2.39
-7.42 -23.82 2.39
-6.93 -23.92 2.39
-6.43 -24.01 2.39
-5.94 -24.09 2.39
-5.47 -24.29 2.40
-5.16 -25.26 2.49
-4.65 -25.31 2.49
-4.13 -25.35 2.49
-3.61 -25.39 2.49
-3.10 -25.41 2.49
-2.58 -25.42 2.49
-2.07 -25.42 2.49
-1.55 -25.41 2.49
-1.04 -25.39 2.49
-0.53 -25.36 2.49
-0.02 -20.56 2.49
0.39 -20.53 2.49
0.80 -20.49 2.49
1.21 -20.44 2.49
1.62 -20.38 2.49
2.03 -20.32 2.49
2.43 -20.24 2.49
2.72 -19.33 2.39
3.10 -19.25 2.39
3.48 -19.16 2.39
3.86 -19.06 2.39
4.24 -18.95 2.39
4.61 -18.84 2.39
4.98 -18.72 2.39
5.35 -18.59 2.39
5.71 -18.46 2.39
6.08 -18.32 2.39
6.43 -18.17 2.39
6.80 -18.03 2.39
7.15 -17.87 2.39
7.50 -17.71 2.39
7.85 -17.53 2.39
8.19 -17.35 2.39
8.52 -17.17 2.39
8.86 -16.97 2.39
9.19 -16.77 2.39
9.51 -16.57 2.39
9.83 -16.36 2.39
10.15 -16.14 2.39
10.46 -15.92 2.39
10.77 -15.69 2.39
11.07 -15.46 2.39
11.37 -15.22 2.39
11.67 -14.98 2.39
10.58 -13.04 2.12
11.02 -13.02 2.15
11.27 -12.79 2.15
11.51 -12.55 2.15
11.75 -12.31 2.15
11.99 -12.06 2.15
11.99 -11.59 2.11
12.05 -11.18 2.08
12.08 -10.77 2.05
12.07 -10.33 2.02
12.06 -9.91 1.98
12.14 -9.58 1.97
12.13 -9.18 1.93
12.12 -8.80 1.91
12.11 -8.42 1.88
12.02 -8.00 1.84
10.48 -6.68 1.58
10.33 -6.29 1.54
10.35 -6.02 1.53
10.34 -5.74 1.51
10.21 -5.41 1.47
10.32 -5.20 1.48
10.42 -4.99 1.48
10.51 -4.78 1.47
10.85 -4.67 1.51
11.07 -4.50 1.53
11.17 -4.29 1.53
9.61 -3.47 1.31
9.96 -3.37 1.34
10.62 -3.36 1.42
10.76 -3.17 1.43
10.76 -2.93 1.43
10.76 -2.70 1.42
10.75 -2.47 1.41
9.75 -2.03 1.27
9.75 -1.83 1.27
9.75 -1.63 1.26
10.73 -1.57 1.39
10.73 -1.35 1.38
10.72 -1.13 1.38
10.71 -0.91 1.37
10.71 -0.70 1.37
10.70 -0.48 1.37
9.59 -0.24 1.22
11.56 -0.05 1.47
11.55 0.18 1.47
11.55 0.41 1.47
11.07 0.62 1.41
10.95 0.83 1.40
10.67 1.02 1.36
10.33 1.20 1.32
10.22 1.40 1.31
10.12 1.59 1.30
10.03 1.78 1.29
9.99 1.99 1.29
10.00 2.20 1.30
10.03 2.42 1.31
10.16 2.67 1.33
10.28 2.92 1.35
10.90 3.33 1.44
11.88 3.89 1.58
11.34 3.97 1.52
11.04 4.12 1.49
10.91 4.32 1.48
10.82 4.54 1.48
10.79 4.78 1.48
10.93 5.11 1.51
11.37 5.60 1.59
12.50 6.47 1.76
12.49 6.79 1.78
12.48 7.11 1.80
12.48 7.44 1.82
12.47 7.78 1.83
12.46 8.13 1.85
12.45 8.48 1.88
12.44 8.85 1.90
12.44 9.22 1.92
12.43 9.61 1.95
12.41 10.01 1.98
14.80 12.43 2.39
14.57 12.74 2.39
14.33 13.05 2.39
14.08 13.35 2.39
13.83 13.65 2.39
13.57 13.94 2.39
13.30 14.23 2.39
13.03 14.51 2.39
12.75 14.79 2.39
12.47 15.06 2.39
12.24 15.40 2.40
11.94 15.66 2.40
11.64 15.92 2.40
11.33 16.17 2.40
11.02 16.42 2.40
10.70 16.66 2.40
10.38 16.90 2.40
10.06 17.13 2.40
9.72 17.35 2.40
9.39 17.57 2.40
9.05 17.78 2.40
8.70 17.98 2.40
8.35 18.18 2.40
8.00 18.37 2.40
7.64 18.56 2.40
7.27 18.73 2.40
6.91 18.91 2.40
6.53 19.07 2.40
6.16 19.23 2.40
5.78 19.37 2.40
5.37 19.41 2.39
4.99 19.54 2.39
4.60 19.67 2.39
4.21 19.79 2.39
3.82 19.90 2.39
3.42 20.00 2.39
2.06 13.71 1.63
2.63 20.18 2.39
2.22 20.26 2.39
1.90 21.20 2.49
1.47 21.27 2.49
1.05 21.33 2.49
0.62 21.37 2.49
0.19 21.41 2.49
-0.24 21.45 2.49
-0.67 21.47 2.49
-1.10 21.48 2.49
-1.53 21.49 2.49
-1.97 21.48 2.49
-2.40 21.47 2.49
-2.84 21.46 2.49
-3.27 21.43 2.49
-3.71 21.39 2.49
-4.14 21.34 2.49
-4.57 21.28 2.49
-5.01 21.22 2.49
-5.44 21.14 2.49
-5.87 21.06 2.49
-6.30 20.96 2.49
-6.48 20.08 2.40
-6.86 19.89 2.39
-7.27 19.77 2.39
-7.67 19.65 2.39
-8.07 19.51 2.39
-8.47 19.37 2.39
-8.87 19.22 2.39
-9.27 19.06 2.39
-9.66 18.90 2.39
-10.05 18.72 2.39
-10.40 18.49 2.38
-10.38 17.61 2.30
-10.37 16.80 2.21
-10.35 16.04 2.14
-10.33 15.34 2.07
-10.32 14.67 2.00
-10.30 14.04 1.94
-10.29 13.45 1.89
-10.28 12.89 1.84
-10.26 12.36 1.79
-10.25 11.85 1.74
-10.24 11.37 1.70
-10.23 10.91 1.66
-10.22 10.47 1.62
-10.21 10.05 1.59
-10.25 9.69 1.56
-10.34 9.39 1.55
-19.01 11.31 2.43
-18.78 10.67 2.38
-18.54 10.04 2.32
-18.26 9.43 2.26
-17.92 8.80 2.19
-17.58 8.20 2.13
-17.30 7.65 2.08
-16.65 6.97 1.98
-16.00 6.32 1.89
-15.40 5.73 1.80
-15.02 5.25 1.75
-14.69 4.81 1.70
-14.39 4.39 1.65
-14.10 3.99 1.61
-13.83 3.62 1.57
-13.65 3.28 1.54
-13.47 2.95 1.51
-13.30 2.64 1.49
-13.14 2.33 1.47
-12.98 2.04 1.44
-12.83 1.75 1.42
-12.77 1.48 1.41
-12.77 1.22 1.41
-12.75 0.96 1.41
-12.73 0.71 1.40
-12.71 0.45 1.40
-12.69 0.19 1.40
-12.67 -0.06 1.40
-12.65 -0.31 1.39
-12.63 -0.57 1.39
-12.61 -0.82 1.39
-12.62 -1.07 1.40
-12.64 -1.33 1.40
-12.65 -1.59 1.41
-12.67 -1.85 1.42
-12.68 -2.11 1.42
-12.70 -2.38 1.43
-12.68 -2.64 1.44
-12.68 -2.91 1.44
-12.71 -3.18 1.45
-12.74 -3.46 1.47
-12.77 -3.75 1.48
-12.79 -4.04 1.49
-12.82 -4.33 1.51
-12.82 -4.62 1.52
-12.98 -4.97 1.55
-13.07 -5.31 1.58
-13.15 -5.65 1.60
-13.23 -6.00 1.63
-13.26 -6.34 1.65
-13.25 -6.66 1.66
-13.24 -7.00 1.68
-13.23 -7.34 1.70
-13.23 -7.68 1.72
-13.22 -8.04 1.74
-13.20 -8.39 1.77
-13.17 -8.75 1.79
-13.14 -9.11 1.81
-13.10 -9.48 1.83
-13.06 -9.86 1.86
-13.02 -10.24 1.88
-13.00 -10.66 1.91
-13.02 -11.11 1.95
-13.03 -11.58 1.99
-13.04 -12.07 2.03
-13.02 -12.55 2.07
-12.98 -13.03 2.10
-12.94 -13.52 2.14
-12.90 -14.02 2.19
-12.85 -14.55 2.23
-12.65 -14.91 2.25
-12.39 -15.22 2.26
-12.13 -15.52 2.27
-11.87 -15.83 2.29
-11.60 -16.14 2.30
-11.33 -16.45 2.32
-11.12 -16.86 2.35
-10.98 -17.40 2.39
-10.83 -17.95 2.44
-10.68 -18.53 2.49
-10.33 -18.78 2.50
-9.49 -18.10 2.39
-9.11 -18.26 2.39
-8.73 -18.41 2.39
-8.34 -18.55 2.39
-7.96 -18.69 2.39
-7.57 -18.81 2.39
-7.18 -18.93 2.39
-6.79 -19.04 2.39
-6.39 -19.15 2.39
-6.00 -19.24 2.39
-5.60 -19.33 2.39
-5.43 -20.25 2.49
-5.01 -20.32 2.49
-4.60 -20.39 2.49
-4.18 -20.44 2.49
-3.77 -20.49 2.49
-3.35 -20.53 2.49
-2.93 -20.57 2.49
-2.51 -20.59 2.49
-2.10 -20.61 2.49
-1.68 -20.61 2.49
-1.26 -20.61 2.49
-0.85 -20.60 2.49
-0.43 -20.59 2.49
-0.02 -17.29 2.49
0.33 -17.27 2.49
0.67 -17.24 2.49
1.02 -17.20 2.49
1.36 -17.16 2.49
1.70 -17.11 2.49
2.04 -17.05 2.49
2.38 -16.99 2.49
2.61 -16.22 2.39
2.93 -16.14 2.39
3.25 -16.06 2.39
3.57 -15.98 2.39
3.88 -15.88 2.39
4.20 -15.79 2.39
4.51 -15.68 2.39
4.82 -15.57 2.39
5.12 -15.46 2.39
5.43 -15.33 2.39
5.73 -15.21 2.39
6.03 -15.07 2.39
6.32 -14.94 2.39
6.62 -14.81 2.39
6.91 -14.66 2.39
7.20 -14.50 2.39
7.48 -14.34 2.39
7.76 -14.18 2.39
8.04 -14.01 2.39
8.31 -13.83 2.39
8.58 -13.65 2.39
8.85 -13.46 2.39
9.11 -13.27 2.39
9.36 -13.08 2.39
9.62 -12.88 2.39
9.87 -12.67 2.39
10.11 -12.46 2.39
10.35 -12.25 2.39
10.42 -11.83 2.35
10.41 -11.35 2.30
10.40 -10.89 2.25
10.68 -10.74 2.27
11.10 -10.73 2.31
11.55 -10.72 2.36
11.92 -10.63 2.39
12.07 -10.34 2.38
12.06 -9.91 2.34
12.05 -9.51 2.30
12.04 -9.11 2.27
12.03 -8.73 2.23
12.02 -8.36 2.20
12.02 -8.00 2.17
10.49 -6.68 1.87
10.33 -6.30 1.82
10.35 -6.02 1.80
10.33 -5.74 1.78
10.21 -5.41 1.74
10.32 -5.20 1.74
10.42 -4.99 1.74
10.51 -4.78 1.74
10.85 -4.67 1.78
11.07 -4.50 1.80
9.11 -3.50 1.47
9.51 -3.43 1.52
9.96 -3.37 1.58
10.40 -3.29 1.64
10.40 -3.06 1.63
10.40 -2.83 1.62
10.39 -2.61 1.61
10.42 -2.39 1.61
9.39 -1.96 1.45
9.39 -1.76 1.44
9.86 -1.65 1.51
10.55 -1.54 1.61
10.55 -1.33 1.60
10.54 -1.11 1.60
10.53 -0.90 1.59
10.53 -0.68 1.59
10.52 -0.47 1.59
9.38 -0.23 1.41
11.56 -0.05 1.74
11.55 0.18 1.74
11.55 0.41 1.74
11.07 0.62 1.67
10.95 0.83 1.65
10.61 1.02 1.60
10.33 1.20 1.56
10.22 1.40 1.55
10.12 1.59 1.54
10.17 1.81 1.55
10.16 2.02 1.55
10.16 2.23 1.56
10.03 2.42 1.54
10.16 2.67 1.57
10.29 2.92 1.60
10.90 3.33 1.70
11.81 3.87 1.85
11.32 3.97 1.79
11.04 4.12 1.76
10.90 4.32 1.75
10.82 4.54 1.75
10.79 4.78 1.75
10.90 5.10 1.79
11.32 5.57 1.87
12.50 6.47 2.09
12.49 6.79 2.11
12.48 7.11 2.13
12.48 7.44 2.15
12.47 7.78 2.17
12.46 8.13 2.20
12.45 8.49 2.22
12.44 8.85 2.25
12.44 9.23 2.28
12.43 9.61 2.31
12.41 10.01 2.34
12.49 10.49 2.39
12.29 10.75 2.39
12.08 11.01 2.39
11.87 11.26 2.39
11.65 11.51 2.39
11.43 11.75 2.39
11.21 11.99 2.39
10.98 12.23 2.39
10.74 12.46 2.39
10.50 12.69 2.39
10.26 12.91 2.39
10.01 13.13 2.39
9.75 13.34 2.39
9.49 13.55 2.39
9.23 13.76 2.39
8.96 13.96 2.39
8.69 14.15 2.39
8.42 14.34 2.39
8.14 14.52 2.39
7.85 14.70 2.39
7.57 14.87 2.39
7.27 15.04 2.39
7.01 15.27 2.40
6.71 15.43 2.40
6.41 15.58 2.40
6.10 15.72 2.40
5.79 15.86 2.40
5.45 15.91 2.39
5.13 16.04 2.39
4.82 16.16 2.39
4.50 16.27 2.39
4.18 16.38 2.39
3.85 16.48 2.39
3.52 16.58 2.39
3.20 16.66 2.39
2.86 16.75 2.39
2.06 13.71 1.95
2.20 16.89 2.39
1.86 16.95 2.39
1.59 17.74 2.49
1.23 17.79 2.49
0.87 17.84 2.49
0.52 17.87 2.49
0.16 17.90 2.49
-0.20 17.93 2.49
-0.56 17.94 2.49
-0.92 17.95 2.49
-1.28 17.95 2.49
-1.65 17.94 2.49
-2.01 17.93 2.49
-2.37 17.90 2.49
-2.73 17.87 2.49
-3.09 17.84 2.49
-3.46 17.79 2.49
-3.82 17.74 2.49
-4.18 17.68 2.49
-4.53 17.61 2.49
-4.89 17.54 2.49
-5.25 17.46 2.49
-5.60 17.37 2.49
-5.96 17.27 2.49
-6.31 17.16 2.49
-6.39 16.37 2.39
-6.72 16.23 2.39
-7.05 16.11 2.39
-7.38 15.98 2.39
-7.71 15.85 2.39
-8.03 15.71 2.39
-8.35 15.56 2.39
-8.67 15.40 2.39
-8.99 15.24 2.39
-9.30 15.07 2.39
-9.61 14.89 2.39
-9.91 14.71 2.39
-10.21 14.52 2.39
-10.30 14.04 2.34
-10.29 13.45 2.28
-10.28 12.88 2.21
-10.26 12.35 2.16
-10.25 11.85 2.10
-10.24 11.37 2.05
-10.23 10.91 2.00
-10.22 10.47 1.96
-10.21 10.05 1.92
-10.20 9.64 1.88
-10.19 9.25 1.84
-10.18 8.88 1.80
-10.17 8.52 1.77
-10.17 8.17 1.74
-10.16 7.84 1.71
-10.15 7.51 1.68
-10.14 7.19 1.66
-10.14 6.89 1.63
-10.13 6.59 1.61
-10.12 6.30 1.59
-10.11 6.01 1.56
-10.12 5.75 1.55
-10.34 5.60 1.56
-10.35 5.34 1.55
-15.26 7.49 2.26
-15.00 7.00 2.20
-14.75 6.52 2.14
-14.50 6.07 2.09
-14.28 5.64 2.04
-14.16 5.27 2.01
-14.05 4.91 1.97
-13.93 4.56 1.94
-13.79 4.21 1.91
-13.52 3.83 1.86
-13.31 3.48 1.83
-13.15 3.16 1.79
-12.99 2.85 1.76
-12.84 2.55 1.74
-12.69 2.25 1.71
-12.55 1.97 1.69
-12.41 1.69 1.66
-12.39 1.44 1.66
-12.38 1.19 1.65
-12.38 0.94 1.65
-12.37 0.69 1.65
-12.35 0.44 1.64
-12.33 0.19 1.64
-12.31 -0.06 1.64
-12.29 -0.30 1.64
-11.73 -0.53 1.56
-12.25 -0.80 1.64
-12.23 -1.04 1.64
-12.22 -1.29 1.64
-12.24 -1.54 1.64
-12.25 -1.79 1.65
-12.26 -2.04 1.66
-12.27 -2.30 1.67
-12.27 -2.55 1.68
-12.24 -2.81 1.68
-12.22 -3.06 1.69
-12.21 -3.32 1.70
-12.23 -3.59 1.71
-12.25 -3.86 1.72
-12.27 -4.14 1.74
-12.29 -4.43 1.76
-12.28 -4.70 1.77
-12.26 -4.98 1.78
-12.28 -5.28 1.80
-12.44 -5.64 1.84
-12.60 -6.02 1.88
-12.76 -6.42 1.93
-12.75 -6.74 1.95
-12.73 -7.06 1.97
-12.71 -7.38 1.99
-12.69 -7.71 2.01
-12.67 -8.05 2.04
-12.64 -8.39 2.06
-12.58 -8.73 2.08
-12.50 -9.05 2.10
-12.41 -9.37 2.12
-12.32 -9.69 2.14
-12.22 -10.02 2.16
-12.12 -10.35 2.18
-12.04 -10.70 2.20
-11.98 -11.08 2.24
-11.91 -11.48 2.27
-11.94 -11.97 2.32
-11.96 -12.49 2.38
-11.82 -12.85 2.40
-11.65 -13.18 2.42
-6.37 -7.51 1.36
-11.30 -13.86 2.47
-11.11 -14.21 2.49
-10.94 -14.58 2.52
-10.74 -14.93 2.55
-10.45 -15.16 2.56
-9.47 -14.35 2.39
-9.17 -14.52 2.39
-8.87 -14.68 2.39
-8.56 -14.84 2.39
-8.25 -14.99 2.39
-7.94 -15.13 2.39
-7.62 -15.27 2.39
-7.30 -15.40 2.39
-6.98 -15.52 2.39
-6.66 -15.64 2.39
-6.34 -15.75 2.39
-6.01 -15.86 2.39
-5.69 -15.95 2.39
-5.59 -16.74 2.49
-5.25 -16.82 2.49
-4.90 -16.90 2.49
-4.56 -16.98 2.49
-4.21 -17.04 2.49
-3.86 -17.10 2.49
-3.51 -17.15 2.49
-3.16 -17.20 2.49
-2.81 -17.24 2.49
-2.46 -17.27 2.49
-2.11 -17.29 2.49
-1.76 -17.31 2.49
-1.42 -17.32 2.49
-1.07 -17.32 2.49
-0.72 -17.32 2.49
-0.37 -17.31 2.49
-0.02 -14.91 2.49
0.28 -14.89 2.49
0.58 -14.87 2.49
0.87 -14.84 2.49
1.17 -14.80 2.49
1.47 -14.76 2.49
1.76 -14.71 2.49
2.05 -14.66 2.49
2.35 -14.60 2.49
2.54 -14.00 2.40
2.80 -13.87 2.39
3.08 -13.80 2.39
3.35 -13.72 2.39
3.62 -13.64 2.39
3.89 -13.55 2.39
4.16 -13.45 2.39
4.43 -13.36 2.39
4.69 -13.25 2.39
4.95 -13.14 2.39
5.21 -13.03 2.39
5.46 -12.91 2.39
5.72 -12.79 2.39
5.97 -12.66 2.39
6.22 -12.53 2.39
6.47 -12.41 2.39
6.71 -12.26 2.39
6.95 -12.12 2.39
7.19 -11.97 2.39
7.42 -11.81 2.39
7.65 -11.65 2.39
7.88 -11.49 2.39
8.10 -11.32 2.39
8.33 -11.15 2.39
8.54 -10.97 2.39
8.76 -10.79 2.39
8.97 -10.61 2.39
9.17 -10.42 2.39
9.37 -10.23 2.39
9.57 -10.03 2.39
9.77 -9.83 2.39
9.96 -9.63 2.39
10.14 -9.42 2.39
10.33 -9.21 2.39
10.50 -9.00 2.39
10.68 -8.78 2.39
10.85 -8.56 2.39
11.01 -8.34 2.39
11.18 -8.11 2.39
11.33 -7.88 2.39
11.48 -7.65 2.39
10.49 -6.69 2.16
10.33 -6.30 2.10
10.35 -6.02 2.08
10.33 -5.74 2.05
10.21 -5.41 2.01
10.32 -5.20 2.01
10.42 -5.00 2.01
10.51 -4.78 2.01
10.85 -4.67 2.05
11.07 -4.51 2.08
9.07 -3.48 1.69
9.37 -3.38 1.73
9.96 -3.37 1.83
10.21 -3.23 1.86
10.21 -3.00 1.85
10.20 -2.78 1.84
10.20 -2.56 1.83
9.00 -2.07 1.61
9.00 -1.88 1.60
8.99 -1.69 1.59
9.86 -1.65 1.74
10.18 -1.49 1.79
10.17 -1.28 1.78
10.16 -1.07 1.78
10.16 -0.87 1.77
10.15 -0.66 1.77
10.15 -0.45 1.76
9.16 -0.23 1.59
11.56 -0.05 2.01
11.55 0.18 2.00
11.55 0.41 2.00
11.07 0.62 1.92
10.95 0.83 1.90
10.67 1.03 1.86
10.33 1.20 1.80
10.22 1.40 1.79
10.12 1.59 1.77
10.17 1.81 1.79
10.16 2.02 1.79
10.16 2.23 1.80
10.03 2.42 1.78
10.16 2.67 1.81
10.29 2.92 1.84
10.79 3.30 1.94
11.74 3.85 2.13
11.31 3.96 2.06
11.04 4.12 2.03
10.90 4.32 2.02
10.82 4.54 2.02
10.79 4.78 2.03
10.90 5.10 2.06
11.26 5.55 2.15
11.68 6.05 2.25
12.28 6.67 2.39
12.15 6.92 2.39
12.02 7.17 2.39
11.88 7.42 2.39
11.74 7.66 2.39
11.59 7.90 2.39
11.44 8.14 2.39
11.29 8.38 2.39
11.12 8.61 2.39
10.96 8.84 2.39
10.79 9.07 2.39
10.59 9.27 2.39
10.43 9.51 2.39
10.25 9.73 2.39
10.06 9.94 2.39
9.87 10.15 2.39
9.67 10.35 2.39
9.47 10.56 2.39
9.27 10.76 2.39
9.06 10.95 2.39
8.85 11.14 2.39
8.63 11.33 2.39
8.41 11.51 2.39
8.18 11.69 2.39
7.96 11.86 2.39
7.72 12.03 2.39
7.49 12.20 2.39
7.25 12.36 2.39
7.01 12.52 2.39
6.76 12.67 2.39
6.51 12.82 2.39
6.26 12.96 2.39
6.01 13.09 2.39
5.75 13.23 2.39
5.48 13.34 2.39
5.22 13.46 2.39
4.95 13.58 2.39
4.69 13.69 2.39
4.41 13.80 2.39
4.14 13.90 2.39
3.87 13.99 2.39
3.59 14.08 2.39
3.31 14.17 2.39
3.03 14.25 2.39
2.74 14.32 2.39
2.46 14.39 2.39
2.06 13.71 2.27
1.89 14.56 2.40
1.66 15.19 2.49
1.36 15.24 2.49
1.05 15.28 2.49
0.75 15.31 2.49
0.44 15.34 2.49
0.13 15.36 2.49
-0.18 15.38 2.49
-0.48 15.39 2.49
-0.79 15.39 2.49
-1.10 15.39 2.49
-1.41 15.38 2.49
-1.72 15.37 2.49
-2.03 15.34 2.49
-2.34 15.32 2.49
-2.65 15.28 2.49
-2.96 15.24 2.49
-3.27 15.19 2.49
-3.58 15.14 2.49
-3.89 15.08 2.49
-4.19 15.01 2.49
-4.50 14.94 2.49
-4.80 14.86 2.49
-5.10 14.78 2.49
-5.40 14.69 2.49
-5.70 14.59 2.49
-6.00 14.48 2.49
-6.29 14.37 2.49
-6.33 13.70 2.40
-6.59 13.55 2.39
-6.87 13.43 2.39
-7.14 13.30 2.39
-7.41 13.16 2.39
-7.68 13.02 2.39
-7.95 12.87 2.39
-8.21 12.72 2.39
-8.47 12.56 2.39
-8.73 12.40 2.39
-8.98 12.23 2.39
-9.23 12.06 2.39
-9.48 11.88 2.39
-9.72 11.69 2.39
-9.96 11.50 2.39
-10.19 11.31 2.39
-10.23 10.90 2.35
-10.22 10.46 2.29
-10.21 10.04 2.24
-10.20 9.64 2.20
-10.19 9.25 2.16
-10.18 8.88 2.11
-10.17 8.52 2.08
-10.17 8.17 2.04
-10.16 7.83 2.00
-10.15 7.51 1.97
-10.14 7.19 1.94
-10.14 6.89 1.91
-10.13 6.59 1.89
-10.12 6.30 1.86
-10.12 6.02 1.84
-10.11 5.74 1.81
-10.10 5.47 1.79
-10.10 5.21 1.77
-10.09 4.96 1.75
-10.09 4.70 1.73
-10.08 4.46 1.72
-10.08 4.22 1.70
-10.07 3.98 1.69
-10.07 3.74 1.67
-10.06 3.52 1.66
-10.05 3.29 1.65
-10.05 3.07 1.64
-10.04 2.85 1.62
-10.04 2.63 1.62
-10.03 2.41 1.61
-10.03 2.20 1.60
-10.02 1.99 1.59
-10.02 1.78 1.58
-10.02 1.57 1.58
-10.02 1.37 1.58
-10.13 1.18 1.59
-10.23 0.98 1.60
-10.32 0.78 1.61
-10.43 0.58 1.63
-10.53 0.37 1.64
-10.63 0.16 1.66
-10.74 -0.05 1.68
-10.85 -0.27 1.69
-10.96 -0.49 1.71
-11.92 -0.77 1.86
-11.90 -1.01 1.87
-11.88 -1.25 1.87
-11.86 -1.49 1.87
-11.85 -1.73 1.87
-11.86 -1.98 1.88
-11.87 -2.22 1.89
-11.87 -2.47 1.90
-11.85 -2.71 1.91
-11.83 -2.96 1.91
-11.80 -3.21 1.92
-11.78 -3.45 1.93
-11.76 -3.71 1.94
-11.77 -3.97 1.95
-11.79 -4.24 1.97
-11.79 -4.51 1.99
-11.77 -4.78 2.00
-11.75 -5.04 2.02
-11.72 -5.31 2.03
-11.70 -5.59 2.05
-11.75 -5.90 2.08
-11.88 -6.27 2.13
-11.92 -6.60 2.16
-11.86 -6.89 2.17
-11.80 -7.17 2.19
-11.74 -7.46 2.21
-11.68 -7.75 2.23
-11.64 -8.07 2.25
-11.60 -8.39 2.28
-11.53 -8.70 2.30
-11.45 -9.00 2.32
-11.37 -9.31 2.35
-11.28 -9.63 2.37
-11.19 -9.95 2.39
-11.10 -10.27 2.42
-10.99 -10.59 2.45
-10.92 -10.95 2.48
-10.84 -11.31 2.51
-10.70 -11.62 2.54
-10.54 -11.93 2.56
-6.38 -7.51 1.59
-9.37 -11.50 2.39
-9.13 -11.67 2.39
-8.88 -11.84 2.39
-8.63 -12.00 2.39
-8.38 -12.16 2.39
-8.13 -12.31 2.39
-7.87 -12.46 2.39
-7.61 -12.60 2.39
-7.35 -12.74 2.39
-7.08 -12.87 2.39
-6.82 -12.99 2.39
-6.55 -13.11 2.39
-6.28 -13.23 2.39
-6.00 -13.34 2.39
-5.73 -13.44 2.39
-5.69 -14.12 2.49
-5.40 -14.22 2.49
-5.10 -14.30 2.49
-4.81 -14.39 2.49
-4.52 -14.47 2.49
-4.22 -14.54 2.49
-3.92 -14.60 2.49
-3.62 -14.66 2.49
-3.33 -14.72 2.49
-3.03 -14.76 2.49
-2.73 -14.81 2.49
-2.43 -14.84 2.49
-2.13 -14.87 2.49
-1.82 -14.89 2.49
-1.52 -14.91 2.49
-1.22 -14.92 2.49
-0.92 -14.93 2.49
-0.62 -14.93 2.49
-0.32 -14.92 2.49
-0.02 -13.09 2.49
0.24 -13.08 2.49
0.50 -13.06 2.49
0.77 -13.03 2.49
1.03 -13.00 2.49
1.29 -12.97 2.49
1.54 -12.93 2.49
1.80 -12.88 2.49
2.06 -12.83 2.49
2.31 -12.78 2.49
2.46 -12.19 2.39
2.70 -12.13 2.39
2.94 -12.06 2.39
3.18 -11.99 2.39
3.42 -11.91 2.39
3.66 -11.83 2.39
3.89 -11.75 2.39
4.12 -11.66 2.39
4.35 -11.56 2.39
4.58 -11.47 2.39
4.81 -11.36 2.39
5.03 -11.26 2.39
5.25 -11.14 2.39
5.47 -11.03 2.39
5.69 -10.91 2.39
5.90 -10.79 2.39
6.11 -10.66 2.39
6.33 -10.54 2.39
6.54 -10.40 2.39
6.74 -10.26 2.39
6.94 -10.12 2.39
7.14 -9.97 2.39
7.33 -9.82 2.39
7.52 -9.66 2.39
7.71 -9.51 2.39
7.90 -9.34 2.39
8.08 -9.18 2.39
8.26 -9.01 2.39
8.43 -8.84 2.39
8.61 -8.66 2.39
8.77 -8.48 2.39
8.94 -8.30 2.39
9.10 -8.12 2.39
9.26 -7.93 2.39
9.41 -7.74 2.39
9.56 -7.55 2.39
9.71 -7.35 2.39
9.85 -7.15 2.39
9.99 -6.95 2.39
10.12 -6.74 2.39
10.25 -6.54 2.39
10.33 -6.30 2.38
10.19 -5.93 2.32
10.17 -5.65 2.29
10.21 -5.41 2.28
10.32 -5.20 2.28
10.42 -5.00 2.28
10.51 -4.78 2.27
10.68 -4.60 2.29
10.90 -4.44 2.32
9.08 -3.49 1.92
9.37 -3.38 1.96
9.85 -3.33 2.05
9.84 -3.11 2.04
9.85 -2.90 2.02
9.90 -2.70 2.02
9.96 -2.50 2.02
9.05 -2.08 1.83
9.04 -1.89 1.82
9.04 -1.70 1.81
9.86 -1.65 1.97
9.99 -1.46 1.99
9.98 -1.26 1.98
9.98 -1.05 1.98
9.97 -0.85 1.97
9.97 -0.65 1.97
9.96 -0.45 1.96
9.00 -0.22 1.77
11.56 -0.05 2.27
11.55 0.18 2.27
11.55 0.41 2.27
11.07 0.62 2.18
10.95 0.83 2.16
10.67 1.03 2.11
10.33 1.20 2.04
10.22 1.40 2.03
10.12 1.59 2.01
10.17 1.81 2.03
10.16 2.02 2.03
10.16 2.24 2.04
10.03 2.42 2.02
10.16 2.67 2.06
10.29 2.92 2.09
10.88 3.33 2.23
11.57 3.80 2.38
11.23 3.94 2.33
11.01 4.11 2.30
10.88 4.31 2.28
10.79 4.53 2.28
10.76 4.77 2.30
10.82 5.06 2.33
11.02 5.43 2.39
10.92 5.66 2.39
10.81 5.88 2.39
10.70 6.10 2.39
10.58 6.32 2.39
10.46 6.53 2.39
10.33 6.74 2.39
10.20 6.96 2.39
10.07 7.17 2.39
9.93 7.37 2.39
9.78 7.58 2.39
9.64 7.78 2.39
9.49 7.97 2.39
9.33 8.17 2.39
9.17 8.36 2.39
9.01 8.55 2.39
8.85 8.74 2.39
8.68 8.92 2.39
8.50 9.10 2.39
8.32 9.28 2.39
8.14 9.45 2.39
7.96 9.62 2.39
7.77 9.79 2.39
7.58 9.95 2.39
7.38 10.11 2.39
7.19 10.27 2.39
6.99 10.42 2.39
6.78 10.57 2.39
6.57 10.71 2.39
6.36 10.85 2.39
6.15 10.99 2.39
5.93 11.12 2.39
5.71 11.23 2.39
5.49 11.36 2.39
5.26 11.48 2.39
5.04 11.59 2.39
4.81 11.70 2.39
4.57 11.81 2.39
4.34 11.91 2.39
4.11 12.00 2.39
3.87 12.10 2.39
3.63 12.18 2.39
3.39 12.26 2.39
3.14 12.34 2.39
2.90 12.41 2.39
2.65 12.48 2.39
2.40 12.55 2.39
2.15 12.60 2.39
1.90 12.66 2.39
1.71 13.20 2.48
1.45 13.30 2.49
1.19 13.34 2.49
0.92 13.37 2.49
0.65 13.40 2.49
0.38 13.42 2.49
0.11 13.44 2.49
-0.16 13.45 2.49
-0.43 13.46 2.49
-0.70 13.46 2.49
-0.97 13.46 2.49
-1.24 13.45 2.49
-1.51 13.43 2.49
-1.78 13.41 2.49
-2.05 13.39 2.49
-2.32 13.35 2.49
-2.59 13.32 2.49
-2.86 13.27 2.49
-3.13 13.23 2.49
-3.40 13.17 2.49
-3.66 13.11 2.49
-3.93 13.05 2.49
-4.19 12.98 2.49
-4.46 12.90 2.49
-4.72 12.82 2.49
-4.98 12.73 2.49
-5.24 12.64 2.49
-5.49 12.54 2.49
-5.75 12.44 2.49
-6.00 12.33 2.49
-6.25 12.22 2.49
-6.27 11.68 2.41
-6.48 11.50 2.39
-6.70 11.36 2.39
-6.93 11.23 2.39
-7.16 11.09 2.39
-7.39 10.95 2.39
-7.61 10.81 2.39
-7.83 10.66 2.39
-8.05 10.51 2.39
-8.26 10.35 2.39
-8.47 10.19 2.39
-8.68 10.03 2.39
-8.88 9.85 2.39
-9.08 9.68 2.39
-9.28 9.50 2.39
-9.47 9.32 2.39
-9.66 9.13 2.39
-9.85 8.94 2.39
-10.03 8.74 2.39
-10.17 8.52 2.38
-10.17 8.17 2.34
-10.16 7.83 2.30
-10.15 7.51 2.26
-10.14 7.19 2.23
-10.14 6.89 2.20
-10.13 6.59 2.17
-10.12 6.30 2.14
-10.12 6.02 2.11
-10.11 5.74 2.08
-10.10 5.47 2.06
-10.10 5.21 2.03
-10.09 4.96 2.01
-10.09 4.70 1.99
-10.08 4.46 1.97
-10.08 4.22 1.95
-10.07 3.98 1.94
-10.07 3.74 1.92
-10.06 3.51 1.91
-10.05 3.29 1.89
-10.05 3.07 1.88
-10.04 2.85 1.87
-10.04 2.63 1.86
-10.03 2.41 1.85
-10.03 2.20 1.84
-10.02 1.99 1.83
-10.02 1.78 1.82
-10.02 1.57 1.81
-10.03 1.37 1.81
-10.13 1.18 1.82
-10.23 0.98 1.84
-10.32 0.78 1.85
-10.43 0.58 1.87
-10.53 0.37 1.89
-10.63 0.16 1.90
-10.74 -0.05 1.92
-10.85 -0.27 1.94
-10.96 -0.49 1.97
-11.59 -0.75 2.08
-11.58 -0.98 2.08
-11.56 -1.22 2.09
-11.54 -1.45 2.09
-11.52 -1.68 2.09
-11.49 -1.91 2.09
-11.50 -2.15 2.10
-11.50 -2.39 2.11
-11.48 -2.63 2.12
-11.46 -2.87 2.13
-11.43 -3.10 2.13
-11.41 -3.34 2.14
-11.38 -3.58 2.15
-11.35 -3.83 2.16
-11.32 -4.07 2.17
-11.32 -4.33 2.19
-11.31 -4.59 2.21
-11.29 -4.84 2.22
-11.26 -5.10 2.24
-11.23 -5.36 2.25
-11.20 -5.63 2.27
-11.17 -5.90 2.29
-11.14 -6.17 2.31
-11.17 -6.48 2.35
-11.11 -6.75 2.36
-11.05 -7.02 2.38
-10.98 -7.29 2.40
-10.91 -7.56 2.42
-10.79 -7.81 2.43
-10.67 -8.05 2.44
-10.54 -8.28 2.45
-10.41 -8.53 2.46
-10.30 -8.79 2.48
-9.76 -8.67 2.39
-9.58 -8.86 2.39
-9.39 -9.04 2.39
-9.20 -9.22 2.39
-9.00 -9.39 2.39
-8.81 -9.56 2.39
-8.60 -9.73 2.39
-6.38 -7.51 1.81
-8.19 -10.05 2.39
-7.98 -10.20 2.39
-7.77 -10.35 2.39
-7.55 -10.49 2.39
-7.33 -10.63 2.39
-7.11 -10.77 2.39
-6.89 -10.90 2.39
-6.66 -11.02 2.39
-6.43 -11.14 2.39
-6.20 -11.26 2.39
-5.97 -11.38 2.39
-5.77 -11.54 2.40
-5.73 -12.08 2.49
-5.49 -12.18 2.49
-5.24 -12.28 2.49
-4.98 -12.37 2.49
-4.73 -12.45 2.49
-4.47 -12.53 2.49
-4.22 -12.61 2.49
-3.96 -12.68 2.49
-3.70 -12.74 2.49
-3.44 -12.80 2.49
-3.18 -12.85 2.49
-2.92 -12.90 2.49
-2.66 -12.95 2.49
-2.39 -12.98 2.49
-2.13 -13.02 2.49
-1.87 -13.04 2.49
-1.60 -13.07 2.49
-1.34 -13.08 2.49
-1.08 -13.10 2.49
-0.81 -13.10 2.49
-0.55 -13.10 2.49
-0.28 -13.10 2.49
-0.02 -11.66 2.49
0.21 -11.64 2.49
0.45 -11.63 2.49
0.68 -11.61 2.49
0.91 -11.58 2.49
1.14 -11.55 2.49
1.37 -11.52 2.49
1.60 -11.48 2.49
1.83 -11.43 2.49
2.06 -11.39 2.49
2.29 -11.33 2.49
2.41 -10.81 2.39
2.62 -10.75 2.39
2.84 -10.69 2.39
3.05 -10.62 2.39
3.26 -10.55 2.39
3.47 -10.48 2.39
3.67 -10.40 2.39
3.88 -10.31 2.39
4.08 -10.23 2.39
4.29 -10.14 2.39
4.49 -10.04 2.39
4.68 -9.94 2.39
4.88 -9.84 2.39
5.07 -9.73 2.39
5.26 -9.62 2.39
5.45 -9.51 2.39
5.64 -9.39 2.39
5.82 -9.27 2.39
6.01 -9.15 2.39
6.19 -9.02 2.39
6.37 -8.90 2.39
6.54 -8.77 2.39
6.71 -8.63 2.39
6.88 -8.49 2.39
7.05 -8.34 2.39
7.21 -8.20 2.39
7.37 -8.05 2.39
7.53 -7.89 2.39
7.68 -7.74 2.39
7.83 -7.58 2.39
7.98 -7.42 2.39
8.13 -7.25 2.39
8.27 -7.08 2.39
8.41 -6.91 2.39
8.54 -6.74 2.39
8.67 -6.57 2.39
8.80 -6.39 2.39
8.92 -6.21 2.39
9.04 -6.03 2.39
9.16 -5.84 2.39
9.27 -5.65 2.39
9.38 -5.47 2.39
9.49 -5.27 2.39
9.59 -5.08 2.39
9.69 -4.89 2.39
9.79 -4.69 2.39
9.88 -4.49 2.39
9.96 -4.29 2.39
10.05 -4.09 2.39
9.10 -3.49 2.15
9.37 -3.38 2.20
9.66 -3.27 2.25
9.65 -3.05 2.23
9.65 -2.84 2.22
9.65 -2.63 2.21
9.64 -2.42 2.19
9.06 -2.08 2.05
9.05 -1.89 2.04
9.05 -1.70 2.03
9.68 -1.62 2.16
9.71 -1.42 2.16
9.74 -1.23 2.16
9.76 -1.03 2.16
9.78 -0.83 2.16
9.79 -0.64 2.16
9.78 -0.44 2.16
9.01 -0.22 1.99
10.86 -0.05 2.39
10.86 0.17 2.39
10.86 0.39 2.39
10.85 0.61 2.39
10.77 0.82 2.38
10.45 1.01 2.31
10.33 1.21 2.29
10.22 1.40 2.27
10.12 1.60 2.25
10.03 1.79 2.24
9.99 1.99 2.24
10.00 2.20 2.25
10.03 2.42 2.26
10.17 2.67 2.31
10.29 2.93 2.35
10.44 3.20 2.39
10.38 3.41 2.39
10.31 3.62 2.39
10.24 3.83 2.39
10.17 4.03 2.39
10.09 4.24 2.39
10.01 4.44 2.39
9.93 4.65 2.39
9.84 4.85 2.39
9.74 5.05 2.39
9.64 5.25 2.39
9.54 5.44 2.39
9.44 5.64 2.39
9.33 5.83 2.39
9.21 6.02 2.39
9.10 6.21 2.39
8.98 6.39 2.39
8.85 6.58 2.39
8.72 6.76 2.39
8.59 6.94 2.39
8.46 7.11 2.39
8.32 7.29 2.39
8.18 7.46 2.39
8.03 7.63 2.39
7.88 7.79 2.39
7.73 7.95 2.39
7.58 8.11 2.39
7.42 8.27 2.39
7.25 8.42 2.39
7.09 8.58 2.39
6.92 8.72 2.39
6.75 8.87 2.39
6.58 9.01 2.39
6.40 9.15 2.39
6.22 9.28 2.39
6.04 9.41 2.39
5.85 9.54 2.39
5.66 9.65 2.39
5.47 9.77 2.39
5.27 9.89 2.39
5.08 10.00 2.39
4.88 10.11 2.39
4.68 10.21 2.39
4.48 10.31 2.39
4.27 10.41 2.39
4.07 10.50 2.39
3.86 10.59 2.39
3.65 10.68 2.39
3.44 10.76 2.39
3.22 10.83 2.39
3.01 10.91 2.39
2.79 10.97 2.39
2.57 11.04 2.39
2.35 11.10 2.39
2.13 11.15 2.39
1.91 11.20 2.39
1.74 11.65 2.48
1.52 11.78 2.49
1.29 11.82 2.49
1.05 11.85 2.49
0.81 11.88 2.49
0.58 11.90 2.49
0.34 11.92 2.49
0.10 11.94 2.49
-0.14 11.95 2.49
-0.38 11.95 2.49
-0.62 11.95 2.49
-0.86 11.95 2.49
-1.10 11.94 2.49
-1.34 11.92 2.49
-1.58 11.90 2.49
-1.82 11.88 2.49
-2.06 11.85 2.49
-2.30 11.81 2.49
-2.54 11.77 2.49
-2.78 11.73 2.49
-3.01 11.68 2.49
-3.25 11.63 2.49
-3.49 11.57 2.49
-3.72 11.51 2.49
-3.95 11.44 2.49
-4.18 11.36 2.49
-4.41 11.29 2.49
-4.64 11.20 2.49
-4.87 11.12 2.49
-5.10 11.02 2.49
-5.32 10.93 2.49
-5.54 10.82 2.49
-5.76 10.72 2.49
-5.98 10.61 2.49
-6.19 10.49 2.49
-6.23 10.09 2.43
-6.34 9.82 2.39
-6.54 9.70 2.39
-6.74 9.57 2.39
-6.93 9.44 2.39
-7.13 9.31 2.39
-7.32 9.17 2.39
-7.50 9.02 2.39
-7.68 8.87 2.39
-7.86 8.72 2.39
-8.04 8.57 2.39
-8.22 8.41 2.39
-8.39 8.25 2.39
-8.55 8.08 2.39
-8.72 7.91 2.39
-8.88 7.74 2.39
-9.03 7.56 2.39
-9.19 7.38 2.39
-9.34 7.20 2.39
-9.48 7.01 2.39
-9.62 6.82 2.39
-9.76 6.63 2.39
-9.89 6.43 2.39
-10.02 6.24 2.39
-10.12 6.02 2.38
-10.11 5.74 2.35
-10.10 5.47 2.33
-10.10 5.21 2.30
-10.09 4.95 2.27
-10.09 4.70 2.25
-10.08 4.46 2.23
-10.08 4.22 2.21
-10.07 3.98 2.19
-10.07 3.74 2.17
-10.06 3.51 2.15
-10.05 3.29 2.14
-10.05 3.07 2.12
-10.04 2.85 2.11
-10.04 2.63 2.10
-10.03 2.41 2.09
-10.03 2.20 2.08
-10.02 1.99 2.07
-10.02 1.78 2.06
-10.02 1.57 2.05
-10.03 1.37 2.05
-10.13 1.18 2.06
-10.23 0.98 2.08
-10.32 0.78 2.09
-10.42 0.58 2.11
-10.53 0.37 2.13
-10.63 0.17 2.15
-10.74 -0.05 2.17
-10.85 -0.27 2.20
-10.96 -0.49 2.22
-11.29 -0.73 2.29
-11.27 -0.96 2.29
-11.25 -1.18 2.29
-11.23 -1.41 2.30
-11.21 -1.63 2.30
-11.19 -1.86 2.30
-11.16 -2.09 2.31
-11.15 -2.32 2.31
-11.13 -2.55 2.32
-11.11 -2.78 2.33
-11.08 -3.01 2.34
-11.05 -3.24 2.34
-11.03 -3.47 2.35
-10.99 -3.71 2.36
-10.92 -3.93 2.37
-10.85 -4.15 2.37
-10.77 -4.37 2.37
-10.70 -4.59 2.38
-10.63 -4.81 2.38
-10.57 -5.04 2.39
-10.50 -5.27 2.40
-10.43 -5.50 2.41
-10.35 -5.73 2.42
-10.28 -5.96 2.44
-10.19 -6.19 2.45
-9.83 -6.24 2.39
-9.70 -6.43 2.39
-9.56 -6.62 2.39
-9.42 -6.81 2.39
-9.27 -6.99 2.39
-9.12 -7.17 2.39
-8.97 -7.35 2.39
-8.82 -7.52 2.39
-8.66 -7.69 2.39
-8.50 -7.85 2.39
-8.33 -8.02 2.39
-8.16 -8.18 2.39
-7.99 -8.33 2.39
-7.81 -8.48 2.39
-7.64 -8.63 2.39
-6.38 -7.51 2.05
-7.27 -8.92 2.39
-7.09 -9.05 2.39
-6.90 -9.19 2.39
-6.71 -9.31 2.39
-6.51 -9.44 2.39
-6.32 -9.56 2.39
-6.12 -9.68 2.39
-5.92 -9.79 2.39
-5.80 -10.03 2.42
-5.75 -10.43 2.49
-5.53 -10.54 2.49
-5.32 -10.64 2.49
-5.10 -10.73 2.49
-4.88 -10.82 2.49
-4.65 -10.91 2.49
-4.43 -10.99 2.49
-4.21 -11.07 2.49
-3.98 -11.14 2.49
-3.75 -11.21 2.49
-3.52 -11.27 2.49
-3.29 -11.33 2.49
-3.06 -11.38 2.49
-2.83 -11.43 2.49
-2.60 -11.48 2.49
-2.37 -11.52 2.49
-2.13 -11.55 2.49
-1.90 -11.58 2.49
-1.66 -11.61 2.49
-1.43 -11.63 2.49
-1.19 -11.64 2.49
-0.96 -11.66 2.49
-0.72 -11.66 2.49
-0.49 -11.66 2.49
-0.26 -11.66 2.49
-0.02 -10.49 2.49
0.19 -10.48 2.49
0.40 -10.47 2.49
0.61 -10.45 2.49
0.82 -10.43 2.49
1.03 -10.40 2.49
1.24 -10.37 2.49
1.44 -10.34 2.49
1.65 -10.30 2.49
1.85 -10.26 2.49
2.06 -10.21 2.49
2.26 -10.15 2.49
2.36 -9.69 2.39
2.55 -9.63 2.39
2.75 -9.57 2.39
2.94 -9.51 2.39
3.12 -9.44 2.39
3.31 -9.37 2.39
3.50 -9.30 2.39
3.68 -9.22 2.39
3.86 -9.14 2.39
4.04 -9.05 2.39
4.22 -8.97 2.39
4.40 -8.87 2.39
4.57 -8.78 2.39
4.75 -8.68 2.39
4.92 -8.58 2.39
5.09 -8.47 2.39
5.25 -8.37 2.39
5.42 -8.25 2.39
5.58 -8.14 2.39
5.74 -8.02 2.39
5.90 -7.90 2.39
6.05 -7.78 2.39
6.20 -7.65 2.39
6.36 -7.53 2.39
6.51 -7.40 2.39
6.65 -7.26 2.39
6.79 -7.12 2.39
6.93 -6.98 2.39
7.07 -6.84 2.39
7.20 -6.69 2.39
7.33 -6.54 2.39
7.46 -6.39 2.39
7.59 -6.24 2.39
7.71 -6.08 2.39
7.83 -5.93 2.39
7.94 -5.77 2.39
8.05 -5.60 2.39
8.16 -5.44 2.39
8.27 -5.27 2.39
8.37 -5.10 2.39
8.47 -4.93 2.39
8.57 -4.76 2.39
8.66 -4.59 2.39
8.75 -4.41 2.39
8.83 -4.23 2.39
8.92 -4.06 2.39
9.00 -3.88 2.39
9.07 -3.69 2.39
9.11 -3.50 2.38
9.21 -3.32 2.39
9.28 -3.14 2.39
9.34 -2.95 2.39
9.39 -2.76 2.39
9.45 -2.57 2.39
9.47 -2.38 2.39
9.07 -2.08 2.27
9.06 -1.89 2.26
9.06 -1.70 2.25
9.45 -1.58 2.34
9.45 -1.38 2.33
9.44 -1.19 2.33
9.44 -0.99 2.32
9.43 -0.80 2.31
9.43 -0.61 2.31
9.42 -0.42 2.30
9.02 -0.22 2.20
9.81 -0.04 2.39
9.81 0.15 2.39
9.80 0.35 2.39
9.80 0.55 2.39
9.79 0.75 2.39
9.77 0.94 2.39
9.75 1.14 2.39
9.73 1.34 2.39
9.71 1.53 2.39
9.68 1.73 2.39
9.64 1.92 2.39
9.61 2.12 2.39
9.57 2.31 2.39
9.52 2.50 2.39
9.47 2.69 2.39
9.42 2.89 2.39
9.37 3.08 2.39
9.31 3.27 2.39
9.24 3.45 2.39
9.18 3.64 2.39
9.10 3.83 2.39
9.03 4.01 2.39
8.95 4.19 2.39
8.87 4.37 2.39
8.79 4.55 2.39
8.70 4.73 2.39
8.61 4.91 2.39
8.51 5.08 2.39
8.41 5.26 2.39
8.31 5.43 2.39
8.20 5.60 2.39
8.09 5.76 2.39
7.98 5.93 2.39
7.86 6.09 2.39
7.75 6.25 2.39
7.62 6.41 2.39
7.50 6.57 2.39
7.37 6.72 2.39
7.24 6.87 2.39
7.10 7.02 2.39
6.96 7.17 2.39
6.82 7.31 2.39
6.68 7.45 2.39
6.53 7.59 2.39
6.38 7.73 2.39
6.23 7.86 2.39
6.08 7.99 2.39
5.92 8.11 2.39
5.75 8.23 2.39
5.59 8.35 2.39
5.43 8.47 2.39
5.26 8.58 2.39
5.09 8.69 2.39
4.92 8.80 2.39
4.74 8.90 2.39
4.57 9.00 2.39
4.39 9.10 2.39
4.21 9.19 2.39
4.03 9.28 2.39
3.84 9.37 2.39
3.66 9.45 2.39
3.47 9.53 2.39
3.28 9.61 2.39
3.09 9.68 2.39
2.90 9.75 2.39
2.70 9.81 2.39
2.51 9.87 2.39
2.31 9.93 2.39
2.11 9.98 2.39
1.91 10.03 2.39
1.77 10.42 2.47
1.58 10.55 2.49
1.37 10.59 2.49
1.16 10.62 2.49
0.94 10.65 2.49
0.73 10.67 2.49
0.52 10.69 2.49
0.30 10.71 2.49
0.09 10.72 2.49
-0.13 10.73 2.49
-0.34 10.74 2.49
-0.56 10.73 2.49
-0.78 10.73 2.49
-0.99 10.72 2.49
-1.21 10.71 2.49
-1.42 10.69 2.49
-1.64 10.66 2.49
-1.85 10.64 2.49
-2.07 10.61 2.49
-2.28 10.57 2.49
-2.49 10.53 2.49
-2.71 10.48 2.49
-2.92 10.44 2.49
-3.13 10.38 2.49
-3.34 10.32 2.49
-3.55 10.26 2.49
-3.76 10.20 2.49
-3.96 10.12 2.49
-4.17 10.05 2.49
-4.37 9.97 2.49
-4.57 9.89 2.49
-4.77 9.80 2.49
-4.97 9.71 2.49
-5.17 9.61 2.49
-5.36 9.51 2.49
-5.55 9.41 2.49
-5.75 9.30 2.49
-5.93 9.19 2.49
-6.12 9.07 2.49
-6.21 8.82 2.46
-6.22 8.46 2.39
-6.41 8.37 2.40
-6.56 8.22 2.39
-6.72 8.09 2.39
-6.89 7.95 2.39
-7.05 7.82 2.39
-7.21 7.68 2.39
-7.36 7.53 2.39
-7.52 7.39 2.39
-7.66 7.24 2.39
-7.81 7.09 2.39
-7.95 6.93 2.39
-8.09 6.77 2.39
-8.23 6.61 2.39
-8.36 6.45 2.39
-8.49 6.28 2.39
-8.62 6.11 2.39
-8.74 5.94 2.39
-8.86 5.76 2.39
-8.98 5.59 2.39
-9.09 5.41 2.39
-9.20 5.22 2.39
-9.30 5.04 2.39
-9.40 4.85 2.39
-9.50 4.66 2.39
-9.59 4.47 2.39
-9.68 4.28 2.39
-9.77 4.09 2.39
-9.85 3.89 2.39
-9.93 3.69 2.39
-10.00 3.49 2.39
-10.05 3.29 2.39
-10.05 3.07 2.37
-10.04 2.85 2.36
-10.04 2.63 2.34
-10.03 2.41 2.33
-10.03 2.20 2.32
-10.02 1.99 2.31
-10.02 1.78 2.30
-10.02 1.57 2.29
-10.03 1.37 2.29
-10.13 1.18 2.30
-10.23 0.98 2.32
-10.32 0.78 2.34
-10.42 0.58 2.36
-10.53 0.38 2.38
-10.63 0.17 2.40
-10.74 -0.05 2.43
-10.85 -0.27 2.45
-10.92 -0.49 2.47
-10.89 -0.70 2.47
-10.85 -0.92 2.46
-10.82 -1.14 2.46
-10.78 -1.35 2.46
-10.74 -1.56 2.46
-10.69 -1.78 2.46
-10.65 -1.99 2.45
-10.60 -2.20 2.45
-10.54 -2.41 2.45
-10.47 -2.62 2.45
-10.39 -2.82 2.44
-10.31 -3.02 2.44
-10.24 -3.22 2.44
-9.96 -3.36 2.39
-9.89 -3.55 2.39
-9.81 -3.75 2.39
-9.73 -3.94 2.39
-9.64 -4.14 2.39
-9.55 -4.33 2.39
-9.46 -4.51 2.39
-9.36 -4.70 2.39
-9.26 -4.88 2.39
-9.16 -5.07 2.39
-9.05 -5.25 2.39
-8.93 -5.42 2.39
-8.82 -5.60 2.39
-8.70 -5.77 2.39
-8.58 -5.94 2.39
-8.45 -6.11 2.39
-8.32 -6.27 2.39
-8.19 -6.43 2.39
-8.05 -6.59 2.39
-7.91 -6.75 2.39
-7.77 -6.90 2.39
-7.63 -7.05 2.39
-7.48 -7.19 2.39
-7.33 -7.34 2.39
-7.17 -7.48 2.39
-7.02 -7.61 2.39
-6.86 -7.75 2.39
-6.38 -7.51 2.28
-6.53 -8.00 2.39
-6.37 -8.13 2.39
-6.20 -8.25 2.39
-6.04 -8.39 2.40
-5.85 -8.48 2.39
-5.82 -8.80 2.45
-5.74 -9.07 2.49
-5.55 -9.17 2.49
-5.36 -9.28 2.49
-5.17 -9.37 2.49
-4.97 -9.47 2.49
-4.78 -9.56 2.49
-4.58 -9.64 2.49
-4.39 -9.73 2.49
-4.19 -9.81 2.49
-3.99 -9.88 2.49
-3.78 -9.95 2.49
-3.58 -10.02 2.49
-3.38 -10.08 2.49
-3.17 -10.13 2.49
-2.96 -10.19 2.49
-2.76 -10.24 2.49
-2.55 -10.28 2.49
-2.34 -10.32 2.49
-2.13 -10.36 2.49
-1.92 -10.39 2.49
-1.71 -10.42 2.49
-1.50 -10.44 2.49
-1.29 -10.46 2.49
-1.08 -10.48 2.49
-0.87 -10.49 2.49
-0.65 -10.50 2.49
-0.44 -10.50 2.49
-0.23 -10.50 2.49
-0.02 -9.53 2.49
0.17 -9.53 2.49
0.36 -9.51 2.49
0.55 -9.50 2.49
0.74 -9.48 2.49
0.93 -9.46 2.49
1.12 -9.43 2.49
1.31 -9.40 2.49
1.50 -9.36 2.49
1.68 -9.33 2.49
1.87 -9.28 2.49
2.05 -9.24 2.49
2.24 -9.19 2.49
2.32 -8.76 2.39
2.49 -8.71 2.39
2.67 -8.65 2.39
2.84 -8.59 2.39
3.01 -8.52 2.39
3.18 -8.46 2.39
3.35 -8.39 2.39
3.51 -8.31 2.39
3.68 -8.24 2.39
3.84 -8.16 2.39
4.00 -8.07 2.39
4.16 -7.99 2.39
4.32 -7.90 2.39
4.47 -7.81 2.39
4.63 -7.71 2.39
4.78 -7.61 2.39
4.93 -7.51 2.39
5.08 -7.41 2.39
5.22 -7.30 2.39
5.36 -7.19 2.39
5.51 -7.08 2.39
5.64 -6.96 2.39
5.78 -6.85 2.39
5.92 -6.72 2.39
6.05 -6.60 2.39
6.18 -6.48 2.39
6.31 -6.36 2.39
6.43 -6.23 2.39
6.56 -6.09 2.39
6.68 -5.96 2.39
6.79 -5.82 2.39
6.91 -5.68 2.39
7.02 -5.54 2.39
7.12 -5.40 2.39
7.23 -5.25 2.39
7.33 -5.10 2.39
7.43 -4.95 2.39
7.53 -4.80 2.39
7.62 -4.65 2.39
7.71 -4.49 2.39
7.80 -4.34 2.39
7.88 -4.18 2.39
7.97 -4.02 2.39
8.04 -3.86 2.39
8.12 -3.69 2.39
8.19 -3.53 2.39
8.26 -3.36 2.39
8.33 -3.20 2.39
8.39 -3.03 2.39
8.45 -2.86 2.39
8.50 -2.69 2.39
8.55 -2.52 2.39
8.60 -2.34 2.39
8.65 -2.17 2.39
8.69 -2.00 2.39
8.73 -1.82 2.39
8.76 -1.64 2.39
8.80 -1.47 2.39
8.83 -1.29 2.39
8.85 -1.11 2.39
8.87 -0.93 2.39
8.89 -0.76 2.39
8.90 -0.58 2.39
8.92 -0.40 2.39
8.92 -0.22 2.39
8.93 -0.04 2.39
8.93 0.14 2.39
8.93 0.32 2.39
8.92 0.50 2.39
8.91 0.68 2.39
8.90 0.86 2.39
8.88 1.04 2.39
8.86 1.22 2.39
8.84 1.39 2.39
8.81 1.57 2.39
8.78 1.75 2.39
8.74 1.93 2.39
8.71 2.10 2.39
8.67 2.28 2.39
8.62 2.45 2.39
8.57 2.63 2.39
8.52 2.80 2.39
8.47 2.97 2.39
8.41 3.14 2.39
8.35 3.31 2.39
8.28 3.48 2.39
8.22 3.65 2.39
8.15 3.82 2.39
8.07 3.98 2.39
7.99 4.14 2.39
7.91 4.31 2.39
7.83 4.47 2.39
7.74 4.63 2.39
7.65 4.78 2.39
7.56 4.94 2.39
7.46 5.09 2.39
7.36 5.24 2.39
7.26 5.39 2.39
7.15 5.54 2.39
7.04 5.69 2.39
6.93 5.83 2.39
6.82 5.97 2.39
6.70 6.11 2.39
6.58 6.25 2.39
6.46 6.39 2.39
6.33 6.52 2.39
6.20 6.65 2.39
6.07 6.78 2.39
5.94 6.90 2.39
5.80 7.02 2.39
5.66 7.14 2.39
5.52 7.25 2.39
5.37 7.37 2.39
5.23 7.48 2.39
5.08 7.59 2.39
4.93 7.69 2.39
4.78 7.80 2.39
4.62 7.90 2.39
4.47 7.99 2.39
4.31 8.09 2.39
4.15 8.18 2.39
3.99 8.26 2.39
3.82 8.35 2.39
3.66 8.43 2.39
3.49 8.51 2.39
3.32 8.58 2.39
3.15 8.65 2.39
2.98 8.72 2.39
2.80 8.79 2.39
2.63 8.85 2.39
2.45 8.90 2.39
2.27 8.96 2.39
2.10 9.01 2.39
1.92 9.06 2.39
1.80 9.42 2.47
1.62 9.53 2.49
1.43 9.57 2.49
1.24 9.60 2.49
1.05 9.63 2.49
0.85 9.66 2.49
0.66 9.68 2.49
0.47 9.70 2.49
0.27 9.72 2.49
0.08 9.73 2.49
-0.12 9.73 2.49
-0.31 9.73 2.49
-0.51 9.73 2.49
-0.71 9.73 2.49
-0.90 9.72 2.49
-1.10 9.71 2.49
-1.29 9.69 2.49
-1.49 9.67 2.49
-1.68 9.64 2.49
-1.88 9.61 2.49
-2.07 9.58 2.49
-2.26 9.54 2.49
-2.46 9.50 2.49
-2.65 9.46 2.49
-2.84 9.41 2.49
-3.03 9.35 2.49
-3.22 9.30 2.49
-3.40 9.24 2.49
-3.59 9.17 2.49
-3.78 9.10 2.49
-3.96 9.03 2.49
-4.14 8.95 2.49
-4.32 8.87 2.49
-4.50 8.79 2.49
-4.68 8.70 2.49
-4.86 8.61 2.49
-5.03 8.52 2.49
-5.20 8.42 2.49
-5.37 8.32 2.49
-5.54 8.21 2.49
-5.71 8.10 2.49
-5.87 7.99 2.49
-6.03 7.88 2.49
-6.19 7.76 2.49
-6.19 7.45 2.43
-6.24 7.20 2.39
-6.40 7.09 2.40
-6.52 6.95 2.39
-6.66 6.82 2.39
-6.80 6.69 2.39
-6.94 6.55 2.39
-7.07 6.41 2.39
-7.20 6.27 2.39
-7.33 6.13 2.39
-7.45 5.98 2.39
-7.57 5.83 2.39
-7.69 5.68 2.39
-7.80 5.53 2.39
-7.91 5.37 2.39
-7.96 5.18 2.37
-8.07 5.02 2.37
-8.17 4.86 2.37
-8.26 4.69 2.37
-8.42 4.56 2.39
-8.51 4.39 2.39
-8.60 4.22 2.39
-8.68 4.05 2.39
-8.76 3.87 2.39
-8.84 3.70 2.39
-8.91 3.52 2.39
-8.98 3.34 2.39
-9.04 3.16 2.39
-9.11 2.98 2.39
-9.16 2.80 2.39
-9.22 2.61 2.39
-9.27 2.43 2.39
-9.32 2.24 2.39
-9.36 2.05 2.39
-9.40 1.86 2.39
-9.43 1.68 2.39
-9.46 1.49 2.39
-9.49 1.30 2.39
-9.51 1.11 2.39
-9.53 0.92 2.39
-9.55 0.72 2.39
-9.56 0.53 2.39
-9.56 0.34 2.39
-9.57 0.15 2.39
-9.57 -0.04 2.39
-9.56 -0.23 2.39
-9.55 -0.42 2.39
-9.54 -0.62 2.39
-9.52 -0.81 2.39
-9.50 -1.00 2.39
-9.48 -1.19 2.39
-9.45 -1.38 2.39
-9.42 -1.56 2.39
-9.38 -1.75 2.39
-9.34 -1.94 2.39
-9.30 -2.13 2.39
-9.25 -2.31 2.39
-9.20 -2.49 2.39
-9.14 -2.68 2.39
-9.08 -2.86 2.39
-9.02 -3.04 2.39
-8.95 -3.22 2.39
-8.88 -3.39 2.39
-8.81 -3.57 2.39
-8.73 -3.74 2.39
-8.65 -3.92 2.39
-8.57 -4.09 2.39
-8.48 -4.26 2.39
-8.39 -4.42 2.39
-8.29 -4.59 2.39
-8.19 -4.75 2.39
-8.09 -4.91 2.39
-7.99 -5.07 2.39
-7.88 -5.22 2.39
-7.77 -5.38 2.39
-7.66 -5.53 2.39
-7.54 -5.68 2.39
-7.42 -5.83 2.39
-7.30 -5.97 2.39
-7.17 -6.11 2.39
-7.04 -6.25 2.39
-6.91 -6.39 2.39
-6.78 -6.52 2.39
-6.64 -6.65 2.39
-6.50 -6.78 2.39
-6.36 -6.90 2.39
-6.22 -7.02 2.39
-6.07 -7.14 2.39
-5.92 -7.26 2.39
-5.85 -7.47 2.42
-5.84 -7.77 2.49
-5.70 -7.91 2.49
-5.54 -8.02 2.49
-5.37 -8.12 2.49
-5.20 -8.22 2.49
-5.03 -8.32 2.49
-4.86 -8.41 2.49
-4.69 -8.50 2.49
-4.51 -8.59 2.49
-4.34 -8.67 2.49
-4.16 -8.75 2.49
-3.98 -8.82 2.49
-3.80 -8.90 2.49
-3.62 -8.96 2.49
-3.44 -9.03 2.49
-3.25 -9.09 2.49
-3.07 -9.15 2.49
-2.88 -9.20 2.49
-2.69 -9.25 2.49
-2.50 -9.29 2.49
-2.32 -9.33 2.49
-2.13 -9.37 2.49
-1.94 -9.41 2.49
-1.75 -9.44 2.49
-1.55 -9.46 2.49
-1.36 -9.48 2.49
-1.17 -9.50 2.49
-0.98 -9.52 2.49
-0.79 -9.53 2.49
-0.60 -9.54 2.49
-0.40 -9.54 2.49
-0.21 -9.54 2.49
-0.02 -8.73 2.49
0.15 -8.72 2.49
0.33 -8.71 2.49
0.50 -8.70 2.49
0.68 -8.68 2.49
0.85 -8.66 2.49
1.02 -8.63 2.49
1.20 -8.61 2.49
1.37 -8.57 2.49
1.54 -8.54 2.49
1.71 -8.50 2.49
1.88 -8.46 2.49
2.05 -8.42 2.49
2.22 -8.37 2.49
2.28 -7.97 2.39
2.44 -7.92 2.39
2.60 -7.87 2.39
2.76 -7.81 2.39
2.91 -7.75 2.39
3.06 -7.68 2.39
3.22 -7.62 2.39
3.37 -7.55 2.39
3.52 -7.47 2.39
3.66 -7.40 2.39
3.81 -7.32 2.39
3.95 -7.24 2.39
4.10 -7.15 2.39
4.24 -7.07 2.39
4.38 -6.98 2.39
4.51 -6.88 2.39
4.65 -6.79 2.39
4.78 -6.69 2.39
4.92 -6.59 2.39
5.05 -6.49 2.39
5.17 -6.38 2.39
5.30 -6.27 2.39
5.42 -6.16 2.39
5.54 -6.05 2.39
5.66 -5.94 2.39
5.78 -5.82 2.39
5.89 -5.70 2.39
6.00 -5.58 2.39
6.11 -5.46 2.39
6.23 -5.34 2.39
6.33 -5.21 2.39
6.43 -5.08 2.39
6.53 -4.95 2.39
6.63 -4.81 2.39
6.72 -4.68 2.39
6.81 -4.54 2.39
6.90 -4.40 2.39
6.99 -4.26 2.39
7.07 -4.12 2.39
7.15 -3.98 2.39
7.23 -3.83 2.39
7.30 -3.68 2.39
7.38 -3.54 2.39
