ply
format ascii 1.0
element vertex 2801
property float32 x
property float32 y
property float32 z
end_header
-15.75 -0.08 0.34
-15.74 -0.40 0.34
-15.73 -0.71 0.34
-15.72 -1.03 0.34
-15.76 -1.35 0.34
-15.81 -1.67 0.34
-15.87 -2.00 0.34
-15.93 -2.34 0.34
-15.98 -2.67 0.34
-15.99 -3.01 0.34
-15.98 -3.34 0.34
-15.95 -3.66 0.34
-15.92 -4.00 0.34
-15.88 -4.33 0.34
-15.85 -4.66 0.34
-15.82 -5.00 0.34
-15.76 -5.33 0.34
-15.65 -5.65 0.34
-15.53 -5.96 0.34
-15.44 -6.28 0.34
-15.37 -6.62 0.34
-15.31 -6.96 0.34
-15.22 -7.29 0.34
-15.09 -7.60 0.34
-14.98 -7.93 0.34
-14.87 -8.26 0.35
-14.76 -8.59 0.35
-14.64 -8.92 0.35
-14.53 -9.25 0.35
-14.40 -9.58 0.35
-14.26 -9.91 0.35
-14.12 -10.24 0.35
-13.99 -10.58 0.36
-13.92 -10.97 0.36
-13.83 -11.36 0.36
-13.66 -11.68 0.37
-13.49 -12.02 0.37
-13.32 -12.36 0.37
-13.22 -12.76 0.37
-13.11 -13.17 0.38
-13.05 -13.65 0.39
-13.02 -14.18 0.39
-13.00 -14.74 0.40
-12.97 -15.32 0.41
-12.89 -15.85 0.42
-12.80 -16.41 0.43
-12.71 -16.99 0.44
-12.64 -17.62 0.45
-12.57 -18.29 0.46
-12.49 -18.97 0.47
-12.43 -19.72 0.49
-12.42 -20.61 0.51
-12.41 -21.58 0.52
-12.42 -22.63 0.55
-12.45 -23.80 0.57
-12.39 -24.90 0.59
-12.51 -26.46 0.63
-12.68 -28.27 0.66
-12.73 -29.98 0.70
-12.70 -31.64 0.74
-12.64 -33.42 0.78
-12.69 -35.73 0.83
-13.44 -40.38 0.93
-13.30 -42.80 0.99
-13.05 -45.19 1.04
-12.55 -46.98 1.08
-0.01 -32.79 1.52
2.44 -30.51 1.43
11.90 -48.50 2.39
12.83 -48.10 2.39
13.75 -47.69 2.39
14.66 -47.25 2.39
15.55 -46.80 2.39
15.26 -43.01 2.22
15.22 -40.32 2.11
15.14 -37.79 2.00
15.04 -35.47 1.89
15.02 -33.53 1.81
14.93 -31.62 1.73
14.85 -29.88 1.66
14.75 -28.23 1.59
14.77 -26.94 1.53
15.04 -26.18 1.51
15.38 -25.57 1.50
15.71 -24.97 1.49
16.04 -24.39 1.48
15.40 -22.43 1.38
15.70 -21.90 1.37
15.98 -21.38 1.36
16.27 -20.87 1.36
16.54 -20.37 1.35
16.82 -19.88 1.34
17.09 -19.39 1.34
17.35 -18.92 1.33
17.61 -18.44 1.33
17.87 -17.98 1.32
18.13 -17.52 1.32
18.38 -17.06 1.32
18.63 -16.61 1.31
18.88 -16.16 1.31
19.13 -15.72 1.31
19.37 -15.28 1.31
19.61 -14.84 1.31
20.92 -15.18 1.38
25.43 -17.69 1.66
37.14 -24.73 2.39
37.52 -23.92 2.39
37.89 -23.10 2.39
38.20 -22.25 2.39
38.59 -21.44 2.39
38.91 -20.61 2.39
39.21 -19.78 2.39
39.50 -18.94 2.39
32.14 -14.62 1.93
32.72 -14.10 1.96
32.95 -13.42 1.96
38.01 -14.60 2.25
40.23 -14.53 2.37
40.89 -13.85 2.39
41.07 -13.00 2.39
41.23 -12.14 2.39
41.38 -11.29 2.39
41.50 -10.43 2.39
41.62 -9.58 2.39
41.72 -8.72 2.39
41.80 -7.87 2.39
41.87 -7.01 2.39
41.92 -6.16 2.39
41.95 -5.30 2.39
41.98 -4.45 2.39
41.98 -3.60 2.39
41.97 -2.75 2.39
41.95 -1.91 2.39
22.88 -0.58 1.31
22.87 -0.12 1.31
22.86 0.34 1.31
22.55 0.79 1.29
22.85 1.26 1.31
22.80 1.71 1.32
22.80 2.18 1.32
22.80 2.64 1.32
22.82 3.11 1.33
22.78 3.57 1.33
22.78 4.04 1.34
22.77 4.51 1.35
22.78 4.99 1.35
22.78 5.47 1.36
22.77 5.95 1.37
23.83 6.75 1.44
23.89 7.28 1.45
22.66 7.41 1.39
21.09 7.37 1.30
21.04 7.83 1.31
20.99 8.29 1.32
20.94 8.76 1.33
20.89 9.24 1.34
20.84 9.72 1.35
23.08 11.34 1.50
20.13 10.40 1.33
19.87 10.77 1.32
22.41 12.74 1.51
22.40 13.34 1.53
22.39 13.95 1.55
22.38 14.57 1.56
22.37 15.21 1.59
22.36 15.87 1.61
22.35 16.55 1.63
22.34 17.25 1.65
22.33 17.96 1.68
22.31 18.70 1.70
22.28 19.45 1.73
22.26 20.24 1.76
22.27 21.08 1.79
22.04 21.71 1.81
21.65 22.20 1.81
19.08 20.37 1.63
18.64 20.72 1.63
18.20 21.07 1.62
19.85 23.93 1.81
19.32 24.26 1.81
17.61 23.06 1.69
16.88 23.05 1.66
16.17 23.03 1.63
15.48 23.02 1.61
14.81 23.01 1.59
14.16 23.00 1.56
13.53 22.99 1.54
12.91 22.98 1.52
12.30 22.97 1.50
11.71 22.96 1.49
11.13 22.95 1.47
11.10 24.11 1.53
11.07 25.39 1.59
10.97 26.59 1.65
10.84 27.86 1.71
10.91 29.80 1.81
10.89 31.70 1.91
10.47 32.59 1.95
9.84 32.87 1.95
9.27 33.39 1.97
9.28 36.23 2.12
8.50 36.22 2.10
8.06 37.72 2.18
8.05 41.75 2.39
7.22 41.99 2.39
1.71 11.29 0.64
5.55 42.42 2.39
4.71 42.56 2.39
3.86 42.74 2.39
3.01 42.90 2.39
2.15 43.05 2.39
1.29 43.19 2.39
0.44 45.17 2.49
-0.47 45.28 2.49
-1.38 45.37 2.49
-2.30 45.44 2.49
-3.22 45.50 2.49
-4.14 45.54 2.49
-5.07 45.56 2.49
-6.00 45.57 2.49
-6.93 45.56 2.49
-7.54 43.65 2.39
-8.43 43.60 2.39
-9.33 43.54 2.39
-10.23 43.47 2.39
-11.12 43.32 2.39
-11.36 40.82 2.26
-11.91 39.71 2.20
-12.55 38.96 2.17
-12.68 36.81 2.06
-12.94 35.26 1.98
-13.33 34.20 1.93
-13.90 33.64 1.90
-14.20 32.49 1.85
-14.32 31.05 1.78
-14.38 29.62 1.71
-14.58 28.56 1.66
-14.70 27.41 1.60
-14.77 26.27 1.55
-14.53 24.66 1.47
-14.09 22.85 1.37
-14.00 21.73 1.32
-14.00 20.80 1.27
-14.05 19.99 1.24
-14.10 19.22 1.20
-14.13 18.48 1.17
-14.16 17.77 1.14
-14.20 17.10 1.11
-14.26 16.49 1.09
-14.32 15.90 1.06
-14.36 15.32 1.04
-14.36 14.71 1.01
-14.34 14.12 0.99
-14.34 13.56 0.97
-14.37 13.05 0.95
-14.41 12.57 0.93
-14.45 12.10 0.92
-14.47 11.63 0.90
-14.48 11.17 0.88
-14.50 10.73 0.87
-14.53 10.31 0.85
-14.56 9.89 0.84
-14.60 9.50 0.83
-14.64 9.11 0.82
-14.72 8.76 0.81
-14.80 8.41 0.80
-14.87 8.05 0.80
-14.92 7.70 0.79
-14.97 7.35 0.78
-15.02 7.00 0.77
-15.03 6.65 0.77
-15.06 6.30 0.76
-15.11 5.97 0.75
-15.16 5.64 0.75
-15.22 5.31 0.74
-15.27 4.99 0.74
-15.26 4.65 0.73
-15.27 4.32 0.72
-15.28 4.00 0.72
-15.30 3.67 0.71
-15.31 3.35 0.71
-15.33 3.03 0.71
-15.35 2.72 0.70
-15.34 2.40 0.70
-15.32 2.09 0.69
-15.31 1.77 0.69
-15.29 1.46 0.69
-15.28 1.15 0.68
-15.28 0.84 0.68
-15.30 0.53 0.68
-15.29 0.23 0.68
-15.28 -0.08 0.68
-15.28 -0.39 0.67
-15.27 -0.69 0.67
-15.26 -1.00 0.67
-15.25 -1.31 0.67
-15.26 -1.62 0.67
-15.28 -1.93 0.67
-15.30 -2.24 0.67
-15.32 -2.56 0.68
-15.34 -2.88 0.68
-15.35 -3.21 0.68
-15.33 -3.52 0.68
-15.31 -3.84 0.68
-15.29 -4.17 0.69
-15.26 -4.49 0.69
-15.24 -4.82 0.69
-15.22 -5.15 0.69
-15.17 -5.47 0.69
-15.10 -5.80 0.70
-15.04 -6.12 0.70
-14.98 -6.45 0.70
-14.91 -6.78 0.70
-14.84 -7.11 0.71
-14.72 -7.42 0.71
-14.59 -7.72 0.71
-14.45 -8.02 0.71
-14.31 -8.33 0.71
-14.20 -8.65 0.71
-14.09 -8.97 0.72
-13.97 -9.29 0.72
-13.84 -9.61 0.72
-13.70 -9.93 0.73
-13.57 -10.26 0.73
-13.43 -10.58 0.73
-13.30 -10.92 0.74
-13.18 -11.27 0.74
-13.09 -11.66 0.75
-12.98 -12.04 0.76
-12.87 -12.43 0.77
-12.76 -12.82 0.78
-12.65 -13.23 0.79
-12.58 -13.70 0.80
-12.53 -14.20 0.82
-12.49 -14.75 0.83
-12.45 -15.32 0.85
-12.35 -15.83 0.87
-12.25 -16.37 0.88
-12.15 -16.93 0.90
-12.07 -17.55 0.92
-12.00 -18.23 0.95
-11.92 -18.91 0.97
-11.84 -19.65 1.00
-11.79 -20.50 1.03
-11.77 -21.43 1.07
-11.72 -22.40 1.11
-11.70 -23.51 1.15
-11.64 -24.61 1.20
-11.66 -25.99 1.25
-11.85 -27.89 1.34
-11.89 -29.62 1.41
-11.81 -31.23 1.48
-11.68 -32.87 1.55
-11.65 -34.99 1.64
-11.90 -38.28 1.79
-11.89 -41.15 1.91
-11.52 -43.10 2.00
-11.21 -45.58 2.11
-10.79 -48.01 2.21
-1.33 -32.81 1.51
-0.67 -32.80 1.51
-0.02 -32.77 2.26
0.71 -36.15 2.49
1.43 -36.05 2.49
2.15 -35.95 2.49
2.44 -30.51 2.12
3.43 -34.22 2.39
4.11 -34.07 2.39
4.78 -33.91 2.39
5.45 -33.74 2.39
6.11 -33.56 2.39
6.78 -33.40 2.39
7.43 -33.19 2.39
8.08 -32.97 2.39
8.72 -32.73 2.39
9.36 -32.48 2.39
9.98 -32.21 2.39
10.61 -31.94 2.39
11.22 -31.65 2.39
11.83 -31.35 2.39
12.43 -31.04 2.39
13.02 -30.72 2.39
13.61 -30.39 2.39
14.18 -30.04 2.39
14.75 -29.69 2.39
14.75 -28.24 2.31
14.77 -26.95 2.23
15.04 -26.19 2.20
15.38 -25.58 2.17
15.71 -24.98 2.15
16.04 -24.39 2.14
15.40 -22.43 2.00
15.69 -21.90 1.98
15.98 -21.39 1.97
16.26 -20.88 1.95
16.54 -20.38 1.94
16.82 -19.88 1.93
17.08 -19.40 1.92
17.35 -18.92 1.91
17.61 -18.45 1.90
17.87 -17.98 1.90
18.13 -17.52 1.89
18.38 -17.07 1.88
18.63 -16.61 1.88
18.88 -16.17 1.87
19.13 -15.72 1.87
19.37 -15.28 1.87
19.61 -14.85 1.87
20.89 -15.16 1.96
25.39 -17.66 2.35
26.12 -17.40 2.39
26.41 -16.84 2.39
26.69 -16.28 2.39
26.96 -15.71 2.39
27.22 -15.14 2.39
27.47 -14.56 2.39
27.71 -13.98 2.39
27.93 -13.40 2.39
28.15 -12.81 2.39
28.35 -12.22 2.39
28.54 -11.63 2.39
28.72 -11.04 2.39
28.89 -10.44 2.39
29.04 -9.84 2.39
29.19 -9.24 2.39
29.32 -8.64 2.39
29.44 -8.04 2.39
29.55 -7.43 2.39
29.65 -6.83 2.39
29.74 -6.22 2.39
29.81 -5.61 2.39
29.88 -5.01 2.39
29.93 -4.40 2.39
29.98 -3.79 2.39
30.01 -3.19 2.39
30.03 -2.58 2.39
30.03 -1.97 2.39
30.03 -1.37 2.39
22.88 -0.58 1.82
22.87 -0.12 1.83
22.86 0.34 1.83
22.55 0.78 1.81
22.85 1.26 1.83
22.80 1.71 1.83
22.80 2.17 1.84
22.79 2.64 1.84
22.82 3.10 1.85
22.78 3.57 1.86
22.77 4.04 1.86
22.77 4.51 1.87
22.78 4.99 1.88
22.78 5.47 1.89
22.77 5.95 1.90
23.83 6.75 2.00
23.89 7.28 2.02
22.66 7.41 1.93
20.78 7.26 1.78
20.55 7.64 1.78
20.50 8.10 1.79
20.45 8.56 1.80
20.41 9.03 1.81
20.36 9.50 1.82
23.08 11.34 2.09
20.13 10.40 1.84
19.87 10.77 1.83
22.41 12.74 2.09
22.40 13.34 2.12
22.39 13.95 2.14
22.38 14.57 2.17
22.37 15.21 2.20
22.36 15.87 2.23
22.35 16.55 2.26
22.34 17.25 2.29
22.33 17.96 2.33
22.31 18.70 2.36
22.22 19.40 2.39
21.83 19.84 2.39
21.43 20.29 2.39
21.03 20.72 2.39
20.62 21.14 2.39
19.27 20.58 2.28
18.83 20.94 2.28
18.39 21.29 2.28
18.89 22.77 2.39
18.44 23.16 2.39
17.61 23.06 2.35
16.88 23.05 2.31
16.17 23.03 2.27
15.48 23.02 2.24
14.81 23.01 2.21
14.16 23.00 2.18
13.52 22.99 2.15
12.90 22.98 2.12
12.30 22.97 2.09
11.71 22.96 2.07
11.12 22.95 2.04
11.01 23.93 2.11
10.99 25.20 2.20
10.96 26.57 2.30
10.33 26.56 2.28
9.72 26.55 2.25
9.27 27.00 2.27
9.20 28.65 2.39
8.64 28.86 2.39
8.06 29.07 2.39
7.49 29.26 2.39
6.91 29.45 2.39
6.33 29.62 2.39
5.74 29.78 2.39
5.15 29.94 2.39
1.71 11.29 0.90
3.95 30.17 2.39
3.34 30.29 2.39
2.74 30.40 2.39
2.13 30.50 2.39
1.52 30.58 2.39
0.95 31.98 2.49
0.31 32.04 2.49
-0.34 32.10 2.49
-0.98 32.14 2.49
-1.63 32.17 2.49
-2.28 32.19 2.49
-2.93 32.19 2.49
-3.58 32.18 2.49
-4.24 32.17 2.49
-4.89 32.13 2.49
-5.55 32.09 2.49
-6.20 32.03 2.49
-6.86 31.96 2.49
-7.20 30.56 2.39
-7.83 30.47 2.39
-8.45 30.36 2.39
-9.08 30.25 2.39
-9.70 30.12 2.39
-10.33 29.98 2.39
-10.95 29.83 2.39
-11.91 30.52 2.46
-12.29 29.73 2.41
-12.62 28.87 2.36
-13.00 28.18 2.32
-13.46 27.70 2.29
-13.86 27.14 2.27
-14.05 26.19 2.20
-13.08 23.26 1.97
-13.10 22.24 1.91
-13.04 21.14 1.83
-13.07 20.28 1.77
-13.18 19.56 1.73
-13.30 18.92 1.69
-13.39 18.26 1.65
-13.46 17.60 1.62
-13.52 16.97 1.58
-13.64 16.42 1.55
-13.75 15.89 1.52
-13.84 15.36 1.49
-13.85 14.77 1.46
-13.85 14.19 1.43
-13.85 13.63 1.39
-13.86 13.10 1.37
-13.90 12.62 1.34
-13.95 12.16 1.32
-13.99 11.72 1.30
-14.03 11.27 1.28
-14.05 10.84 1.26
-14.09 10.42 1.24
-14.12 10.01 1.22
-14.15 9.61 1.20
-14.19 9.23 1.19
-14.26 8.87 1.18
-14.34 8.53 1.17
-14.42 8.19 1.16
-14.50 7.85 1.15
-14.55 7.51 1.14
-14.61 7.17 1.13
-14.64 6.82 1.12
-14.65 6.47 1.11
-14.67 6.13 1.10
-14.71 5.81 1.09
-14.76 5.49 1.08
-14.81 5.17 1.08
-14.84 4.85 1.07
-14.83 4.52 1.06
-14.83 4.19 1.05
-14.84 3.88 1.05
-14.86 3.57 1.04
-14.87 3.25 1.03
-14.89 2.95 1.03
-14.91 2.64 1.02
-14.93 2.34 1.02
-14.92 2.03 1.02
-14.91 1.72 1.01
-14.90 1.42 1.01
-14.89 1.12 1.00
-14.89 0.82 1.00
-14.92 0.52 1.00
-14.94 0.22 1.00
-14.94 -0.08 1.00
-14.93 -0.38 1.00
-14.92 -0.68 0.99
-14.91 -0.98 0.99
-14.90 -1.28 0.99
-14.89 -1.58 0.99
-14.89 -1.88 0.99
-14.91 -2.19 1.00
-14.93 -2.50 1.00
-14.94 -2.81 1.00
-14.96 -3.13 1.01
-14.93 -3.43 1.01
-14.90 -3.74 1.01
-14.88 -4.06 1.02
-14.86 -4.37 1.02
-14.84 -4.69 1.02
-14.81 -5.01 1.03
-14.77 -5.33 1.03
-14.72 -5.65 1.03
-14.66 -5.97 1.04
-14.60 -6.28 1.04
-14.53 -6.61 1.05
-14.46 -6.93 1.05
-14.38 -7.25 1.05
-14.25 -7.54 1.06
-14.11 -7.84 1.06
-13.97 -8.13 1.06
-13.84 -8.43 1.06
-13.70 -8.72 1.06
-13.56 -9.02 1.07
-13.43 -9.33 1.07
-13.31 -9.65 1.08
-13.19 -9.98 1.08
-13.07 -10.30 1.09
-12.95 -10.63 1.10
-12.83 -10.97 1.11
-12.71 -11.32 1.12
-12.64 -11.72 1.13
-12.54 -12.11 1.14
-12.43 -12.49 1.16
-12.32 -12.88 1.17
-12.20 -13.29 1.18
-12.13 -13.76 1.20
-12.06 -14.24 1.23
-12.00 -14.76 1.25
-11.95 -15.31 1.28
-11.84 -15.82 1.30
-11.73 -16.34 1.33
-11.61 -16.88 1.35
-11.51 -17.47 1.38
-11.43 -18.14 1.42
-11.35 -18.84 1.45
-11.27 -19.58 1.50
-11.21 -20.41 1.54
-11.14 -21.28 1.59
-11.04 -22.16 1.64
-10.93 -23.10 1.70
-10.81 -24.09 1.76
-10.69 -25.16 1.82
-11.05 -27.52 1.98
-11.05 -29.22 2.09
-10.89 -30.62 2.18
-10.58 -31.77 2.24
-10.21 -32.85 2.31
-9.88 -34.17 2.39
-9.18 -34.31 2.39
-8.47 -34.43 2.39
-7.77 -34.54 2.39
-7.06 -34.63 2.39
-6.35 -34.71 2.39
-5.84 -35.96 2.47
-5.15 -36.32 2.49
-4.42 -36.35 2.49
-3.68 -36.37 2.49
-2.94 -36.37 2.49
-2.21 -36.36 2.49
-1.33 -32.61 2.24
-0.75 -36.28 2.49
-0.02 -27.25 2.49
0.53 -27.21 2.49
1.07 -27.15 2.49
1.62 -27.09 2.49
2.07 -25.89 2.39
2.58 -25.81 2.39
3.09 -25.71 2.39
3.60 -25.60 2.39
4.11 -25.49 2.39
4.61 -25.36 2.39
5.11 -25.22 2.39
5.61 -25.07 2.39
6.11 -24.95 2.39
6.60 -24.78 2.39
7.08 -24.61 2.39
7.56 -24.42 2.39
8.04 -24.22 2.39
8.51 -24.02 2.39
8.98 -23.80 2.39
9.44 -23.58 2.39
9.89 -23.35 2.39
10.34 -23.10 2.39
10.78 -22.85 2.39
11.22 -22.60 2.39
11.65 -22.33 2.39
12.08 -22.05 2.39
12.50 -21.77 2.39
12.91 -21.48 2.39
13.32 -21.18 2.39
13.72 -20.87 2.39
14.11 -20.56 2.39
14.50 -20.24 2.39
14.87 -19.91 2.39
15.25 -19.58 2.39
15.61 -19.24 2.39
15.97 -18.89 2.39
16.31 -18.53 2.39
16.65 -18.17 2.39
16.99 -17.80 2.39
17.31 -17.43 2.39
17.63 -17.05 2.39
17.94 -16.67 2.39
18.24 -16.28 2.39
18.54 -15.88 2.39
18.82 -15.48 2.39
19.10 -15.08 2.39
19.37 -14.67 2.39
19.63 -14.26 2.39
19.88 -13.84 2.39
20.13 -13.42 2.39
20.36 -12.99 2.39
20.59 -12.56 2.39
20.81 -12.13 2.39
21.02 -11.69 2.39
21.22 -11.25 2.39
21.41 -10.80 2.39
21.59 -10.36 2.39
21.76 -9.91 2.39
21.93 -9.46 2.39
22.08 -9.00 2.39
22.23 -8.55 2.39
22.37 -8.09 2.39
22.50 -7.63 2.39
22.62 -7.16 2.39
22.73 -6.70 2.39
22.83 -6.24 2.39
22.93 -5.77 2.39
23.01 -5.30 2.39
23.09 -4.83 2.39
23.15 -4.36 2.39
23.21 -3.89 2.39
23.26 -3.42 2.39
23.30 -2.95 2.39
23.33 -2.48 2.39
23.35 -2.01 2.39
23.36 -1.54 2.39
23.37 -1.07 2.39
22.88 -0.58 2.34
22.87 -0.13 2.34
22.86 0.33 2.35
22.58 0.78 2.32
22.85 1.25 2.35
22.84 1.71 2.36
22.82 2.17 2.36
22.81 2.64 2.37
22.82 3.10 2.37
22.81 3.57 2.38
22.80 4.04 2.39
22.73 4.50 2.39
22.63 4.95 2.39
22.51 5.40 2.39
22.38 5.85 2.39
22.25 6.30 2.39
22.11 6.74 2.39
21.96 7.18 2.39
20.94 7.32 2.30
20.90 7.77 2.31
20.85 8.24 2.33
20.80 8.70 2.34
20.75 9.18 2.36
20.70 9.66 2.37
20.69 10.16 2.39
20.14 10.40 2.36
20.26 10.98 2.39
20.03 11.38 2.39
19.80 11.78 2.39
19.55 12.18 2.39
19.30 12.57 2.39
19.05 12.95 2.39
18.78 13.33 2.39
18.51 13.71 2.39
18.23 14.08 2.39
17.95 14.44 2.39
17.66 14.80 2.39
17.36 15.16 2.39
17.06 15.51 2.39
16.74 15.85 2.39
16.43 16.19 2.39
16.10 16.52 2.39
15.77 16.84 2.39
13.23 14.71 2.05
12.70 14.70 2.01
12.40 14.95 2.01
14.39 18.08 2.39
14.03 18.38 2.39
13.67 18.66 2.39
12.93 18.42 2.33
12.38 18.41 2.29
12.54 19.49 2.39
12.15 19.75 2.39
11.76 20.00 2.39
11.37 20.25 2.39
10.96 20.48 2.39
10.56 20.72 2.39
10.15 20.94 2.39
7.67 16.66 1.89
7.33 16.82 1.89
7.00 16.98 1.89
8.46 21.76 2.39
8.03 21.94 2.39
7.60 22.12 2.39
7.16 22.29 2.39
6.71 22.45 2.39
6.27 22.60 2.39
5.82 22.75 2.39
5.37 22.88 2.39
4.91 22.99 2.39
4.45 23.10 2.39
3.99 23.22 2.39
1.71 11.29 1.16
3.06 23.41 2.39
2.59 23.50 2.39
2.12 23.57 2.39
1.65 23.64 2.39
1.20 24.22 2.44
0.73 24.77 2.49
0.23 24.81 2.49
-0.26 24.84 2.49
-0.76 24.86 2.49
-1.27 24.88 2.49
-1.77 24.88 2.49
-2.27 24.88 2.49
-2.77 24.86 2.49
-3.28 24.83 2.49
-3.78 24.80 2.49
-4.28 24.75 2.49
-4.79 24.70 2.49
-5.29 24.63 2.49
-5.79 24.56 2.49
-6.29 24.48 2.49
-6.79 24.38 2.49
-6.99 23.27 2.39
-7.47 23.16 2.39
-7.94 23.04 2.39
-8.42 22.92 2.39
-8.89 22.78 2.39
-9.36 22.63 2.39
-9.83 22.48 2.39
-10.29 22.31 2.39
-10.76 22.13 2.39
-11.98 23.43 2.55
-12.02 22.41 2.46
-12.10 21.50 2.39
-12.13 20.58 2.31
-12.17 19.73 2.23
-12.29 19.06 2.18
-12.45 18.47 2.14
-12.58 17.89 2.10
-12.67 17.26 2.05
-12.75 16.66 2.00
-12.83 16.09 1.96
-12.95 15.59 1.93
-13.06 15.09 1.90
-13.10 14.54 1.86
-13.12 13.98 1.82
-13.14 13.45 1.78
-13.16 12.94 1.74
-13.21 12.48 1.71
-13.30 12.07 1.69
-13.38 11.66 1.67
-13.46 11.27 1.65
-13.51 10.86 1.62
-13.60 10.48 1.61
-13.68 10.11 1.59
-13.73 9.73 1.57
-13.76 9.34 1.55
-13.81 8.98 1.53
-13.90 8.64 1.52
-13.98 8.31 1.51
-14.06 7.98 1.50
-14.14 7.65 1.49
-14.20 7.32 1.47
-14.25 6.99 1.46
-14.27 6.65 1.45
-14.29 6.31 1.43
-14.30 5.98 1.42
-14.33 5.65 1.41
-14.38 5.34 1.40
-14.43 5.03 1.40
-14.43 4.71 1.38
-14.43 4.39 1.37
-14.43 4.08 1.36
-14.43 3.77 1.35
-14.44 3.46 1.35
-14.46 3.16 1.34
-14.48 2.86 1.33
-14.50 2.57 1.33
-14.52 2.27 1.33
-14.54 1.98 1.32
-14.54 1.68 1.32
-14.53 1.38 1.31
-14.51 1.09 1.31
-14.52 0.80 1.30
-14.55 0.51 1.30
-14.58 0.21 1.31
-14.60 -0.08 1.31
-14.60 -0.37 1.30
-14.59 -0.66 1.30
-14.58 -0.96 1.30
-14.57 -1.25 1.30
-14.56 -1.54 1.30
-14.54 -1.84 1.30
-14.53 -2.13 1.31
-14.55 -2.44 1.31
-14.57 -2.74 1.32
-14.58 -3.05 1.32
-14.56 -3.35 1.32
-14.53 -3.65 1.33
-14.50 -3.95 1.33
-14.47 -4.26 1.33
-14.45 -4.57 1.34
-14.42 -4.88 1.35
-14.39 -5.20 1.35
-14.34 -5.50 1.36
-14.28 -5.81 1.36
-14.23 -6.13 1.37
-14.17 -6.44 1.37
-14.10 -6.76 1.38
-14.03 -7.07 1.39
-13.92 -7.37 1.39
-13.79 -7.66 1.39
-13.66 -7.95 1.39
-13.52 -8.23 1.39
-13.38 -8.52 1.40
-13.22 -8.80 1.40
-13.06 -9.07 1.40
-12.94 -9.38 1.41
-12.86 -9.72 1.42
-12.74 -10.04 1.43
-12.62 -10.36 1.44
-12.50 -10.69 1.45
-12.37 -11.02 1.46
-12.26 -11.37 1.47
-12.18 -11.76 1.49
-12.09 -12.15 1.51
-12.00 -12.55 1.53
-11.88 -12.94 1.55
-11.77 -13.35 1.57
-11.70 -13.81 1.60
-11.62 -14.29 1.63
-11.54 -14.78 1.66
-11.46 -15.31 1.69
-11.34 -15.80 1.72
-11.22 -16.31 1.75
-11.06 -16.79 1.78
-10.89 -17.27 1.81
-10.78 -17.90 1.86
-10.67 -18.53 1.90
-10.54 -19.20 1.95
-10.40 -19.87 2.00
-10.27 -20.62 2.05
-10.14 -21.43 2.11
-9.98 -22.23 2.17
-9.83 -23.12 2.24
-9.67 -24.07 2.32
-9.46 -24.99 2.39
-8.94 -25.14 2.39
-8.43 -25.29 2.39
-7.91 -25.43 2.39
-7.39 -25.55 2.39
-6.87 -25.67 2.39
-6.34 -25.77 2.39
-6.00 -26.65 2.46
-5.52 -27.06 2.49
-4.97 -27.13 2.49
-4.42 -27.19 2.49
-3.87 -27.24 2.49
-3.32 -27.28 2.49
-2.77 -27.30 2.49
-2.21 -27.32 2.49
-1.66 -27.32 2.49
-1.11 -27.31 2.49
-0.56 -27.29 2.49
-0.02 -21.83 2.49
0.42 -21.80 2.49
0.86 -21.76 2.49
1.29 -21.71 2.49
1.72 -21.65 2.49
2.07 -20.70 2.39
2.48 -20.63 2.39
2.89 -20.55 2.39
3.30 -20.46 2.39
3.70 -20.36 2.39
4.10 -20.26 2.39
4.50 -20.15 2.39
4.90 -20.03 2.39
5.30 -19.90 2.39
5.69 -19.76 2.39
6.08 -19.64 2.39
6.47 -19.49 2.39
6.85 -19.33 2.39
7.22 -19.17 2.39
7.60 -18.99 2.39
7.97 -18.81 2.39
8.33 -18.62 2.39
8.69 -18.42 2.39
9.04 -18.22 2.39
9.40 -18.01 2.39
9.74 -17.80 2.39
10.08 -17.57 2.39
10.42 -17.34 2.39
10.75 -17.11 2.39
11.08 -16.87 2.39
11.40 -16.62 2.39
11.71 -16.36 2.39
12.02 -16.10 2.39
12.33 -15.84 2.39
12.63 -15.57 2.39
12.92 -15.29 2.39
13.21 -15.01 2.39
13.49 -14.72 2.39
13.76 -14.43 2.39
14.03 -14.13 2.39
14.29 -13.83 2.39
14.55 -13.52 2.39
14.80 -13.21 2.39
15.04 -12.89 2.39
15.28 -12.57 2.39
15.51 -12.24 2.39
15.73 -11.92 2.39
15.95 -11.58 2.39
16.16 -11.25 2.39
16.36 -10.91 2.39
16.55 -10.56 2.39
16.74 -10.22 2.39
16.92 -9.87 2.39
17.10 -9.51 2.39
17.27 -9.16 2.39
17.43 -8.80 2.39
17.58 -8.44 2.39
17.73 -8.07 2.39
17.86 -7.71 2.39
18.00 -7.34 2.39
18.12 -6.97 2.39
18.24 -6.60 2.39
18.35 -6.22 2.39
18.45 -5.85 2.39
18.54 -5.47 2.39
18.63 -5.09 2.39
18.71 -4.71 2.39
18.78 -4.33 2.39
18.85 -3.95 2.39
18.91 -3.57 2.39
18.96 -3.18 2.39
19.00 -2.80 2.39
19.04 -2.41 2.39
19.07 -2.03 2.39
19.09 -1.64 2.39
19.10 -1.26 2.39
19.11 -0.87 2.39
19.11 -0.49 2.39
19.10 -0.11 2.39
19.08 0.28 2.39
19.06 0.66 2.39
19.03 1.04 2.39
18.99 1.42 2.39
18.95 1.80 2.39
18.90 2.18 2.39
18.84 2.56 2.39
18.77 2.94 2.39
18.70 3.31 2.39
18.62 3.68 2.39
18.54 4.06 2.39
18.44 4.43 2.39
18.34 4.79 2.39
18.23 5.16 2.39
18.12 5.52 2.39
18.00 5.88 2.39
17.87 6.24 2.39
17.73 6.60 2.39
17.59 6.95 2.39
17.45 7.30 2.39
17.29 7.65 2.39
17.13 7.99 2.39
16.96 8.33 2.39
16.79 8.67 2.39
16.61 9.00 2.39
16.42 9.33 2.39
13.17 7.84 1.94
13.21 8.23 1.97
12.63 8.22 1.91
15.62 10.62 2.39
15.40 10.93 2.39
15.18 11.24 2.39
14.95 11.54 2.39
14.72 11.84 2.39
13.35 11.19 2.21
12.81 11.18 2.15
12.46 11.33 2.13
13.73 12.99 2.39
13.47 13.27 2.39
13.20 13.54 2.39
12.93 13.81 2.39
12.65 14.07 2.39
12.37 14.32 2.39
12.09 14.57 2.39
11.79 14.82 2.39
11.50 15.06 2.39
11.20 15.29 2.39
10.89 15.52 2.39
10.58 15.74 2.39
10.27 15.96 2.39
9.95 16.17 2.39
9.63 16.38 2.39
9.31 16.58 2.39
8.98 16.77 2.39
8.64 16.96 2.39
8.30 17.14 2.39
7.96 17.31 2.39
7.62 17.48 2.39
7.27 17.64 2.39
6.92 17.80 2.39
6.57 17.95 2.39
6.21 18.09 2.39
4.74 14.76 1.94
5.49 18.35 2.39
5.12 18.45 2.39
4.75 18.57 2.39
4.38 18.68 2.39
4.00 18.78 2.39
3.63 18.87 2.39
3.25 18.96 2.39
1.70 11.25 1.41
2.49 19.11 2.39
2.11 19.17 2.39
1.73 19.23 2.39
1.34 19.28 2.39
1.00 20.16 2.49
0.59 20.19 2.49
0.19 20.22 2.49
-0.22 20.24 2.49
-0.63 20.26 2.49
-1.03 20.26 2.49
-1.44 20.26 2.49
-1.85 20.25 2.49
-2.26 20.23 2.49
-2.67 20.21 2.49
-3.08 20.17 2.49
-3.49 20.13 2.49
-3.89 20.08 2.49
-4.30 20.02 2.49
-4.71 19.96 2.49
-5.12 19.88 2.49
-5.52 19.80 2.49
-5.92 19.71 2.49
-6.33 19.61 2.49
-6.73 19.51 2.49
-6.83 18.59 2.39
-7.21 18.47 2.39
-7.59 18.35 2.39
-7.97 18.22 2.39
-8.34 18.08 2.39
-8.72 17.93 2.39
-9.09 17.77 2.39
-9.45 17.61 2.39
-9.82 17.44 2.39
-10.18 17.26 2.39
-10.54 17.08 2.39
-11.45 17.75 2.51
-11.81 17.51 2.51
-11.92 16.94 2.46
-12.01 16.36 2.41
-12.10 15.81 2.36
-12.21 15.30 2.31
-12.28 14.77 2.27
-12.34 14.25 2.22
-12.39 13.74 2.18
-12.42 13.23 2.13
-12.46 12.76 2.09
-12.50 12.29 2.06
-12.56 11.86 2.02
-12.65 11.48 2.00
-12.73 11.09 1.97
-12.76 10.67 1.94
-12.78 10.26 1.91
-12.86 9.91 1.89
-12.94 9.57 1.87
-13.02 9.23 1.85
-13.08 8.88 1.83
-13.13 8.53 1.81
-13.35 8.30 1.82
-13.57 8.07 1.82
-13.72 7.78 1.82
-13.79 7.46 1.81
-13.87 7.15 1.79
-13.90 6.81 1.78
-13.92 6.48 1.76
-13.94 6.15 1.75
-13.96 5.83 1.73
-13.98 5.51 1.72
-14.01 5.20 1.71
-14.05 4.90 1.70
-14.05 4.58 1.68
-14.05 4.28 1.67
-14.05 3.97 1.66
-14.05 3.67 1.65
-14.05 3.37 1.64
-14.07 3.07 1.63
-14.09 2.78 1.63
-14.11 2.49 1.62
-14.13 2.21 1.62
-14.15 1.92 1.61
-14.17 1.63 1.61
-14.17 1.35 1.60
-14.16 1.06 1.60
-14.17 0.78 1.60
-14.20 0.49 1.60
-14.23 0.21 1.60
-14.25 -0.08 1.60
-14.28 -0.37 1.60
-14.27 -0.65 1.60
-14.26 -0.94 1.60
-14.25 -1.22 1.60
-14.24 -1.51 1.60
-14.22 -1.80 1.60
-14.21 -2.09 1.60
-14.20 -2.38 1.61
-14.20 -2.67 1.61
-14.22 -2.97 1.62
-14.21 -3.27 1.62
-14.18 -3.56 1.63
-14.15 -3.86 1.63
-14.12 -4.16 1.64
-14.08 -4.46 1.64
-14.06 -4.76 1.65
-14.03 -5.06 1.66
-13.98 -5.37 1.66
-13.92 -5.67 1.67
-13.87 -5.97 1.68
-13.81 -6.28 1.68
-13.75 -6.59 1.69
-13.69 -6.90 1.70
-13.61 -7.21 1.71
-13.48 -7.49 1.71
-13.34 -7.76 1.71
-13.19 -8.03 1.71
-13.03 -8.30 1.71
-12.87 -8.57 1.71
-12.71 -8.83 1.72
-12.56 -9.10 1.72
-12.45 -9.41 1.73
-12.37 -9.75 1.75
-12.28 -10.08 1.76
-12.19 -10.42 1.78
-12.06 -10.74 1.79
-11.93 -11.06 1.80
-11.83 -11.42 1.82
-11.74 -11.79 1.85
-11.65 -12.18 1.87
-11.55 -12.58 1.90
-11.46 -12.99 1.92
-11.35 -13.40 1.95
-11.27 -13.86 1.99
-11.13 -14.26 2.01
-10.99 -14.68 2.04
-10.84 -15.10 2.07
-10.72 -15.58 2.11
-10.58 -16.06 2.14
-10.41 -16.52 2.18
-10.24 -16.98 2.21
-10.08 -17.51 2.26
-9.97 -18.15 2.31
-9.84 -18.80 2.37
-9.53 -19.14 2.39
-9.14 -19.31 2.39
-8.75 -19.48 2.39
-8.35 -19.63 2.39
-7.95 -19.78 2.39
-7.54 -19.92 2.39
-7.13 -20.05 2.39
-6.72 -20.17 2.39
-6.32 -20.30 2.39
-6.09 -21.05 2.47
-5.72 -21.37 2.49
-5.29 -21.46 2.49
-4.85 -21.54 2.49
-4.41 -21.62 2.49
-3.97 -21.68 2.49
-3.54 -21.73 2.49
-3.10 -21.78 2.49
-2.66 -21.81 2.49
-2.21 -21.84 2.49
-1.77 -21.85 2.49
-1.33 -21.86 2.49
-0.89 -21.86 2.49
-0.46 -21.85 2.49
-0.02 -18.19 2.49
0.35 -18.16 2.49
0.71 -18.14 2.49
1.07 -18.10 2.49
1.44 -18.06 2.49
1.80 -18.01 2.49
2.08 -17.36 2.41
2.41 -17.14 2.39
2.75 -17.07 2.39
3.09 -17.00 2.39
3.42 -16.91 2.39
3.76 -16.82 2.39
4.09 -16.73 2.39
4.42 -16.62 2.39
4.75 -16.51 2.39
5.07 -16.40 2.39
5.39 -16.27 2.39
5.71 -16.14 2.39
6.04 -16.03 2.39
6.35 -15.88 2.39
6.66 -15.74 2.39
6.97 -15.58 2.39
7.27 -15.42 2.39
7.57 -15.25 2.39
7.86 -15.08 2.39
8.16 -14.90 2.39
8.44 -14.72 2.39
8.73 -14.53 2.39
9.01 -14.34 2.39
9.28 -14.14 2.39
9.55 -13.93 2.39
9.82 -13.72 2.39
10.08 -13.51 2.39
10.34 -13.29 2.39
10.59 -13.06 2.39
10.84 -12.83 2.39
11.08 -12.60 2.39
11.32 -12.36 2.39
11.56 -12.12 2.39
11.78 -11.87 2.39
12.01 -11.62 2.39
12.22 -11.36 2.39
12.44 -11.10 2.39
12.64 -10.84 2.39
12.84 -10.57 2.39
13.04 -10.30 2.39
13.23 -10.02 2.39
13.41 -9.75 2.39
13.59 -9.47 2.39
13.77 -9.18 2.39
13.93 -8.89 2.39
14.09 -8.60 2.39
14.25 -8.31 2.39
14.40 -8.01 2.39
14.54 -7.72 2.39
14.68 -7.42 2.39
14.81 -7.11 2.39
14.94 -6.81 2.39
15.06 -6.50 2.39
15.17 -6.19 2.39
15.28 -5.88 2.39
15.38 -5.57 2.39
15.47 -5.25 2.39
15.56 -4.93 2.39
15.65 -4.62 2.39
15.72 -4.30 2.39
15.79 -3.98 2.39
15.86 -3.66 2.39
15.91 -3.34 2.39
15.96 -3.01 2.39
16.01 -2.69 2.39
16.05 -2.37 2.39
16.08 -2.04 2.39
16.11 -1.72 2.39
16.13 -1.39 2.39
16.14 -1.07 2.39
16.15 -0.74 2.39
16.15 -0.42 2.39
16.14 -0.09 2.39
16.13 0.23 2.39
13.65 0.47 2.03
13.64 0.75 2.03
16.06 1.20 2.39
16.03 1.52 2.39
15.98 1.84 2.39
15.94 2.16 2.39
15.88 2.48 2.39
15.82 2.80 2.39
15.76 3.12 2.39
15.68 3.43 2.39
15.60 3.74 2.39
15.52 4.05 2.39
15.43 4.36 2.39
15.33 4.67 2.39
12.76 4.17 2.01
12.58 4.39 1.99
15.01 5.58 2.39
14.89 5.88 2.39
14.77 6.18 2.39
14.64 6.47 2.39
14.50 6.76 2.39
14.36 7.05 2.39
14.21 7.34 2.39
14.06 7.62 2.39
13.91 7.90 2.39
13.21 7.86 2.30
12.57 7.83 2.22
12.51 8.15 2.24
13.22 8.99 2.39
13.04 9.26 2.39
12.85 9.52 2.39
12.66 9.77 2.39
12.46 10.03 2.39
12.26 10.28 2.39
12.05 10.52 2.39
11.84 10.76 2.39
11.62 11.00 2.39
11.40 11.23 2.39
11.17 11.46 2.39
10.94 11.69 2.39
10.71 11.91 2.39
10.47 12.12 2.39
10.23 12.34 2.39
9.98 12.54 2.39
9.73 12.75 2.39
9.48 12.94 2.39
9.22 13.14 2.39
8.95 13.32 2.39
8.69 13.51 2.39
8.42 13.68 2.39
8.15 13.86 2.39
7.08 12.62 2.15
7.59 14.19 2.39
7.31 14.34 2.39
7.02 14.49 2.39
6.73 14.64 2.39
6.44 14.78 2.39
6.15 14.92 2.39
5.85 15.05 2.39
5.55 15.17 2.39
5.24 15.27 2.39
4.94 15.38 2.39
4.63 15.49 2.39
4.32 15.59 2.39
3.99 15.60 2.38
3.70 15.77 2.39
3.38 15.86 2.39
2.00 10.40 1.56
1.78 10.37 1.55
1.70 11.25 1.67
2.10 16.13 2.39
1.78 16.18 2.39
1.46 16.23 2.39
1.18 16.97 2.49
0.84 17.00 2.49
0.50 17.03 2.49
0.16 17.05 2.49
-0.19 17.07 2.49
-0.53 17.08 2.49
-0.87 17.08 2.49
-1.22 17.07 2.49
-1.56 17.06 2.49
-1.91 17.04 2.49
-2.25 17.02 2.49
-2.59 16.99 2.49
-2.94 16.95 2.49
-3.28 16.90 2.49
-3.62 16.85 2.49
-3.97 16.79 2.49
-4.31 16.73 2.49
-4.65 16.65 2.49
-4.98 16.58 2.49
-5.32 16.49 2.49
-5.66 16.40 2.49
-5.99 16.30 2.49
-6.33 16.19 2.49
-6.66 16.08 2.49
-6.71 15.33 2.40
-7.01 15.18 2.39
-7.32 15.05 2.39
-7.63 14.92 2.39
-7.94 14.78 2.39
-8.24 14.63 2.39
-8.54 14.48 2.39
-8.84 14.32 2.39
-9.14 14.16 2.39
-9.43 13.99 2.39
-9.72 13.81 2.39
-10.01 13.63 2.39
-10.29 13.44 2.39
-10.57 13.25 2.39
-11.48 13.80 2.53
-11.64 13.44 2.50
-11.75 13.03 2.47
-11.80 12.57 2.42
-11.86 12.13 2.38
-11.91 11.70 2.34
-11.97 11.30 2.30
-12.03 10.91 2.27
-12.07 10.51 2.23
-12.10 10.12 2.20
-12.13 9.74 2.17
-12.20 9.39 2.14
-12.28 9.07 2.12
-12.33 8.73 2.10
-12.38 8.40 2.08
-12.43 8.07 2.05
-12.54 7.80 2.05
-12.75 7.57 2.05
-12.95 7.35 2.06
-13.16 7.12 2.06
-13.27 6.84 2.06
-13.36 6.55 2.05
-13.45 6.26 2.04
-13.54 5.97 2.03
-13.62 5.69 2.03
-13.65 5.38 2.01
-13.67 5.07 2.00
-13.68 4.77 1.98
-13.68 4.46 1.97
-13.68 4.16 1.95
-13.69 3.86 1.94
-13.69 3.57 1.93
-13.69 3.28 1.92
-13.69 2.99 1.91
-13.71 2.71 1.90
-13.74 2.43 1.90
-13.76 2.15 1.89
-13.78 1.87 1.89
-13.80 1.59 1.88
-13.81 1.31 1.88
-13.81 1.03 1.88
-13.83 0.76 1.87
-13.86 0.48 1.88
-13.89 0.20 1.88
-13.91 -0.08 1.88
-13.94 -0.36 1.88
-13.96 -0.64 1.88
-13.95 -0.92 1.88
-13.94 -1.20 1.89
-13.93 -1.48 1.89
-13.92 -1.76 1.89
-13.90 -2.04 1.89
-13.89 -2.33 1.89
-13.87 -2.61 1.90
-13.87 -2.90 1.90
-13.87 -3.19 1.91
-13.84 -3.48 1.91
-13.81 -3.77 1.92
-13.78 -4.06 1.93
-13.74 -4.35 1.93
-13.71 -4.64 1.94
-13.67 -4.94 1.95
-13.64 -5.24 1.96
-13.58 -5.53 1.96
-13.52 -5.82 1.97
-13.47 -6.12 1.98
-13.39 -6.41 1.99
-13.29 -6.70 1.99
-13.18 -6.98 1.99
-13.08 -7.26 2.00
-12.99 -7.56 2.01
-12.84 -7.82 2.01
-12.69 -8.08 2.01
-12.54 -8.34 2.01
-12.39 -8.61 2.02
-12.23 -8.87 2.02
-12.07 -9.13 2.02
-11.97 -9.44 2.04
-11.89 -9.76 2.06
-11.80 -10.09 2.08
-11.71 -10.43 2.10
-11.62 -10.77 2.12
-11.51 -11.10 2.14
-11.40 -11.46 2.16
-11.31 -11.83 2.19
-11.16 -12.15 2.21
-11.01 -12.47 2.23
-10.84 -12.80 2.25
-10.68 -13.13 2.27
-10.56 -13.52 2.30
-10.44 -13.94 2.34
-6.85 -9.54 1.58
-10.10 -14.68 2.39
-9.80 -14.87 2.39
-9.49 -15.06 2.39
-9.18 -15.24 2.39
-8.87 -15.41 2.39
-8.56 -15.58 2.39
-8.24 -15.74 2.39
-7.92 -15.89 2.39
-7.59 -16.04 2.39
-7.26 -16.17 2.39
-6.93 -16.31 2.39
-6.60 -16.43 2.39
-6.27 -16.55 2.39
-6.15 -17.29 2.48
-5.83 -17.49 2.49
-5.48 -17.59 2.49
-5.12 -17.68 2.49
-4.76 -17.77 2.49
-4.40 -17.85 2.49
-4.04 -17.92 2.49
-3.67 -17.98 2.49
-3.31 -18.03 2.49
-2.94 -18.08 2.49
-2.58 -18.12 2.49
-2.21 -18.15 2.49
-1.85 -18.18 2.49
-1.48 -18.19 2.49
-1.11 -18.20 2.49
-0.75 -18.20 2.49
-0.38 -18.20 2.49
-0.02 -15.57 2.49
0.30 -15.56 2.49
0.61 -15.53 2.49
0.92 -15.51 2.49
1.23 -15.47 2.49
1.54 -15.43 2.49
1.84 -15.38 2.49
2.06 -14.69 2.39
2.35 -14.64 2.39
2.64 -14.57 2.39
2.93 -14.50 2.39
3.22 -14.43 2.39
3.51 -14.35 2.39
3.79 -14.26 2.39
4.07 -14.17 2.39
4.35 -14.07 2.39
4.63 -13.97 2.39
4.90 -13.86 2.39
5.17 -13.74 2.39
5.44 -13.62 2.39
5.71 -13.50 2.39
5.98 -13.38 2.39
6.24 -13.25 2.39
6.50 -13.11 2.39
6.76 -12.96 2.39
7.01 -12.81 2.39
7.26 -12.66 2.39
7.50 -12.49 2.39
7.74 -12.33 2.39
7.98 -12.16 2.39
8.22 -11.99 2.39
8.45 -11.81 2.39
8.67 -11.62 2.39
8.90 -11.44 2.39
9.11 -11.24 2.39
9.33 -11.05 2.39
9.54 -10.85 2.39
9.75 -10.64 2.39
9.95 -10.44 2.39
10.15 -10.22 2.39
10.34 -10.01 2.39
10.53 -9.79 2.39
10.71 -9.57 2.39
10.89 -9.34 2.39
11.07 -9.11 2.39
11.24 -8.88 2.39
11.40 -8.64 2.39
11.56 -8.41 2.39
11.72 -8.16 2.39
11.87 -7.92 2.39
12.02 -7.67 2.39
12.16 -7.42 2.39
12.29 -7.17 2.39
12.42 -6.92 2.39
12.55 -6.66 2.39
12.67 -6.40 2.39
12.79 -6.14 2.39
12.90 -5.88 2.39
13.00 -5.61 2.39
13.10 -5.35 2.39
13.19 -5.08 2.39
13.28 -4.81 2.39
13.37 -4.54 2.39
13.45 -4.27 2.39
13.52 -3.99 2.39
13.59 -3.72 2.39
13.65 -3.44 2.39
13.70 -3.16 2.39
13.76 -2.88 2.39
13.80 -2.61 2.39
13.84 -2.33 2.39
13.88 -2.05 2.39
13.91 -1.77 2.39
13.93 -1.49 2.39
13.95 -1.20 2.39
13.96 -0.92 2.39
13.97 -0.64 2.39
13.97 -0.36 2.39
13.97 -0.08 2.39
13.96 0.20 2.39
12.64 0.44 2.17
12.64 0.69 2.17
13.90 1.04 2.39
13.87 1.32 2.39
13.84 1.60 2.39
13.80 1.87 2.39
13.75 2.15 2.39
13.70 2.42 2.39
13.64 2.70 2.39
13.58 2.97 2.39
13.51 3.24 2.39
13.44 3.51 2.39
13.36 3.78 2.39
13.28 4.05 2.39
12.84 4.19 2.33
12.60 4.40 2.30
13.00 4.83 2.39
12.90 5.09 2.39
12.79 5.35 2.39
12.68 5.61 2.39
12.56 5.86 2.39
12.44 6.11 2.39
12.31 6.36 2.39
12.18 6.60 2.39
12.05 6.85 2.39
11.91 7.09 2.39
11.76 7.32 2.39
11.61 7.56 2.39
11.46 7.79 2.39
11.30 8.02 2.39
11.13 8.24 2.39
10.97 8.47 2.39
10.79 8.69 2.39
10.62 8.90 2.39
10.44 9.11 2.39
10.25 9.32 2.39
10.07 9.53 2.39
9.87 9.73 2.39
9.68 9.93 2.39
9.48 10.12 2.39
9.28 10.31 2.39
9.07 10.50 2.39
8.86 10.68 2.39
8.64 10.86 2.39
8.43 11.04 2.39
8.20 11.21 2.39
7.98 11.37 2.39
7.75 11.54 2.39
7.52 11.69 2.39
7.29 11.85 2.39
7.05 12.00 2.39
6.81 12.14 2.39
6.57 12.28 2.39
6.32 12.42 2.39
6.08 12.55 2.39
5.83 12.67 2.39
5.57 12.79 2.39
5.31 12.89 2.39
5.05 13.00 2.39
4.79 13.11 2.39
4.53 13.21 2.39
4.27 13.31 2.39
4.00 13.40 2.39
3.73 13.48 2.39
3.46 13.57 2.39
3.19 13.64 2.39
2.92 13.71 2.39
1.99 10.35 1.80
1.77 10.33 1.79
1.70 11.25 1.94
1.82 13.94 2.39
1.54 13.98 2.39
1.31 14.63 2.49
1.02 14.66 2.49
0.72 14.69 2.49
0.43 14.71 2.49
0.13 14.73 2.49
-0.16 14.74 2.49
-0.46 14.75 2.49
-0.76 14.75 2.49
-1.05 14.74 2.49
-1.35 14.73 2.49
-1.65 14.71 2.49
-1.94 14.69 2.49
-2.24 14.66 2.49
-2.54 14.62 2.49
-2.83 14.58 2.49
-3.13 14.53 2.49
-3.42 14.48 2.49
-3.72 14.42 2.49
-4.01 14.36 2.49
-4.30 14.29 2.49
-4.59 14.21 2.49
-4.88 14.13 2.49
-5.17 14.04 2.49
-5.45 13.95 2.49
-5.74 13.85 2.49
-6.02 13.75 2.49
-6.30 13.63 2.49
-6.58 13.52 2.49
-6.66 13.02 2.42
-6.84 12.72 2.39
-7.10 12.59 2.39
-7.35 12.46 2.39
-7.61 12.32 2.39
-7.86 12.18 2.39
-8.12 12.03 2.39
-8.36 11.88 2.39
-8.61 11.72 2.39
-8.85 11.55 2.39
-9.09 11.38 2.39
-9.33 11.21 2.39
-9.56 11.03 2.39
-9.79 10.85 2.39
-10.01 10.66 2.39
-10.23 10.47 2.39
-10.45 10.27 2.39
-11.03 10.41 2.47
-11.13 10.10 2.45
-11.23 9.78 2.42
-11.32 9.46 2.40
-11.41 9.15 2.38
-11.50 8.85 2.35
-11.62 8.59 2.34
-11.69 8.28 2.32
-11.75 7.97 2.30
-11.80 7.66 2.27
-11.85 7.36 2.25
-12.02 7.13 2.25
-12.13 6.88 2.25
-12.22 6.61 2.24
-12.30 6.34 2.23
-12.38 6.07 2.22
-12.46 5.80 2.21
-12.54 5.53 2.20
-12.62 5.27 2.19
-12.69 5.00 2.19
-12.74 4.73 2.18
-12.79 4.46 2.17
-12.83 4.18 2.16
-12.85 3.91 2.15
-12.87 3.63 2.13
-12.88 3.36 2.12
-12.90 3.09 2.11
-12.98 2.83 2.11
-13.09 2.58 2.12
-13.16 2.32 2.12
-13.21 2.06 2.12
-13.25 1.80 2.12
-13.30 1.53 2.12
-13.34 1.27 2.13
-13.39 1.00 2.13
-13.44 0.73 2.13
-13.52 0.47 2.14
-13.56 0.19 2.14
-13.58 -0.08 2.15
-13.61 -0.35 2.15
-13.63 -0.62 2.15
-13.65 -0.90 2.16
-13.65 -1.18 2.16
-13.63 -1.45 2.16
-13.62 -1.73 2.16
-13.61 -2.00 2.17
-13.59 -2.28 2.17
-13.57 -2.56 2.17
-13.56 -2.84 2.18
-13.54 -3.12 2.19
-13.51 -3.40 2.19
-13.48 -3.68 2.20
-13.43 -3.96 2.20
-13.37 -4.23 2.20
-13.30 -4.50 2.20
-13.23 -4.78 2.21
-13.16 -5.05 2.21
-13.09 -5.33 2.22
-13.01 -5.61 2.22
-12.92 -5.87 2.22
-12.82 -6.14 2.23
-12.72 -6.41 2.23
-12.62 -6.68 2.24
-12.51 -6.95 2.24
-12.41 -7.22 2.25
-12.32 -7.50 2.26
-12.23 -7.79 2.27
-12.13 -8.07 2.28
-12.03 -8.36 2.30
-11.92 -8.64 2.31
-11.77 -8.89 2.31
-11.61 -9.15 2.32
-11.52 -9.46 2.34
-11.43 -9.77 2.36
-11.34 -10.10 2.38
-11.19 -10.37 2.39
-11.04 -10.65 2.40
-10.88 -10.93 2.42
-10.72 -11.21 2.43
-10.60 -11.54 2.46
-10.08 -11.43 2.39
-9.85 -11.62 2.39
-9.61 -11.81 2.39
-9.37 -12.00 2.39
-9.12 -12.18 2.39
-6.85 -9.54 1.85
-8.62 -12.53 2.39
-8.37 -12.70 2.39
-8.11 -12.86 2.39
-7.84 -13.01 2.39
-7.58 -13.16 2.39
-7.31 -13.30 2.39
-7.04 -13.44 2.39
-6.76 -13.57 2.39
-6.49 -13.70 2.39
-6.22 -13.85 2.40
-6.18 -14.53 2.49
-5.89 -14.65 2.49
-5.59 -14.75 2.49
-5.29 -14.85 2.49
-4.99 -14.95 2.49
-4.68 -15.03 2.49
-4.38 -15.11 2.49
-4.07 -15.19 2.49
-3.76 -15.26 2.49
-3.45 -15.32 2.49
-3.14 -15.38 2.49
-2.83 -15.42 2.49
-2.52 -15.47 2.49
-2.21 -15.50 2.49
-1.90 -15.53 2.49
-1.58 -15.55 2.49
-1.27 -15.57 2.49
-0.96 -15.58 2.49
-0.64 -15.58 2.49
-0.33 -15.58 2.49
-0.02 -13.60 2.49
0.26 -13.59 2.49
0.53 -13.57 2.49
0.80 -13.55 2.49
1.07 -13.52 2.49
1.34 -13.49 2.49
1.61 -13.45 2.49
1.83 -13.04 2.43
2.06 -12.80 2.39
2.31 -12.74 2.39
2.56 -12.68 2.39
2.81 -12.62 2.39
3.06 -12.55 2.39
3.31 -12.48 2.39
3.56 -12.40 2.39
3.80 -12.31 2.39
4.05 -12.22 2.39
4.29 -12.13 2.39
4.53 -12.03 2.39
4.76 -11.93 2.39
5.00 -11.82 2.39
5.23 -11.71 2.39
5.46 -11.59 2.39
5.68 -11.47 2.39
5.92 -11.35 2.39
6.14 -11.22 2.39
6.36 -11.09 2.39
6.57 -10.95 2.39
6.78 -10.81 2.39
6.99 -10.66 2.39
7.20 -10.51 2.39
7.40 -10.35 2.39
7.60 -10.19 2.39
7.80 -10.03 2.39
7.99 -9.86 2.39
8.18 -9.69 2.39
8.37 -9.52 2.39
8.55 -9.34 2.39
8.73 -9.16 2.39
8.90 -8.97 2.39
9.07 -8.78 2.39
9.24 -8.59 2.39
9.40 -8.40 2.39
9.56 -8.20 2.39
9.71 -8.00 2.39
9.86 -7.80 2.39
10.01 -7.59 2.39
10.15 -7.38 2.39
10.29 -7.17 2.39
10.43 -6.96 2.39
10.55 -6.74 2.39
10.68 -6.52 2.39
10.80 -6.30 2.39
10.92 -6.08 2.39
11.03 -5.86 2.39
11.13 -5.63 2.39
11.24 -5.40 2.39
11.33 -5.17 2.39
11.43 -4.94 2.39
11.52 -4.70 2.39
11.60 -4.47 2.39
11.68 -4.23 2.39
11.75 -3.99 2.39
11.82 -3.75 2.39
11.89 -3.51 2.39
11.95 -3.27 2.39
12.01 -3.03 2.39
12.06 -2.78 2.39
12.10 -2.54 2.39
12.14 -2.29 2.39
12.18 -2.05 2.39
12.21 -1.80 2.39
12.24 -1.56 2.39
12.26 -1.31 2.39
12.28 -1.06 2.39
12.29 -0.81 2.39
12.30 -0.57 2.39
12.30 -0.32 2.39
12.30 -0.07 2.39
12.29 0.17 2.39
12.28 0.42 2.39
12.26 0.67 2.39
12.24 0.91 2.39
12.22 1.16 2.39
12.19 1.40 2.39
12.15 1.65 2.39
12.11 1.89 2.39
12.07 2.13 2.39
12.02 2.37 2.39
11.96 2.62 2.39
11.90 2.85 2.39
11.84 3.09 2.39
11.77 3.33 2.39
11.70 3.56 2.39
11.62 3.80 2.39
11.54 4.03 2.39
11.46 4.26 2.39
11.37 4.49 2.39
11.27 4.71 2.39
11.17 4.94 2.39
11.07 5.16 2.39
10.96 5.38 2.39
10.85 5.60 2.39
10.74 5.82 2.39
10.62 6.03 2.39
10.49 6.24 2.39
10.36 6.45 2.39
10.23 6.66 2.39
10.10 6.86 2.39
9.96 7.07 2.39
9.81 7.27 2.39
9.66 7.46 2.39
9.51 7.65 2.39
9.36 7.84 2.39
9.20 8.03 2.39
9.04 8.22 2.39
8.87 8.40 2.39
8.70 8.58 2.39
8.53 8.75 2.39
8.35 8.92 2.39
8.17 9.09 2.39
7.99 9.25 2.39
7.80 9.41 2.39
7.61 9.57 2.39
7.42 9.72 2.39
7.23 9.87 2.39
7.03 10.02 2.39
6.83 10.16 2.39
6.63 10.30 2.39
6.42 10.44 2.39
6.21 10.57 2.39
6.00 10.69 2.39
5.78 10.82 2.39
5.57 10.93 2.39
5.34 11.04 2.39
5.12 11.15 2.39
4.90 11.25 2.39
4.68 11.35 2.39
4.45 11.45 2.39
4.22 11.54 2.39
3.99 11.63 2.39
3.76 11.71 2.39
3.52 11.79 2.39
3.29 11.87 2.39
3.05 11.94 2.39
2.81 12.00 2.39
2.57 12.07 2.39
2.33 12.12 2.39
2.08 12.17 2.39
1.69 11.25 2.20
1.60 12.26 2.39
1.39 12.70 2.47
1.15 12.86 2.49
0.89 12.89 2.49
0.63 12.92 2.49
0.37 12.94 2.49
0.11 12.95 2.49
-0.15 12.96 2.49
-0.41 12.96 2.49
-0.67 12.96 2.49
-0.93 12.95 2.49
-1.19 12.94 2.49
-1.45 12.93 2.49
-1.71 12.90 2.49
-1.97 12.88 2.49
-2.23 12.84 2.49
-2.49 12.81 2.49
-2.75 12.76 2.49
-3.01 12.72 2.49
-3.26 12.66 2.49
-3.52 12.61 2.49
-3.78 12.54 2.49
-4.03 12.48 2.49
-4.28 12.40 2.49
-4.54 12.32 2.49
-4.79 12.24 2.49
-5.04 12.15 2.49
-5.28 12.06 2.49
-5.53 11.96 2.49
-5.77 11.86 2.49
-6.02 11.75 2.49
-6.26 11.64 2.49
-6.49 11.52 2.49
-6.63 11.22 2.46
-6.67 10.80 2.39
-6.90 10.67 2.39
-7.11 10.54 2.39
-7.33 10.41 2.39
-7.55 10.27 2.39
-7.76 10.12 2.39
-7.96 9.97 2.39
-8.17 9.82 2.39
-8.37 9.66 2.39
-8.57 9.50 2.39
-8.77 9.33 2.39
-8.96 9.16 2.39
-9.15 8.99 2.39
-9.34 8.81 2.39
-9.52 8.63 2.39
-9.70 8.44 2.39
-9.88 8.26 2.39
-10.05 8.06 2.39
-10.22 7.87 2.39
-10.38 7.67 2.39
-10.54 7.46 2.39
-10.73 7.28 2.40
-10.85 7.04 2.39
-10.97 6.81 2.38
-11.09 6.58 2.38
-11.20 6.35 2.37
-11.31 6.11 2.37
-11.41 5.88 2.36
-11.51 5.64 2.36
-11.61 5.40 2.35
-11.68 5.15 2.34
-11.74 4.90 2.34
-11.80 4.65 2.33
-11.85 4.39 2.32
-11.89 4.14 2.31
-11.94 3.89 2.30
-11.98 3.64 2.29
-12.01 3.39 2.28
-12.03 3.13 2.27
-12.09 2.89 2.27
-12.20 2.66 2.28
-12.30 2.43 2.29
-12.40 2.19 2.29
-12.50 1.95 2.30
-12.55 1.70 2.30
-12.59 1.45 2.30
-12.63 1.20 2.31
-12.67 0.94 2.31
-12.71 0.69 2.31
-12.74 0.44 2.31
-12.77 0.18 2.32
-12.84 -0.07 2.33
-12.90 -0.33 2.34
-12.96 -0.60 2.35
-13.02 -0.86 2.36
-13.07 -1.13 2.37
-13.07 -1.39 2.38
-13.06 -1.66 2.38
-13.03 -1.92 2.38
-12.99 -2.18 2.38
-12.96 -2.44 2.38
-12.92 -2.70 2.38
-12.88 -2.97 2.38
-12.85 -3.23 2.39
-12.83 -3.50 2.40
-12.80 -3.77 2.41
-12.74 -4.03 2.41
-12.68 -4.29 2.41
-12.61 -4.56 2.42
-12.54 -4.82 2.42
-12.47 -5.08 2.42
-12.40 -5.34 2.43
-12.33 -5.61 2.44
-12.25 -5.87 2.44
-12.17 -6.14 2.45
-12.09 -6.40 2.46
-11.99 -6.66 2.47
-11.89 -6.92 2.47
-11.79 -7.18 2.48
-11.70 -7.45 2.49
-11.60 -7.72 2.51
-11.50 -7.99 2.52
-11.40 -8.27 2.53
-11.28 -8.53 2.54
-11.13 -8.77 2.55
-10.28 -8.44 2.39
-10.10 -8.64 2.39
-9.93 -8.84 2.39
-9.75 -9.03 2.39
-9.56 -9.23 2.39
-9.37 -9.42 2.39
-9.18 -9.60 2.39
-8.99 -9.78 2.39
-8.79 -9.96 2.39
-8.58 -10.13 2.39
-8.38 -10.30 2.39
-8.17 -10.46 2.39
-7.95 -10.62 2.39
-6.85 -9.54 2.12
-7.52 -10.92 2.39
-7.29 -11.07 2.39
-7.07 -11.21 2.39
-6.84 -11.34 2.39
-6.61 -11.47 2.39
-6.37 -11.60 2.39
-6.24 -11.92 2.43
-6.15 -12.34 2.49
-5.90 -12.46 2.49
-5.65 -12.57 2.49
-5.39 -12.67 2.49
-5.13 -12.77 2.49
-4.87 -12.87 2.49
-4.61 -12.95 2.49
-4.35 -13.04 2.49
-4.09 -13.12 2.49
-3.82 -13.19 2.49
-3.55 -13.25 2.49
-3.28 -13.31 2.49
-3.02 -13.37 2.49
-2.74 -13.42 2.49
-2.47 -13.46 2.49
-2.20 -13.50 2.49
-1.93 -13.53 2.49
-1.66 -13.56 2.49
-1.38 -13.58 2.49
-1.11 -13.60 2.49
-0.84 -13.61 2.49
-0.56 -13.61 2.49
-0.29 -13.61 2.49
-0.02 -12.07 2.49
0.23 -12.06 2.49
0.47 -12.04 2.49
0.71 -12.02 2.49
0.95 -12.00 2.49
1.19 -11.97 2.49
1.43 -11.93 2.49
1.66 -11.89 2.49
1.82 -11.36 2.39
2.05 -11.31 2.39
2.27 -11.26 2.39
2.50 -11.20 2.39
2.72 -11.14 2.39
2.94 -11.08 2.39
3.16 -11.01 2.39
3.38 -10.93 2.39
3.59 -10.86 2.39
3.81 -10.77 2.39
4.02 -10.69 2.39
4.23 -10.60 2.39
4.44 -10.50 2.39
4.64 -10.40 2.39
4.85 -10.30 2.39
5.05 -10.19 2.39
5.25 -10.08 2.39
5.45 -9.97 2.39
5.64 -9.85 2.39
5.84 -9.73 2.39
6.03 -9.61 2.39
6.22 -9.48 2.39
6.40 -9.34 2.39
6.58 -9.21 2.39
6.76 -9.06 2.39
6.93 -8.92 2.39
7.11 -8.77 2.39
7.28 -8.62 2.39
7.44 -8.47 2.39
7.60 -8.31 2.39
7.76 -8.15 2.39
7.92 -7.99 2.39
8.07 -7.82 2.39
8.22 -7.65 2.39
8.37 -7.48 2.39
8.51 -7.30 2.39
8.65 -7.12 2.39
8.78 -6.94 2.39
8.91 -6.76 2.39
9.04 -6.58 2.39
9.16 -6.39 2.39
9.28 -6.20 2.39
9.40 -6.01 2.39
9.51 -5.81 2.39
9.62 -5.62 2.39
9.72 -5.42 2.39
9.82 -5.22 2.39
9.92 -5.02 2.39
10.01 -4.81 2.39
10.10 -4.61 2.39
10.18 -4.40 2.39
10.26 -4.19 2.39
10.34 -3.98 2.39
10.41 -3.77 2.39
10.48 -3.56 2.39
10.54 -3.35 2.39
10.60 -3.13 2.39
10.66 -2.92 2.39
10.71 -2.70 2.39
10.75 -2.48 2.39
10.79 -2.27 2.39
10.83 -2.05 2.39
10.86 -1.83 2.39
10.89 -1.61 2.39
10.92 -1.39 2.39
10.94 -1.17 2.39
10.95 -0.95 2.39
10.97 -0.73 2.39
10.97 -0.51 2.39
10.98 -0.29 2.39
10.97 -0.07 2.39
10.97 0.15 2.39
10.96 0.38 2.39
10.95 0.60 2.39
10.93 0.81 2.39
10.90 1.03 2.39
10.88 1.25 2.39
10.85 1.47 2.39
10.81 1.69 2.39
10.77 1.90 2.39
10.73 2.12 2.39
10.68 2.33 2.39
10.63 2.55 2.39
10.57 2.76 2.39
10.51 2.97 2.39
8.23 2.51 1.89
10.38 3.39 2.39
10.31 3.60 2.39
10.23 3.80 2.39
10.15 4.01 2.39
10.07 4.21 2.39
9.98 4.41 2.39
9.89 4.61 2.39
9.79 4.81 2.39
9.69 5.00 2.39
9.59 5.20 2.39
9.48 5.39 2.39
9.37 5.58 2.39
9.25 5.76 2.39
9.14 5.95 2.39
9.02 6.13 2.39
8.89 6.31 2.39
8.76 6.49 2.39
8.63 6.66 2.39
8.49 6.84 2.39
8.36 7.01 2.39
8.12 7.09 2.37
8.07 7.34 2.39
7.92 7.50 2.39
7.77 7.66 2.39
7.61 7.81 2.39
7.46 7.97 2.39
7.30 8.12 2.39
7.13 8.26 2.39
6.97 8.41 2.39
6.80 8.55 2.39
6.63 8.68 2.39
6.45 8.82 2.39
6.28 8.95 2.39
6.10 9.07 2.39
5.91 9.20 2.39
5.73 9.32 2.39
5.54 9.43 2.39
5.35 9.54 2.39
5.16 9.64 2.39
4.96 9.75 2.39
4.77 9.85 2.39
4.57 9.95 2.39
4.37 10.04 2.39
4.17 10.13 2.39
3.97 10.22 2.39
3.76 10.30 2.39
3.56 10.38 2.39
3.35 10.45 2.39
3.14 10.52 2.39
2.93 10.59 2.39
2.72 10.65 2.39
2.50 10.71 2.39
2.29 10.76 2.39
2.07 10.81 2.39
1.86 10.86 2.39
1.64 10.90 2.39
1.43 11.01 2.41
1.25 11.44 2.49
1.02 11.47 2.49
0.79 11.50 2.49
0.56 11.52 2.49
0.33 11.53 2.49
0.10 11.54 2.49
-0.13 11.55 2.49
-0.36 11.55 2.49
-0.60 11.55 2.49
-0.83 11.54 2.49
-1.06 11.53 2.49
-1.29 11.52 2.49
-1.53 11.50 2.49
-1.76 11.47 2.49
-1.99 11.44 2.49
-2.22 11.41 2.49
-2.45 11.37 2.49
-2.68 11.33 2.49
-2.91 11.28 2.49
-3.14 11.23 2.49
-3.36 11.17 2.49
-3.59 11.11 2.49
-3.82 11.04 2.49
-4.04 10.97 2.49
-4.26 10.89 2.49
-4.48 10.81 2.49
-4.70 10.73 2.49
-4.92 10.64 2.49
-5.14 10.55 2.49
-5.35 10.45 2.49
-5.57 10.35 2.49
-5.78 10.24 2.49
-5.99 10.13 2.49
-6.19 10.02 2.49
-6.40 9.90 2.49
-6.60 9.78 2.49
-6.60 9.37 2.42
-6.71 9.13 2.39
-6.90 9.00 2.39
-7.08 8.86 2.39
-7.26 8.73 2.39
-7.44 8.59 2.39
-7.62 8.44 2.39
-7.79 8.29 2.39
-7.96 8.14 2.39
-8.13 7.99 2.39
-8.30 7.83 2.39
-8.46 7.66 2.39
-8.62 7.50 2.39
-8.77 7.33 2.39
-8.93 7.16 2.39
-9.07 6.98 2.39
-9.22 6.80 2.39
-9.36 6.62 2.39
-9.50 6.44 2.39
-9.63 6.25 2.39
-9.76 6.06 2.39
-9.89 5.87 2.39
-10.01 5.67 2.39
-10.13 5.47 2.39
-10.25 5.27 2.39
-10.36 5.07 2.39
-10.47 4.87 2.39
-10.79 4.75 2.44
-10.89 4.54 2.44
-10.97 4.32 2.44
-11.03 4.09 2.43
-11.08 3.86 2.42
-11.12 3.62 2.41
-11.17 3.39 2.41
-11.21 3.16 2.40
-11.27 2.93 2.40
-11.36 2.72 2.41
-11.49 2.50 2.42
-11.60 2.29 2.43
-11.69 2.06 2.44
-11.78 1.83 2.45
-11.87 1.61 2.46
-11.95 1.37 2.47
-11.99 1.13 2.47
-12.03 0.89 2.47
-12.06 0.65 2.47
-12.09 0.41 2.48
-12.12 0.17 2.48
-12.14 -0.07 2.48
-12.16 -0.32 2.49
-12.21 -0.56 2.50
-12.26 -0.81 2.51
-12.31 -1.06 2.52
-12.31 -1.31 2.53
-12.31 -1.56 2.53
-12.30 -1.81 2.54
-12.30 -2.06 2.54
-12.28 -2.32 2.55
-12.25 -2.56 2.55
-12.21 -2.81 2.55
-12.17 -3.06 2.56
-12.14 -3.31 2.56
-12.11 -3.57 2.57
-12.09 -3.83 2.58
-12.05 -4.08 2.59
-12.02 -4.34 2.60
-11.98 -4.60 2.61
-11.91 -4.85 2.62
-11.84 -5.10 2.62
-11.77 -5.35 2.63
-11.69 -5.60 2.64
-11.61 -5.85 2.64
-11.53 -6.11 2.65
-10.29 -5.71 2.39
-10.17 -5.92 2.39
-10.05 -6.12 2.39
-9.93 -6.32 2.39
-9.80 -6.52 2.39
-9.67 -6.72 2.39
-9.53 -6.91 2.39
-9.39 -7.10 2.39
-9.24 -7.28 2.39
-9.09 -7.47 2.39
-8.94 -7.65 2.39
-8.79 -7.82 2.39
-8.63 -8.00 2.39
-8.46 -8.17 2.39
-8.30 -8.33 2.39
-8.13 -8.50 2.39
-7.95 -8.66 2.39
-7.78 -8.81 2.39
-7.60 -8.97 2.39
-7.42 -9.11 2.39
-7.23 -9.26 2.39
-7.04 -9.40 2.39
-6.85 -9.53 2.39
-6.65 -9.67 2.39
-6.46 -9.80 2.39
-6.29 -9.96 2.40
-6.27 -10.39 2.47
-6.10 -10.60 2.49
-5.89 -10.71 2.49
-5.67 -10.82 2.49
-5.45 -10.93 2.49
-5.23 -11.03 2.49
-5.00 -11.13 2.49
-4.78 -11.23 2.49
-4.55 -11.31 2.49
-4.32 -11.40 2.49
-4.09 -11.48 2.49
-3.86 -11.55 2.49
-3.62 -11.62 2.49
-3.39 -11.68 2.49
-3.15 -11.74 2.49
-2.91 -11.80 2.49
-2.67 -11.85 2.49
-2.43 -11.89 2.49
-2.19 -11.93 2.49
-1.95 -11.97 2.49
-1.71 -12.00 2.49
-1.47 -12.02 2.49
-1.23 -12.04 2.49
-0.99 -12.06 2.49
-0.74 -12.07 2.49
-0.50 -12.07 2.49
-0.26 -12.07 2.49
-0.02 -10.83 2.49
0.20 -10.82 2.49
0.42 -10.81 2.49
0.63 -10.79 2.49
0.85 -10.77 2.49
1.06 -10.74 2.49
1.28 -10.71 2.49
1.49 -10.68 2.49
1.71 -10.64 2.49
1.84 -10.16 2.39
2.04 -10.11 2.39
2.24 -10.06 2.39
2.44 -10.01 2.39
2.64 -9.95 2.39
2.84 -9.89 2.39
3.03 -9.82 2.39
3.23 -9.76 2.39
3.42 -9.68 2.39
3.61 -9.60 2.39
3.80 -9.52 2.39
3.99 -9.44 2.39
4.17 -9.35 2.39
4.36 -9.26 2.39
4.54 -9.16 2.39
4.72 -9.06 2.39
4.90 -8.96 2.39
5.07 -8.85 2.39
5.24 -8.74 2.39
5.41 -8.63 2.39
5.58 -8.51 2.39
5.75 -8.40 2.39
5.92 -8.28 2.39
6.08 -8.16 2.39
6.24 -8.03 2.39
6.39 -7.89 2.39
6.54 -7.76 2.39
6.69 -7.62 2.39
6.84 -7.48 2.39
6.99 -7.33 2.39
7.13 -7.19 2.39
7.26 -7.04 2.39
7.40 -6.89 2.39
7.53 -6.73 2.39
7.66 -6.58 2.39
7.78 -6.42 2.39
7.91 -6.25 2.39
8.02 -6.09 2.39
8.14 -5.92 2.39
8.25 -5.75 2.39
8.36 -5.58 2.39
8.47 -5.41 2.39
8.57 -5.24 2.39
8.66 -5.06 2.39
8.76 -4.88 2.39
8.85 -4.70 2.39
8.94 -4.52 2.39
9.02 -4.34 2.39
9.10 -4.15 2.39
9.18 -3.97 2.39
9.25 -3.78 2.39
9.32 -3.59 2.39
9.38 -3.40 2.39
9.44 -3.21 2.39
9.50 -3.02 2.39
9.56 -2.83 2.39
9.60 -2.63 2.39
9.65 -2.44 2.39
9.69 -2.24 2.39
9.73 -2.04 2.39
9.77 -1.85 2.39
9.80 -1.65 2.39
9.82 -1.45 2.39
9.84 -1.25 2.39
9.86 -1.06 2.39
9.88 -0.86 2.39
9.89 -0.66 2.39
9.90 -0.46 2.39
9.90 -0.26 2.39
9.90 -0.06 2.39
9.89 0.14 2.39
9.89 0.34 2.39
9.87 0.54 2.39
9.86 0.73 2.39
9.84 0.93 2.39
9.81 1.13 2.39
9.79 1.33 2.39
9.75 1.52 2.39
9.72 1.72 2.39
9.68 1.91 2.39
9.64 2.11 2.39
9.59 2.30 2.39
9.54 2.49 2.39
9.48 2.68 2.39
7.98 2.43 2.03
9.37 3.06 2.39
7.51 2.62 1.93
7.39 2.75 1.92
7.28 2.87 1.90
7.17 3.00 1.89
7.09 3.13 1.89
7.03 3.28 1.89
8.83 4.34 2.39
8.75 4.51 2.39
8.65 4.69 2.39
8.56 4.86 2.39
8.46 5.03 2.39
8.35 5.20 2.39
8.25 5.37 2.39
8.14 5.53 2.39
8.02 5.70 2.39
7.91 5.86 2.39
7.79 6.01 2.39
7.67 6.17 2.39
7.54 6.32 2.39
7.41 6.47 2.39
7.28 6.62 2.39
7.15 6.77 2.39
7.01 6.91 2.39
6.87 7.05 2.39
5.30 5.66 1.89
5.19 5.77 1.89
5.07 5.88 1.89
4.95 5.97 1.89
4.83 6.07 1.89
4.71 6.17 1.89
4.58 6.27 1.89
4.47 6.37 1.89
4.33 6.45 1.89
4.20 6.54 1.89
5.16 8.40 2.39
4.99 8.50 2.39
4.82 8.60 2.39
4.65 8.70 2.39
4.48 8.80 2.39
4.30 8.89 2.39
4.12 8.97 2.39
3.94 9.06 2.39
3.76 9.14 2.39
3.58 9.22 2.39
3.39 9.29 2.39
3.21 9.36 2.39
3.02 9.43 2.39
2.83 9.49 2.39
2.64 9.55 2.39
2.45 9.60 2.39
2.26 9.66 2.39
2.06 9.70 2.39
1.87 9.75 2.39
1.67 9.79 2.39
1.48 9.83 2.39
1.34 10.28 2.49
1.13 10.31 2.49
0.92 10.34 2.49
0.71 10.36 2.49
0.51 10.38 2.49
0.30 10.39 2.49
0.09 10.40 2.49
-0.12 10.41 2.49
-0.33 10.41 2.49
-0.54 10.41 2.49
-0.75 10.40 2.49
-0.96 10.39 2.49
-1.17 10.38 2.49
-1.38 10.36 2.49
-1.59 10.33 2.49
-1.79 10.31 2.49
-2.00 10.27 2.49
-2.21 10.24 2.49
-2.42 10.20 2.49
-2.62 10.15 2.49
-2.83 10.11 2.49
-3.03 10.05 2.49
-3.23 10.00 2.49
-3.44 9.94 2.49
-3.64 9.87 2.49
-3.84 9.81 2.49
-4.04 9.73 2.49
-4.24 9.66 2.49
-4.43 9.58 2.49
-4.63 9.49 2.49
-4.82 9.40 2.49
-5.01 9.31 2.49
-5.20 9.22 2.49
-5.39 9.12 2.49
-5.57 9.01 2.49
-5.76 8.91 2.49
-5.94 8.79 2.49
-6.12 8.68 2.49
-6.30 8.56 2.49
-6.47 8.44 2.49
-6.58 8.23 2.47
-6.58 7.90 2.41
-6.69 7.72 2.39
-6.85 7.59 2.39
-7.01 7.45 2.39
-7.16 7.32 2.39
-7.31 7.18 2.39
-7.46 7.03 2.39
-7.60 6.89 2.39
-7.75 6.74 2.39
-7.88 6.59 2.39
-8.02 6.43 2.39
-8.15 6.27 2.39
-8.28 6.11 2.39
-8.41 5.95 2.39
-8.53 5.78 2.39
-8.65 5.61 2.39
-8.77 5.44 2.39
-8.88 5.27 2.39
-8.99 5.09 2.39
-9.10 4.91 2.39
-9.20 4.73 2.39
-9.30 4.55 2.39
-9.40 4.37 2.39
-9.49 4.18 2.39
-9.58 3.99 2.39
-9.66 3.80 2.39
-9.74 3.61 2.39
-9.82 3.41 2.39
-9.89 3.22 2.39
-9.96 3.02 2.39
-10.02 2.82 2.39
-10.08 2.62 2.39
-10.14 2.42 2.39
-10.19 2.22 2.39
-10.24 2.02 2.39
-10.28 1.81 2.39
-10.32 1.61 2.39
-10.35 1.40 2.39
-10.38 1.19 2.39
-10.41 0.98 2.39
-10.43 0.78 2.39
-10.45 0.57 2.39
-10.47 0.36 2.39
-11.52 0.16 2.63
-11.54 -0.07 2.63
-11.56 -0.30 2.64
-11.58 -0.53 2.64
-11.60 -0.77 2.65
-11.62 -1.00 2.66
-10.44 -1.11 2.39
-10.42 -1.32 2.39
-10.39 -1.53 2.39
-10.37 -1.74 2.39
-10.33 -1.95 2.39
-10.29 -2.16 2.39
-10.25 -2.36 2.39
-10.20 -2.57 2.39
-10.15 -2.77 2.39
