ply
format ascii 1.0
element vertex 2765
property float32 x
property float32 y
property float32 z
end_header
-15.04 5.95 -0.22
-15.03 5.59 -0.22
-15.02 5.25 -0.22
-15.01 4.91 -0.21
-14.99 4.57 -0.21
-14.82 4.20 -0.21
-14.66 3.83 -0.20
-14.56 3.50 -0.20
-14.52 3.18 -0.20
-14.49 2.87 -0.20
-14.46 2.57 -0.19
-14.26 2.24 -0.19
-14.06 1.92 -0.19
-13.87 1.61 -0.18
-13.69 1.31 -0.18
-13.51 1.02 -0.18
-13.38 0.74 -0.17
-13.36 0.47 -0.17
-13.36 0.20 -0.17
-13.39 -0.07 -0.17
-13.54 -0.34 -0.17
-13.70 -0.62 -0.18
-13.87 -0.91 -0.18
-13.87 -1.19 -0.18
-13.86 -1.47 -0.18
-14.05 -1.77 -0.18
-14.26 -2.09 -0.18
-14.44 -2.41 -0.19
-14.44 -2.71 -0.19
-14.44 -3.01 -0.19
-14.44 -3.32 -0.19
-14.43 -3.62 -0.19
-14.40 -3.92 -0.19
-14.38 -4.23 -0.19
-14.36 -4.54 -0.19
-14.34 -4.85 -0.19
-14.33 -5.17 -0.19
-14.32 -5.49 -0.19
-14.66 -5.97 -0.20
-14.72 -6.34 -0.20
-14.71 -6.69 -0.20
-14.71 -7.04 -0.21
-14.70 -7.41 -0.21
-14.75 -7.81 -0.21
-14.78 -8.21 -0.21
-14.77 -8.59 -0.22
-14.77 -8.99 -0.22
-14.76 -9.40 -0.22
-14.76 -9.82 -0.22
-14.77 -10.26 -0.23
-14.76 -10.70 -0.23
-14.76 -11.16 -0.24
-14.76 -11.63 -0.24
-14.77 -12.13 -0.24
-14.77 -12.63 -0.25
-14.77 -13.16 -0.25
-14.78 -13.71 -0.26
-14.78 -14.27 -0.26
-14.77 -14.84 -0.27
-14.75 -15.43 -0.28
-14.78 -16.10 -0.28
-14.78 -16.76 -0.29
-14.78 -17.45 -0.30
-15.89 -19.55 -0.33
-16.16 -20.72 -0.35
-16.67 -22.28 -0.37
2.55 -10.37 0.07
20.55 -31.22 0.18
21.06 -30.63 0.18
16.46 -22.94 0.13
17.20 -22.98 0.13
18.87 -24.19 0.14
17.33 -21.31 0.12
17.92 -21.17 0.12
20.35 -23.08 0.13
20.66 -22.50 0.13
20.96 -21.93 0.12
21.26 -21.37 0.12
16.92 -16.33 0.09
17.20 -15.95 0.09
19.45 -17.33 0.10
22.43 -19.18 0.11
23.54 -19.33 0.11
29.22 -23.03 0.13
18.26 -13.81 0.08
18.48 -13.40 0.08
20.94 -14.55 0.08
27.50 -18.30 0.11
33.77 -21.51 0.13
39.84 -19.08 0.12
25.69 -11.68 0.08
21.53 -9.27 0.06
15.88 -6.46 0.04
15.33 -5.88 0.04
15.49 -5.59 0.04
29.70 -10.05 0.07
24.89 -7.87 0.06
23.61 -6.94 0.06
23.85 -6.50 0.05
19.68 -4.94 0.04
19.88 -4.57 0.04
24.58 -5.13 0.05
24.83 -4.66 0.05
16.95 -2.83 0.03
15.93 -2.34 0.03
15.74 -1.99 0.03
15.90 -1.68 0.03
47.20 -4.04 0.08
21.87 -1.43 0.04
21.79 -0.98 0.04
38.32 -0.96 0.06
44.22 -0.22 0.07
18.66 0.28 0.03
18.82 0.66 0.03
17.39 0.96 0.03
17.50 1.32 0.03
24.11 2.31 0.04
23.78 2.76 0.04
41.87 5.71 0.06
32.70 5.13 0.05
21.33 3.79 0.03
20.72 4.11 0.03
20.91 4.58 0.03
19.59 4.71 0.03
19.52 5.11 0.03
44.62 21.92 0.07
39.29 20.29 0.06
38.59 20.92 0.06
36.70 20.86 0.06
34.94 20.80 0.05
33.31 20.74 0.05
31.78 20.69 0.05
30.36 20.64 0.05
29.02 20.60 0.05
26.82 19.85 0.05
26.33 20.33 0.05
26.31 21.16 0.05
25.55 21.41 0.05
22.58 19.71 0.05
22.36 20.33 0.05
22.34 21.14 0.05
22.31 21.97 0.05
22.28 22.84 0.05
22.25 23.75 0.06
22.22 24.69 0.06
22.18 25.67 0.06
23.27 28.04 0.07
22.28 27.98 0.07
21.32 27.91 0.07
20.34 27.76 0.07
20.47 29.15 0.07
20.34 30.24 0.07
21.39 33.22 0.08
21.34 34.65 0.09
21.29 36.17 0.09
21.23 37.79 0.10
21.18 39.53 0.10
21.11 41.38 0.11
20.74 42.75 0.11
20.07 43.58 0.12
19.30 44.22 0.12
18.46 44.71 0.13
17.58 45.14 0.13
15.94 43.50 0.13
14.95 43.46 0.13
13.97 43.43 0.13
13.00 43.40 0.13
12.05 43.36 0.13
11.11 43.33 0.14
10.18 43.30 0.14
10.00 46.75 0.15
8.47 49.13 0.17
-16.14 41.46 0.25
-16.10 39.02 0.24
-16.06 36.80 0.23
-16.03 34.82 0.22
-15.99 32.97 0.22
-15.96 31.28 0.21
-15.99 29.85 0.21
-16.10 28.66 0.20
-16.22 27.56 0.20
-16.38 26.59 0.20
-16.67 25.89 0.20
-16.85 25.04 0.20
-16.88 24.04 0.19
-16.90 23.06 0.19
-16.80 21.99 0.19
-16.73 21.01 0.18
-16.68 20.11 0.18
-16.64 19.26 0.18
-16.66 18.52 0.18
-16.77 17.90 0.18
-16.83 17.26 0.17
-16.82 16.57 0.17
-16.74 15.84 0.17
-16.69 15.17 0.17
-16.58 14.47 0.17
-16.26 13.63 0.16
-15.96 12.84 0.16
-15.67 12.10 0.15
-15.44 11.43 0.15
-15.22 10.81 0.15
-14.98 10.18 0.15
-14.79 9.63 0.14
-14.74 9.18 0.14
-14.69 8.74 0.14
-14.45 8.22 0.14
-14.19 7.69 0.14
-13.94 7.20 0.13
-13.73 6.75 0.13
-13.71 6.40 0.13
-13.70 6.06 0.13
-13.68 5.73 0.13
-13.67 5.40 0.13
-13.65 5.08 0.13
-13.64 4.77 0.13
-13.56 4.44 0.13
-13.48 4.11 0.13
-13.44 3.81 0.13
-13.39 3.51 0.13
-13.35 3.21 0.13
-13.31 2.92 0.13
-13.26 2.63 0.12
-13.24 2.35 0.12
-13.21 2.07 0.12
-13.17 1.80 0.12
-13.14 1.52 0.12
-13.10 1.25 0.12
-13.07 0.99 0.12
-13.03 0.72 0.12
-13.01 0.46 0.12
-13.01 0.20 0.12
-13.01 -0.07 0.13
-13.01 -0.33 0.13
-13.01 -0.59 0.13
-13.02 -0.85 0.13
-13.02 -1.11 0.13
-13.02 -1.38 0.13
-13.02 -1.64 0.13
-13.02 -1.91 0.13
-13.04 -2.18 0.13
-13.05 -2.45 0.13
-13.07 -2.73 0.13
-13.08 -3.00 0.13
-13.09 -3.29 0.13
-13.10 -3.57 0.13
-13.09 -3.85 0.14
-13.07 -4.13 0.14
-13.06 -4.42 0.14
-13.04 -4.71 0.14
-13.03 -5.00 0.14
-13.01 -5.29 0.14
-13.02 -5.60 0.14
-13.06 -5.94 0.14
-13.10 -6.28 0.14
-13.19 -6.65 0.15
-13.54 -7.17 0.15
-13.53 -7.51 0.15
-13.59 -7.91 0.16
-13.67 -8.33 0.16
-13.75 -8.76 0.16
-13.77 -9.16 0.16
-13.75 -9.55 0.16
-13.75 -9.97 0.17
-13.75 -10.40 0.17
-13.75 -10.84 0.17
-13.74 -11.28 0.17
-13.72 -11.74 0.18
-13.71 -12.21 0.18
-13.70 -12.71 0.18
-13.69 -13.22 0.18
-13.68 -13.75 0.19
-13.74 -14.37 0.19
-13.76 -14.99 0.19
-13.72 -15.56 0.20
-14.05 -16.59 0.21
-14.03 -17.26 0.21
-14.07 -18.04 0.21
-14.12 -18.88 0.22
-14.11 -19.66 0.22
-14.10 -20.51 0.23
-14.06 -21.36 0.24
-14.00 -22.22 0.24
-13.98 -23.21 0.25
-13.94 -24.23 0.25
-13.81 -25.17 0.26
-13.64 -26.08 0.26
-13.37 -26.87 0.27
-13.27 -28.07 0.27
-13.21 -29.47 0.28
2.55 -10.37 0.31
20.56 -31.22 1.02
18.98 -27.60 0.91
16.46 -22.94 0.77
17.20 -22.98 0.78
18.87 -24.19 0.83
17.33 -21.31 0.74
17.93 -21.17 0.74
20.35 -23.08 0.82
20.66 -22.50 0.81
20.96 -21.93 0.81
21.26 -21.37 0.80
16.92 -16.33 0.62
17.21 -15.95 0.62
19.45 -17.32 0.68
22.43 -19.18 0.77
23.55 -19.33 0.80
29.22 -23.02 0.97
18.27 -13.81 0.59
18.48 -13.40 0.59
20.95 -14.56 0.66
27.50 -18.30 0.85
33.77 -21.50 1.03
38.16 -21.18 1.11
38.57 -20.41 1.11
38.98 -19.64 1.11
30.46 -14.59 0.85
25.69 -11.67 0.71
21.53 -9.27 0.59
15.87 -6.46 0.43
15.33 -5.88 0.41
15.49 -5.59 0.41
29.71 -10.05 0.78
24.88 -7.86 0.65
23.61 -6.94 0.61
23.85 -6.50 0.61
19.68 -4.94 0.50
19.88 -4.57 0.50
24.58 -5.13 0.62
24.83 -4.66 0.62
16.96 -2.83 0.42
15.93 -2.33 0.39
15.74 -1.98 0.39
15.90 -1.68 0.39
30.12 -2.57 0.73
21.87 -1.43 0.53
21.79 -0.98 0.53
27.52 -0.69 0.67
27.81 -0.14 0.67
18.66 0.28 0.45
18.82 0.66 0.45
17.39 0.96 0.42
17.50 1.32 0.42
24.11 2.31 0.58
23.78 2.76 0.57
41.87 5.71 1.01
33.11 5.19 0.80
21.33 3.79 0.52
20.72 4.11 0.51
20.91 4.58 0.51
19.59 4.71 0.48
19.52 5.11 0.48
44.62 21.92 1.19
39.29 20.29 1.05
38.59 20.92 1.05
36.70 20.86 1.01
34.94 20.80 0.97
33.31 20.74 0.94
31.78 20.69 0.91
30.36 20.64 0.88
29.02 20.60 0.85
26.82 19.85 0.80
26.33 20.33 0.80
26.31 21.16 0.81
25.55 21.41 0.80
22.58 19.71 0.72
22.36 20.33 0.73
22.34 21.13 0.74
22.31 21.97 0.76
22.25 22.81 0.77
22.25 23.75 0.79
22.20 24.67 0.81
22.18 25.67 0.82
23.27 28.04 0.89
22.38 28.10 0.88
21.32 27.91 0.86
20.34 27.76 0.84
20.47 29.15 0.87
20.34 30.23 0.89
19.70 30.59 0.90
19.21 31.18 0.90
21.57 36.64 1.05
21.51 38.28 1.09
21.43 39.99 1.13
21.39 41.92 1.17
20.74 42.75 1.18
20.07 43.58 1.20
19.30 44.22 1.21
18.46 44.71 1.21
17.58 45.14 1.22
15.95 43.50 1.17
14.95 43.46 1.16
13.97 43.43 1.16
13.00 43.40 1.15
12.05 43.36 1.15
11.11 43.33 1.14
10.18 43.30 1.14
10.00 46.73 1.23
8.47 49.13 1.29
-15.93 46.35 1.37
-14.94 40.77 1.22
-14.97 38.46 1.16
-15.02 36.41 1.11
-15.05 34.49 1.06
-15.02 32.63 1.02
-15.06 31.06 0.98
-15.11 29.64 0.95
-15.27 28.51 0.92
-15.44 27.49 0.90
-15.52 26.38 0.88
-15.64 25.40 0.86
-15.69 24.38 0.84
-15.73 23.39 0.82
-15.77 22.46 0.80
-15.72 21.46 0.78
-15.72 20.58 0.76
-15.71 19.74 0.74
-15.69 18.92 0.72
-15.70 18.17 0.71
-15.75 17.50 0.70
-15.79 16.86 0.69
-15.77 16.17 0.67
-15.73 15.50 0.66
-15.70 14.86 0.65
-15.60 14.18 0.63
-15.48 13.52 0.62
-15.37 12.88 0.60
-15.08 12.13 0.59
-14.83 11.45 0.57
-14.64 10.84 0.55
-14.41 10.23 0.54
-14.19 9.65 0.52
-13.98 9.10 0.51
-13.87 8.64 0.50
-13.63 8.12 0.49
-13.53 7.69 0.48
-13.42 7.28 0.47
-13.32 6.88 0.46
-13.25 6.51 0.46
-13.23 6.18 0.45
-13.22 5.85 0.45
-13.21 5.53 0.45
-13.20 5.22 0.44
-13.20 4.91 0.44
-13.18 4.61 0.44
-13.13 4.30 0.43
-13.09 3.99 0.43
-13.05 3.70 0.43
-13.01 3.41 0.43
-12.97 3.12 0.42
-12.93 2.84 0.42
-12.90 2.56 0.42
-12.88 2.29 0.42
-12.86 2.02 0.41
-12.83 1.75 0.41
-12.80 1.48 0.41
-12.77 1.22 0.41
-12.74 0.96 0.41
-12.70 0.70 0.41
-12.69 0.45 0.41
-12.68 0.19 0.41
-12.67 -0.06 0.41
-12.68 -0.32 0.41
-12.68 -0.57 0.41
-12.68 -0.83 0.41
-12.68 -1.08 0.41
-12.68 -1.34 0.41
-12.68 -1.60 0.41
-12.67 -1.86 0.41
-12.67 -2.12 0.42
-12.68 -2.38 0.42
-12.69 -2.65 0.42
-12.70 -2.92 0.42
-12.72 -3.19 0.43
-12.73 -3.47 0.43
-12.72 -3.74 0.43
-12.71 -4.02 0.43
-12.69 -4.29 0.44
-12.68 -4.57 0.44
-12.66 -4.86 0.44
-12.64 -5.14 0.44
-12.62 -5.43 0.45
-12.66 -5.75 0.45
-12.71 -6.08 0.46
-12.74 -6.42 0.46
-12.78 -6.76 0.47
-12.82 -7.12 0.48
-12.86 -7.48 0.48
-12.88 -7.84 0.49
-12.89 -8.21 0.50
-12.90 -8.59 0.50
-12.92 -8.98 0.51
-12.93 -9.38 0.52
-12.93 -9.78 0.52
-12.92 -10.18 0.53
-12.91 -10.60 0.54
-12.89 -11.03 0.55
-12.88 -11.47 0.56
-12.85 -11.92 0.56
-12.83 -12.39 0.57
-12.81 -12.88 0.58
-12.79 -13.38 0.59
-12.78 -13.92 0.61
-12.78 -14.50 0.62
-12.78 -15.10 0.63
-12.80 -15.75 0.65
-13.23 -16.97 0.69
-13.30 -17.77 0.71
-13.44 -18.74 0.73
-13.46 -19.58 0.76
-13.44 -20.42 0.78
-13.41 -21.29 0.80
-13.33 -22.14 0.82
-13.22 -22.99 0.84
-13.16 -23.99 0.86
-13.02 -24.91 0.88
-12.86 -25.86 0.91
-12.59 -26.63 0.92
-12.30 -27.43 0.94
-12.11 -28.54 0.97
-12.03 -30.01 1.01
0.00 -19.53 1.02
0.40 -19.55 1.02
1.88 -46.60 2.43
2.82 -46.57 2.43
3.75 -46.54 2.43
3.10 -30.74 1.60
5.63 -46.47 2.43
6.58 -46.44 2.43
7.53 -46.41 2.43
8.48 -46.38 2.43
6.89 -33.84 1.78
7.46 -33.20 1.75
2.55 -10.38 0.55
9.49 -35.51 1.88
13.35 -46.21 2.46
14.35 -46.17 2.47
15.36 -46.14 2.48
16.38 -46.10 2.49
17.35 -45.88 2.49
18.30 -45.61 2.49
19.25 -45.31 2.49
20.19 -44.99 2.49
21.12 -44.65 2.49
22.05 -44.29 2.49
22.98 -43.92 2.49
23.89 -43.52 2.49
24.80 -43.11 2.49
25.71 -42.68 2.49
26.61 -42.22 2.49
16.05 -24.37 1.46
15.49 -22.53 1.36
15.50 -21.59 1.32
15.43 -20.61 1.28
15.40 -19.74 1.24
15.38 -18.92 1.21
15.30 -18.06 1.17
15.28 -17.33 1.14
15.20 -16.55 1.11
15.20 -15.90 1.08
15.20 -15.28 1.06
15.15 -14.62 1.03
15.16 -14.05 1.01
15.10 -13.45 0.99
15.09 -12.90 0.97
15.07 -12.37 0.95
14.99 -11.81 0.93
14.98 -11.32 0.91
14.96 -10.84 0.89
14.97 -10.40 0.88
27.50 -18.29 1.59
33.77 -21.50 1.93
42.47 -25.86 2.39
43.04 -25.03 2.39
38.16 -21.18 2.10
38.57 -20.41 2.09
38.98 -19.63 2.09
30.41 -14.56 1.61
20.95 -9.52 1.10
16.05 -6.90 0.83
14.84 -6.03 0.76
14.99 -5.75 0.76
15.14 -5.46 0.76
15.30 -5.17 0.77
15.45 -4.88 0.77
15.61 -4.59 0.77
15.77 -4.29 0.77
15.92 -3.99 0.78
16.09 -3.69 0.78
16.25 -3.39 0.78
15.89 -2.98 0.76
15.01 -2.51 0.72
15.16 -2.22 0.72
15.32 -1.93 0.72
15.47 -1.64 0.73
15.63 -1.34 0.74
15.80 -1.03 0.74
15.96 -0.72 0.75
16.13 -0.40 0.75
16.30 -0.08 0.76
16.48 0.25 0.77
16.66 0.59 0.78
16.84 0.93 0.79
17.03 1.29 0.80
17.22 1.65 0.81
17.42 2.02 0.82
17.63 2.40 0.83
17.84 2.80 0.84
18.05 3.20 0.85
18.28 3.62 0.87
18.51 4.06 0.88
18.75 4.51 0.90
18.99 4.97 0.91
19.25 5.45 0.93
19.52 5.95 0.95
44.19 21.71 2.28
39.29 20.29 2.05
38.59 20.92 2.04
36.70 20.86 1.96
34.94 20.80 1.89
33.31 20.74 1.82
31.79 20.69 1.76
30.36 20.64 1.71
29.02 20.60 1.65
26.82 19.86 1.55
26.33 20.33 1.55
26.31 21.16 1.57
25.55 21.41 1.55
22.58 19.71 1.40
22.36 20.32 1.41
22.31 21.11 1.43
22.31 21.97 1.46
22.25 22.81 1.49
22.25 23.74 1.52
22.20 24.67 1.55
22.18 25.67 1.59
23.27 28.04 1.71
22.38 28.10 1.69
21.33 27.91 1.65
20.34 27.75 1.62
19.89 28.31 1.63
19.76 29.37 1.67
19.71 30.59 1.72
19.21 31.18 1.73
21.57 36.63 2.01
21.51 38.28 2.08
21.43 39.98 2.15
21.39 41.91 2.23
20.75 42.75 2.26
19.27 41.82 2.19
18.03 41.29 2.14
17.29 41.87 2.16
17.59 45.14 2.31
15.95 43.50 2.21
14.95 43.46 2.20
12.48 38.79 1.95
11.62 38.76 1.94
12.06 43.36 2.16
11.12 43.33 2.15
10.18 43.30 2.14
10.00 46.72 2.31
9.06 46.88 2.31
8.27 47.97 2.36
7.41 48.80 2.39
6.42 48.87 2.39
5.43 48.91 2.39
4.44 48.93 2.39
3.45 48.88 2.39
2.46 48.86 2.39
1.48 48.82 2.39
0.50 48.76 2.39
-8.15 47.33 2.39
-9.08 47.08 2.39
-10.00 46.81 2.39
-10.92 46.52 2.39
-11.83 46.21 2.39
-13.26 47.75 2.49
-13.79 46.06 2.42
-13.33 41.48 2.19
-13.36 38.87 2.07
-13.57 37.05 1.99
-13.76 35.36 1.92
-13.77 33.39 1.83
-13.86 31.78 1.76
-14.00 30.43 1.70
-14.21 29.31 1.66
-14.46 28.36 1.63
-14.68 27.42 1.59
-14.78 26.31 1.55
-14.85 25.25 1.50
-14.89 24.19 1.46
-14.91 23.17 1.42
-14.98 22.28 1.39
-15.01 21.39 1.35
-15.04 20.54 1.32
-15.12 19.80 1.29
-15.12 18.99 1.26
-15.10 18.21 1.23
-15.13 17.52 1.21
-15.19 16.89 1.19
-15.17 16.20 1.16
-15.14 15.54 1.14
-15.12 14.90 1.11
-15.05 14.25 1.09
-14.96 13.60 1.06
-14.86 12.98 1.04
-14.63 12.27 1.01
-14.32 11.52 0.97
-14.08 10.87 0.94
-13.88 10.28 0.91
-13.68 9.71 0.89
-13.52 9.20 0.87
-13.37 8.71 0.85
-13.30 8.29 0.83
-13.20 7.86 0.82
-13.10 7.45 0.80
-13.01 7.06 0.79
-12.92 6.68 0.78
-12.89 6.34 0.77
-12.86 6.00 0.76
-12.85 5.69 0.76
-12.85 5.38 0.75
-12.84 5.08 0.74
-12.84 4.78 0.74
-12.81 4.48 0.73
-12.76 4.18 0.73
-12.72 3.88 0.72
-12.68 3.59 0.71
-12.65 3.31 0.71
-12.61 3.03 0.70
-12.58 2.76 0.70
-12.55 2.49 0.70
-12.54 2.23 0.69
-12.52 1.97 0.69
-12.51 1.71 0.69
-12.48 1.45 0.68
-12.45 1.19 0.68
-12.42 0.94 0.68
-12.39 0.69 0.68
-12.38 0.44 0.68
-12.37 0.19 0.68
-12.36 -0.06 0.68
-12.36 -0.31 0.68
-12.36 -0.56 0.68
-12.36 -0.81 0.68
-12.36 -1.06 0.68
-12.36 -1.31 0.68
-12.36 -1.56 0.68
-12.35 -1.81 0.69
-12.34 -2.06 0.69
-12.33 -2.32 0.69
-12.34 -2.57 0.69
-12.35 -2.84 0.70
-12.36 -3.10 0.70
-12.37 -3.37 0.71
-12.36 -3.64 0.71
-12.35 -3.90 0.71
-12.34 -4.18 0.72
-12.33 -4.45 0.72
-12.31 -4.72 0.73
-12.29 -5.00 0.73
-12.27 -5.28 0.74
-12.27 -5.58 0.74
-12.31 -5.90 0.75
-12.36 -6.23 0.76
-12.39 -6.56 0.77
-12.42 -6.90 0.78
-12.46 -7.25 0.79
-12.49 -7.60 0.80
-12.50 -7.96 0.81
-12.50 -8.32 0.83
-12.51 -8.69 0.84
-12.52 -9.08 0.85
-12.53 -9.47 0.86
-12.51 -9.86 0.87
-12.49 -10.26 0.89
-12.47 -10.67 0.90
-12.45 -11.09 0.91
-12.43 -11.53 0.93
-12.39 -11.97 0.94
-12.36 -12.42 0.96
-12.33 -12.90 0.98
-12.29 -13.39 0.99
-12.28 -13.93 1.01
-12.27 -14.49 1.04
-12.26 -15.09 1.06
-12.25 -15.71 1.09
-12.36 -16.52 1.12
-12.56 -17.51 1.17
-12.66 -18.43 1.22
-12.80 -19.45 1.26
-12.79 -20.31 1.30
-12.75 -21.19 1.34
-12.68 -22.06 1.38
-12.54 -22.87 1.41
-12.36 -23.64 1.44
-12.20 -24.52 1.48
-12.00 -25.39 1.51
-11.81 -26.34 1.55
-11.52 -27.15 1.59
-11.25 -28.06 1.62
-11.17 -29.56 1.70
-15.56 -43.84 2.49
-14.70 -44.20 2.49
-13.82 -44.54 2.49
-12.94 -44.86 2.49
-12.05 -45.17 2.49
-11.16 -45.46 2.49
-10.26 -45.74 2.49
-9.35 -46.00 2.49
-8.44 -46.24 2.49
-7.52 -46.47 2.49
-6.59 -46.67 2.49
-5.66 -46.86 2.49
-4.71 -46.82 2.48
-3.76 -46.79 2.47
-1.17 -19.40 1.02
-0.78 -19.45 1.02
-0.39 -19.49 1.02
0.01 -18.05 1.35
0.37 -18.03 1.35
1.35 -33.31 2.49
2.02 -33.31 2.49
2.69 -33.30 2.49
3.10 -30.70 2.30
3.87 -31.86 2.39
4.51 -31.82 2.39
5.15 -31.76 2.39
5.80 -31.68 2.39
6.44 -31.60 2.39
7.09 -31.54 2.39
2.55 -10.38 0.79
8.37 -31.30 2.39
9.01 -31.17 2.39
9.64 -31.02 2.39
10.28 -30.85 2.39
10.91 -30.68 2.39
11.53 -30.49 2.39
12.16 -30.28 2.39
12.78 -30.07 2.39
13.39 -29.84 2.39
14.01 -29.60 2.39
14.62 -29.35 2.39
15.22 -29.09 2.39
15.82 -28.81 2.39
16.41 -28.52 2.39
17.00 -28.22 2.39
17.59 -27.91 2.39
16.04 -24.36 2.11
15.49 -22.52 1.98
15.50 -21.59 1.92
15.43 -20.60 1.86
15.40 -19.74 1.81
15.38 -18.91 1.76
15.30 -18.06 1.70
15.28 -17.32 1.66
15.20 -16.55 1.61
15.20 -15.90 1.58
15.20 -15.27 1.54
15.15 -14.62 1.51
15.16 -14.05 1.48
15.10 -13.45 1.44
15.09 -12.90 1.42
15.07 -12.37 1.39
14.99 -11.81 1.36
14.98 -11.32 1.33
14.96 -10.84 1.31
14.89 -10.34 1.29
14.88 -9.89 1.27
14.86 -9.46 1.25
14.79 -9.00 1.22
14.77 -8.59 1.21
14.74 -8.18 1.19
14.72 -7.79 1.17
14.63 -7.37 1.15
14.67 -7.02 1.14
14.71 -6.68 1.14
14.74 -6.34 1.13
14.79 -6.02 1.12
14.99 -5.75 1.13
15.14 -5.46 1.13
15.30 -5.17 1.13
15.45 -4.88 1.13
15.61 -4.59 1.14
15.77 -4.29 1.14
15.93 -3.99 1.15
16.09 -3.69 1.15
16.25 -3.39 1.16
15.89 -2.98 1.13
15.01 -2.51 1.06
15.16 -2.22 1.07
15.32 -1.93 1.07
15.47 -1.63 1.08
15.63 -1.33 1.09
15.80 -1.03 1.10
15.96 -0.72 1.11
16.13 -0.40 1.12
16.30 -0.08 1.13
16.48 0.25 1.14
16.66 0.59 1.15
16.84 0.93 1.17
17.03 1.29 1.18
17.22 1.65 1.20
17.42 2.02 1.21
17.63 2.40 1.23
17.84 2.80 1.25
18.05 3.21 1.27
18.28 3.62 1.29
18.51 4.06 1.31
18.75 4.51 1.33
18.99 4.97 1.35
19.25 5.45 1.38
19.52 5.95 1.41
32.97 10.79 2.39
32.75 11.45 2.39
32.52 12.10 2.39
32.27 12.75 2.39
32.01 13.40 2.39
31.73 14.04 2.39
31.44 14.67 2.39
31.14 15.30 2.39
30.82 15.92 2.39
30.49 16.53 2.39
30.15 17.14 2.39
29.80 17.74 2.39
29.43 18.33 2.39
29.05 18.91 2.39
28.66 19.48 2.39
28.25 20.05 2.39
26.82 19.86 2.31
26.33 20.33 2.30
26.31 21.16 2.33
25.55 21.41 2.31
22.59 19.71 2.07
22.36 20.32 2.09
22.34 21.13 2.13
22.31 21.97 2.17
22.27 22.83 2.21
22.25 23.74 2.26
22.21 24.68 2.30
22.18 25.66 2.36
22.00 26.51 2.39
21.45 26.93 2.39
20.89 27.33 2.39
20.32 27.73 2.39
19.75 28.11 2.39
19.17 28.48 2.39
18.58 28.84 2.39
17.99 29.19 2.39
17.38 29.52 2.39
16.77 29.84 2.39
16.16 30.15 2.39
12.54 24.56 1.93
11.99 24.71 1.92
14.28 30.99 2.39
12.32 28.22 2.16
13.00 31.48 2.39
12.31 31.60 2.38
11.71 31.92 2.39
11.06 32.12 2.39
10.40 32.31 2.39
9.74 32.48 2.39
9.08 32.64 2.39
8.41 32.78 2.39
7.74 32.91 2.39
7.07 33.02 2.39
6.35 32.86 2.37
4.51 26.15 1.88
3.98 26.21 1.88
3.50 26.61 1.91
3.51 31.57 2.26
3.03 33.39 2.39
2.36 33.40 2.39
1.69 33.41 2.39
0.96 31.50 2.25
0.36 34.81 2.49
-0.34 34.77 2.49
-1.04 34.72 2.49
-1.73 34.65 2.49
-2.42 34.57 2.49
-3.11 34.48 2.49
-3.80 34.37 2.49
-4.48 34.24 2.49
-5.16 34.11 2.49
-5.84 33.96 2.49
-6.51 33.79 2.49
-7.18 33.62 2.49
-7.52 32.04 2.39
-8.15 31.85 2.39
-8.78 31.64 2.39
-9.40 31.42 2.39
-10.02 31.19 2.39
-10.63 30.94 2.39
-11.23 30.69 2.39
-12.13 31.18 2.45
-12.36 29.98 2.38
-12.45 28.55 2.29
-12.59 27.36 2.21
-13.04 26.90 2.20
-13.32 26.13 2.16
-13.61 25.42 2.13
-13.87 24.70 2.09
-13.99 23.79 2.04
-14.10 22.92 1.99
-14.22 22.10 1.95
-14.31 21.29 1.90
-14.38 20.49 1.86
-14.49 19.78 1.82
-14.55 19.06 1.79
-14.56 18.29 1.74
-14.56 17.56 1.70
-14.61 16.92 1.67
-14.60 16.24 1.63
-14.58 15.57 1.60
-14.57 14.95 1.56
-14.51 14.31 1.53
-14.45 13.68 1.49
-14.37 13.07 1.46
-14.19 12.39 1.42
-13.90 11.66 1.37
-13.58 10.93 1.32
-13.43 10.37 1.28
-13.28 9.84 1.25
-13.13 9.33 1.22
-12.99 8.84 1.19
-12.92 8.42 1.17
-12.87 8.02 1.15
-12.79 7.62 1.13
-12.71 7.23 1.11
-12.62 6.85 1.09
-12.57 6.50 1.08
-12.55 6.17 1.07
-12.52 5.85 1.05
-12.51 5.54 1.04
-12.50 5.24 1.04
-12.50 4.94 1.03
-12.50 4.66 1.02
-12.46 4.36 1.01
-12.41 4.06 1.00
-12.37 3.78 0.99
-12.33 3.50 0.98
-12.30 3.22 0.98
-12.27 2.95 0.97
-12.24 2.69 0.96
-12.22 2.43 0.96
-12.21 2.17 0.95
-12.20 1.92 0.95
-12.19 1.66 0.95
-12.17 1.41 0.95
-12.15 1.16 0.94
-12.12 0.92 0.94
-12.09 0.67 0.94
-12.08 0.43 0.93
-12.07 0.18 0.93
-12.07 -0.06 0.93
-12.06 -0.30 0.93
-12.06 -0.54 0.93
-12.05 -0.79 0.94
-12.05 -1.03 0.94
-12.05 -1.27 0.94
-12.05 -1.52 0.94
-12.04 -1.76 0.94
-12.03 -2.01 0.95
-12.03 -2.26 0.95
-12.02 -2.51 0.95
-12.01 -2.76 0.96
-12.02 -3.02 0.96
-12.03 -3.28 0.97
-12.03 -3.54 0.97
-12.02 -3.80 0.98
-12.00 -4.06 0.98
-11.99 -4.33 0.99
-11.98 -4.60 1.00
-11.96 -4.87 1.00
-11.94 -5.14 1.01
-11.92 -5.42 1.02
-11.94 -5.72 1.03
-11.98 -6.04 1.04
-12.02 -6.36 1.06
-12.05 -6.69 1.07
-12.08 -7.03 1.09
-12.11 -7.37 1.10
-12.12 -7.72 1.12
-12.13 -8.07 1.13
-12.13 -8.43 1.15
-12.13 -8.80 1.16
-12.13 -9.17 1.18
-12.13 -9.56 1.20
-12.11 -9.94 1.21
-12.08 -10.33 1.23
-12.05 -10.74 1.25
-12.02 -11.15 1.27
-11.99 -11.58 1.29
-11.95 -12.01 1.31
-11.90 -12.45 1.33
-11.86 -12.92 1.35
-11.82 -13.40 1.38
-11.79 -13.93 1.41
-11.77 -14.49 1.44
-11.75 -15.07 1.47
-11.73 -15.69 1.51
-11.77 -16.42 1.56
-11.90 -17.32 1.62
-11.91 -18.10 1.67
-11.90 -18.89 1.72
-11.96 -19.87 1.78
-11.84 -20.59 1.82
-11.76 -21.45 1.88
-11.60 -22.20 1.92
-11.39 -22.90 1.96
-11.18 -23.66 2.00
-11.05 -24.65 2.07
-10.88 -25.64 2.13
-10.66 -26.60 2.19
-10.43 -27.62 2.25
-10.23 -28.82 2.33
-9.99 -30.04 2.41
-9.98 -32.18 2.56
-8.71 -30.21 2.39
-8.11 -30.41 2.39
-7.45 -30.38 2.37
-6.85 -30.55 2.37
-6.29 -30.93 2.39
-5.67 -31.08 2.39
-5.19 -32.08 2.46
-4.62 -32.70 2.49
-3.96 -32.82 2.49
-3.31 -32.92 2.49
-2.65 -33.02 2.49
-1.09 -18.09 1.36
-0.72 -18.07 1.36
-0.36 -18.06 1.36
0.01 -17.86 1.74
0.37 -17.84 1.74
0.75 -18.55 1.81
1.55 -25.55 2.49
2.07 -25.54 2.49
2.58 -25.51 2.49
2.97 -24.42 2.39
3.46 -24.38 2.39
3.95 -24.33 2.39
4.44 -24.26 2.39
4.93 -24.19 2.39
5.42 -24.11 2.39
2.56 -10.38 1.03
6.40 -23.92 2.39
6.89 -23.84 2.39
7.38 -23.72 2.39
7.86 -23.58 2.39
8.34 -23.44 2.39
8.81 -23.29 2.39
9.29 -23.13 2.39
9.76 -22.96 2.39
10.23 -22.78 2.39
10.69 -22.59 2.39
11.15 -22.39 2.39
11.61 -22.19 2.39
12.07 -21.97 2.39
12.52 -21.74 2.39
12.96 -21.50 2.39
13.40 -21.26 2.39
13.84 -21.01 2.39
14.27 -20.74 2.39
14.70 -20.47 2.39
15.12 -20.19 2.39
15.40 -19.73 2.37
15.38 -18.91 2.31
15.30 -18.05 2.24
15.28 -17.32 2.18
15.20 -16.55 2.12
15.20 -15.89 2.08
15.20 -15.27 2.03
15.15 -14.62 1.98
15.16 -14.05 1.95
15.10 -13.44 1.90
15.09 -12.89 1.87
15.07 -12.37 1.83
14.99 -11.81 1.79
14.98 -11.31 1.76
14.96 -10.84 1.73
14.89 -10.34 1.70
14.88 -9.89 1.67
14.86 -9.46 1.65
14.79 -9.00 1.62
14.77 -8.58 1.59
14.74 -8.18 1.57
14.72 -7.79 1.55
14.63 -7.37 1.53
14.67 -7.02 1.51
14.71 -6.68 1.50
14.74 -6.34 1.49
14.80 -6.02 1.48
14.99 -5.75 1.49
15.14 -5.46 1.49
15.30 -5.17 1.50
15.45 -4.88 1.50
15.61 -4.59 1.51
15.77 -4.29 1.51
15.93 -3.99 1.52
16.09 -3.69 1.53
16.25 -3.39 1.53
15.88 -2.98 1.49
15.01 -2.51 1.40
15.16 -2.22 1.41
15.32 -1.93 1.42
15.47 -1.63 1.43
15.63 -1.33 1.45
15.80 -1.03 1.46
15.96 -0.72 1.47
16.13 -0.40 1.48
16.30 -0.08 1.50
16.48 0.25 1.52
16.66 0.59 1.53
16.84 0.93 1.55
17.03 1.29 1.57
17.22 1.65 1.59
17.42 2.02 1.61
17.63 2.40 1.63
17.84 2.80 1.66
18.05 3.21 1.68
18.28 3.62 1.71
18.51 4.06 1.74
18.75 4.51 1.77
18.99 4.97 1.80
19.25 5.45 1.83
19.52 5.95 1.87
24.82 8.12 2.39
24.65 8.62 2.39
24.48 9.11 2.39
24.29 9.60 2.39
24.09 10.08 2.39
23.88 10.57 2.39
23.67 11.04 2.39
23.44 11.51 2.39
23.20 11.98 2.39
22.95 12.44 2.39
22.70 12.90 2.39
22.43 13.35 2.39
22.15 13.80 2.39
21.87 14.24 2.39
21.58 14.67 2.39
21.27 15.10 2.39
20.96 15.52 2.39
20.64 15.93 2.39
20.31 16.34 2.39
19.97 16.74 2.39
19.63 17.13 2.39
19.27 17.51 2.39
18.91 17.89 2.39
18.54 18.26 2.39
18.17 18.62 2.39
17.78 18.98 2.39
17.39 19.32 2.39
16.99 19.66 2.39
16.59 19.99 2.39
16.18 20.30 2.39
15.76 20.62 2.39
15.33 20.92 2.39
14.90 21.21 2.39
14.47 21.49 2.39
14.02 21.77 2.39
12.79 20.75 2.25
12.21 20.73 2.23
12.67 22.53 2.39
12.21 22.77 2.39
11.74 23.00 2.39
11.27 23.21 2.39
10.79 23.42 2.39
10.32 23.62 2.39
9.83 23.80 2.39
9.35 23.98 2.39
8.86 24.15 2.39
8.37 24.30 2.39
7.87 24.45 2.39
7.37 24.58 2.39
6.87 24.71 2.39
6.37 24.82 2.39
5.87 24.93 2.39
5.36 25.02 2.39
4.85 25.07 2.39
3.84 22.24 2.11
3.83 25.21 2.39
3.32 25.26 2.39
2.81 25.30 2.39
2.30 25.33 2.39
1.79 25.35 2.39
1.28 25.36 2.39
0.81 26.45 2.49
0.28 26.44 2.49
-0.25 26.42 2.49
-0.78 26.39 2.49
-1.31 26.34 2.49
-1.84 26.29 2.49
-2.36 26.22 2.49
-2.89 26.15 2.49
-3.41 26.06 2.49
-3.93 25.96 2.49
-4.44 25.86 2.49
-4.96 25.74 2.49
-5.47 25.61 2.49
-5.98 25.47 2.49
-6.48 25.32 2.49
-6.98 25.17 2.49
-7.17 23.96 2.39
-7.64 23.79 2.39
-8.11 23.61 2.39
-8.57 23.42 2.39
-9.03 23.23 2.39
-9.49 23.02 2.39
-9.94 22.80 2.39
-10.39 22.58 2.39
-10.83 22.34 2.39
-11.55 22.66 2.45
-11.95 22.33 2.44
-12.32 21.95 2.43
-12.66 21.54 2.41
-12.90 20.96 2.38
-13.11 20.38 2.35
-13.36 19.88 2.32
-13.64 19.44 2.30
-13.91 19.01 2.29
-14.02 18.36 2.24
-14.03 17.64 2.19
-14.04 16.94 2.14
-14.05 16.27 2.09
-14.04 15.61 2.05
-14.03 14.99 2.00
-13.99 14.36 1.96
-13.94 13.74 1.91
-13.88 13.15 1.87
-13.74 12.50 1.82
-13.37 11.68 1.74
-13.04 10.93 1.67
-12.92 10.40 1.63
-12.88 9.95 1.60
-12.75 9.45 1.56
-12.62 8.97 1.52
-12.54 8.54 1.49
-12.50 8.15 1.47
-12.46 7.77 1.45
-12.41 7.39 1.42
-12.33 7.01 1.40
-12.26 6.65 1.38
-12.24 6.33 1.36
-12.22 6.01 1.35
-12.20 5.70 1.33
-12.18 5.39 1.32
-12.18 5.10 1.31
-12.18 4.82 1.30
-12.16 4.53 1.29
-12.12 4.24 1.27
-12.08 3.96 1.26
-12.05 3.68 1.25
-12.01 3.41 1.24
-11.98 3.14 1.23
-11.95 2.87 1.22
-11.92 2.62 1.22
-11.91 2.36 1.21
-11.90 2.11 1.21
-11.89 1.87 1.20
-11.88 1.62 1.20
-11.87 1.38 1.19
-11.85 1.14 1.19
-11.83 0.89 1.19
-11.80 0.65 1.18
-11.80 0.42 1.18
-11.79 0.18 1.18
-11.79 -0.06 1.18
-11.78 -0.29 1.18
-11.77 -0.53 1.18
-11.77 -0.77 1.18
-11.76 -1.00 1.18
-11.76 -1.24 1.18
-11.76 -1.48 1.19
-11.75 -1.72 1.19
-11.74 -1.96 1.19
-11.73 -2.20 1.20
-11.72 -2.45 1.20
-11.71 -2.69 1.21
-11.70 -2.94 1.21
-11.70 -3.19 1.22
-11.71 -3.44 1.22
-11.69 -3.70 1.23
-11.68 -3.95 1.24
-11.67 -4.21 1.24
-11.65 -4.47 1.25
-11.64 -4.73 1.26
-11.62 -5.00 1.27
-11.60 -5.27 1.28
-11.59 -5.55 1.29
-11.62 -5.86 1.31
-11.65 -6.17 1.32
-11.69 -6.49 1.34
-11.72 -6.82 1.36
-11.75 -7.15 1.38
-11.77 -7.50 1.40
-11.77 -7.83 1.42
-11.77 -8.18 1.44
-11.76 -8.53 1.46
-11.76 -8.89 1.48
-11.76 -9.27 1.50
-11.74 -9.65 1.52
-11.71 -10.02 1.54
-11.68 -10.41 1.57
-11.64 -10.80 1.59
-11.61 -11.21 1.61
-11.57 -11.63 1.64
-11.52 -12.05 1.67
-11.46 -12.49 1.69
-11.40 -12.94 1.72
-11.35 -13.41 1.75
-11.32 -13.93 1.79
-11.29 -14.48 1.83
-11.26 -15.05 1.88
-11.23 -15.66 1.92
-11.25 -16.37 1.98
-11.27 -17.13 2.04
-11.30 -17.96 2.11
-11.21 -18.62 2.16
-11.12 -19.35 2.22
-11.05 -20.15 2.28
-10.90 -20.85 2.34
-10.74 -21.59 2.39
-10.50 -22.22 2.44
-10.13 -22.60 2.46
-9.42 -22.21 2.39
-8.98 -22.40 2.39
-8.53 -22.59 2.39
-8.08 -22.78 2.39
-7.63 -22.95 2.39
-7.17 -23.11 2.39
-6.71 -23.27 2.39
-6.24 -23.42 2.39
-5.78 -23.55 2.39
-5.43 -24.24 2.45
-5.04 -24.83 2.49
-4.55 -24.94 2.49
-4.05 -25.05 2.49
-3.55 -25.14 2.49
-3.04 -25.23 2.49
-2.54 -25.30 2.49
-2.03 -25.37 2.49
-1.07 -17.89 1.76
-0.71 -17.88 1.75
-0.35 -17.87 1.75
0.01 -17.85 2.15
0.37 -17.84 2.15
0.74 -18.28 2.20
1.26 -20.71 2.49
1.68 -20.69 2.49
2.09 -20.67 2.49
2.48 -20.40 2.47
2.80 -19.75 2.39
3.20 -19.70 2.39
3.60 -19.65 2.39
4.00 -19.58 2.39
4.39 -19.51 2.39
2.56 -10.39 1.28
5.18 -19.35 2.39
5.57 -19.26 2.39
5.96 -19.16 2.39
6.35 -19.05 2.39
6.74 -18.95 2.39
7.13 -18.83 2.39
7.51 -18.70 2.39
7.89 -18.55 2.39
8.27 -18.41 2.39
8.64 -18.25 2.39
9.01 -18.09 2.39
9.38 -17.92 2.39
9.74 -17.74 2.39
10.11 -17.55 2.39
10.46 -17.36 2.39
10.82 -17.16 2.39
11.17 -16.95 2.39
11.51 -16.73 2.39
11.86 -16.51 2.39
12.19 -16.28 2.39
12.53 -16.04 2.39
12.86 -15.80 2.39
13.18 -15.55 2.39
13.50 -15.29 2.39
13.81 -15.03 2.39
14.12 -14.76 2.39
14.43 -14.48 2.39
14.72 -14.20 2.39
15.02 -13.91 2.39
15.10 -13.44 2.36
15.09 -12.89 2.32
15.07 -12.36 2.27
14.99 -11.81 2.23
14.98 -11.31 2.19
14.96 -10.84 2.15
14.89 -10.34 2.11
14.88 -9.89 2.08
14.86 -9.46 2.05
14.79 -9.00 2.01
14.77 -8.58 1.98
14.74 -8.18 1.96
14.72 -7.79 1.93
14.63 -7.36 1.90
14.67 -7.02 1.88
14.71 -6.68 1.87
14.74 -6.34 1.86
14.80 -6.02 1.85
14.99 -5.75 1.86
15.14 -5.46 1.86
15.30 -5.17 1.86
15.45 -4.88 1.87
15.61 -4.59 1.88
15.77 -4.29 1.88
15.93 -3.99 1.89
16.09 -3.69 1.90
16.25 -3.39 1.91
15.88 -2.98 1.86
15.01 -2.50 1.75
15.16 -2.22 1.76
15.32 -1.93 1.77
15.47 -1.63 1.79
15.63 -1.33 1.80
15.80 -1.03 1.82
15.96 -0.72 1.83
16.13 -0.40 1.85
16.30 -0.08 1.87
16.48 0.25 1.89
16.66 0.59 1.91
16.84 0.93 1.93
17.03 1.29 1.96
17.22 1.65 1.98
17.42 2.02 2.01
17.63 2.41 2.04
17.84 2.80 2.07
18.05 3.21 2.10
18.28 3.63 2.13
18.51 4.06 2.17
18.75 4.51 2.21
18.99 4.97 2.25
19.25 5.45 2.29
19.52 5.96 2.33
19.88 6.50 2.39
19.75 6.90 2.39
19.61 7.30 2.39
19.46 7.69 2.39
19.30 8.08 2.39
19.13 8.46 2.39
18.96 8.85 2.39
18.78 9.22 2.39
18.59 9.60 2.39
18.39 9.97 2.39
18.18 10.33 2.39
17.97 10.70 2.39
17.75 11.05 2.39
17.52 11.41 2.39
17.29 11.75 2.39
17.04 12.10 2.39
16.80 12.43 2.39
16.54 12.76 2.39
16.28 13.09 2.39
16.01 13.41 2.39
15.73 13.73 2.39
15.45 14.04 2.39
15.16 14.34 2.39
14.86 14.64 2.39
14.56 14.93 2.39
14.26 15.21 2.39
13.94 15.49 2.39
13.63 15.76 2.39
13.30 16.03 2.39
12.97 16.28 2.39
12.64 16.53 2.39
12.30 16.78 2.39
11.96 17.01 2.39
11.61 17.24 2.39
11.25 17.47 2.39
10.90 17.68 2.39
10.54 17.89 2.39
10.17 18.09 2.39
9.80 18.28 2.39
9.43 18.46 2.39
9.05 18.64 2.39
8.67 18.81 2.39
8.29 18.97 2.39
7.90 19.12 2.39
7.51 19.26 2.39
7.12 19.40 2.39
6.72 19.53 2.39
6.33 19.65 2.39
5.93 19.76 2.39
5.53 19.86 2.39
5.12 19.93 2.39
4.71 20.02 2.39
4.31 20.10 2.39
3.90 20.17 2.39
3.49 20.23 2.39
3.09 20.28 2.39
2.68 20.33 2.39
2.27 20.36 2.39
1.86 20.39 2.39
1.45 20.41 2.39
1.07 21.07 2.47
0.65 21.30 2.49
0.22 21.30 2.49
-0.20 21.28 2.49
-0.63 21.26 2.49
-1.06 21.23 2.49
-1.48 21.19 2.49
-1.90 21.14 2.49
-2.33 21.08 2.49
-2.75 21.02 2.49
-3.17 20.94 2.49
-3.58 20.86 2.49
-4.00 20.77 2.49
-4.41 20.67 2.49
-4.82 20.56 2.49
-5.23 20.44 2.49
-5.63 20.32 2.49
-6.04 20.19 2.49
-6.44 20.05 2.49
-6.83 19.90 2.49
-6.93 18.93 2.39
-7.30 18.77 2.39
-7.67 18.61 2.39
-8.03 18.43 2.39
-8.40 18.26 2.39
-8.75 18.07 2.39
-9.11 17.88 2.39
-9.46 17.68 2.39
-9.80 17.47 2.39
-10.15 17.26 2.39
-10.48 17.04 2.39
-10.81 16.81 2.39
-12.28 18.27 2.63
-12.48 17.78 2.60
-12.63 17.26 2.56
-12.76 16.71 2.52
-12.90 16.22 2.49
-13.00 15.69 2.45
-13.03 15.10 2.40
-13.06 14.53 2.35
-13.07 13.97 2.30
-13.01 13.36 2.25
-12.96 12.78 2.19
-12.95 12.26 2.15
-12.82 11.66 2.09
-12.51 10.93 2.01
-12.42 10.42 1.96
-12.39 9.98 1.92
-12.36 9.55 1.89
-12.26 9.09 1.85
-12.17 8.65 1.81
-12.14 8.26 1.78
-12.11 7.89 1.75
-12.08 7.53 1.73
-12.04 7.18 1.70
-11.97 6.81 1.67
-11.94 6.48 1.65
-11.93 6.17 1.63
-11.91 5.86 1.62
-11.89 5.56 1.60
-11.88 5.26 1.58
-11.86 4.97 1.57
-11.87 4.70 1.56
-11.84 4.41 1.54
-11.80 4.13 1.53
-11.77 3.85 1.51
-11.74 3.58 1.50
-11.70 3.32 1.49
-11.67 3.06 1.48
-11.64 2.80 1.46
-11.62 2.55 1.46
-11.61 2.31 1.45
-11.60 2.06 1.44
-11.59 1.82 1.44
-11.58 1.58 1.43
-11.57 1.34 1.43
-11.56 1.11 1.42
-11.55 0.87 1.42
-11.53 0.64 1.42
-11.52 0.41 1.42
-11.52 0.18 1.42
-11.51 -0.06 1.41
-11.51 -0.29 1.41
-11.50 -0.52 1.42
-11.50 -0.75 1.42
-11.49 -0.98 1.42
-11.48 -1.21 1.42
-11.48 -1.45 1.42
-11.47 -1.68 1.43
-11.46 -1.91 1.43
-11.45 -2.15 1.43
-11.44 -2.39 1.44
-11.43 -2.62 1.44
-11.42 -2.86 1.45
-11.40 -3.11 1.46
-11.40 -3.35 1.46
-11.39 -3.60 1.47
-11.37 -3.85 1.48
-11.36 -4.10 1.49
-11.34 -4.35 1.50
-11.32 -4.61 1.51
-11.31 -4.87 1.52
-11.29 -5.13 1.53
-11.27 -5.40 1.54
-11.28 -5.68 1.56
-11.31 -5.99 1.58
-11.34 -6.30 1.60
-11.37 -6.61 1.62
-11.39 -6.94 1.64
-11.42 -7.27 1.67
-11.43 -7.61 1.69
-11.42 -7.94 1.71
-11.41 -8.28 1.74
-11.41 -8.63 1.76
-11.40 -8.99 1.79
-11.39 -9.36 1.81
-11.36 -9.72 1.84
-11.33 -10.09 1.87
-11.29 -10.47 1.89
-11.25 -10.86 1.92
-11.21 -11.27 1.95
-11.16 -11.68 1.98
-11.10 -12.09 2.01
-11.04 -12.52 2.05
-10.97 -12.96 2.08
-10.90 -13.42 2.12
-10.85 -13.92 2.16
-10.78 -14.41 2.21
-10.70 -14.92 2.25
-10.61 -15.44 2.29
-10.58 -16.08 2.36
-10.72 -17.02 2.46
-10.71 -17.80 2.54
-10.47 -18.22 2.57
-9.41 -17.15 2.39
-9.06 -17.35 2.39
-8.72 -17.53 2.39
-8.37 -17.71 2.39
-8.01 -17.89 2.39
-7.66 -18.05 2.39
-7.30 -18.21 2.39
-6.93 -18.37 2.39
-6.57 -18.51 2.39
-6.20 -18.65 2.39
-5.84 -18.82 2.40
-5.60 -19.44 2.46
-5.29 -19.84 2.49
-4.89 -19.96 2.49
-4.49 -20.06 2.49
-4.09 -20.16 2.49
-3.69 -20.25 2.49
-3.28 -20.33 2.49
-2.88 -20.41 2.49
-2.47 -20.47 2.49
-2.06 -20.53 2.49
-1.48 -18.54 2.25
-1.07 -17.89 2.16
-0.71 -17.88 2.16
-0.35 -17.86 2.15
0.01 -17.39 2.49
0.36 -17.40 2.49
0.71 -17.40 2.49
1.06 -17.39 2.49
1.41 -17.38 2.49
1.76 -17.36 2.49
2.11 -17.33 2.49
2.36 -16.62 2.40
2.69 -16.54 2.39
3.02 -16.49 2.39
3.35 -16.44 2.39
3.69 -16.38 2.39
2.54 -10.32 1.51
4.35 -16.23 2.39
4.67 -16.15 2.39
5.00 -16.07 2.39
5.33 -15.97 2.39
5.65 -15.87 2.39
5.97 -15.77 2.39
6.29 -15.65 2.39
6.61 -15.55 2.39
6.93 -15.43 2.39
7.24 -15.30 2.39
7.55 -15.16 2.39
7.86 -15.01 2.39
8.17 -14.86 2.39
8.47 -14.70 2.39
8.77 -14.54 2.39
9.06 -14.37 2.39
9.35 -14.19 2.39
9.64 -14.01 2.39
9.93 -13.82 2.39
10.21 -13.63 2.39
10.49 -13.43 2.39
10.76 -13.22 2.39
11.03 -13.01 2.39
11.30 -12.80 2.39
11.56 -12.57 2.39
11.82 -12.35 2.39
12.07 -12.11 2.39
12.32 -11.88 2.39
12.56 -11.63 2.39
12.80 -11.39 2.39
13.03 -11.13 2.39
13.26 -10.88 2.39
13.48 -10.61 2.39
13.70 -10.35 2.39
13.91 -10.08 2.39
14.12 -9.80 2.39
14.32 -9.52 2.39
14.52 -9.23 2.39
14.71 -8.95 2.39
14.77 -8.58 2.37
14.74 -8.18 2.34
14.72 -7.78 2.31
14.63 -7.36 2.27
14.67 -7.02 2.26
14.71 -6.68 2.24
14.74 -6.34 2.22
14.81 -6.02 2.21
14.99 -5.75 2.22
15.15 -5.46 2.23
15.30 -5.17 2.23
15.45 -4.88 2.24
15.61 -4.59 2.25
15.77 -4.29 2.26
15.93 -3.99 2.27
16.09 -3.69 2.28
16.25 -3.39 2.29
15.88 -2.98 2.23
15.01 -2.50 2.10
15.16 -2.22 2.11
15.32 -1.93 2.13
15.48 -1.63 2.14
15.63 -1.33 2.16
15.80 -1.03 2.18
15.96 -0.72 2.20
16.13 -0.40 2.22
16.30 -0.08 2.24
16.48 0.25 2.27
16.66 0.59 2.29
16.84 0.93 2.32
17.03 1.29 2.35
17.22 1.65 2.38
17.30 2.01 2.39
17.26 2.36 2.39
17.21 2.70 2.39
17.15 3.05 2.39
17.09 3.39 2.39
17.02 3.73 2.39
16.94 4.07 2.39
16.86 4.41 2.39
16.77 4.75 2.39
16.67 5.09 2.39
16.57 5.42 2.39
16.46 5.75 2.39
16.34 6.08 2.39
16.21 6.41 2.39
16.08 6.73 2.39
15.94 7.05 2.39
15.80 7.37 2.39
15.65 7.69 2.39
15.49 8.00 2.39
15.32 8.31 2.39
15.15 8.61 2.39
14.98 8.91 2.39
14.79 9.21 2.39
14.60 9.51 2.39
14.41 9.80 2.39
14.21 10.08 2.39
14.00 10.36 2.39
13.79 10.64 2.39
13.57 10.91 2.39
13.34 11.18 2.39
13.11 11.44 2.39
12.88 11.70 2.39
12.64 11.95 2.39
12.39 12.20 2.39
12.14 12.45 2.39
11.89 12.68 2.39
11.63 12.92 2.39
11.36 13.14 2.39
11.09 13.36 2.39
10.82 13.58 2.39
10.54 13.79 2.39
10.26 13.99 2.39
9.97 14.19 2.39
9.68 14.38 2.39
9.39 14.57 2.39
9.09 14.75 2.39
8.79 14.92 2.39
8.49 15.09 2.39
8.18 15.25 2.39
7.87 15.41 2.39
7.55 15.56 2.39
7.24 15.70 2.39
6.92 15.83 2.39
6.60 15.96 2.39
6.27 16.08 2.39
5.94 16.20 2.39
5.62 16.31 2.39
5.29 16.41 2.39
4.95 16.48 2.39
4.61 16.57 2.39
4.28 16.65 2.39
3.94 16.73 2.39
3.60 16.79 2.39
3.26 16.85 2.39
2.92 16.91 2.39
2.58 16.95 2.39
2.24 16.99 2.39
1.90 17.02 2.39
1.55 17.05 2.39
1.21 17.10 2.40
0.90 17.81 2.49
0.55 17.82 2.49
0.19 17.82 2.49
-0.17 17.81 2.49
-0.53 17.79 2.49
-0.88 17.76 2.49
-1.24 17.73 2.49
-1.59 17.69 2.49
-1.95 17.65 2.49
-2.30 17.59 2.49
-2.65 17.53 2.49
-3.00 17.46 2.49
-3.35 17.39 2.49
-3.69 17.31 2.49
-4.04 17.22 2.49
-4.38 17.13 2.49
-4.72 17.02 2.49
-5.06 16.92 2.49
-5.39 16.80 2.49
-5.72 16.68 2.49
-6.05 16.55 2.49
-6.38 16.41 2.49
-6.70 16.27 2.49
-6.80 15.62 2.42
-7.04 15.31 2.39
-7.34 15.16 2.39
-7.64 15.00 2.39
-7.93 14.83 2.39
-8.22 14.66 2.39
-8.51 14.48 2.39
-8.79 14.30 2.39
-9.07 14.11 2.39
-9.35 13.92 2.39
-9.62 13.72 2.39
-9.89 13.51 2.39
-10.15 13.31 2.39
-10.41 13.09 2.39
-10.67 12.87 2.39
-12.01 13.92 2.63
-12.06 13.42 2.58
-12.07 12.90 2.53
-12.08 12.40 2.48
-12.09 11.92 2.43
-12.09 11.46 2.39
-12.00 10.92 2.33
-11.93 10.43 2.28
-11.91 10.00 2.24
-11.89 9.58 2.20
-11.87 9.18 2.16
-11.81 8.76 2.12
-11.79 8.38 2.08
-11.76 8.01 2.05
-11.74 7.65 2.02
-11.71 7.30 1.99
-11.68 6.96 1.96
-11.65 6.63 1.94
-11.64 6.32 1.91
-11.63 6.01 1.89
-11.61 5.71 1.87
-11.60 5.42 1.85
-11.59 5.13 1.83
-11.57 4.85 1.82
-11.56 4.57 1.80
-11.53 4.30 1.78
-11.50 4.02 1.77
-11.47 3.76 1.75
-11.43 3.49 1.73
-11.40 3.23 1.72
-11.36 2.98 1.70
-11.32 2.72 1.69
-11.31 2.48 1.68
-11.30 2.24 1.68
-11.29 2.01 1.67
-11.29 1.77 1.66
-11.28 1.54 1.66
-11.27 1.31 1.65
-11.26 1.08 1.65
-11.25 0.85 1.64
-11.23 0.62 1.64
-11.22 0.40 1.64
-11.22 0.17 1.64
-11.22 -0.05 1.64
-11.21 -0.28 1.64
-11.21 -0.50 1.64
-11.20 -0.73 1.64
-11.19 -0.96 1.64
-11.18 -1.18 1.64
-11.17 -1.41 1.64
-11.16 -1.63 1.65
-11.15 -1.86 1.65
-11.14 -2.09 1.65
-11.12 -2.32 1.66
-11.11 -2.55 1.66
-11.10 -2.78 1.67
-11.08 -3.02 1.68
-11.06 -3.25 1.68
-11.04 -3.49 1.69
-11.02 -3.73 1.70
-11.00 -3.97 1.71
-10.98 -4.21 1.72
-10.96 -4.46 1.73
-10.93 -4.71 1.74
-10.91 -4.96 1.75
-10.88 -5.21 1.76
-10.85 -5.47 1.78
-10.81 -5.72 1.79
-10.85 -6.02 1.81
-10.92 -6.35 1.84
-10.98 -6.69 1.88
-11.05 -7.04 1.91
-11.10 -7.39 1.95
-11.10 -7.71 1.97
-11.08 -8.04 2.00
-11.07 -8.37 2.03
-11.06 -8.72 2.06
-11.05 -9.07 2.09
-11.03 -9.44 2.12
-10.99 -9.79 2.15
-10.89 -10.10 2.17
-10.78 -10.41 2.19
-10.67 -10.73 2.21
-10.56 -11.05 2.23
-10.44 -11.38 2.25
-10.33 -11.72 2.27
-10.22 -12.08 2.30
-10.09 -12.43 2.33
-9.95 -12.76 2.35
-9.79 -13.10 2.38
-9.58 -13.36 2.39
-9.31 -13.55 2.39
-9.04 -13.74 2.39
-8.76 -13.93 2.39
-8.49 -14.10 2.39
-8.20 -14.28 2.39
-7.92 -14.44 2.39
-7.63 -14.61 2.39
-7.34 -14.76 2.39
-7.04 -14.91 2.39
-6.74 -15.06 2.39
-6.44 -15.20 2.39
-6.14 -15.33 2.39
-5.83 -15.46 2.39
-5.72 -16.12 2.47
-5.44 -16.37 2.49
-5.11 -16.48 2.49
-4.78 -16.59 2.49
-4.45 -16.69 2.49
-4.11 -16.79 2.49
-3.78 -16.87 2.49
-3.44 -16.95 2.49
-3.10 -17.03 2.49
-2.76 -17.10 2.49
-2.42 -17.16 2.49
-2.07 -17.21 2.49
-1.73 -17.26 2.49
-1.38 -17.30 2.49
-1.04 -17.33 2.49
-0.69 -17.36 2.49
-0.34 -17.38 2.49
0.01 -14.98 2.49
0.31 -14.99 2.49
0.61 -14.99 2.49
0.91 -14.98 2.49
1.21 -14.97 2.49
1.52 -14.95 2.49
1.82 -14.92 2.49
2.12 -14.89 2.49
2.32 -14.24 2.39
2.60 -14.19 2.39
2.89 -14.15 2.39
3.17 -14.09 2.39
2.54 -10.31 1.76
3.74 -13.97 2.39
4.02 -13.90 2.39
4.30 -13.82 2.39
4.58 -13.74 2.39
4.86 -13.65 2.39
5.14 -13.56 2.39
5.41 -13.46 2.39
5.68 -13.36 2.39
5.95 -13.25 2.39
6.22 -13.13 2.39
6.50 -13.03 2.39
6.76 -12.90 2.39
7.02 -12.77 2.39
7.28 -12.64 2.39
7.54 -12.49 2.39
7.79 -12.35 2.39
8.04 -12.20 2.39
8.29 -12.04 2.39
8.53 -11.88 2.39
8.77 -11.71 2.39
9.01 -11.54 2.39
9.25 -11.36 2.39
9.48 -11.18 2.39
9.70 -10.99 2.39
9.93 -10.80 2.39
10.15 -10.60 2.39
10.36 -10.40 2.39
10.58 -10.20 2.39
10.78 -9.99 2.39
10.99 -9.77 2.39
11.19 -9.56 2.39
11.38 -9.33 2.39
11.57 -9.11 2.39
11.76 -8.88 2.39
11.94 -8.65 2.39
12.12 -8.41 2.39
12.29 -8.17 2.39
12.45 -7.92 2.39
12.62 -7.67 2.39
12.77 -7.42 2.39
12.93 -7.17 2.39
13.07 -6.91 2.39
13.21 -6.65 2.39
13.35 -6.39 2.39
13.48 -6.12 2.39
13.61 -5.85 2.39
13.73 -5.58 2.39
13.84 -5.30 2.39
13.95 -5.03 2.39
14.05 -4.75 2.39
14.15 -4.47 2.39
14.24 -4.18 2.39
14.33 -3.90 2.39
14.41 -3.61 2.39
14.48 -3.32 2.39
14.55 -3.03 2.39
14.61 -2.74 2.39
14.67 -2.45 2.39
14.72 -2.15 2.39
14.76 -1.86 2.39
14.80 -1.56 2.39
14.83 -1.26 2.39
14.86 -0.97 2.39
14.88 -0.67 2.39
14.89 -0.37 2.39
14.90 -0.07 2.39
14.90 0.23 2.39
14.90 0.53 2.39
14.89 0.83 2.39
14.87 1.12 2.39
14.85 1.42 2.39
14.82 1.72 2.39
14.78 2.02 2.39
14.74 2.31 2.39
14.69 2.61 2.39
14.64 2.90 2.39
14.58 3.20 2.39
14.51 3.49 2.39
14.44 3.78 2.39
14.36 4.07 2.39
14.28 4.36 2.39
14.19 4.64 2.39
14.09 4.93 2.39
13.99 5.21 2.39
13.89 5.49 2.39
13.77 5.77 2.39
13.65 6.04 2.39
13.53 6.31 2.39
13.40 6.58 2.39
13.26 6.85 2.39
13.12 7.11 2.39
12.98 7.38 2.39
12.83 7.63 2.39
12.67 7.89 2.39
12.51 8.14 2.39
12.34 8.39 2.39
12.17 8.63 2.39
11.99 8.88 2.39
11.81 9.11 2.39
11.62 9.35 2.39
11.43 9.58 2.39
11.23 9.80 2.39
11.03 10.02 2.39
10.83 10.24 2.39
10.62 10.45 2.39
10.40 10.66 2.39
10.19 10.87 2.39
9.96 11.07 2.39
9.74 11.26 2.39
9.51 11.45 2.39
9.27 11.64 2.39
9.03 11.82 2.39
8.79 11.99 2.39
8.55 12.16 2.39
8.30 12.33 2.39
8.05 12.49 2.39
7.79 12.64 2.39
7.54 12.79 2.39
7.28 12.94 2.39
7.01 13.08 2.39
6.75 13.21 2.39
6.48 13.34 2.39
6.21 13.46 2.39
5.93 13.58 2.39
5.66 13.69 2.39
5.38 13.79 2.39
5.09 13.88 2.39
4.81 13.97 2.39
4.53 14.06 2.39
4.24 14.14 2.39
3.96 14.22 2.39
3.67 14.29 2.39
3.38 14.35 2.39
3.09 14.41 2.39
2.80 14.46 2.39
2.51 14.51 2.39
2.22 14.55 2.39
1.92 14.58 2.39
1.63 14.61 2.39
1.33 14.63 2.39
1.09 15.28 2.49
0.78 15.29 2.49
0.47 15.30 2.49
0.16 15.30 2.49
-0.14 15.29 2.49
-0.45 15.28 2.49
-0.76 15.26 2.49
-1.06 15.23 2.49
-1.37 15.20 2.49
-1.67 15.16 2.49
-1.97 15.11 2.49
-2.27 15.06 2.49
-2.58 15.01 2.49
-2.87 14.95 2.49
-3.17 14.88 2.49
-3.47 14.80 2.49
-3.76 14.72 2.49
-4.05 14.63 2.49
-4.35 14.54 2.49
-4.63 14.44 2.49
-4.92 14.34 2.49
-5.20 14.23 2.49
-5.49 14.12 2.49
-5.77 14.00 2.49
-6.04 13.87 2.49
-6.32 13.74 2.49
-6.59 13.60 2.49
-6.71 13.18 2.44
-6.82 12.76 2.39
-7.08 12.61 2.39
-7.32 12.46 2.39
-7.57 12.31 2.39
-7.81 12.15 2.39
-8.05 11.98 2.39
-8.28 11.81 2.39
-8.51 11.64 2.39
-8.74 11.46 2.39
-8.96 11.27 2.39
-9.18 11.09 2.39
-9.40 10.89 2.39
-9.61 10.70 2.39
-9.82 10.50 2.39
-10.02 10.29 2.39
-10.22 10.08 2.39
-10.42 9.87 2.39
-10.61 9.66 2.39
-11.25 9.83 2.49
-11.24 9.44 2.45
-11.23 9.05 2.41
-11.24 8.69 2.37
-11.27 8.36 2.34
-11.25 8.00 2.31
-11.23 7.64 2.27
-11.20 7.30 2.24
-11.17 6.97 2.20
-11.17 6.66 2.18
-11.20 6.37 2.16
-11.19 6.08 2.13
-11.18 5.78 2.11
-11.17 5.50 2.09
-11.16 5.22 2.07
-11.15 4.94 2.05
-11.14 4.67 2.03
-11.16 4.42 2.02
-11.13 4.15 2.00
-11.10 3.88 1.98
-11.07 3.63 1.96
-11.03 3.37 1.94
-11.00 3.12 1.92
-10.96 2.87 1.91
-10.94 2.63 1.89
-10.94 2.40 1.89
-10.95 2.17 1.88
-10.94 1.95 1.87
-10.93 1.72 1.87
-10.93 1.49 1.86
-10.92 1.27 1.85
-10.91 1.05 1.85
-10.90 0.83 1.84
-10.89 0.60 1.84
-10.87 0.39 1.84
-10.85 0.17 1.83
-10.84 -0.05 1.83
-10.84 -0.27 1.83
-10.83 -0.49 1.83
-10.83 -0.70 1.83
-10.82 -0.92 1.84
-10.81 -1.14 1.84
-10.80 -1.36 1.84
-10.78 -1.58 1.84
-10.76 -1.80 1.84
-10.74 -2.02 1.85
-10.73 -2.24 1.85
-10.72 -2.46 1.86
-10.70 -2.68 1.87
-10.68 -2.91 1.87
-10.67 -3.14 1.88
-10.65 -3.36 1.89
-10.62 -3.59 1.90
-10.60 -3.82 1.91
-10.58 -4.06 1.92
-10.55 -4.29 1.93
-10.52 -4.53 1.94
-10.50 -4.77 1.95
-10.47 -5.01 1.96
-10.44 -5.26 1.98
-10.40 -5.51 1.99
-10.35 -5.75 2.00
-10.31 -6.00 2.02
-10.26 -6.25 2.03
-10.29 -6.56 2.06
-10.34 -6.88 2.10
-10.39 -7.22 2.14
-10.40 -7.54 2.17
-10.31 -7.80 2.19
-10.23 -8.06 2.20
-10.13 -8.33 2.22
-10.09 -8.63 2.24
-10.05 -8.96 2.27
-10.01 -9.29 2.31
-9.94 -9.60 2.33
-9.82 -9.87 2.35
-9.69 -10.15 2.37
-9.57 -10.43 2.39
-9.37 -10.63 2.39
-9.15 -10.82 2.39
-8.94 -11.00 2.39
-8.72 -11.18 2.39
-8.49 -11.36 2.39
-8.27 -11.53 2.39
-8.03 -11.70 2.39
-7.80 -11.86 2.39
-7.56 -12.02 2.39
-7.32 -12.17 2.39
-7.08 -12.32 2.39
-6.83 -12.46 2.39
-6.58 -12.60 2.39
-6.33 -12.74 2.39
-6.07 -12.87 2.39
-5.83 -13.03 2.40
-5.80 -13.67 2.49
-5.52 -13.79 2.49
-5.25 -13.91 2.49
-4.97 -14.02 2.49
-4.69 -14.12 2.49
-4.41 -14.21 2.49
-4.12 -14.31 2.49
-3.83 -14.39 2.49
-3.55 -14.47 2.49
-3.26 -14.55 2.49
-2.97 -14.62 2.49
-2.67 -14.68 2.49
-2.38 -14.74 2.49
-2.08 -14.79 2.49
-1.79 -14.83 2.49
-1.49 -14.87 2.49
-1.19 -14.91 2.49
-0.89 -14.94 2.49
-0.59 -14.96 2.49
-0.29 -14.97 2.49
0.01 -13.15 2.49
0.27 -13.15 2.49
0.54 -13.15 2.49
0.80 -13.14 2.49
1.07 -13.13 2.49
1.33 -13.11 2.49
1.59 -13.09 2.49
1.86 -13.06 2.49
2.12 -13.02 2.49
2.28 -12.45 2.39
2.53 -12.41 2.39
2.78 -12.36 2.39
2.54 -10.31 2.00
3.28 -12.25 2.39
3.53 -12.19 2.39
3.77 -12.12 2.39
4.02 -12.05 2.39
4.26 -11.97 2.39
4.50 -11.89 2.39
4.74 -11.80 2.39
4.98 -11.71 2.39
5.22 -11.61 2.39
5.45 -11.51 2.39
5.69 -11.40 2.39
5.92 -11.29 2.39
6.14 -11.18 2.39
6.38 -11.07 2.39
6.60 -10.95 2.39
6.82 -10.82 2.39
7.04 -10.68 2.39
7.26 -10.54 2.39
7.47 -10.40 2.39
7.68 -10.25 2.39
7.89 -10.10 2.39
8.10 -9.95 2.39
8.30 -9.79 2.39
8.50 -9.62 2.39
8.69 -9.45 2.39
8.88 -9.28 2.39
9.07 -9.10 2.39
9.26 -8.92 2.39
9.44 -8.74 2.39
9.62 -8.55 2.39
9.79 -8.36 2.39
9.96 -8.17 2.39
10.13 -7.97 2.39
10.29 -7.77 2.39
10.45 -7.56 2.39
10.60 -7.36 2.39
10.75 -7.14 2.39
10.90 -6.93 2.39
11.04 -6.71 2.39
11.17 -6.49 2.39
11.31 -6.27 2.39
11.43 -6.04 2.39
11.56 -5.81 2.39
11.68 -5.58 2.39
11.79 -5.35 2.39
11.90 -5.11 2.39
12.00 -4.88 2.39
12.10 -4.64 2.39
12.20 -4.39 2.39
12.29 -4.15 2.39
12.37 -3.90 2.39
12.45 -3.66 2.39
12.53 -3.41 2.39
12.60 -3.16 2.39
12.66 -2.90 2.39
12.72 -2.65 2.39
12.77 -2.39 2.39
12.82 -2.14 2.39
12.87 -1.88 2.39
12.90 -1.62 2.39
12.94 -1.36 2.39
12.96 -1.10 2.39
12.99 -0.84 2.39
13.00 -0.58 2.39
13.02 -0.32 2.39
13.02 -0.06 2.39
13.02 0.20 2.39
13.02 0.46 2.39
13.01 0.72 2.39
12.99 0.98 2.39
12.97 1.24 2.39
12.95 1.50 2.39
12.91 1.76 2.39
12.88 2.02 2.39
12.84 2.28 2.39
12.79 2.54 2.39
12.74 2.79 2.39
12.68 3.05 2.39
12.62 3.30 2.39
12.55 3.56 2.39
12.47 3.81 2.39
12.40 4.06 2.39
12.31 4.30 2.39
12.22 4.55 2.39
12.13 4.79 2.39
12.03 5.04 2.39
11.93 5.28 2.39
11.82 5.52 2.39
11.71 5.75 2.39
11.59 5.98 2.39
11.47 6.22 2.39
11.34 6.44 2.39
11.21 6.67 2.39
11.07 6.89 2.39
10.93 7.11 2.39
10.78 7.33 2.39
10.63 7.54 2.39
10.48 7.75 2.39
10.32 7.96 2.39
10.15 8.17 2.39
9.99 8.37 2.39
9.82 8.56 2.39
9.64 8.76 2.39
9.46 8.95 2.39
9.28 9.13 2.39
9.09 9.32 2.39
8.90 9.50 2.39
8.71 9.67 2.39
8.51 9.84 2.39
8.31 10.01 2.39
8.10 10.17 2.39
7.90 10.33 2.39
7.69 10.48 2.39
7.47 10.63 2.39
7.26 10.78 2.39
7.04 10.92 2.39
6.81 11.05 2.39
6.59 11.18 2.39
6.36 11.31 2.39
6.13 11.43 2.39
5.90 11.55 2.39
5.66 11.66 2.39
5.43 11.77 2.39
5.18 11.86 2.39
4.94 11.95 2.39
4.70 12.05 2.39
4.46 12.13 2.39
4.21 12.22 2.39
3.96 12.29 2.39
3.71 12.37 2.39
3.46 12.43 2.39
3.21 12.50 2.39
2.96 12.55 2.39
2.71 12.61 2.39
2.45 12.65 2.39
2.20 12.69 2.39
1.94 12.73 2.39
1.68 12.76 2.39
1.43 12.79 2.39
1.22 13.36 2.49
0.95 13.38 2.49
0.68 13.39 2.49
0.41 13.39 2.49
0.14 13.39 2.49
-0.12 13.39 2.49
-0.39 13.37 2.49
-0.66 13.36 2.49
-0.93 13.34 2.49
-1.19 13.31 2.49
-1.46 13.28 2.49
-1.73 13.24 2.49
-1.99 13.19 2.49
-2.25 13.14 2.49
-2.52 13.09 2.49
-2.78 13.03 2.49
-3.04 12.97 2.49
-3.29 12.90 2.49
-3.55 12.82 2.49
-3.81 12.74 2.49
-4.06 12.66 2.49
-4.31 12.57 2.49
-4.56 12.47 2.49
-4.81 12.37 2.49
-5.05 12.27 2.49
-5.29 12.16 2.49
-5.53 12.04 2.49
-5.77 11.92 2.49
-6.01 11.80 2.49
-6.24 11.67 2.49
-6.47 11.54 2.49
-6.65 11.32 2.48
-6.65 10.81 2.39
-6.85 10.65 2.39
-7.06 10.51 2.39
-7.26 10.36 2.39
-7.47 10.21 2.39
-7.67 10.05 2.39
-7.86 9.89 2.39
-8.06 9.73 2.39
-8.25 9.56 2.39
-8.43 9.39 2.39
-8.62 9.21 2.39
-8.79 9.03 2.39
-8.97 8.85 2.39
-9.14 8.66 2.39
-9.31 8.47 2.39
-9.47 8.28 2.39
-9.63 8.09 2.39
-9.79 7.89 2.39
-9.94 7.69 2.39
-10.09 7.48 2.39
-10.24 7.28 2.39
-10.38 7.07 2.39
-10.51 6.85 2.39
-10.61 6.62 2.38
-10.65 6.35 2.36
-10.68 6.08 2.34
-10.70 5.81 2.32
-10.70 5.53 2.30
-10.70 5.26 2.28
-10.69 5.00 2.25
-10.68 4.73 2.23
-10.70 4.49 2.22
-10.72 4.24 2.20
-10.74 4.00 2.19
-10.71 3.75 2.17
-10.68 3.50 2.15
-10.65 3.26 2.13
-10.62 3.02 2.11
-10.59 2.78 2.10
-10.59 2.55 2.09
-10.60 2.33 2.08
-10.60 2.11 2.07
-10.60 1.89 2.07
-10.60 1.67 2.06
-10.59 1.45 2.05
-10.59 1.23 2.05
-10.58 1.02 2.04
-10.57 0.80 2.03
-10.56 0.59 2.03
-10.54 0.37 2.03
-10.52 0.16 2.02
-10.50 -0.05 2.02
-10.49 -0.26 2.02
-10.48 -0.47 2.02
-10.48 -0.68 2.02
-10.47 -0.89 2.02
-10.46 -1.10 2.02
-10.45 -1.32 2.03
-10.43 -1.53 2.03
-10.41 -1.74 2.03
-10.39 -1.95 2.03
-10.37 -2.16 2.04
-10.35 -2.38 2.04
-10.33 -2.59 2.05
-10.31 -2.81 2.06
-10.29 -3.03 2.06
-10.27 -3.25 2.07
-10.25 -3.47 2.08
-10.23 -3.69 2.09
-10.20 -3.91 2.10
-10.17 -4.14 2.11
-10.14 -4.37 2.12
-10.11 -4.60 2.14
-10.08 -4.83 2.15
-10.05 -5.06 2.17
-10.02 -5.30 2.18
-9.97 -5.54 2.20
-9.93 -5.78 2.21
-9.88 -6.02 2.22
-9.82 -6.26 2.24
-9.77 -6.50 2.26
-9.71 -6.75 2.27
-9.73 -7.05 2.31
-9.76 -7.38 2.35
-9.69 -7.64 2.37
-9.60 -7.89 2.39
-9.45 -8.09 2.39
-9.29 -8.28 2.39
-9.12 -8.46 2.39
-8.95 -8.65 2.39
-8.77 -8.82 2.39
-8.60 -9.00 2.39
-8.42 -9.17 2.39
-8.23 -9.34 2.39
-8.04 -9.51 2.39
-7.85 -9.67 2.39
-7.66 -9.83 2.39
-7.46 -9.98 2.39
-7.26 -10.13 2.39
-7.06 -10.28 2.39
-6.85 -10.42 2.39
-6.64 -10.56 2.39
-6.43 -10.69 2.39
-6.22 -10.82 2.39
-6.00 -10.95 2.39
-5.88 -11.27 2.43
-5.80 -11.67 2.49
-5.57 -11.79 2.49
-5.33 -11.90 2.49
-5.09 -12.01 2.49
-4.85 -12.12 2.49
-4.61 -12.22 2.49
-4.36 -12.31 2.49
-4.12 -12.40 2.49
-3.87 -12.48 2.49
-3.62 -12.56 2.49
-3.37 -12.64 2.49
-3.11 -12.71 2.49
-2.86 -12.77 2.49
-2.60 -12.83 2.49
-2.34 -12.89 2.49
-2.09 -12.94 2.49
-1.83 -12.98 2.49
-1.57 -13.02 2.49
-1.31 -13.06 2.49
-1.04 -13.08 2.49
-0.78 -13.11 2.49
-0.52 -13.13 2.49
-0.25 -13.14 2.49
0.01 -11.70 2.49
0.24 -11.70 2.49
0.48 -11.70 2.49
0.72 -11.69 2.49
0.95 -11.68 2.49
1.19 -11.67 2.49
1.42 -11.64 2.49
1.65 -11.62 2.49
1.89 -11.59 2.49
2.12 -11.55 2.49
2.26 -11.04 2.39
2.48 -10.99 2.39
2.54 -10.31 2.25
2.92 -10.89 2.39
3.14 -10.84 2.39
3.36 -10.78 2.39
3.58 -10.71 2.39
3.79 -10.64 2.39
4.01 -10.57 2.39
4.22 -10.49 2.39
4.43 -10.41 2.39
4.64 -10.32 2.39
4.85 -10.23 2.39
5.06 -10.14 2.39
5.26 -10.04 2.39
5.46 -9.93 2.39
5.66 -9.83 2.39
5.86 -9.72 2.39
6.06 -9.60 2.39
6.26 -9.49 2.39
6.45 -9.37 2.39
6.64 -9.24 2.39
6.83 -9.11 2.39
7.01 -8.98 2.39
7.20 -8.84 2.39
7.37 -8.69 2.39
7.55 -8.55 2.39
7.72 -8.40 2.39
7.89 -8.24 2.39
8.06 -8.09 2.39
8.22 -7.93 2.39
8.39 -7.76 2.39
8.54 -7.60 2.39
8.70 -7.43 2.39
8.85 -7.25 2.39
8.99 -7.08 2.39
9.14 -6.90 2.39
9.28 -6.72 2.39
9.41 -6.53 2.39
9.55 -6.34 2.39
9.68 -6.15 2.39
9.80 -5.96 2.39
9.92 -5.76 2.39
10.04 -5.56 2.39
10.15 -5.36 2.39
10.26 -5.16 2.39
10.37 -4.96 2.39
10.47 -4.75 2.39
10.56 -4.54 2.39
10.66 -4.33 2.39
10.74 -4.11 2.39
10.83 -3.90 2.39
10.91 -3.68 2.39
10.98 -3.46 2.39
11.05 -3.24 2.39
11.12 -3.02 2.39
11.18 -2.80 2.39
11.23 -2.58 2.39
