ply
format ascii 1.0
element vertex 2938
property float32 x
property float32 y
property float32 z
end_header
-10.10 -12.40 2.39
-9.84 -12.59 2.39
-9.58 -12.78 2.39
-9.31 -12.96 2.39
-9.04 -13.13 2.39
-8.77 -13.30 2.39
-8.50 -13.47 2.39
-8.22 -13.63 2.39
-7.94 -13.78 2.39
-7.65 -13.93 2.39
-7.37 -14.07 2.39
-7.08 -14.21 2.39
-6.79 -14.34 2.39
-6.50 -14.47 2.39
-6.41 -15.08 2.47
-6.16 -15.33 2.49
-5.85 -15.45 2.49
-5.53 -15.56 2.49
-5.22 -15.66 2.49
-4.90 -15.75 2.49
-4.58 -15.84 2.49
-4.26 -15.93 2.49
-3.94 -16.00 2.49
-2.02 -9.01 1.40
-1.83 -9.01 1.39
-1.65 -9.01 1.39
-1.46 -9.01 1.38
-1.28 -9.01 1.38
-1.09 -9.01 1.37
-0.91 -9.01 1.37
-0.73 -9.01 1.37
-0.54 -9.01 1.37
-0.36 -9.01 1.37
-0.18 -9.01 1.36
0.00 -11.59 2.02
0.29 -14.27 2.49
0.57 -14.26 2.49
0.86 -14.25 2.49
1.15 -14.23 2.49
1.43 -14.21 2.49
1.65 -13.61 2.39
1.92 -13.56 2.39
2.19 -13.52 2.39
2.47 -13.47 2.39
2.74 -13.42 2.39
3.01 -13.37 2.39
3.28 -13.31 2.39
3.54 -13.24 2.39
3.81 -13.17 2.39
4.08 -13.10 2.39
4.34 -13.02 2.39
4.60 -12.94 2.39
4.86 -12.85 2.39
5.12 -12.75 2.39
5.38 -12.65 2.39
5.64 -12.55 2.39
5.90 -12.45 2.39
6.15 -12.34 2.39
6.40 -12.22 2.39
6.65 -12.09 2.39
6.89 -11.96 2.39
7.14 -11.83 2.39
7.38 -11.69 2.39
7.62 -11.55 2.39
7.85 -11.40 2.39
8.09 -11.25 2.39
8.32 -11.09 2.39
8.54 -10.93 2.39
8.77 -10.76 2.39
8.99 -10.59 2.39
9.21 -10.42 2.39
9.42 -10.24 2.39
9.63 -10.06 2.39
9.84 -9.87 2.39
10.05 -9.68 2.39
10.25 -9.48 2.39
10.44 -9.28 2.39
10.64 -9.08 2.39
10.83 -8.87 2.39
11.01 -8.66 2.39
11.20 -8.44 2.39
11.37 -8.22 2.39
11.55 -8.00 2.39
11.72 -7.77 2.39
11.88 -7.55 2.39
12.04 -7.31 2.39
12.20 -7.08 2.39
12.35 -6.84 2.39
12.50 -6.59 2.39
12.64 -6.35 2.39
12.78 -6.10 2.39
12.92 -5.85 2.39
13.04 -5.59 2.39
13.17 -5.34 2.39
13.29 -5.08 2.39
13.40 -4.81 2.39
13.51 -4.55 2.39
13.61 -4.28 2.39
13.71 -4.01 2.39
13.81 -3.74 2.39
13.89 -3.46 2.39
13.98 -3.19 2.39
14.06 -2.91 2.39
14.13 -2.63 2.39
14.19 -2.35 2.39
14.25 -2.07 2.39
14.31 -1.78 2.39
14.36 -1.50 2.39
14.40 -1.21 2.39
14.44 -0.92 2.39
14.48 -0.63 2.39
14.50 -0.34 2.39
14.44 -0.05 2.38
14.44 0.24 2.38
14.44 0.53 2.37
14.44 0.82 2.37
14.44 1.11 2.37
14.44 1.40 2.38
14.39 1.69 2.37
14.39 1.98 2.37
14.39 2.28 2.38
14.45 2.59 2.39
14.33 2.86 2.38
14.37 3.17 2.39
14.32 3.46 2.39
14.26 3.76 2.39
14.20 4.05 2.39
14.14 4.34 2.39
14.06 4.62 2.39
13.98 4.91 2.39
13.90 5.20 2.39
13.81 5.48 2.39
13.71 5.76 2.39
13.60 6.04 2.39
13.50 6.32 2.39
13.38 6.60 2.39
13.26 6.87 2.39
13.13 7.14 2.39
13.00 7.41 2.39
12.86 7.68 2.39
12.72 7.95 2.39
12.57 8.21 2.39
12.42 8.47 2.39
12.26 8.72 2.39
12.09 8.98 2.39
11.92 9.23 2.39
11.75 9.47 2.39
11.56 9.72 2.39
11.38 9.95 2.39
1.97 1.79 0.42
1.93 1.83 0.42
10.79 10.65 2.39
10.58 10.87 2.39
10.37 11.09 2.39
10.15 11.31 2.39
9.93 11.52 2.39
9.71 11.72 2.39
9.48 11.93 2.39
9.24 12.12 2.39
9.01 12.31 2.39
8.76 12.50 2.39
8.52 12.68 2.39
8.27 12.86 2.39
8.01 13.03 2.39
7.75 13.20 2.39
7.49 13.36 2.39
7.23 13.52 2.39
6.96 13.66 2.39
6.69 13.81 2.39
6.41 13.95 2.39
6.13 14.08 2.39
5.85 14.21 2.39
5.56 14.31 2.39
5.28 14.43 2.39
4.99 14.53 2.39
4.70 14.64 2.39
4.41 14.73 2.39
4.11 14.82 2.39
3.82 14.91 2.39
3.52 14.99 2.39
3.22 15.06 2.39
2.92 15.12 2.39
2.61 15.18 2.39
2.31 15.23 2.39
2.00 15.28 2.39
1.70 15.32 2.39
1.45 16.01 2.49
1.13 16.04 2.49
0.81 16.06 2.49
0.48 16.07 2.49
0.16 16.08 2.49
-0.16 16.08 2.49
-0.48 16.07 2.49
-0.81 16.06 2.49
-1.13 16.04 2.49
-1.45 16.01 2.49
-1.77 15.98 2.49
-2.09 15.94 2.49
-2.41 15.89 2.49
-2.72 15.83 2.49
-3.04 15.77 2.49
-3.35 15.70 2.49
-3.67 15.63 2.49
-3.98 15.55 2.49
-4.29 15.46 2.49
-4.60 15.36 2.49
-4.90 15.26 2.49
-5.20 15.16 2.49
-5.50 15.04 2.49
-5.80 14.92 2.49
-6.10 14.79 2.49
-6.39 14.66 2.49
-6.40 13.93 2.39
-6.67 13.78 2.39
-6.95 13.64 2.39
-7.21 13.49 2.39
-7.48 13.33 2.39
-7.74 13.17 2.39
-8.00 13.01 2.39
-8.25 12.83 2.39
-8.50 12.66 2.39
-8.74 12.48 2.39
-8.99 12.29 2.39
-9.22 12.10 2.39
-9.46 11.90 2.39
-9.69 11.70 2.39
-9.91 11.49 2.39
-9.99 11.12 2.35
-10.04 10.74 2.32
-10.09 10.37 2.28
-10.14 10.01 2.25
-10.20 9.67 2.22
-10.26 9.35 2.20
-10.32 9.03 2.17
-10.37 8.71 2.15
-10.42 8.40 2.12
-10.47 8.10 2.10
-10.52 7.81 2.08
-10.56 7.52 2.06
-10.60 7.23 2.04
-10.63 6.94 2.02
-10.66 6.66 2.01
-10.72 6.40 1.99
-10.84 6.18 2.00
-10.96 5.96 2.00
-11.08 5.74 2.00
-11.20 5.52 2.00
-11.31 5.30 2.01
-11.38 5.06 2.00
-11.47 4.82 2.00
-11.50 4.57 2.00
-11.54 4.31 1.99
-11.57 4.06 1.98
-11.60 3.81 1.98
-11.63 3.57 1.97
-11.66 3.32 1.97
-11.68 3.08 1.96
-11.69 2.83 1.95
-11.70 2.58 1.95
-11.71 2.34 1.95
-11.72 2.10 1.94
-11.73 1.86 1.94
-11.74 1.62 1.94
-11.74 1.38 1.94
-11.75 1.14 1.93
-11.74 0.90 1.93
-11.74 0.67 1.93
-11.74 0.43 1.93
-11.73 0.20 1.93
-11.73 -0.04 1.93
-11.72 -0.28 1.94
-11.71 -0.51 1.94
-11.71 -0.75 1.94
-11.71 -0.98 1.95
-11.72 -1.22 1.95
-11.73 -1.46 1.96
-11.74 -1.70 1.97
-11.75 -1.94 1.98
-11.75 -2.19 1.99
-11.76 -2.43 2.00
-11.76 -2.68 2.01
-11.77 -2.93 2.03
-11.79 -3.19 2.04
-11.81 -3.45 2.06
-11.83 -3.72 2.08
-11.85 -3.99 2.10
-11.87 -4.26 2.12
-11.90 -4.54 2.14
-11.95 -4.84 2.17
-11.94 -5.12 2.19
-11.92 -5.40 2.21
-11.89 -5.67 2.23
-11.86 -5.96 2.25
-11.83 -6.24 2.27
-11.80 -6.53 2.29
-11.81 -6.85 2.32
-11.78 -7.15 2.34
-11.73 -7.45 2.36
-11.68 -7.75 2.39
-11.62 -8.05 2.41
-11.56 -8.36 2.43
-11.50 -8.67 2.46
-11.40 -8.96 2.48
-11.23 -9.20 2.48
-11.05 -9.43 2.49
-10.42 -9.26 2.39
-10.22 -9.46 2.39
-10.02 -9.65 2.39
-9.82 -9.85 2.39
-9.61 -10.03 2.39
-9.40 -10.22 2.39
-9.19 -10.40 2.39
-8.97 -10.57 2.39
-8.75 -10.74 2.39
-8.52 -10.91 2.39
-8.30 -11.07 2.39
-8.07 -11.23 2.39
-7.84 -11.38 2.39
-7.60 -11.53 2.39
-7.36 -11.67 2.39
-7.12 -11.81 2.39
-6.88 -11.94 2.39
-6.64 -12.07 2.39
-6.42 -12.25 2.40
-6.40 -12.85 2.49
-6.14 -12.97 2.49
-5.88 -13.08 2.49
-5.61 -13.19 2.49
-5.34 -13.30 2.49
-5.07 -13.40 2.49
-4.80 -13.49 2.49
-4.52 -13.58 2.49
-4.25 -13.66 2.49
-3.97 -13.74 2.49
-3.69 -13.81 2.49
-3.42 -13.88 2.49
-1.98 -8.82 1.58
-1.80 -8.82 1.57
-1.61 -8.82 1.56
-1.43 -8.82 1.56
-1.25 -8.82 1.55
-1.07 -8.82 1.55
-0.89 -8.82 1.55
-0.71 -8.82 1.54
-0.53 -8.82 1.54
-0.35 -8.82 1.54
-0.18 -8.82 1.54
0.00 -11.63 2.30
0.25 -12.59 2.49
0.51 -12.58 2.49
0.76 -12.57 2.49
1.01 -12.55 2.49
1.26 -12.53 2.49
1.52 -12.51 2.49
1.69 -11.96 2.39
1.94 -11.92 2.39
2.18 -11.88 2.39
2.41 -11.84 2.39
2.65 -11.79 2.39
2.89 -11.74 2.39
3.13 -11.68 2.39
3.36 -11.62 2.39
3.60 -11.55 2.39
3.83 -11.48 2.39
4.06 -11.41 2.39
4.29 -11.33 2.39
4.52 -11.24 2.39
4.75 -11.15 2.39
4.97 -11.06 2.39
5.19 -10.96 2.39
5.42 -10.86 2.39
5.64 -10.76 2.39
5.86 -10.66 2.39
6.08 -10.55 2.39
6.29 -10.43 2.39
6.50 -10.30 2.39
6.71 -10.18 2.39
6.92 -10.05 2.39
7.13 -9.91 2.39
7.33 -9.77 2.39
7.53 -9.63 2.39
7.72 -9.48 2.39
7.92 -9.33 2.39
8.11 -9.17 2.39
8.30 -9.02 2.39
8.48 -8.85 2.39
8.67 -8.69 2.39
8.85 -8.52 2.39
9.02 -8.34 2.39
9.20 -8.17 2.39
9.37 -7.99 2.39
9.53 -7.80 2.39
9.69 -7.62 2.39
9.85 -7.43 2.39
10.01 -7.23 2.39
10.16 -7.04 2.39
10.31 -6.84 2.39
10.45 -6.63 2.39
10.59 -6.43 2.39
10.73 -6.22 2.39
10.86 -6.01 2.39
10.99 -5.79 2.39
11.12 -5.58 2.39
11.24 -5.36 2.39
11.35 -5.14 2.39
11.46 -4.91 2.39
11.57 -4.69 2.39
11.67 -4.46 2.39
11.77 -4.23 2.39
11.87 -3.99 2.39
11.96 -3.76 2.39
12.04 -3.52 2.39
12.12 -3.28 2.39
12.20 -3.04 2.39
12.27 -2.80 2.39
12.34 -2.55 2.39
12.40 -2.31 2.39
12.45 -2.06 2.39
12.51 -1.81 2.39
12.55 -1.56 2.39
12.59 -1.31 2.39
12.63 -1.06 2.39
12.66 -0.80 2.39
12.69 -0.55 2.39
12.71 -0.30 2.39
12.73 -0.04 2.39
12.74 0.21 2.39
12.75 0.47 2.39
12.75 0.73 2.39
12.75 0.98 2.39
12.74 1.24 2.39
12.72 1.50 2.39
12.70 1.75 2.39
12.68 2.01 2.39
12.65 2.27 2.39
12.61 2.52 2.39
12.57 2.78 2.39
12.53 3.03 2.39
12.48 3.29 2.39
12.42 3.54 2.39
12.36 3.79 2.39
12.30 4.05 2.39
12.22 4.30 2.39
12.15 4.54 2.39
12.07 4.79 2.39
11.98 5.04 2.39
11.89 5.28 2.39
11.79 5.53 2.39
11.69 5.77 2.39
11.58 6.01 2.39
11.47 6.24 2.39
11.35 6.48 2.39
11.23 6.71 2.39
11.11 6.94 2.39
10.97 7.17 2.39
10.84 7.39 2.39
10.70 7.62 2.39
10.55 7.84 2.39
10.40 8.05 2.39
10.25 8.27 2.39
10.09 8.48 2.39
9.92 8.68 2.39
1.97 1.79 0.48
1.93 1.83 0.48
9.41 9.29 2.39
9.22 9.48 2.39
9.04 9.67 2.39
8.85 9.86 2.39
8.66 10.04 2.39
8.46 10.22 2.39
8.26 10.39 2.39
8.05 10.56 2.39
7.85 10.73 2.39
7.63 10.89 2.39
7.42 11.05 2.39
7.20 11.20 2.39
6.98 11.35 2.39
6.75 11.50 2.39
6.52 11.64 2.39
6.29 11.77 2.39
6.06 11.90 2.39
5.82 12.02 2.39
5.58 12.13 2.39
5.33 12.24 2.39
5.09 12.35 2.39
4.84 12.46 2.39
4.59 12.56 2.39
4.34 12.65 2.39
4.09 12.74 2.39
3.83 12.82 2.39
3.58 12.90 2.39
3.32 12.97 2.39
3.06 13.04 2.39
2.80 13.10 2.39
2.54 13.16 2.39
2.27 13.21 2.39
2.01 13.25 2.39
1.74 13.29 2.39
1.54 13.90 2.49
1.26 13.93 2.49
0.98 13.96 2.49
0.70 13.97 2.49
0.42 13.99 2.49
0.14 13.99 2.49
-0.14 13.99 2.49
-0.42 13.98 2.49
-0.70 13.97 2.49
-0.98 13.95 2.49
-1.26 13.93 2.49
-1.54 13.90 2.49
-1.82 13.87 2.49
-2.09 13.82 2.49
-2.37 13.78 2.49
-2.64 13.72 2.49
-2.92 13.66 2.49
-3.19 13.60 2.49
-3.46 13.53 2.49
-3.73 13.45 2.49
-4.00 13.37 2.49
-4.26 13.28 2.49
-4.53 13.19 2.49
-4.79 13.09 2.49
-5.05 12.99 2.49
-5.31 12.88 2.49
-5.56 12.77 2.49
-5.81 12.65 2.49
-6.06 12.52 2.49
-6.31 12.39 2.49
-6.40 11.96 2.43
-6.51 11.61 2.39
-6.74 11.47 2.39
-6.96 11.33 2.39
-7.18 11.18 2.39
-7.40 11.03 2.39
-7.62 10.87 2.39
-7.83 10.71 2.39
-8.04 10.54 2.39
-8.24 10.37 2.39
-8.44 10.20 2.39
-8.64 10.02 2.39
-8.83 9.84 2.39
-9.02 9.65 2.39
-9.20 9.46 2.39
-9.38 9.27 2.39
-9.56 9.07 2.39
-9.73 8.87 2.39
-9.88 8.65 2.38
-9.94 8.35 2.36
-9.99 8.06 2.33
-10.04 7.78 2.31
-10.09 7.50 2.29
-10.14 7.22 2.27
-10.17 6.94 2.25
-10.20 6.67 2.23
-10.23 6.39 2.21
-10.26 6.13 2.19
-10.36 5.91 2.18
-10.47 5.70 2.19
-10.59 5.49 2.19
-10.70 5.28 2.19
-10.74 5.03 2.18
-10.76 4.78 2.17
-10.78 4.53 2.15
-10.87 4.32 2.16
-10.95 4.10 2.16
-11.04 3.88 2.16
-11.12 3.66 2.16
-11.20 3.44 2.17
-11.27 3.21 2.17
-11.30 2.98 2.17
-11.34 2.75 2.17
-11.37 2.51 2.16
-11.40 2.28 2.16
-11.43 2.05 2.16
-11.45 1.82 2.16
-11.47 1.58 2.16
-11.47 1.35 2.16
-11.48 1.12 2.16
-11.48 0.89 2.16
-11.47 0.65 2.16
-11.47 0.42 2.15
-11.47 0.19 2.15
-11.45 -0.04 2.15
-11.44 -0.27 2.15
-11.42 -0.50 2.15
-11.40 -0.72 2.16
-11.39 -0.95 2.16
-11.41 -1.19 2.17
-11.43 -1.42 2.18
-11.45 -1.66 2.19
-11.46 -1.89 2.20
-11.47 -2.13 2.22
-11.47 -2.37 2.23
-11.48 -2.62 2.24
-11.48 -2.86 2.25
-11.50 -3.11 2.27
-11.52 -3.37 2.29
-11.53 -3.62 2.31
-11.55 -3.89 2.33
-11.57 -4.15 2.35
-11.59 -4.42 2.38
-11.60 -4.70 2.40
-11.62 -4.98 2.43
-11.59 -5.25 2.45
-11.57 -5.52 2.46
-11.54 -5.79 2.48
-11.50 -6.06 2.51
-11.47 -6.34 2.53
-11.38 -6.60 2.54
-11.28 -6.85 2.55
-10.43 -6.62 2.39
-10.29 -6.82 2.39
-10.14 -7.02 2.39
-9.99 -7.22 2.39
-9.83 -7.41 2.39
-9.67 -7.60 2.39
-9.51 -7.79 2.39
-9.34 -7.97 2.39
-9.18 -8.15 2.39
-9.00 -8.33 2.39
-8.83 -8.50 2.39
-8.65 -8.67 2.39
-8.47 -8.84 2.39
-8.28 -9.00 2.39
-8.09 -9.16 2.39
-7.90 -9.31 2.39
-7.71 -9.46 2.39
-7.51 -9.61 2.39
-7.31 -9.75 2.39
-7.11 -9.89 2.39
-6.91 -10.03 2.39
-6.70 -10.16 2.39
-6.49 -10.28 2.39
-6.41 -10.62 2.44
-6.33 -10.98 2.49
-6.10 -11.10 2.49
-5.88 -11.22 2.49
-5.65 -11.33 2.49
-5.42 -11.43 2.49
-5.18 -11.53 2.49
-4.95 -11.63 2.49
-4.71 -11.72 2.49
-4.47 -11.81 2.49
-4.23 -11.90 2.49
-3.99 -11.98 2.49
-3.75 -12.05 2.49
-3.50 -12.12 2.49
-3.26 -12.18 2.49
-3.01 -12.24 2.49
-1.98 -8.82 1.79
-1.80 -8.82 1.78
-1.61 -8.82 1.77
-1.43 -8.82 1.77
-1.25 -8.82 1.76
-1.07 -8.82 1.76
-0.89 -8.82 1.75
-0.71 -8.82 1.75
-0.53 -8.82 1.75
-0.35 -8.82 1.75
-0.18 -8.82 1.75
0.00 -8.84 1.96
0.23 -11.25 2.49
0.45 -11.25 2.49
0.68 -11.24 2.49
0.91 -11.22 2.49
1.13 -11.20 2.49
1.36 -11.18 2.49
1.58 -11.15 2.49
1.73 -10.66 2.39
1.94 -10.62 2.39
2.16 -10.58 2.39
2.37 -10.54 2.39
2.58 -10.49 2.39
2.79 -10.44 2.39
3.00 -10.38 2.39
3.21 -10.32 2.39
3.42 -10.26 2.39
3.63 -10.19 2.39
3.83 -10.12 2.39
4.04 -10.04 2.39
4.24 -9.97 2.39
4.44 -9.88 2.39
4.64 -9.79 2.39
4.84 -9.70 2.39
5.04 -9.61 2.39
5.23 -9.51 2.39
5.42 -9.41 2.39
5.61 -9.30 2.39
5.81 -9.20 2.39
6.00 -9.09 2.39
6.18 -8.97 2.39
6.36 -8.85 2.39
6.54 -8.72 2.39
6.72 -8.60 2.39
6.90 -8.46 2.39
7.07 -8.33 2.39
7.24 -8.19 2.39
7.41 -8.05 2.39
7.57 -7.90 2.39
7.74 -7.75 2.39
7.90 -7.60 2.39
8.05 -7.45 2.39
8.21 -7.29 2.39
8.36 -7.13 2.39
8.50 -6.96 2.39
8.65 -6.79 2.39
8.79 -6.62 2.39
8.93 -6.45 2.39
9.06 -6.27 2.39
9.19 -6.10 2.39
9.32 -5.91 2.39
9.45 -5.73 2.39
9.57 -5.54 2.39
9.68 -5.35 2.39
9.80 -5.16 2.39
9.91 -4.97 2.39
10.01 -4.77 2.39
10.12 -4.58 2.39
10.22 -4.37 2.39
10.31 -4.17 2.39
10.40 -3.97 2.39
10.49 -3.76 2.39
10.57 -3.55 2.39
10.65 -3.34 2.39
10.72 -3.13 2.39
10.79 -2.92 2.39
10.86 -2.70 2.39
10.92 -2.49 2.39
10.98 -2.27 2.39
11.03 -2.05 2.39
11.08 -1.83 2.39
11.13 -1.61 2.39
11.17 -1.39 2.39
11.21 -1.16 2.39
11.24 -0.94 2.39
11.26 -0.71 2.39
11.29 -0.49 2.39
11.30 -0.26 2.39
11.32 -0.03 2.39
11.33 0.19 2.39
11.33 0.42 2.39
11.33 0.65 2.39
11.33 0.88 2.39
11.32 1.11 2.39
11.30 1.33 2.39
11.29 1.56 2.39
11.26 1.79 2.39
11.24 2.02 2.39
11.20 2.24 2.39
11.17 2.47 2.39
11.13 2.70 2.39
11.08 2.92 2.39
11.03 3.15 2.39
10.97 3.37 2.39
10.91 3.59 2.39
10.85 3.81 2.39
10.78 4.04 2.39
10.71 4.25 2.39
10.63 4.47 2.39
10.55 4.69 2.39
10.46 4.90 2.39
10.37 5.12 2.39
10.27 5.33 2.39
10.17 5.54 2.39
10.07 5.75 2.39
9.96 5.95 2.39
9.84 6.15 2.39
9.73 6.36 2.39
9.61 6.55 2.39
9.48 6.75 2.39
9.35 6.95 2.39
9.22 7.14 2.39
9.08 7.33 2.39
8.94 7.51 2.39
8.79 7.70 2.39
1.97 1.79 0.54
1.93 1.83 0.54
8.33 8.23 2.39
8.17 8.40 2.39
8.00 8.57 2.39
7.83 8.73 2.39
7.66 8.89 2.39
7.49 9.05 2.39
7.31 9.20 2.39
7.13 9.35 2.39
6.94 9.50 2.39
6.76 9.64 2.39
6.56 9.78 2.39
6.37 9.92 2.39
6.17 10.05 2.39
5.97 10.17 2.39
5.77 10.30 2.39
5.56 10.40 2.39
5.35 10.51 2.39
5.14 10.62 2.39
4.93 10.73 2.39
4.72 10.83 2.39
4.50 10.93 2.39
4.28 11.02 2.39
4.06 11.11 2.39
3.84 11.19 2.39
3.62 11.27 2.39
3.39 11.34 2.39
3.16 11.41 2.39
2.94 11.47 2.39
2.71 11.53 2.39
2.47 11.59 2.39
2.24 11.64 2.39
2.01 11.68 2.39
1.77 11.72 2.39
1.61 12.26 2.49
1.36 12.29 2.49
1.11 12.32 2.49
0.87 12.34 2.49
0.62 12.35 2.49
0.37 12.37 2.49
0.12 12.37 2.49
-0.12 12.37 2.49
-0.37 12.36 2.49
-0.62 12.35 2.49
-0.87 12.34 2.49
-1.11 12.32 2.49
-1.36 12.29 2.49
-1.61 12.26 2.49
-1.85 12.22 2.49
-2.09 12.18 2.49
-2.34 12.14 2.49
-2.58 12.08 2.49
-2.82 12.03 2.49
-3.06 11.96 2.49
-3.30 11.90 2.49
-3.54 11.83 2.49
-3.77 11.75 2.49
-4.00 11.67 2.49
-4.24 11.58 2.49
-4.46 11.49 2.49
-4.69 11.39 2.49
-4.92 11.29 2.49
-5.14 11.19 2.49
-5.36 11.08 2.49
-5.58 10.96 2.49
-5.80 10.84 2.49
-6.01 10.72 2.49
-6.22 10.59 2.49
-6.40 10.41 2.48
-6.40 9.97 2.41
-6.55 9.76 2.39
-6.74 9.62 2.39
-6.93 9.48 2.39
-7.11 9.33 2.39
-7.29 9.18 2.39
-7.47 9.03 2.39
-7.65 8.87 2.39
-7.82 8.71 2.39
-7.99 8.55 2.39
-8.15 8.38 2.39
-8.31 8.21 2.39
-8.47 8.04 2.39
-8.62 7.86 2.39
-8.77 7.68 2.39
-8.92 7.50 2.39
-9.06 7.31 2.39
-9.19 7.12 2.39
-9.33 6.93 2.39
-9.46 6.74 2.39
-9.58 6.54 2.39
-9.71 6.34 2.39
-9.82 6.14 2.39
-9.87 5.90 2.37
-9.91 5.66 2.36
-10.02 5.46 2.36
-10.13 5.25 2.36
-10.16 5.02 2.35
-10.19 4.78 2.33
-10.21 4.54 2.32
-10.23 4.31 2.31
-10.25 4.07 2.29
-10.32 3.86 2.29
-10.40 3.66 2.29
-10.47 3.45 2.30
-10.55 3.24 2.30
-10.58 3.02 2.30
-10.60 2.80 2.29
-10.62 2.58 2.29
-10.64 2.35 2.28
-10.67 2.14 2.28
-10.70 1.92 2.28
-10.72 1.70 2.28
-10.74 1.49 2.28
-10.76 1.27 2.28
-10.79 1.05 2.28
-10.81 0.84 2.29
-10.84 0.62 2.29
-10.84 0.40 2.29
-10.83 0.18 2.29
-10.82 -0.03 2.29
-10.80 -0.25 2.29
-10.79 -0.47 2.29
-10.77 -0.68 2.29
-10.75 -0.90 2.29
-10.76 -1.12 2.30
-10.77 -1.34 2.31
-10.77 -1.56 2.32
-10.78 -1.78 2.33
-10.79 -2.01 2.34
-10.80 -2.23 2.35
-10.80 -2.46 2.37
-10.80 -2.69 2.38
-10.80 -2.92 2.40
-10.80 -3.15 2.41
-10.79 -3.39 2.43
-10.80 -3.63 2.45
-10.84 -3.89 2.48
-10.38 -3.96 2.39
-10.29 -4.16 2.39
-10.19 -4.37 2.39
-10.09 -4.57 2.39
-9.99 -4.76 2.39
-9.89 -4.96 2.39
-9.78 -5.15 2.39
-9.66 -5.34 2.39
-9.55 -5.53 2.39
-9.43 -5.72 2.39
-9.30 -5.90 2.39
-9.17 -6.08 2.39
-9.04 -6.26 2.39
-8.91 -6.44 2.39
-8.77 -6.61 2.39
-8.63 -6.78 2.39
-8.49 -6.95 2.39
-8.34 -7.11 2.39
-8.19 -7.27 2.39
-8.04 -7.43 2.39
-7.88 -7.58 2.39
-7.72 -7.74 2.39
-7.56 -7.89 2.39
-7.39 -8.03 2.39
-7.23 -8.17 2.39
-7.06 -8.31 2.39
-6.88 -8.45 2.39
-6.71 -8.58 2.39
-6.53 -8.71 2.39
-6.42 -8.92 2.41
-6.41 -9.31 2.48
-6.24 -9.46 2.49
-6.05 -9.58 2.49
-5.85 -9.70 2.49
-5.65 -9.81 2.49
-5.45 -9.92 2.49
-5.25 -10.02 2.49
-5.05 -10.12 2.49
-4.84 -10.21 2.49
-4.63 -10.31 2.49
-4.42 -10.39 2.49
-4.21 -10.48 2.49
-4.00 -10.55 2.49
-3.78 -10.63 2.49
-3.57 -10.70 2.49
-3.35 -10.77 2.49
-3.13 -10.83 2.49
-2.91 -10.89 2.49
-2.17 -8.82 2.01
-1.97 -8.74 1.98
-1.79 -8.76 1.98
-1.61 -8.82 1.98
-1.43 -8.82 1.98
-1.25 -8.82 1.97
-1.07 -8.82 1.97
-0.89 -8.82 1.96
-0.71 -8.83 1.96
-0.53 -8.83 1.96
-0.35 -8.78 1.94
-0.18 -8.76 1.94
0.00 -8.79 2.15
0.20 -10.16 2.49
0.41 -10.16 2.49
0.61 -10.15 2.49
0.82 -10.13 2.49
1.02 -10.12 2.49
1.22 -10.09 2.49
1.43 -10.07 2.49
1.63 -10.04 2.49
1.76 -9.59 2.39
1.95 -9.56 2.39
2.14 -9.52 2.39
2.33 -9.47 2.39
2.52 -9.43 2.39
2.71 -9.38 2.39
2.90 -9.32 2.39
3.09 -9.26 2.39
3.28 -9.20 2.39
3.46 -9.14 2.39
3.65 -9.07 2.39
3.83 -9.00 2.39
4.01 -8.92 2.39
4.19 -8.84 2.39
4.37 -8.76 2.39
4.55 -8.67 2.39
4.72 -8.58 2.39
4.90 -8.49 2.39
5.07 -8.39 2.39
5.24 -8.29 2.39
5.41 -8.19 2.39
5.57 -8.08 2.39
5.74 -7.98 2.39
5.91 -7.87 2.39
6.07 -7.76 2.39
6.22 -7.64 2.39
6.38 -7.51 2.39
6.53 -7.39 2.39
6.69 -7.26 2.39
6.83 -7.13 2.39
6.98 -6.99 2.39
7.12 -6.85 2.39
7.26 -6.71 2.39
7.40 -6.57 2.39
7.54 -6.42 2.39
7.67 -6.28 2.39
7.80 -6.12 2.39
7.93 -5.97 2.39
8.05 -5.81 2.39
8.17 -5.65 2.39
8.29 -5.49 2.39
8.40 -5.33 2.39
8.52 -5.16 2.39
8.62 -4.99 2.39
8.73 -4.82 2.39
8.83 -4.65 2.39
8.93 -4.48 2.39
9.02 -4.30 2.39
9.12 -4.12 2.39
9.20 -3.94 2.39
9.29 -3.76 2.39
9.37 -3.57 2.39
9.45 -3.39 2.39
9.52 -3.20 2.39
9.59 -3.01 2.39
9.66 -2.82 2.39
9.72 -2.63 2.39
9.78 -2.43 2.39
9.83 -2.24 2.39
9.88 -2.04 2.39
9.93 -1.84 2.39
9.98 -1.64 2.39
10.02 -1.45 2.39
10.05 -1.24 2.39
10.08 -1.04 2.39
10.11 -0.84 2.39
10.13 -0.64 2.39
10.15 -0.44 2.39
10.17 -0.23 2.39
10.18 -0.03 2.39
10.19 0.18 2.39
10.19 0.38 2.39
10.19 0.59 2.39
10.18 0.79 2.39
10.18 1.00 2.39
10.16 1.20 2.39
10.14 1.41 2.39
10.12 1.61 2.39
10.10 1.81 2.39
10.07 2.02 2.39
10.03 2.22 2.39
9.99 2.43 2.39
9.95 2.63 2.39
9.91 2.83 2.39
9.86 3.03 2.39
9.80 3.23 2.39
9.74 3.43 2.39
9.68 3.63 2.39
9.61 3.82 2.39
9.54 4.02 2.39
9.47 4.21 2.39
9.39 4.40 2.39
9.31 4.59 2.39
9.22 4.78 2.39
9.13 4.97 2.39
9.03 5.16 2.39
8.93 5.34 2.39
8.83 5.52 2.39
8.73 5.70 2.39
8.62 5.88 2.39
8.50 6.06 2.39
8.39 6.23 2.39
8.26 6.40 2.39
8.14 6.57 2.39
8.01 6.74 2.39
7.88 6.90 2.39
1.97 1.79 0.61
1.93 1.83 0.61
7.47 7.38 2.39
7.32 7.53 2.39
7.17 7.68 2.39
7.02 7.83 2.39
6.87 7.97 2.39
6.71 8.11 2.39
6.55 8.25 2.39
6.39 8.38 2.39
6.22 8.51 2.39
6.05 8.64 2.39
5.88 8.76 2.39
5.71 8.88 2.39
5.52 8.99 2.39
5.34 9.10 2.39
5.16 9.21 2.39
4.98 9.32 2.39
4.79 9.42 2.39
4.61 9.52 2.39
4.42 9.61 2.39
4.22 9.70 2.39
4.03 9.79 2.39
3.83 9.87 2.39
3.64 9.95 2.39
3.44 10.02 2.39
3.24 10.09 2.39
3.04 10.16 2.39
2.83 10.22 2.39
2.63 10.27 2.39
2.42 10.33 2.39
2.21 10.37 2.39
2.01 10.42 2.39
1.80 10.46 2.39
1.65 10.91 2.48
1.44 10.98 2.49
1.22 11.01 2.49
1.00 11.03 2.49
0.78 11.05 2.49
0.55 11.06 2.49
0.33 11.07 2.49
0.11 11.08 2.49
-0.11 11.08 2.49
-0.33 11.07 2.49
-0.55 11.06 2.49
-0.78 11.05 2.49
-1.00 11.03 2.49
-1.22 11.01 2.49
-1.44 10.98 2.49
-1.66 10.95 2.49
-1.88 10.91 2.49
-2.09 10.87 2.49
-2.31 10.82 2.49
-2.53 10.77 2.49
-2.74 10.71 2.49
-2.95 10.66 2.49
-3.17 10.59 2.49
-3.38 10.52 2.49
-3.58 10.45 2.49
-3.79 10.37 2.49
-4.00 10.29 2.49
-4.20 10.21 2.49
-4.40 10.12 2.49
-4.60 10.02 2.49
-4.80 9.92 2.49
-5.00 9.82 2.49
-5.19 9.72 2.49
-5.38 9.61 2.49
-5.57 9.49 2.49
-5.76 9.37 2.49
-5.94 9.25 2.49
-6.12 9.13 2.49
-6.30 9.00 2.49
-6.40 8.75 2.46
-6.41 8.41 2.40
-6.54 8.23 2.39
-6.70 8.10 2.39
-6.85 7.95 2.39
-7.01 7.81 2.39
-7.16 7.66 2.39
-7.31 7.52 2.39
-7.45 7.36 2.39
-7.59 7.21 2.39
-7.73 7.05 2.39
-7.86 6.89 2.39
-8.00 6.72 2.39
-8.12 6.56 2.39
-8.25 6.39 2.39
-8.37 6.22 2.39
-8.48 6.05 2.39
-8.60 5.87 2.39
-8.71 5.69 2.39
-8.81 5.51 2.39
-8.91 5.33 2.39
-9.01 5.15 2.39
-9.11 4.96 2.39
-9.20 4.77 2.39
-9.28 4.58 2.39
-9.37 4.39 2.39
-9.45 4.20 2.39
-9.52 4.01 2.39
-9.59 3.81 2.39
-9.66 3.62 2.39
-9.72 3.42 2.39
-9.78 3.22 2.39
-9.83 3.02 2.39
-9.88 2.82 2.39
-9.93 2.62 2.39
-9.97 2.42 2.39
-10.01 2.22 2.39
-10.04 2.01 2.39
-10.05 1.81 2.38
-10.07 1.60 2.38
-10.10 1.40 2.38
-10.11 1.20 2.38
-10.14 0.99 2.39
-10.16 0.79 2.39
-10.17 0.58 2.39
-10.17 0.38 2.39
-10.16 0.18 2.39
-10.16 -0.03 2.39
-10.15 -0.23 2.39
-10.13 -0.44 2.39
-10.11 -0.64 2.39
-10.09 -0.84 2.39
-10.06 -1.04 2.39
-10.03 -1.24 2.39
-9.99 -1.44 2.39
-9.95 -1.64 2.39
-9.91 -1.84 2.39
-9.86 -2.04 2.39
-9.81 -2.23 2.39
-9.76 -2.43 2.39
-9.70 -2.62 2.39
-9.64 -2.81 2.39
-9.57 -3.00 2.39
-9.50 -3.19 2.39
-9.43 -3.38 2.39
-9.35 -3.56 2.39
-9.27 -3.75 2.39
-9.18 -3.93 2.39
-9.10 -4.11 2.39
-9.00 -4.29 2.39
-8.91 -4.47 2.39
-8.81 -4.64 2.39
-8.71 -4.81 2.39
-8.61 -4.98 2.39
-8.50 -5.15 2.39
-8.39 -5.32 2.39
-8.27 -5.48 2.39
-8.15 -5.64 2.39
-8.03 -5.80 2.39
-7.91 -5.96 2.39
-7.78 -6.11 2.39
-7.65 -6.26 2.39
-7.52 -6.41 2.39
-7.39 -6.56 2.39
-7.25 -6.70 2.39
-7.11 -6.84 2.39
-6.97 -6.98 2.39
-6.82 -7.11 2.39
-6.67 -7.24 2.39
-6.52 -7.37 2.39
-6.42 -7.56 2.41
-6.41 -7.86 2.46
-6.32 -8.07 2.49
-6.15 -8.20 2.49
-5.98 -8.31 2.49
-5.81 -8.43 2.49
-5.64 -8.54 2.49
-5.46 -8.65 2.49
-5.28 -8.75 2.49
-5.10 -8.85 2.49
-4.92 -8.95 2.49
-4.74 -9.04 2.49
-4.56 -9.13 2.49
-4.37 -9.22 2.49
-4.18 -9.30 2.49
-3.99 -9.38 2.49
-3.80 -9.46 2.49
-3.61 -9.53 2.49
-3.42 -9.60 2.49
-3.22 -9.66 2.49
-3.03 -9.72 2.49
-2.83 -9.78 2.49
-2.63 -9.83 2.49
-2.17 -8.81 2.22
-1.96 -8.71 2.19
-1.78 -8.74 2.19
-1.62 -8.83 2.20
-1.43 -8.83 2.19
-1.25 -8.83 2.18
-1.07 -8.83 2.18
-0.89 -8.83 2.17
-0.71 -8.83 2.17
-0.53 -8.83 2.17
-0.35 -8.73 2.14
-0.18 -8.71 2.14
0.00 -9.26 2.49
0.19 -9.26 2.49
0.37 -9.25 2.49
0.56 -9.24 2.49
0.74 -9.23 2.49
0.93 -9.21 2.49
1.12 -9.19 2.49
1.30 -9.17 2.49
1.49 -9.14 2.49
1.63 -8.92 2.44
1.78 -8.70 2.39
1.95 -8.67 2.39
2.13 -8.63 2.39
2.30 -8.59 2.39
2.47 -8.54 2.39
2.64 -8.49 2.39
2.81 -8.44 2.39
2.98 -8.38 2.39
3.15 -8.32 2.39
3.32 -8.26 2.39
3.49 -8.19 2.39
3.65 -8.12 2.39
3.82 -8.05 2.39
3.98 -7.97 2.39
4.14 -7.90 2.39
4.30 -7.81 2.39
4.46 -7.73 2.39
4.61 -7.64 2.39
4.77 -7.55 2.39
4.92 -7.45 2.39
5.07 -7.36 2.39
5.22 -7.26 2.39
5.37 -7.15 2.39
5.52 -7.05 2.39
5.67 -6.95 2.39
5.81 -6.84 2.39
5.95 -6.72 2.39
6.08 -6.60 2.39
6.22 -6.48 2.39
6.35 -6.36 2.39
6.48 -6.24 2.39
6.61 -6.11 2.39
6.74 -5.98 2.39
6.86 -5.84 2.39
6.98 -5.71 2.39
7.10 -5.57 2.39
7.21 -5.43 2.39
7.32 -5.29 2.39
7.43 -5.14 2.39
7.54 -4.99 2.39
7.64 -4.85 2.39
7.74 -4.69 2.39
7.84 -4.54 2.39
7.94 -4.38 2.39
8.03 -4.23 2.39
8.12 -4.07 2.39
8.20 -3.91 2.39
8.29 -3.74 2.39
8.37 -3.58 2.39
8.44 -3.41 2.39
8.52 -3.24 2.39
8.59 -3.08 2.39
8.65 -2.90 2.39
8.72 -2.73 2.39
8.77 -2.56 2.39
8.83 -2.38 2.39
8.88 -2.21 2.39
8.93 -2.03 2.39
8.98 -1.85 2.39
9.02 -1.67 2.39
9.06 -1.49 2.39
9.10 -1.31 2.39
9.13 -1.13 2.39
9.16 -0.95 2.39
9.18 -0.76 2.39
9.20 -0.58 2.39
9.22 -0.39 2.39
9.23 -0.21 2.39
9.24 -0.02 2.39
9.25 0.16 2.39
9.25 0.35 2.39
9.25 0.53 2.39
9.24 0.72 2.39
9.23 0.91 2.39
9.22 1.09 2.39
9.20 1.28 2.39
9.18 1.46 2.39
9.16 1.65 2.39
9.13 1.83 2.39
9.10 2.02 2.39
9.06 2.20 2.39
9.03 2.38 2.39
8.98 2.57 2.39
8.94 2.75 2.39
8.89 2.93 2.39
8.83 3.11 2.39
8.77 3.29 2.39
8.71 3.47 2.39
8.65 3.64 2.39
8.58 3.82 2.39
8.51 3.99 2.39
8.43 4.17 2.39
8.35 4.34 2.39
8.27 4.51 2.39
8.18 4.67 2.39
8.09 4.84 2.39
8.00 5.01 2.39
7.90 5.17 2.39
7.80 5.33 2.39
7.70 5.49 2.39
7.59 5.65 2.39
7.48 5.80 2.39
7.37 5.95 2.39
7.25 6.10 2.39
7.14 6.25 2.39
1.97 1.79 0.67
1.93 1.83 0.67
6.76 6.68 2.39
6.63 6.82 2.39
6.49 6.95 2.39
6.36 7.09 2.39
6.22 7.22 2.39
6.07 7.34 2.39
5.93 7.47 2.39
5.78 7.59 2.39
5.62 7.70 2.39
5.47 7.81 2.39
5.31 7.92 2.39
5.16 8.03 2.39
5.00 8.14 2.39
4.83 8.24 2.39
4.67 8.34 2.39
4.50 8.43 2.39
4.34 8.52 2.39
4.17 8.61 2.39
3.99 8.70 2.39
3.82 8.78 2.39
3.64 8.85 2.39
3.47 8.93 2.39
3.29 9.00 2.39
3.11 9.06 2.39
2.93 9.13 2.39
2.75 9.19 2.39
2.56 9.24 2.39
2.38 9.29 2.39
2.19 9.34 2.39
2.00 9.38 2.39
1.81 9.42 2.39
1.65 9.61 2.43
1.50 9.90 2.49
1.30 9.93 2.49
1.10 9.95 2.49
0.90 9.98 2.49
0.70 9.99 2.49
0.50 10.00 2.49
0.30 10.01 2.49
0.10 10.02 2.49
-0.10 10.02 2.49
-0.30 10.01 2.49
-0.50 10.00 2.49
-0.70 9.99 2.49
-0.90 9.97 2.49
-1.10 9.95 2.49
-1.30 9.93 2.49
-1.50 9.90 2.49
-1.70 9.87 2.49
-1.89 9.83 2.49
-2.09 9.79 2.49
-2.28 9.74 2.49
-2.48 9.69 2.49
-2.67 9.64 2.49
-2.86 9.58 2.49
-3.05 9.52 2.49
-3.24 9.45 2.49
-3.43 9.38 2.49
-3.62 9.31 2.49
-3.80 9.23 2.49
-3.98 9.15 2.49
-4.16 9.07 2.49
-4.34 8.98 2.49
-4.52 8.89 2.49
-4.70 8.79 2.49
-4.87 8.69 2.49
-5.04 8.59 2.49
-5.21 8.48 2.49
-5.38 8.37 2.49
-5.54 8.26 2.49
-5.70 8.14 2.49
-5.86 8.02 2.49
-6.02 7.90 2.49
-6.17 7.77 2.49
-6.32 7.65 2.49
-6.40 7.43 2.46
-6.40 7.14 2.41
-6.48 6.94 2.39
-6.61 6.81 2.39
-6.74 6.67 2.39
-6.87 6.53 2.39
-7.00 6.38 2.39
-7.12 6.24 2.39
-7.24 6.09 2.39
-7.36 5.94 2.39
-7.47 5.79 2.39
-7.58 5.63 2.39
-7.68 5.48 2.39
-7.79 5.32 2.39
-7.89 5.16 2.39
-7.98 5.00 2.39
-8.08 4.83 2.39
-8.17 4.67 2.39
-8.25 4.50 2.39
-8.33 4.33 2.39
-8.41 4.16 2.39
-8.49 3.98 2.39
-8.56 3.81 2.39
-8.63 3.64 2.39
-8.69 3.46 2.39
-8.76 3.28 2.39
-8.81 3.10 2.39
-8.87 2.92 2.39
-8.92 2.74 2.39
-8.96 2.56 2.39
-9.01 2.38 2.39
-9.04 2.20 2.39
-9.08 2.01 2.39
-9.11 1.83 2.39
-9.14 1.64 2.39
-9.16 1.46 2.39
-9.18 1.27 2.39
-9.20 1.09 2.39
-9.21 0.90 2.39
-9.22 0.72 2.39
-9.23 0.53 2.39
-9.23 0.35 2.39
-9.23 0.16 2.39
-9.22 -0.02 2.39
-9.21 -0.21 2.39
-9.20 -0.39 2.39
-9.18 -0.58 2.39
-9.16 -0.76 2.39
-9.13 -0.94 2.39
-9.11 -1.13 2.39
-9.08 -1.31 2.39
-9.04 -1.49 2.39
-9.00 -1.67 2.39
-8.96 -1.85 2.39
-8.91 -2.03 2.39
-8.86 -2.20 2.39
-8.81 -2.38 2.39
-8.76 -2.55 2.39
-8.70 -2.73 2.39
-8.63 -2.90 2.39
-8.57 -3.07 2.39
-8.50 -3.24 2.39
-8.42 -3.41 2.39
-8.35 -3.57 2.39
-8.27 -3.74 2.39
-8.19 -3.90 2.39
-8.10 -4.06 2.39
-8.01 -4.22 2.39
-7.92 -4.38 2.39
-7.83 -4.53 2.39
-7.73 -4.68 2.39
-7.63 -4.84 2.39
-7.52 -4.98 2.39
-7.42 -5.13 2.39
-7.31 -5.28 2.39
-7.20 -5.42 2.39
-7.08 -5.56 2.39
-6.96 -5.70 2.39
-6.84 -5.83 2.39
-6.72 -5.96 2.39
-6.60 -6.10 2.39
-6.47 -6.22 2.39
-6.42 -6.42 2.42
-6.41 -6.68 2.47
-6.33 -6.88 2.49
-6.19 -7.00 2.49
-6.05 -7.12 2.49
-5.90 -7.24 2.49
-5.75 -7.35 2.49
-5.60 -7.46 2.49
-5.45 -7.57 2.49
-5.29 -7.67 2.49
-5.13 -7.77 2.49
-4.97 -7.87 2.49
-4.81 -7.97 2.49
-4.65 -8.06 2.49
-4.48 -8.15 2.49
-4.32 -8.23 2.49
-4.15 -8.32 2.49
-3.98 -8.40 2.49
-3.81 -8.47 2.49
-3.64 -8.54 2.49
-3.46 -8.61 2.49
-3.29 -8.68 2.49
-3.11 -8.74 2.49
-2.93 -8.80 2.49
-2.76 -8.85 2.49
-2.58 -8.91 2.49
-2.40 -8.95 2.49
-2.22 -9.00 2.49
-2.03 -9.04 2.49
-1.82 -8.94 2.46
-1.67 -9.11 2.49
-1.48 -9.14 2.49
-1.30 -9.17 2.49
-1.12 -9.19 2.49
-0.93 -9.21 2.49
-0.74 -9.23 2.49
-0.56 -9.24 2.49
-0.36 -8.85 2.38
-0.18 -8.81 2.37
0.00 -8.49 2.49
0.17 -8.49 2.49
0.34 -8.48 2.49
0.51 -8.48 2.49
0.68 -8.47 2.49
0.85 -8.45 2.49
1.02 -8.43 2.49
1.19 -8.41 2.49
1.36 -8.39 2.49
1.53 -8.36 2.49
1.64 -8.05 2.41
1.79 -7.95 2.39
1.95 -7.91 2.39
2.11 -7.87 2.39
2.27 -7.83 2.39
2.42 -7.79 2.39
2.58 -7.74 2.39
2.74 -7.68 2.39
2.89 -7.63 2.39
3.05 -7.57 2.39
3.20 -7.51 2.39
3.35 -7.45 2.39
3.50 -7.38 2.39
3.65 -7.31 2.39
3.80 -7.24 2.39
3.94 -7.16 2.39
4.09 -7.09 2.39
4.23 -7.00 2.39
4.37 -6.92 2.39
4.51 -6.83 2.39
4.65 -6.74 2.39
4.79 -6.65 2.39
4.92 -6.56 2.39
5.06 -6.46 2.39
5.19 -6.36 2.39
5.32 -6.26 2.39
5.44 -6.15 2.39
5.57 -6.04 2.39
5.70 -5.94 2.39
5.82 -5.83 2.39
5.94 -5.71 2.39
6.06 -5.60 2.39
6.17 -5.48 2.39
6.28 -5.35 2.39
6.39 -5.23 2.39
6.50 -5.10 2.39
6.61 -4.97 2.39
6.71 -4.84 2.39
6.81 -4.71 2.39
6.91 -4.57 2.39
7.00 -4.44 2.39
7.09 -4.30 2.39
7.18 -4.16 2.39
7.27 -4.01 2.39
7.35 -3.87 2.39
7.44 -3.72 2.39
7.51 -3.58 2.39
7.59 -3.43 2.39
7.66 -3.28 2.39
7.73 -3.12 2.39
7.80 -2.97 2.39
7.86 -2.81 2.39
7.92 -2.66 2.39
7.98 -2.50 2.39
8.03 -2.34 2.39
8.08 -2.18 2.39
8.13 -2.02 2.39
8.18 -1.86 2.39
8.22 -1.69 2.39
8.26 -1.53 2.39
8.29 -1.36 2.39
8.32 -1.20 2.39
8.35 -1.03 2.39
8.38 -0.86 2.39
8.40 -0.70 2.39
8.42 -0.53 2.39
8.43 -0.36 2.39
8.44 -0.19 2.39
8.45 -0.02 2.39
8.46 0.15 2.39
8.46 0.32 2.39
8.46 0.49 2.39
8.45 0.66 2.39
8.44 0.83 2.39
8.43 1.00 2.39
8.41 1.17 2.39
8.39 1.34 2.39
8.37 1.51 2.39
8.35 1.68 2.39
8.32 1.85 2.39
8.28 2.01 2.39
8.25 2.18 2.39
8.21 2.35 2.39
8.16 2.51 2.39
8.12 2.68 2.39
8.07 2.84 2.39
8.02 3.01 2.39
7.96 3.17 2.39
7.90 3.33 2.39
7.84 3.49 2.39
7.77 3.65 2.39
7.70 3.81 2.39
7.63 3.96 2.39
7.55 4.12 2.39
7.47 4.27 2.39
7.39 4.42 2.39
7.30 4.57 2.39
7.22 4.72 2.39
7.12 4.87 2.39
7.03 5.01 2.39
6.93 5.16 2.39
6.83 5.30 2.39
6.73 5.44 2.39
6.62 5.57 2.39
6.51 5.71 2.39
1.97 1.79 0.73
1.93 1.83 0.73
6.17 6.10 2.39
6.05 6.22 2.39
5.92 6.35 2.39
5.80 6.47 2.39
5.66 6.58 2.39
5.53 6.69 2.39
5.40 6.80 2.39
5.27 6.91 2.39
5.13 7.02 2.39
4.99 7.13 2.39
4.85 7.23 2.39
4.70 7.33 2.39
4.56 7.42 2.39
4.41 7.51 2.39
4.26 7.60 2.39
4.11 7.69 2.39
3.95 7.77 2.39
3.80 7.85 2.39
3.64 7.93 2.39
3.48 8.00 2.39
3.32 8.08 2.39
3.16 8.14 2.39
3.00 8.21 2.39
2.84 8.27 2.39
2.67 8.32 2.39
2.50 8.38 2.39
2.34 8.43 2.39
2.17 8.47 2.39
2.00 8.52 2.39
1.84 8.61 2.40
1.66 8.62 2.40
1.55 9.00 2.49
1.37 9.03 2.49
1.19 9.05 2.49
1.00 9.08 2.49
0.82 9.10 2.49
0.64 9.11 2.49
0.46 9.12 2.49
0.27 9.13 2.49
0.09 9.13 2.49
-0.09 9.13 2.49
-0.27 9.13 2.49
-0.46 9.12 2.49
-0.64 9.11 2.49
-0.82 9.10 2.49
-1.00 9.08 2.49
-1.18 9.05 2.49
-1.37 9.03 2.49
-1.55 9.00 2.49
-1.73 8.96 2.49
-1.90 8.92 2.49
-2.08 8.88 2.49
-2.26 8.84 2.49
-2.43 8.79 2.49
-2.61 8.74 2.49
-2.78 8.68 2.49
-2.96 8.62 2.49
-3.13 8.56 2.49
-3.30 8.49 2.49
-3.47 8.42 2.49
-3.63 8.35 2.49
-3.80 8.27 2.49
-3.96 8.19 2.49
-4.12 8.11 2.49
-4.28 8.02 2.49
-4.44 7.93 2.49
-4.60 7.84 2.49
-4.75 7.74 2.49
-4.90 7.64 2.49
-5.05 7.54 2.49
-5.20 7.43 2.49
-5.35 7.32 2.49
-5.49 7.21 2.49
-5.63 7.10 2.49
-5.77 6.98 2.49
-5.90 6.86 2.49
-6.04 6.73 2.49
-6.17 6.61 2.49
-6.30 6.48 2.49
-6.40 6.33 2.48
-6.40 6.08 2.44
-6.41 5.85 2.40
-6.50 5.70 2.39
-6.61 5.57 2.39
-6.71 5.42 2.39
-6.82 5.29 2.39
-6.92 5.15 2.39
-7.02 5.00 2.39
-7.11 4.86 2.39
-7.20 4.71 2.39
-7.29 4.56 2.39
-7.37 4.41 2.39
-7.46 4.26 2.39
-7.54 4.11 2.39
-7.61 3.95 2.39
-7.68 3.80 2.39
-7.75 3.64 2.39
-7.82 3.48 2.39
-7.88 3.32 2.39
-7.94 3.16 2.39
-8.00 3.00 2.39
-8.05 2.84 2.39
-8.10 2.67 2.39
-8.15 2.51 2.39
-8.19 2.34 2.39
-8.23 2.18 2.39
-8.27 2.01 2.39
-8.30 1.84 2.39
-8.33 1.67 2.39
-8.35 1.51 2.39
-8.38 1.34 2.39
-8.40 1.17 2.39
-8.41 1.00 2.39
-8.42 0.83 2.39
-8.43 0.66 2.39
-8.44 0.49 2.39
-8.44 0.32 2.39
-8.44 0.15 2.39
-8.43 -0.02 2.39
-8.42 -0.19 2.39
-8.41 -0.36 2.39
-8.40 -0.53 2.39
-8.38 -0.69 2.39
-8.36 -0.86 2.39
-8.33 -1.03 2.39
-8.30 -1.19 2.39
-8.27 -1.36 2.39
-8.24 -1.52 2.39
-8.20 -1.69 2.39
-8.16 -1.85 2.39
-8.11 -2.01 2.39
-8.07 -2.17 2.39
-8.02 -2.33 2.39
-7.96 -2.49 2.39
-7.90 -2.65 2.39
-7.84 -2.81 2.39
-7.78 -2.96 2.39
-7.71 -3.12 2.39
-7.65 -3.27 2.39
-7.57 -3.42 2.39
-7.50 -3.57 2.39
-7.42 -3.72 2.39
-7.34 -3.86 2.39
-7.26 -4.01 2.39
-7.17 -4.15 2.39
-7.08 -4.29 2.39
-6.99 -4.43 2.39
-6.89 -4.56 2.39
-6.80 -4.70 2.39
-6.70 -4.83 2.39
-6.59 -4.96 2.39
-6.49 -5.09 2.39
-6.42 -5.25 2.40
-6.41 -5.46 2.44
-6.41 -5.69 2.48
-6.31 -5.83 2.49
-6.19 -5.95 2.49
-6.06 -6.07 2.49
-5.94 -6.19 2.49
-5.81 -6.30 2.49
-5.68 -6.41 2.49
-5.54 -6.52 2.49
-5.41 -6.63 2.49
-5.27 -6.74 2.49
-5.13 -6.84 2.49
-4.99 -6.94 2.49
-4.85 -7.03 2.49
-4.71 -7.13 2.49
-4.56 -7.22 2.49
-4.41 -7.30 2.49
-4.26 -7.39 2.49
-4.11 -7.47 2.49
-3.96 -7.55 2.49
-3.81 -7.62 2.49
-3.65 -7.70 2.49
-3.49 -7.77 2.49
-3.34 -7.83 2.49
-3.18 -7.90 2.49
-3.02 -7.96 2.49
-2.85 -8.01 2.49
-2.69 -8.07 2.49
-2.53 -8.12 2.49
-2.36 -8.17 2.49
-2.20 -8.21 2.49
-2.03 -8.25 2.49
-1.87 -8.29 2.49
-1.70 -8.33 2.49
-1.53 -8.36 2.49
-1.36 -8.38 2.49
-1.19 -8.41 2.49
-1.02 -8.43 2.49
-0.85 -8.45 2.49
-0.68 -8.46 2.49
-0.51 -8.48 2.49
-0.34 -8.48 2.49
-0.17 -8.49 2.49
0.00 -7.83 2.49
0.16 -7.83 2.49
0.32 -7.83 2.49
0.47 -7.82 2.49
0.63 -7.81 2.49
0.79 -7.80 2.49
0.94 -7.78 2.49
1.10 -7.76 2.49
1.26 -7.74 2.49
1.41 -7.71 2.49
1.57 -7.68 2.49
1.65 -7.33 2.39
1.80 -7.30 2.39
1.95 -7.26 2.39
2.09 -7.22 2.39
2.24 -7.18 2.39
2.38 -7.14 2.39
2.53 -7.09 2.39
2.67 -7.04 2.39
2.81 -6.98 2.39
2.95 -6.93 2.39
3.09 -6.87 2.39
3.23 -6.81 2.39
3.37 -6.74 2.39
3.50 -6.68 2.39
3.64 -6.61 2.39
3.77 -6.53 2.39
3.90 -6.46 2.39
4.03 -6.38 2.39
4.16 -6.30 2.39
4.29 -6.22 2.39
4.42 -6.13 2.39
4.54 -6.05 2.39
4.66 -5.96 2.39
4.78 -5.86 2.39
4.90 -5.77 2.39
5.02 -5.67 2.39
5.14 -5.57 2.39
5.25 -5.47 2.39
5.36 -5.37 2.39
5.47 -5.26 2.39
5.58 -5.15 2.39
5.69 -5.05 2.39
5.79 -4.93 2.39
5.90 -4.82 2.39
5.99 -4.70 2.39
6.09 -4.58 2.39
6.19 -4.46 2.39
6.28 -4.34 2.39
6.37 -4.21 2.39
6.45 -4.09 2.39
6.54 -3.96 2.39
6.62 -3.83 2.39
6.70 -3.70 2.39
6.78 -3.56 2.39
6.85 -3.43 2.39
6.92 -3.29 2.39
6.99 -3.16 2.39
7.06 -3.02 2.39
7.12 -2.88 2.39
7.18 -2.73 2.39
7.24 -2.59 2.39
7.30 -2.45 2.39
7.35 -2.30 2.39
7.40 -2.15 2.39
7.44 -2.01 2.39
7.49 -1.86 2.39
7.53 -1.71 2.39
7.57 -1.56 2.39
7.60 -1.41 2.39
7.63 -1.25 2.39
7.66 -1.10 2.39
7.69 -0.95 2.39
7.71 -0.79 2.39
7.73 -0.64 2.39
7.75 -0.48 2.39
7.76 -0.33 2.39
7.77 -0.17 2.39
7.78 -0.02 2.39
7.78 0.14 2.39
7.78 0.30 2.39
7.78 0.45 2.39
7.78 0.61 2.39
7.77 0.77 2.39
7.76 0.92 2.39
7.74 1.08 2.39
7.72 1.23 2.39
7.70 1.39 2.39
7.68 1.54 2.39
7.65 1.70 2.39
7.62 1.85 2.39
7.59 2.01 2.39
7.55 2.16 2.39
7.51 2.31 2.39
7.47 2.47 2.39
7.42 2.62 2.39
7.37 2.77 2.39
7.32 2.92 2.39
7.26 3.06 2.39
7.20 3.21 2.39
7.14 3.36 2.39
7.08 3.50 2.39
7.01 3.64 2.39
6.94 3.79 2.39
6.87 3.93 2.39
6.79 4.07 2.39
6.71 4.20 2.39
6.63 4.34 2.39
6.55 4.48 2.39
6.46 4.61 2.39
6.37 4.74 2.39
6.28 4.87 2.39
6.18 5.00 2.39
6.08 5.12 2.39
5.98 5.25 2.39
1.97 1.79 0.80
1.93 1.83 0.80
5.66 5.60 2.39
5.55 5.71 2.39
5.43 5.82 2.39
5.32 5.93 2.39
5.20 6.04 2.39
5.08 6.15 2.39
4.96 6.25 2.39
4.84 6.35 2.39
4.71 6.45 2.39
4.58 6.55 2.39
4.45 6.64 2.39
4.32 6.73 2.39
4.18 6.82 2.39
4.05 6.90 2.39
3.91 6.98 2.39
3.77 7.06 2.39
3.63 7.14 2.39
3.49 7.21 2.39
3.34 7.28 2.39
3.20 7.35 2.39
3.05 7.42 2.39
2.90 7.48 2.39
2.75 7.54 2.39
2.60 7.59 2.39
2.45 7.64 2.39
2.30 7.69 2.39
2.14 7.74 2.39
1.99 7.78 2.39
1.84 7.85 2.40
1.68 7.86 2.39
1.58 8.23 2.49
1.42 8.26 2.49
1.25 8.29 2.49
1.09 8.31 2.49
0.92 8.33 2.49
0.75 8.35 2.49
0.59 8.36 2.49
0.42 8.37 2.49
0.25 8.38 2.49
0.08 8.38 2.49
-0.08 8.38 2.49
-0.25 8.38 2.49
-0.42 8.37 2.49
-0.59 8.36 2.49
-0.75 8.35 2.49
-0.92 8.33 2.49
-1.09 8.31 2.49
-1.25 8.29 2.49
-1.42 8.26 2.49
-1.58 8.23 2.49
-1.75 8.19 2.49
-1.91 8.16 2.49
-2.07 8.11 2.49
-2.24 8.07 2.49
-2.40 8.02 2.49
-2.56 7.97 2.49
-2.71 7.92 2.49
-2.87 7.86 2.49
-3.03 7.80 2.49
-3.18 7.73 2.49
-3.33 7.67 2.49
-3.49 7.60 2.49
-3.64 7.52 2.49
-3.79 7.44 2.49
-3.93 7.37 2.49
-4.08 7.28 2.49
-4.22 7.20 2.49
-4.36 7.11 2.49
-4.50 7.02 2.49
-4.64 6.92 2.49
-4.78 6.83 2.49
-4.91 6.73 2.49
-5.04 6.62 2.49
-5.17 6.52 2.49
-5.30 6.41 2.49
-5.42 6.30 2.49
-5.55 6.19 2.49
-5.67 6.07 2.49
-5.78 5.95 2.49
-5.90 5.83 2.49
-6.01 5.71 2.49
-6.12 5.59 2.49
-6.23 5.46 2.49
-6.33 5.33 2.49
-6.40 5.17 2.48
-6.40 4.96 2.44
-6.41 4.77 2.41
-6.45 4.60 2.39
-6.53 4.47 2.39
-6.62 4.33 2.39
-6.70 4.20 2.39
-6.78 4.06 2.39
-6.85 3.92 2.39
-6.93 3.78 2.39
-7.00 3.64 2.39
-7.06 3.49 2.39
-7.13 3.35 2.39
-7.19 3.20 2.39
-7.25 3.06 2.39
-7.30 2.91 2.39
-7.36 2.76 2.39
-7.40 2.61 2.39
-7.45 2.46 2.39
-7.49 2.31 2.39
-7.53 2.16 2.39
-7.57 2.00 2.39
-7.60 1.85 2.39
-7.63 1.70 2.39
-7.66 1.54 2.39
-7.69 1.39 2.39
-7.71 1.23 2.39
-7.72 1.08 2.39
-7.74 0.92 2.39
-7.75 0.76 2.39
-7.76 0.61 2.39
-7.76 0.45 2.39
-7.77 0.30 2.39
-7.77 0.14 2.39
-7.76 -0.02 2.39
-7.75 -0.17 2.39
-7.74 -0.33 2.39
-7.73 -0.48 2.39
-7.71 -0.64 2.39
-7.69 -0.79 2.39
-7.67 -0.94 2.39
-7.65 -1.10 2.39
-7.62 -1.25 2.39
-7.59 -1.40 2.39
-7.55 -1.55 2.39
-7.51 -1.70 2.39
-7.47 -1.85 2.39
-7.43 -2.00 2.39
-7.38 -2.15 2.39
-7.33 -2.30 2.39
-7.28 -2.44 2.39
-7.23 -2.58 2.39
-7.17 -2.73 2.39
-7.11 -2.87 2.39
-7.04 -3.01 2.39
-6.98 -3.15 2.39
-6.91 -3.29 2.39
-6.84 -3.42 2.39
-6.76 -3.56 2.39
-6.69 -3.69 2.39
-6.62 -3.83 2.39
-6.53 -3.95 2.39
-6.44 -4.08 2.39
-6.41 -4.25 2.41
-6.41 -4.43 2.44
-6.41 -4.62 2.48
-6.34 -4.77 2.49
-6.24 -4.90 2.49
-6.14 -5.02 2.49
-6.03 -5.14 2.49
-5.93 -5.25 2.49
-5.82 -5.37 2.49
-5.70 -5.48 2.49
-5.59 -5.59 2.49
-5.47 -5.70 2.49
-5.36 -5.81 2.49
-5.23 -5.91 2.49
-5.11 -6.01 2.49
-4.99 -6.11 2.49
-4.86 -6.21 2.49
-4.73 -6.30 2.49
-4.61 -6.40 2.49
-4.47 -6.48 2.49
-4.34 -6.57 2.49
-4.21 -6.65 2.49
-4.07 -6.74 2.49
-3.93 -6.81 2.49
-3.79 -6.89 2.49
-3.65 -6.96 2.49
-3.51 -7.03 2.49
-3.37 -7.10 2.49
-3.22 -7.16 2.49
-3.08 -7.23 2.49
-2.93 -7.28 2.49
-2.78 -7.34 2.49
-2.63 -7.39 2.49
-2.48 -7.44 2.49
-2.33 -7.49 2.49
-2.18 -7.53 2.49
-2.03 -7.58 2.49
-1.88 -7.61 2.49
-1.72 -7.65 2.49
-1.57 -7.68 2.49
-1.41 -7.71 2.49
-1.26 -7.74 2.49
-1.10 -7.76 2.49
-0.94 -7.78 2.49
-0.79 -7.80 2.49
-0.63 -7.81 2.49
-0.47 -7.82 2.49
-0.32 -7.83 2.49
-0.16 -7.83 2.49
0.00 -7.26 2.49
0.15 -7.26 2.49
0.29 -7.26 2.49
0.44 -7.25 2.49
0.58 -7.24 2.49
0.73 -7.23 2.49
0.88 -7.21 2.49
1.02 -7.19 2.49
1.17 -7.17 2.49
1.31 -7.15 2.49
1.45 -7.12 2.49
1.60 -7.09 2.49
1.67 -6.77 2.39
1.80 -6.73 2.39
1.94 -6.70 2.39
2.07 -6.66 2.39
2.21 -6.62 2.39
2.34 -6.57 2.39
2.47 -6.52 2.39
2.61 -6.47 2.39
2.74 -6.42 2.39
2.87 -6.37 2.39
2.99 -6.31 2.39
3.12 -6.25 2.39
3.25 -6.19 2.39
3.37 -6.12 2.39
3.50 -6.06 2.39
3.62 -5.99 2.39
3.74 -5.91 2.39
3.86 -5.84 2.39
3.98 -5.76 2.39
4.09 -5.68 2.39
4.21 -5.60 2.39
4.32 -5.52 2.39
4.43 -5.43 2.39
4.55 -5.35 2.39
4.65 -5.25 2.39
4.76 -5.16 2.39
4.87 -5.07 2.39
4.97 -4.97 2.39
5.07 -4.87 2.39
5.17 -4.77 2.39
5.27 -4.67 2.39
5.36 -4.56 2.39
5.46 -4.46 2.39
5.55 -4.35 2.39
5.64 -4.24 2.39
5.73 -4.13 2.39
5.82 -4.02 2.39
5.90 -3.90 2.39
5.98 -3.78 2.39
6.06 -3.67 2.39
6.13 -3.55 2.39
6.21 -3.42 2.39
6.28 -3.30 2.39
6.35 -3.17 2.39
6.41 -3.05 2.39
6.48 -2.92 2.39
6.54 -2.79 2.39
6.60 -2.66 2.39
6.65 -2.53 2.39
6.71 -2.40 2.39
6.76 -2.26 2.39
6.80 -2.13 2.39
6.85 -1.99 2.39
6.89 -1.86 2.39
6.93 -1.72 2.39
6.97 -1.58 2.39
7.01 -1.44 2.39
7.04 -1.30 2.39
7.07 -1.16 2.39
7.09 -1.02 2.39
7.12 -0.87 2.39
7.14 -0.73 2.39
7.15 -0.59 2.39
7.17 -0.45 2.39
7.18 -0.30 2.39
7.19 -0.16 2.39
7.20 -0.01 2.39
7.20 0.13 2.39
7.20 0.28 2.39
7.20 0.42 2.39
7.19 0.57 2.39
7.19 0.71 2.39
7.17 0.85 2.39
7.16 1.00 2.39
7.14 1.14 2.39
7.12 1.29 2.39
7.10 1.43 2.39
7.07 1.57 2.39
7.05 1.72 2.39
7.01 1.86 2.39
6.98 2.00 2.39
6.94 2.14 2.39
6.90 2.28 2.39
6.86 2.42 2.39
6.81 2.56 2.39
6.77 2.70 2.39
6.71 2.83 2.39
6.66 2.97 2.39
6.60 3.10 2.39
6.54 3.24 2.39
6.48 3.37 2.39
6.42 3.50 2.39
6.35 3.63 2.39
6.28 3.76 2.39
6.20 3.89 2.39
6.13 4.01 2.39
6.05 4.14 2.39
5.97 4.26 2.39
5.89 4.38 2.39
5.80 4.50 2.39
5.71 4.62 2.39
5.61 4.73 2.39
5.52 4.84 2.39
1.96 1.79 0.87
1.93 1.83 0.86
5.23 5.17 2.39
5.12 5.28 2.39
5.02 5.38 2.39
4.91 5.48 2.39
4.80 5.58 2.39
4.69 5.68 2.39
4.58 5.78 2.39
4.47 5.87 2.39
4.35 5.96 2.39
4.23 6.05 2.39
4.11 6.13 2.39
3.99 6.22 2.39
3.86 6.30 2.39
3.74 6.37 2.39
3.61 6.45 2.39
3.48 6.52 2.39
3.35 6.59 2.39
3.22 6.66 2.39
3.09 6.73 2.39
2.95 6.79 2.39
2.82 6.85 2.39
2.68 6.90 2.39
2.54 6.96 2.39
2.40 7.01 2.39
2.26 7.06 2.39
2.12 7.10 2.39
1.98 7.14 2.39
1.84 7.20 2.39
1.69 7.22 2.39
1.61 7.57 2.49
1.46 7.60 2.49
1.31 7.63 2.49
1.16 7.65 2.49
1.00 7.68 2.49
0.85 7.69 2.49
0.70 7.71 2.49
0.54 7.72 2.49
0.39 7.73 2.49
0.23 7.74 2.49
0.08 7.74 2.49
-0.08 7.74 2.49
-0.23 7.74 2.49
-0.39 7.73 2.49
-0.54 7.72 2.49
-0.70 7.71 2.49
-0.85 7.69 2.49
-1.00 7.67 2.49
-1.16 7.65 2.49
-1.31 7.63 2.49
-1.46 7.60 2.49
-1.61 7.57 2.49
-1.76 7.53 2.49
-1.91 7.49 2.49
-2.06 7.45 2.49
-2.21 7.41 2.49
-2.36 7.36 2.49
-2.51 7.31 2.49
-2.65 7.26 2.49
-2.79 7.20 2.49
-2.94 7.14 2.49
-3.08 7.08 2.49
-3.22 7.01 2.49
-3.36 6.95 2.49
-3.50 6.88 2.49
-3.63 6.80 2.49
-3.77 6.73 2.49
-3.90 6.65 2.49
-4.03 6.57 2.49
-4.16 6.48 2.49
-4.29 6.39 2.49
-4.41 6.31 2.49
-4.53 6.21 2.49
-4.66 6.12 2.49
-4.78 6.02 2.49
-4.89 5.92 2.49
-5.01 5.82 2.49
-5.12 5.72 2.49
-5.23 5.61 2.49
-5.34 5.50 2.49
-5.45 5.39 2.49
-5.55 5.28 2.49
-5.66 5.16 2.49
-5.75 5.05 2.49
-5.85 4.93 2.49
-5.95 4.81 2.49
-6.04 4.69 2.49
-6.13 4.56 2.49
-6.21 4.44 2.49
-6.30 4.31 2.49
-6.38 4.18 2.49
-6.40 4.01 2.47
-6.40 3.83 2.44
-6.41 3.67 2.42
-6.41 3.50 2.39
-6.47 3.36 2.39
-6.53 3.23 2.39
-6.61 3.11 2.40
-6.65 2.96 2.39
-6.70 2.83 2.39
-6.75 2.69 2.39
-6.80 2.55 2.39
-6.85 2.42 2.39
-6.89 2.28 2.39
-6.93 2.14 2.39
-6.97 2.00 2.39
-7.00 1.85 2.39
-7.03 1.71 2.39
-7.06 1.57 2.39
-7.09 1.43 2.39
-7.11 1.28 2.39
-7.13 1.14 2.39
-7.15 1.00 2.39
-7.16 0.85 2.39
-7.17 0.71 2.39
-7.18 0.56 2.39
-7.18 0.42 2.39
-7.19 0.28 2.39
-7.19 0.13 2.39
-7.18 -0.01 2.39
-7.18 -0.16 2.39
-7.17 -0.30 2.39
-7.15 -0.44 2.39
-7.14 -0.59 2.39
-7.12 -0.73 2.39
-7.10 -0.87 2.39
-7.08 -1.01 2.39
-7.05 -1.16 2.39
-7.02 -1.30 2.39
-6.99 -1.44 2.39
-6.96 -1.58 2.39
-6.92 -1.71 2.39
-6.88 -1.85 2.39
-6.84 -1.99 2.39
-6.79 -2.12 2.39
-6.74 -2.26 2.39
-6.69 -2.39 2.39
-6.64 -2.52 2.39
-6.58 -2.66 2.39
-6.52 -2.79 2.39
-6.46 -2.91 2.39
-6.42 -3.05 2.40
-6.41 -3.21 2.42
-6.41 -3.37 2.44
-6.41 -3.53 2.47
-6.39 -3.69 2.49
-6.31 -3.82 2.49
-6.22 -3.94 2.49
-6.14 -4.06 2.49
-6.06 -4.18 2.49
-5.97 -4.30 2.49
-5.88 -4.42 2.49
-5.78 -4.53 2.49
-5.69 -4.65 2.49
-5.59 -4.76 2.49
-5.49 -4.87 2.49
-5.39 -4.98 2.49
-5.29 -5.08 2.49
-5.18 -5.18 2.49
-5.07 -5.28 2.49
-4.96 -5.38 2.49
-4.85 -5.48 2.49
-4.74 -5.57 2.49
-4.62 -5.67 2.49
-4.51 -5.76 2.49
-4.39 -5.84 2.49
-4.27 -5.93 2.49
-4.15 -6.01 2.49
-4.02 -6.09 2.49
-3.90 -6.17 2.49
-3.77 -6.24 2.49
-3.65 -6.32 2.49
-3.52 -6.39 2.49
-3.39 -6.45 2.49
-3.25 -6.52 2.49
-3.12 -6.58 2.49
-2.99 -6.64 2.49
-2.85 -6.70 2.49
-2.72 -6.75 2.49
-2.58 -6.80 2.49
-2.44 -6.85 2.49
-2.30 -6.90 2.49
-2.16 -6.94 2.49
-2.02 -6.98 2.49
-1.88 -7.02 2.49
-1.74 -7.06 2.49
-1.60 -7.09 2.49
-1.45 -7.12 2.49
-1.31 -7.15 2.49
-1.17 -7.17 2.49
-1.02 -7.19 2.49
-0.88 -7.21 2.49
-0.73 -7.23 2.49
-0.58 -7.24 2.49
-0.44 -7.25 2.49
-0.29 -7.26 2.49
-0.15 -7.26 2.49
0.00 -6.76 2.49
0.14 -6.76 2.49
0.27 -6.76 2.49
0.41 -6.75 2.49
0.54 -6.74 2.49
0.68 -6.73 2.49
0.82 -6.72 2.49
0.95 -6.70 2.49
1.09 -6.68 2.49
1.22 -6.66 2.49
1.35 -6.63 2.49
1.49 -6.60 2.49
1.62 -6.57 2.49
1.68 -6.27 2.39
1.82 -6.29 2.41
1.93 -6.20 2.39
2.06 -6.16 2.39
2.18 -6.12 2.39
2.30 -6.07 2.39
2.43 -6.03 2.39
2.55 -5.98 2.39
2.67 -5.93 2.39
2.79 -5.87 2.39
2.91 -5.82 2.39
3.02 -5.76 2.39
3.14 -5.70 2.39
3.26 -5.64 2.39
3.37 -5.57 2.39
3.48 -5.51 2.39
3.59 -5.44 2.39
3.70 -5.36 2.39
3.81 -5.29 2.39
3.92 -5.21 2.39
4.02 -5.14 2.39
4.13 -5.06 2.39
4.23 -4.97 2.39
4.33 -4.89 2.39
4.43 -4.80 2.39
4.53 -4.72 2.39
4.62 -4.63 2.39
4.72 -4.53 2.39
4.81 -4.44 2.39
4.90 -4.34 2.39
4.99 -4.25 2.39
5.08 -4.15 2.39
5.16 -4.05 2.39
5.25 -3.94 2.39
5.33 -3.84 2.39
5.40 -3.73 2.39
5.48 -3.62 2.39
5.56 -3.52 2.39
5.63 -3.40 2.39
5.71 -3.30 2.39
5.77 -3.18 2.39
5.84 -3.07 2.39
5.90 -2.95 2.39
5.97 -2.83 2.39
6.02 -2.72 2.39
6.08 -2.59 2.39
6.14 -2.47 2.39
6.19 -2.35 2.39
6.24 -2.23 2.39
6.28 -2.10 2.39
6.33 -1.98 2.39
6.37 -1.85 2.39
6.41 -1.72 2.39
6.45 -1.60 2.39
6.48 -1.47 2.39
6.51 -1.34 2.39
6.54 -1.21 2.39
6.57 -1.08 2.39
6.59 -0.94 2.39
6.62 -0.81 2.39
6.64 -0.68 2.39
6.65 -0.55 2.39
6.66 -0.41 2.39
6.68 -0.28 2.39
6.68 -0.14 2.39
6.69 -0.01 2.39
6.69 0.12 2.39
6.69 0.26 2.39
6.69 0.39 2.39
6.69 0.53 2.39
6.68 0.66 2.39
6.67 0.80 2.39
6.65 0.93 2.39
6.64 1.06 2.39
6.62 1.20 2.39
6.60 1.33 2.39
6.57 1.46 2.39
6.55 1.60 2.39
6.52 1.73 2.39
6.48 1.86 2.39
6.45 1.99 2.39
6.41 2.12 2.39
6.37 2.25 2.39
6.33 2.38 2.39
6.28 2.51 2.39
6.24 2.63 2.39
6.19 2.76 2.39
6.13 2.88 2.39
6.08 3.01 2.39
6.02 3.13 2.39
5.96 3.25 2.39
5.89 3.37 2.39
5.83 3.49 2.39
5.76 3.61 2.39
5.69 3.73 2.39
5.61 3.84 2.39
5.53 3.95 2.39
5.46 4.06 2.39
5.38 4.17 2.39
5.29 4.28 2.39
5.21 4.39 2.39
5.12 4.50 2.39
1.96 1.79 0.93
1.93 1.83 0.93
4.85 4.80 2.39
4.76 4.90 2.39
4.66 5.00 2.39
4.56 5.09 2.39
4.46 5.18 2.39
4.36 5.27 2.39
4.25 5.36 2.39
4.14 5.45 2.39
4.04 5.53 2.39
3.93 5.61 2.39
3.81 5.69 2.39
3.70 5.77 2.39
3.59 5.84 2.39
3.47 5.92 2.39
3.35 5.99 2.39
3.23 6.05 2.39
3.11 6.12 2.39
2.99 6.18 2.39
2.86 6.24 2.39
2.74 6.30 2.39
2.61 6.35 2.39
2.49 6.41 2.39
2.36 6.46 2.39
2.23 6.50 2.39
2.10 6.55 2.39
1.97 6.59 2.39
1.84 6.64 2.39
1.70 6.67 2.39
1.64 6.99 2.49
1.50 7.02 2.49
1.36 7.05 2.49
1.22 7.08 2.49
1.07 7.10 2.49
0.93 7.12 2.49
0.79 7.14 2.49
0.65 7.15 2.49
0.50 7.17 2.49
0.36 7.17 2.49
0.22 7.18 2.49
0.07 7.18 2.49
-0.07 7.18 2.49
-0.22 7.18 2.49
-0.36 7.17 2.49
-0.50 7.17 2.49
-0.65 7.15 2.49
-0.79 7.14 2.49
-0.93 7.12 2.49
-1.07 7.10 2.49
-1.21 7.08 2.49
-1.36 7.05 2.49
-1.50 7.02 2.49
-1.64 6.99 2.49
-1.78 6.95 2.49
-1.91 6.91 2.49
-2.05 6.87 2.49
-2.19 6.83 2.49
-2.32 6.78 2.49
-2.46 6.73 2.49
-2.59 6.68 2.49
-2.73 6.63 2.49
-2.86 6.57 2.49
-2.99 6.51 2.49
-3.12 6.45 2.49
-3.24 6.38 2.49
-3.37 6.31 2.49
-3.49 6.24 2.49
-3.62 6.17 2.49
-3.74 6.09 2.49
-3.86 6.02 2.49
-3.98 5.94 2.49
-4.09 5.85 2.49
-4.21 5.77 2.49
-4.32 5.68 2.49
-4.43 5.59 2.49
-4.54 5.50 2.49
-4.65 5.40 2.49
-4.75 5.31 2.49
-4.86 5.21 2.49
-4.96 5.11 2.49
-5.06 5.01 2.49
-5.15 4.90 2.49
-5.25 4.80 2.49
-5.34 4.69 2.49
-5.43 4.58 2.49
-5.52 4.47 2.49
-5.61 4.35 2.49
-5.69 4.24 2.49
-5.77 4.12 2.49
-5.85 4.00 2.49
-5.92 3.88 2.49
-6.00 3.76 2.49
-6.07 3.64 2.49
-6.14 3.51 2.49
-6.20 3.39 2.49
-6.27 3.26 2.49
-6.33 3.13 2.49
-6.38 3.00 2.49
-6.40 2.86 2.48
-6.40 2.70 2.46
-6.40 2.55 2.44
-6.41 2.41 2.42
-6.41 2.26 2.41
-6.41 2.12 2.39
-6.44 1.99 2.39
-6.47 1.86 2.39
-6.50 1.72 2.39
-6.53 1.59 2.39
-6.56 1.46 2.39
-6.58 1.33 2.39
-6.62 1.20 2.39
-6.62 1.06 2.39
-6.64 0.93 2.39
-6.65 0.79 2.39
-6.66 0.66 2.39
-6.67 0.53 2.39
-6.68 0.39 2.39
-6.68 0.26 2.39
-6.68 0.12 2.39
-6.68 -0.01 2.39
-6.67 -0.14 2.39
-6.66 -0.28 2.39
-6.65 -0.41 2.39
-6.64 -0.54 2.39
-6.62 -0.68 2.39
-6.62 -0.81 2.39
-6.58 -0.94 2.39
-6.56 -1.07 2.39
-6.53 -1.20 2.39
-6.50 -1.33 2.39
-6.47 -1.46 2.39
-6.43 -1.59 2.39
-6.42 -1.73 2.40
-6.41 -1.86 2.41
-6.41 -2.00 2.42
-6.41 -2.14 2.44
-6.41 -2.29 2.46
-6.41 -2.43 2.48
-6.39 -2.58 2.49
-6.33 -2.70 2.49
-6.27 -2.83 2.49
-6.21 -2.95 2.49
-6.15 -3.07 2.49
-6.08 -3.19 2.49
-6.01 -3.31 2.49
-5.94 -3.43 2.49
-5.87 -3.55 2.49
-5.79 -3.67 2.49
-5.71 -3.78 2.49
-5.63 -3.89 2.49
-5.55 -4.00 2.49
-5.47 -4.11 2.49
-5.38 -4.22 2.49
-5.29 -4.32 2.49
-5.20 -4.43 2.49
-5.11 -4.53 2.49
-5.02 -4.63 2.49
-4.92 -4.73 2.49
-4.82 -4.82 2.49
-4.72 -4.92 2.49
-4.62 -5.01 2.49
-4.52 -5.10 2.49
-4.41 -5.19 2.49
-4.30 -5.27 2.49
-4.20 -5.36 2.49
-4.09 -5.44 2.49
-3.97 -5.52 2.49
-3.86 -5.59 2.49
-3.75 -5.67 2.49
-3.63 -5.74 2.49
-3.51 -5.81 2.49
-3.39 -5.88 2.49
-3.27 -5.94 2.49
-3.15 -6.01 2.49
-3.03 -6.07 2.49
-2.91 -6.13 2.49
-2.78 -6.18 2.49
-2.66 -6.24 2.49
-2.53 -6.29 2.49
-2.40 -6.34 2.49
-2.27 -6.38 2.49
-2.14 -6.42 2.49
-2.01 -6.46 2.49
-1.88 -6.50 2.49
-1.75 -6.54 2.49
-1.62 -6.57 2.49
-1.49 -6.60 2.49
-1.35 -6.63 2.49
-1.22 -6.66 2.49
-1.09 -6.68 2.49
-0.95 -6.70 2.49
-0.82 -6.72 2.49
-0.68 -6.73 2.49
-0.54 -6.74 2.49
-0.41 -6.75 2.49
-0.27 -6.76 2.49
-0.14 -6.76 2.49
0.00 -6.32 2.49
0.13 -6.32 2.49
0.25 -6.32 2.49
0.38 -6.31 2.49
0.51 -6.30 2.49
0.64 -6.29 2.49
0.76 -6.28 2.49
0.89 -6.26 2.49
1.02 -6.24 2.49
1.14 -6.22 2.49
1.27 -6.20 2.49
1.39 -6.17 2.49
1.51 -6.14 2.49
1.64 -6.10 2.49
1.69 -5.83 2.39
1.81 -5.79 2.39
1.92 -5.76 2.39
2.04 -5.72 2.39
2.15 -5.68 2.39
2.27 -5.63 2.39
2.38 -5.59 2.39
2.49 -5.54 2.39
2.61 -5.49 2.39
2.72 -5.44 2.39
2.83 -5.38 2.39
2.93 -5.33 2.39
3.04 -5.27 2.39
3.15 -5.21 2.39
3.25 -5.14 2.39
3.36 -5.08 2.39
3.46 -5.01 2.39
3.56 -4.94 2.39
3.66 -4.87 2.39
3.76 -4.80 2.39
3.86 -4.72 2.39
3.95 -4.65 2.39
4.05 -4.57 2.39
4.14 -4.49 2.39
4.23 -4.40 2.39
4.32 -4.32 2.39
4.41 -4.23 2.39
4.50 -4.15 2.39
4.58 -4.06 2.39
4.66 -3.97 2.39
4.74 -3.87 2.39
4.82 -3.78 2.39
4.90 -3.68 2.39
4.98 -3.58 2.39
5.05 -3.48 2.39
5.12 -3.38 2.39
5.19 -3.28 2.39
5.26 -3.18 2.39
5.32 -3.07 2.39
5.39 -2.97 2.39
5.45 -2.86 2.39
5.51 -2.75 2.39
5.56 -2.64 2.39
5.62 -2.53 2.39
5.68 -2.42 2.39
5.73 -2.31 2.39
5.78 -2.19 2.39
5.82 -2.08 2.39
5.87 -1.96 2.39
5.91 -1.84 2.39
5.95 -1.73 2.39
5.98 -1.61 2.39
6.02 -1.49 2.39
6.05 -1.37 2.39
6.08 -1.25 2.39
6.11 -1.12 2.39
6.13 -1.00 2.39
6.16 -0.88 2.39
6.18 -0.76 2.39
6.19 -0.63 2.39
6.21 -0.51 2.39
6.22 -0.38 2.39
6.23 -0.26 2.39
6.24 -0.13 2.39
6.24 -0.01 2.39
6.25 0.12 2.39
6.25 0.24 2.39
6.24 0.37 2.39
6.24 0.49 2.39
6.23 0.62 2.39
6.22 0.74 2.39
6.21 0.87 2.39
6.19 0.99 2.39
