ply
format ascii 1.0
element vertex 2882
property float32 x
property float32 y
property float32 z
end_header
-11.75 -2.45 1.27
-11.75 -2.70 1.28
-11.74 -2.95 1.28
-11.73 -3.20 1.29
-11.73 -3.45 1.30
-11.78 -3.72 1.31
-11.82 -4.00 1.32
-11.86 -4.28 1.34
-11.90 -4.57 1.35
-11.94 -4.86 1.37
-11.97 -5.15 1.38
-12.00 -5.45 1.40
-12.01 -5.75 1.41
-12.02 -6.06 1.42
-12.03 -6.37 1.44
-12.04 -6.69 1.46
-12.05 -7.01 1.47
-12.06 -7.35 1.49
-12.05 -7.68 1.51
-12.03 -8.01 1.53
-12.02 -8.36 1.55
-12.00 -8.71 1.56
-11.98 -9.07 1.58
-11.97 -9.44 1.61
-11.94 -9.81 1.63
-11.90 -10.19 1.65
-11.87 -10.58 1.67
-11.83 -10.98 1.70
-11.80 -11.40 1.72
-11.79 -11.86 1.75
-11.78 -12.34 1.79
-11.78 -12.84 1.82
-11.76 -13.35 1.86
-11.78 -13.93 1.91
-11.82 -14.56 1.96
-11.90 -15.27 2.02
-11.91 -15.94 2.07
-11.85 -16.53 2.12
-11.79 -17.17 2.17
-11.78 -17.92 2.23
-11.67 -18.55 2.27
-11.55 -19.21 2.32
-11.42 -19.89 2.37
-11.21 -20.47 2.41
-10.88 -20.85 2.43
-10.54 -21.22 2.44
-9.91 -21.01 2.39
-9.50 -21.23 2.39
-9.09 -21.45 2.39
-8.67 -21.66 2.39
-8.25 -21.87 2.39
-7.82 -22.06 2.39
-7.38 -22.25 2.39
-6.95 -22.43 2.39
-6.50 -22.60 2.39
-6.19 -23.26 2.44
-5.85 -23.91 2.49
-5.38 -24.06 2.49
-4.90 -24.20 2.49
-4.42 -24.34 2.49
-3.94 -24.47 2.49
-3.46 -24.58 2.49
-2.97 -24.69 2.49
-1.61 -16.14 1.62
-1.28 -16.14 1.62
-0.96 -16.14 1.61
-0.63 -16.14 1.61
-0.31 -16.13 1.60
0.02 -16.13 1.97
0.43 -20.48 2.49
0.85 -20.50 2.49
1.26 -20.51 2.49
1.67 -20.51 2.49
2.00 -19.66 2.39
2.40 -19.65 2.39
2.80 -19.63 2.39
3.20 -19.60 2.39
3.60 -19.56 2.39
4.00 -19.52 2.39
4.39 -19.47 2.39
2.15 -8.69 1.07
5.19 -19.34 2.39
5.59 -19.26 2.39
5.99 -19.21 2.39
6.38 -19.11 2.39
6.78 -19.01 2.39
7.17 -18.91 2.39
7.56 -18.79 2.39
7.95 -18.67 2.39
8.34 -18.53 2.39
8.72 -18.39 2.39
9.10 -18.25 2.39
9.49 -18.09 2.39
9.86 -17.93 2.39
10.24 -17.76 2.39
10.61 -17.58 2.39
10.98 -17.39 2.39
11.34 -17.19 2.39
11.71 -16.99 2.39
12.07 -16.78 2.39
12.42 -16.56 2.39
12.77 -16.34 2.39
13.12 -16.10 2.39
13.46 -15.86 2.39
13.80 -15.61 2.39
14.13 -15.36 2.39
14.46 -15.10 2.39
14.70 -14.74 2.38
14.72 -14.18 2.33
14.68 -13.59 2.28
14.70 -13.07 2.24
14.72 -12.57 2.20
14.68 -12.03 2.15
14.68 -11.55 2.12
14.68 -11.08 2.08
14.62 -10.58 2.04
14.62 -10.14 2.01
14.62 -9.71 1.98
14.62 -9.29 1.95
14.56 -8.85 1.91
14.56 -8.46 1.89
14.56 -8.07 1.87
14.50 -7.66 1.84
14.50 -7.29 1.81
14.49 -6.93 1.79
14.48 -6.57 1.77
14.47 -6.22 1.75
14.44 -5.86 1.73
14.48 -5.54 1.72
14.53 -5.23 1.71
14.57 -4.92 1.70
14.73 -4.65 1.71
14.89 -4.37 1.72
15.05 -4.09 1.72
15.22 -3.81 1.73
15.38 -3.52 1.74
15.55 -3.24 1.75
15.71 -2.94 1.76
15.88 -2.65 1.77
16.06 -2.35 1.78
16.23 -2.04 1.80
15.56 -1.64 1.72
14.94 -1.27 1.64
15.10 -0.98 1.66
15.27 -0.68 1.67
15.45 -0.38 1.69
15.62 -0.07 1.71
15.81 0.24 1.73
15.99 0.57 1.75
16.18 0.90 1.77
16.38 1.24 1.79
16.58 1.59 1.82
16.79 1.95 1.84
17.00 2.32 1.87
17.22 2.70 1.90
17.45 3.10 1.93
17.68 3.51 1.96
17.93 3.93 2.00
18.18 4.37 2.03
18.44 4.83 2.07
18.71 5.30 2.12
19.00 5.80 2.16
19.29 6.31 2.21
19.60 6.85 2.26
20.61 7.67 2.39
20.46 8.08 2.39
20.29 8.49 2.39
20.11 8.89 2.39
19.92 9.29 2.39
19.73 9.69 2.39
19.52 10.08 2.39
19.31 10.47 2.39
19.09 10.85 2.39
18.86 11.22 2.39
18.63 11.60 2.39
18.38 11.96 2.39
18.13 12.32 2.39
17.87 12.68 2.39
17.60 13.02 2.39
17.33 13.37 2.39
17.05 13.70 2.39
16.76 14.03 2.39
16.46 14.36 2.39
16.16 14.67 2.39
15.85 14.98 2.39
15.53 15.29 2.39
15.21 15.58 2.39
14.88 15.87 2.39
14.55 16.15 2.39
14.21 16.42 2.39
13.86 16.69 2.39
13.51 16.95 2.39
13.16 17.20 2.39
12.80 17.44 2.39
12.43 17.67 2.39
12.06 17.90 2.39
11.69 18.12 2.39
11.31 18.33 2.39
10.92 18.53 2.39
10.54 18.72 2.39
10.15 18.91 2.39
9.75 19.08 2.39
9.36 19.25 2.39
8.96 19.41 2.39
8.56 19.56 2.39
8.15 19.70 2.39
7.74 19.83 2.39
7.33 19.96 2.39
6.92 20.07 2.39
6.51 20.18 2.39
6.09 20.27 2.39
5.67 20.34 2.39
5.26 20.42 2.39
4.84 20.49 2.39
4.42 20.55 2.39
4.00 20.61 2.39
3.58 20.65 2.39
3.16 20.68 2.39
2.74 20.71 2.39
2.32 20.73 2.39
1.90 20.74 2.39
1.55 21.63 2.49
1.11 21.63 2.49
0.67 21.61 2.49
0.24 21.58 2.49
-0.19 21.55 2.49
-0.62 21.50 2.49
-1.05 21.45 2.49
-1.48 21.39 2.49
-1.91 21.32 2.49
-2.33 21.24 2.49
-2.75 21.15 2.49
-3.17 21.06 2.49
-3.59 20.96 2.49
-4.00 20.84 2.49
-4.41 20.73 2.49
-4.82 20.60 2.49
-5.22 20.46 2.49
-5.62 20.32 2.49
-6.02 20.17 2.49
-6.28 19.62 2.45
-6.52 19.02 2.39
-6.88 18.85 2.39
-7.25 18.68 2.39
-7.61 18.50 2.39
-7.97 18.31 2.39
-8.32 18.12 2.39
-8.67 17.92 2.39
-9.01 17.71 2.39
-9.35 17.50 2.39
-9.68 17.28 2.39
-10.01 17.05 2.39
-11.57 18.83 2.68
-11.75 18.29 2.64
-11.93 17.77 2.60
-12.03 17.17 2.55
-12.08 16.53 2.50
-12.14 15.92 2.44
-12.13 15.26 2.38
-12.11 14.63 2.33
-12.12 14.06 2.28
-12.03 13.40 2.21
-11.82 12.65 2.13
-11.81 12.14 2.09
-11.79 11.64 2.04
-11.75 11.14 2.00
-11.68 10.64 1.95
-11.66 10.20 1.92
-11.64 9.78 1.89
-11.62 9.37 1.85
-11.59 8.97 1.82
-11.56 8.58 1.79
-11.56 8.22 1.77
-11.56 7.87 1.75
-11.55 7.54 1.72
-11.54 7.21 1.70
-11.55 6.89 1.69
-11.54 6.57 1.67
-11.51 6.26 1.65
-11.49 5.95 1.63
-11.47 5.65 1.61
-11.44 5.35 1.59
-11.42 5.06 1.58
-11.40 4.78 1.56
-11.40 4.52 1.55
-11.40 4.25 1.54
-11.41 4.00 1.53
-11.41 3.74 1.52
-11.41 3.49 1.51
-11.41 3.24 1.51
-11.41 2.99 1.50
-11.40 2.75 1.49
-11.41 2.51 1.49
-11.42 2.27 1.48
-11.42 2.03 1.48
-11.43 1.80 1.48
-11.43 1.56 1.47
-11.44 1.33 1.47
-11.44 1.10 1.47
-11.44 0.87 1.47
-11.45 0.64 1.47
-11.45 0.41 1.47
-11.45 0.18 1.47
-11.46 -0.05 1.47
-11.46 -0.28 1.47
-11.46 -0.51 1.47
-11.46 -0.74 1.48
-11.46 -0.98 1.48
-11.46 -1.21 1.48
-11.46 -1.44 1.49
-11.46 -1.68 1.49
-11.46 -1.91 1.49
-11.46 -2.15 1.50
-11.45 -2.39 1.51
-11.45 -2.63 1.51
-11.44 -2.87 1.52
-11.43 -3.11 1.53
-11.42 -3.36 1.53
-11.46 -3.62 1.55
-11.49 -3.89 1.56
-11.53 -4.16 1.58
-11.57 -4.44 1.60
-11.60 -4.72 1.61
-11.64 -5.01 1.63
-11.67 -5.31 1.65
-11.68 -5.60 1.67
-11.69 -5.89 1.69
-11.70 -6.19 1.70
-11.70 -6.50 1.72
-11.71 -6.82 1.74
-11.72 -7.14 1.76
-11.72 -7.47 1.79
-11.70 -7.79 1.81
-11.68 -8.12 1.83
-11.66 -8.46 1.85
-11.64 -8.80 1.87
-11.61 -9.16 1.90
-11.59 -9.52 1.92
-11.55 -9.89 1.95
-11.51 -10.26 1.97
-11.47 -10.65 2.00
-11.43 -11.04 2.03
-11.38 -11.45 2.06
-11.36 -11.90 2.10
-11.35 -12.37 2.14
-11.33 -12.86 2.18
-11.31 -13.38 2.23
-11.32 -13.95 2.29
-11.35 -14.57 2.35
-11.37 -15.22 2.41
-11.36 -15.86 2.48
-11.28 -16.44 2.53
-11.09 -16.87 2.56
-10.06 -15.99 2.39
-9.74 -16.21 2.39
-9.43 -16.42 2.39
-9.10 -16.62 2.39
-8.78 -16.82 2.39
-8.45 -17.01 2.39
-8.11 -17.20 2.39
-7.77 -17.38 2.39
-7.43 -17.55 2.39
-7.09 -17.72 2.39
-6.74 -17.88 2.39
-6.39 -18.03 2.39
-6.21 -18.72 2.46
-5.92 -19.11 2.49
-5.54 -19.25 2.49
-5.16 -19.39 2.49
-4.77 -19.51 2.49
-4.39 -19.63 2.49
-4.00 -19.75 2.49
-3.60 -19.85 2.49
-3.21 -19.95 2.49
-2.81 -20.04 2.49
-2.00 -16.64 2.06
-1.61 -16.13 1.99
-1.28 -16.13 1.99
-0.96 -16.13 1.98
-0.63 -16.13 1.97
-0.31 -16.13 1.97
0.02 -16.65 2.41
0.37 -17.23 2.49
0.72 -17.24 2.49
1.06 -17.25 2.49
1.41 -17.25 2.49
1.76 -17.24 2.49
2.03 -16.55 2.40
2.36 -16.49 2.39
2.69 -16.46 2.39
3.02 -16.43 2.39
3.36 -16.39 2.39
3.69 -16.34 2.39
2.15 -8.69 1.28
4.36 -16.23 2.39
4.69 -16.16 2.39
5.02 -16.08 2.39
5.35 -16.00 2.39
5.68 -15.91 2.39
6.01 -15.84 2.39
6.34 -15.74 2.39
6.66 -15.63 2.39
6.98 -15.52 2.39
7.30 -15.39 2.39
7.62 -15.27 2.39
7.94 -15.13 2.39
8.25 -14.99 2.39
8.56 -14.84 2.39
8.87 -14.69 2.39
9.18 -14.53 2.39
9.48 -14.36 2.39
9.78 -14.19 2.39
10.08 -14.01 2.39
10.37 -13.82 2.39
10.66 -13.63 2.39
10.95 -13.43 2.39
11.23 -13.23 2.39
11.51 -13.02 2.39
11.78 -12.80 2.39
12.05 -12.58 2.39
12.32 -12.35 2.39
12.58 -12.12 2.39
12.84 -11.88 2.39
13.09 -11.63 2.39
13.34 -11.38 2.39
13.58 -11.13 2.39
13.82 -10.87 2.39
14.05 -10.60 2.39
14.28 -10.33 2.39
14.50 -10.05 2.39
14.62 -9.71 2.38
14.62 -9.29 2.34
14.56 -8.85 2.30
14.56 -8.45 2.27
14.56 -8.07 2.25
14.50 -7.66 2.21
14.50 -7.29 2.18
14.49 -6.92 2.16
14.48 -6.57 2.14
14.47 -6.22 2.11
14.44 -5.86 2.09
14.48 -5.54 2.08
14.53 -5.23 2.07
14.57 -4.92 2.06
14.74 -4.64 2.06
14.89 -4.37 2.07
15.06 -4.09 2.08
15.22 -3.81 2.09
15.38 -3.52 2.10
15.55 -3.23 2.11
15.71 -2.94 2.12
15.89 -2.65 2.14
16.06 -2.34 2.15
16.23 -2.04 2.17
15.56 -1.64 2.07
14.94 -1.27 1.99
15.10 -0.98 2.00
15.27 -0.68 2.02
15.45 -0.38 2.04
15.62 -0.07 2.07
15.81 0.24 2.09
15.99 0.57 2.11
16.18 0.90 2.14
16.38 1.24 2.17
16.58 1.59 2.20
16.79 1.95 2.23
17.00 2.32 2.26
17.22 2.70 2.30
17.45 3.10 2.33
17.68 3.51 2.37
17.75 3.89 2.39
17.67 4.25 2.39
17.58 4.60 2.39
17.49 4.95 2.39
17.39 5.30 2.39
17.28 5.65 2.39
17.16 6.00 2.39
17.04 6.34 2.39
16.91 6.68 2.39
16.77 7.02 2.39
16.62 7.35 2.39
16.47 7.68 2.39
16.31 8.01 2.39
16.14 8.33 2.39
15.96 8.65 2.39
15.78 8.97 2.39
15.60 9.28 2.39
15.40 9.59 2.39
15.20 9.89 2.39
14.99 10.19 2.39
14.78 10.48 2.39
14.56 10.77 2.39
14.33 11.06 2.39
14.10 11.33 2.39
13.86 11.61 2.39
13.62 11.88 2.39
13.37 12.14 2.39
13.12 12.40 2.39
12.86 12.65 2.39
12.59 12.90 2.39
12.32 13.14 2.39
12.05 13.37 2.39
11.77 13.60 2.39
11.49 13.82 2.39
11.20 14.04 2.39
10.90 14.25 2.39
10.61 14.45 2.39
10.31 14.65 2.39
10.00 14.84 2.39
9.69 15.02 2.39
9.38 15.20 2.39
9.06 15.37 2.39
8.75 15.53 2.39
8.42 15.69 2.39
8.10 15.84 2.39
7.77 15.98 2.39
7.44 16.12 2.39
7.11 16.24 2.39
6.77 16.37 2.39
6.44 16.48 2.39
6.10 16.59 2.39
5.75 16.67 2.39
5.41 16.76 2.39
5.07 16.84 2.39
4.72 16.92 2.39
4.38 16.99 2.39
4.03 17.05 2.39
3.68 17.11 2.39
3.33 17.16 2.39
2.99 17.20 2.39
2.64 17.23 2.39
2.29 17.26 2.39
1.95 17.43 2.41
1.66 18.04 2.49
1.29 18.04 2.49
0.93 18.04 2.49
0.57 18.03 2.49
0.20 18.01 2.49
-0.16 17.99 2.49
-0.52 17.96 2.49
-0.88 17.92 2.49
-1.23 17.87 2.49
-1.59 17.82 2.49
-1.94 17.76 2.49
-2.30 17.69 2.49
-2.65 17.62 2.49
-3.00 17.53 2.49
-3.34 17.45 2.49
-3.69 17.35 2.49
-4.03 17.25 2.49
-4.37 17.14 2.49
-4.70 17.02 2.49
-5.04 16.90 2.49
-5.37 16.77 2.49
-5.70 16.64 2.49
-6.02 16.50 2.49
-6.28 16.19 2.47
-6.38 15.53 2.39
-6.68 15.37 2.39
-6.98 15.21 2.39
-7.27 15.05 2.39
-7.56 14.88 2.39
-7.85 14.70 2.39
-8.13 14.52 2.39
-8.41 14.34 2.39
-8.69 14.15 2.39
-8.96 13.95 2.39
-9.22 13.75 2.39
-9.48 13.54 2.39
-9.74 13.33 2.39
-9.99 13.12 2.39
-10.24 12.90 2.39
-11.20 13.53 2.55
-11.24 13.05 2.51
-11.28 12.56 2.46
-11.27 12.06 2.41
-11.27 11.58 2.36
-11.26 11.12 2.31
-11.26 10.68 2.27
-11.24 10.24 2.23
-11.22 9.82 2.19
-11.19 9.41 2.15
-11.17 9.01 2.11
-11.18 8.65 2.08
-11.18 8.30 2.05
-11.18 7.96 2.03
-11.18 7.62 2.00
-11.18 7.30 1.98
-11.18 6.98 1.95
-11.19 6.68 1.93
-11.17 6.36 1.91
-11.14 6.06 1.88
-11.12 5.76 1.86
-11.09 5.46 1.84
-11.06 5.18 1.82
-11.03 4.89 1.80
-11.03 4.63 1.79
-11.04 4.38 1.77
-11.05 4.12 1.76
-11.06 3.88 1.75
-11.06 3.63 1.74
-11.06 3.39 1.73
-11.07 3.14 1.73
-11.07 2.91 1.72
-11.07 2.67 1.71
-11.06 2.43 1.70
-11.08 2.20 1.70
-11.09 1.98 1.70
-11.09 1.75 1.69
-11.10 1.52 1.69
-11.11 1.30 1.69
-11.12 1.07 1.69
-11.12 0.85 1.68
-11.12 0.62 1.68
-11.12 0.40 1.68
-11.12 0.17 1.68
-11.13 -0.05 1.68
-11.13 -0.27 1.68
-11.13 -0.50 1.69
-11.13 -0.72 1.69
-11.13 -0.95 1.69
-11.13 -1.17 1.70
-11.12 -1.40 1.70
-11.12 -1.63 1.70
-11.11 -1.85 1.71
-11.11 -2.08 1.71
-11.10 -2.31 1.72
-11.09 -2.55 1.73
-11.08 -2.78 1.73
-11.07 -3.01 1.74
-11.06 -3.25 1.75
-11.04 -3.49 1.76
-11.04 -3.73 1.77
-11.12 -4.01 1.79
-11.19 -4.29 1.82
-11.27 -4.59 1.85
-11.32 -4.87 1.87
-11.35 -5.16 1.89
-11.38 -5.45 1.91
-11.38 -5.74 1.93
-11.38 -6.03 1.95
-11.39 -6.33 1.97
-11.39 -6.63 2.00
-11.39 -6.94 2.02
-11.39 -7.26 2.05
-11.38 -7.58 2.07
-11.36 -7.90 2.09
-11.33 -8.22 2.12
-11.31 -8.56 2.14
-11.26 -8.88 2.17
-11.17 -9.19 2.19
-11.09 -9.49 2.20
-11.01 -9.82 2.23
-10.90 -10.12 2.24
-10.79 -10.43 2.26
-10.67 -10.74 2.28
-10.55 -11.06 2.30
-10.43 -11.38 2.32
-10.33 -11.74 2.35
-10.25 -12.13 2.39
-10.03 -12.36 2.39
-9.79 -12.57 2.39
-9.54 -12.77 2.39
-9.29 -12.97 2.39
-9.03 -13.16 2.39
-8.77 -13.35 2.39
-8.51 -13.54 2.39
-8.24 -13.72 2.39
-7.97 -13.89 2.39
-7.70 -14.06 2.39
-7.42 -14.23 2.39
-7.14 -14.39 2.39
-6.86 -14.54 2.39
-6.57 -14.69 2.39
-6.28 -14.84 2.39
-6.21 -15.54 2.48
-5.94 -15.76 2.49
-5.63 -15.90 2.49
-5.31 -16.02 2.49
-4.99 -16.14 2.49
-4.67 -16.26 2.49
-4.35 -16.37 2.49
-4.03 -16.47 2.49
-3.70 -16.57 2.49
-3.37 -16.66 2.49
-3.04 -16.74 2.49
-2.70 -16.82 2.49
-2.37 -16.89 2.49
-2.03 -16.96 2.49
-1.66 -16.72 2.45
-1.35 -17.07 2.49
-1.01 -17.12 2.49
-0.67 -17.15 2.49
-0.32 -17.19 2.49
0.02 -14.85 2.49
0.32 -14.86 2.49
0.62 -14.87 2.49
0.92 -14.87 2.49
1.22 -14.87 2.49
1.52 -14.86 2.49
1.82 -14.84 2.49
2.03 -14.21 2.39
2.32 -14.18 2.39
2.61 -14.15 2.39
2.89 -14.11 2.39
3.18 -14.07 2.39
2.14 -8.66 1.48
3.75 -13.96 2.39
4.04 -13.90 2.39
4.32 -13.83 2.39
4.60 -13.76 2.39
4.88 -13.68 2.39
5.16 -13.60 2.39
5.44 -13.51 2.39
5.72 -13.41 2.39
6.00 -13.33 2.39
6.28 -13.22 2.39
6.55 -13.11 2.39
6.82 -12.99 2.39
7.09 -12.87 2.39
7.35 -12.74 2.39
7.62 -12.61 2.39
7.88 -12.47 2.39
8.14 -12.32 2.39
8.39 -12.17 2.39
8.65 -12.01 2.39
8.90 -11.85 2.39
9.14 -11.68 2.39
9.39 -11.51 2.39
9.63 -11.33 2.39
9.86 -11.15 2.39
10.10 -10.96 2.39
10.33 -10.77 2.39
10.55 -10.58 2.39
10.77 -10.37 2.39
10.99 -10.17 2.39
11.21 -9.95 2.39
11.42 -9.74 2.39
11.62 -9.52 2.39
11.82 -9.29 2.39
12.02 -9.06 2.39
12.21 -8.83 2.39
12.40 -8.59 2.39
12.58 -8.35 2.39
12.76 -8.10 2.39
12.93 -7.85 2.39
13.10 -7.60 2.39
13.26 -7.34 2.39
13.42 -7.08 2.39
13.57 -6.82 2.39
13.72 -6.55 2.39
13.86 -6.28 2.39
13.99 -6.01 2.39
14.12 -5.73 2.39
14.25 -5.45 2.39
14.37 -5.17 2.39
14.48 -4.88 2.39
14.58 -4.59 2.39
14.68 -4.30 2.39
14.78 -4.01 2.39
14.87 -3.72 2.39
14.95 -3.42 2.39
15.02 -3.12 2.39
15.09 -2.82 2.39
15.16 -2.52 2.39
15.21 -2.22 2.39
15.26 -1.91 2.39
15.31 -1.61 2.39
14.94 -1.27 2.33
15.10 -0.98 2.35
15.27 -0.68 2.37
15.42 -0.38 2.39
15.43 -0.07 2.39
15.43 0.24 2.39
15.43 0.55 2.39
15.42 0.86 2.39
15.41 1.17 2.39
15.38 1.48 2.39
15.36 1.79 2.39
15.32 2.09 2.39
15.28 2.40 2.39
15.23 2.71 2.39
15.18 3.01 2.39
15.11 3.32 2.39
15.04 3.62 2.39
14.97 3.92 2.39
14.89 4.22 2.39
14.80 4.52 2.39
14.71 4.81 2.39
14.61 5.11 2.39
14.50 5.40 2.39
14.39 5.69 2.39
14.27 5.97 2.39
14.15 6.26 2.39
14.02 6.54 2.39
13.88 6.82 2.39
13.74 7.09 2.39
13.59 7.37 2.39
13.44 7.63 2.39
13.28 7.90 2.39
13.12 8.16 2.39
12.95 8.42 2.39
12.77 8.68 2.39
12.59 8.93 2.39
12.40 9.17 2.39
12.21 9.42 2.39
12.02 9.66 2.39
11.81 9.89 2.39
11.61 10.12 2.39
11.40 10.34 2.39
11.18 10.57 2.39
10.96 10.78 2.39
10.74 10.99 2.39
10.51 11.20 2.39
10.27 11.40 2.39
10.04 11.60 2.39
9.80 11.79 2.39
9.55 11.97 2.39
9.30 12.15 2.39
9.05 12.33 2.39
8.79 12.50 2.39
8.54 12.66 2.39
8.27 12.82 2.39
8.01 12.97 2.39
7.74 13.12 2.39
7.47 13.26 2.39
7.20 13.40 2.39
6.92 13.52 2.39
6.64 13.65 2.39
6.36 13.77 2.39
6.08 13.88 2.39
5.78 13.97 2.39
5.50 14.07 2.39
5.21 14.16 2.39
4.92 14.25 2.39
4.63 14.33 2.39
4.34 14.40 2.39
4.04 14.47 2.39
3.75 14.54 2.39
3.45 14.59 2.39
3.15 14.64 2.39
2.86 14.69 2.39
2.56 14.72 2.39
2.26 14.76 2.39
1.96 14.80 2.39
1.73 15.44 2.49
1.42 15.45 2.49
1.11 15.46 2.49
0.80 15.46 2.49
0.49 15.46 2.49
0.18 15.44 2.49
-0.13 15.43 2.49
-0.44 15.40 2.49
-0.75 15.37 2.49
-1.05 15.34 2.49
-1.36 15.29 2.49
-1.67 15.24 2.49
-1.97 15.19 2.49
-2.27 15.13 2.49
-2.57 15.06 2.49
-2.87 14.99 2.49
-3.16 14.91 2.49
-3.46 14.82 2.49
-3.75 14.73 2.49
-4.04 14.64 2.49
-4.33 14.53 2.49
-4.61 14.43 2.49
-4.90 14.31 2.49
-5.18 14.19 2.49
-5.45 14.07 2.49
-5.73 13.94 2.49
-6.00 13.81 2.49
-6.27 13.67 2.49
-6.28 13.00 2.40
-6.51 12.82 2.39
-6.76 12.67 2.39
-7.01 12.52 2.39
-7.25 12.36 2.39
-7.48 12.20 2.39
-7.72 12.03 2.39
-7.95 11.86 2.39
-8.18 11.68 2.39
-8.40 11.50 2.39
-8.62 11.32 2.39
-8.83 11.13 2.39
-9.05 10.94 2.39
-9.25 10.74 2.39
-9.46 10.54 2.39
-9.66 10.34 2.39
-9.85 10.13 2.39
-10.04 9.92 2.39
-10.23 9.71 2.39
-10.53 9.60 2.42
-10.52 9.21 2.38
-10.51 8.84 2.34
-10.57 8.53 2.31
-10.62 8.22 2.29
-10.64 7.90 2.26
-10.65 7.58 2.23
-10.66 7.27 2.21
-10.67 6.96 2.18
-10.68 6.67 2.16
-10.72 6.40 2.14
-10.73 6.12 2.12
-10.72 5.83 2.09
-10.70 5.54 2.07
-10.67 5.26 2.05
-10.65 4.99 2.02
-10.64 4.72 2.00
-10.66 4.48 1.99
-10.68 4.23 1.98
-10.69 3.99 1.97
-10.70 3.75 1.96
-10.70 3.51 1.95
-10.71 3.28 1.94
-10.72 3.05 1.93
-10.72 2.82 1.92
-10.72 2.59 1.91
-10.71 2.36 1.90
-10.71 2.13 1.89
-10.72 1.91 1.89
-10.73 1.69 1.89
-10.73 1.47 1.88
-10.74 1.25 1.88
-10.75 1.04 1.88
-10.75 0.82 1.88
-10.75 0.60 1.88
-10.75 0.38 1.87
-10.74 0.17 1.87
-10.74 -0.05 1.87
-10.74 -0.26 1.87
-10.74 -0.48 1.88
-10.74 -0.70 1.88
-10.74 -0.91 1.88
-10.74 -1.13 1.89
-10.73 -1.35 1.89
-10.73 -1.57 1.89
-10.72 -1.79 1.90
-10.71 -2.01 1.90
-10.70 -2.23 1.91
-10.69 -2.45 1.92
-10.68 -2.68 1.93
-10.67 -2.91 1.93
-10.66 -3.13 1.94
-10.64 -3.36 1.95
-10.62 -3.59 1.96
-10.59 -3.82 1.97
-10.56 -4.05 1.98
-10.59 -4.31 2.00
-10.65 -4.59 2.03
-10.71 -4.87 2.06
-10.77 -5.16 2.09
-10.81 -5.45 2.12
-10.75 -5.70 2.13
-10.69 -5.94 2.14
-10.66 -6.21 2.16
-10.66 -6.50 2.18
-10.65 -6.79 2.20
-10.64 -7.08 2.23
-10.62 -7.39 2.26
-10.55 -7.66 2.27
-10.46 -7.92 2.29
-10.37 -8.18 2.30
-10.27 -8.45 2.32
-10.18 -8.72 2.33
-10.09 -9.00 2.35
-9.99 -9.28 2.37
-9.88 -9.55 2.39
-9.69 -9.76 2.39
-9.50 -9.95 2.39
-9.30 -10.15 2.39
-9.10 -10.34 2.39
-8.90 -10.53 2.39
-8.69 -10.71 2.39
-8.48 -10.89 2.39
-8.26 -11.07 2.39
-8.05 -11.24 2.39
-7.82 -11.40 2.39
-7.60 -11.57 2.39
-7.37 -11.73 2.39
-7.14 -11.88 2.39
-6.90 -12.03 2.39
-6.66 -12.18 2.39
-6.43 -12.34 2.39
-6.23 -12.55 2.41
-6.19 -13.13 2.49
-5.93 -13.27 2.49
-5.67 -13.39 2.49
-5.40 -13.52 2.49
-5.13 -13.64 2.49
-4.86 -13.75 2.49
-4.59 -13.86 2.49
-4.32 -13.96 2.49
-4.04 -14.06 2.49
-3.76 -14.15 2.49
-3.48 -14.24 2.49
-3.19 -14.32 2.49
-2.91 -14.40 2.49
-2.62 -14.47 2.49
-2.33 -14.53 2.49
-2.04 -14.59 2.49
-1.75 -14.64 2.49
-1.46 -14.69 2.49
-1.16 -14.74 2.49
-0.87 -14.77 2.49
-0.57 -14.80 2.49
-0.27 -14.83 2.49
0.02 -13.04 2.49
0.29 -13.05 2.49
0.55 -13.06 2.49
0.81 -13.06 2.49
1.07 -13.05 2.49
1.34 -13.04 2.49
1.60 -13.03 2.49
1.83 -12.74 2.44
2.04 -12.44 2.39
2.29 -12.41 2.39
2.54 -12.38 2.39
2.79 -12.34 2.39
2.14 -8.66 1.68
3.29 -12.24 2.39
3.54 -12.19 2.39
3.79 -12.13 2.39
4.04 -12.06 2.39
4.28 -11.99 2.39
4.53 -11.91 2.39
4.77 -11.83 2.39
5.01 -11.75 2.39
5.25 -11.66 2.39
5.49 -11.56 2.39
5.73 -11.46 2.39
5.97 -11.37 2.39
6.21 -11.26 2.39
6.44 -11.15 2.39
6.67 -11.03 2.39
6.90 -10.91 2.39
7.12 -10.78 2.39
7.34 -10.64 2.39
7.56 -10.50 2.39
7.78 -10.36 2.39
8.00 -10.21 2.39
8.21 -10.06 2.39
8.42 -9.91 2.39
8.62 -9.74 2.39
8.82 -9.58 2.39
9.02 -9.41 2.39
9.22 -9.24 2.39
9.41 -9.06 2.39
9.60 -8.88 2.39
9.79 -8.69 2.39
9.97 -8.50 2.39
10.15 -8.31 2.39
10.32 -8.11 2.39
10.49 -7.91 2.39
10.66 -7.70 2.39
10.82 -7.50 2.39
10.98 -7.28 2.39
11.13 -7.07 2.39
11.28 -6.85 2.39
11.43 -6.63 2.39
11.57 -6.40 2.39
11.70 -6.17 2.39
11.83 -5.94 2.39
11.96 -5.71 2.39
12.08 -5.47 2.39
12.20 -5.23 2.39
12.31 -4.99 2.39
12.42 -4.75 2.39
12.52 -4.50 2.39
12.61 -4.25 2.39
12.71 -4.00 2.39
12.79 -3.75 2.39
12.87 -3.49 2.39
12.95 -3.24 2.39
13.02 -2.98 2.39
13.08 -2.72 2.39
13.14 -2.46 2.39
13.20 -2.19 2.39
13.24 -1.93 2.39
13.29 -1.67 2.39
13.32 -1.40 2.39
13.35 -1.13 2.39
13.38 -0.87 2.39
13.40 -0.60 2.39
13.42 -0.33 2.39
13.42 -0.06 2.39
13.43 0.21 2.39
13.43 0.48 2.39
13.42 0.75 2.39
13.40 1.02 2.39
13.38 1.29 2.39
13.36 1.55 2.39
13.33 1.82 2.39
13.29 2.09 2.39
13.25 2.35 2.39
13.20 2.62 2.39
13.15 2.88 2.39
13.09 3.15 2.39
13.02 3.41 2.39
12.95 3.67 2.39
12.88 3.93 2.39
12.79 4.19 2.39
12.71 4.44 2.39
12.62 4.69 2.39
12.52 4.95 2.39
12.42 5.20 2.39
12.31 5.44 2.39
12.20 5.69 2.39
12.08 5.93 2.39
11.95 6.17 2.39
11.83 6.41 2.39
11.69 6.64 2.39
11.55 6.87 2.39
11.41 7.10 2.39
11.26 7.33 2.39
11.11 7.55 2.39
10.95 7.77 2.39
10.79 7.98 2.39
10.63 8.19 2.39
10.46 8.40 2.39
10.28 8.61 2.39
10.10 8.81 2.39
9.92 9.00 2.39
9.73 9.20 2.39
9.54 9.38 2.39
9.35 9.57 2.39
9.15 9.75 2.39
8.95 9.92 2.39
8.74 10.10 2.39
8.53 10.26 2.39
8.32 10.43 2.39
8.10 10.58 2.39
7.88 10.74 2.39
7.66 10.89 2.39
7.44 11.03 2.39
7.21 11.17 2.39
6.98 11.30 2.39
6.75 11.43 2.39
6.51 11.56 2.39
6.27 11.68 2.39
6.03 11.79 2.39
5.79 11.89 2.39
5.54 11.99 2.39
5.30 12.09 2.39
5.05 12.18 2.39
4.80 12.27 2.39
4.55 12.35 2.39
4.30 12.43 2.39
4.04 12.50 2.39
3.79 12.57 2.39
3.53 12.63 2.39
3.27 12.69 2.39
3.02 12.74 2.39
2.76 12.78 2.39
2.50 12.82 2.39
2.24 12.86 2.39
1.98 12.89 2.39
1.77 13.35 2.47
1.52 13.49 2.49
1.25 13.50 2.49
0.97 13.51 2.49
0.70 13.52 2.49
0.43 13.51 2.49
0.16 13.50 2.49
-0.11 13.49 2.49
-0.38 13.47 2.49
-0.65 13.45 2.49
-0.92 13.42 2.49
-1.19 13.38 2.49
-1.45 13.34 2.49
-1.72 13.29 2.49
-1.98 13.24 2.49
-2.25 13.19 2.49
-2.51 13.12 2.49
-2.77 13.06 2.49
-3.03 12.98 2.49
-3.28 12.91 2.49
-3.54 12.82 2.49
-3.79 12.74 2.49
-4.04 12.64 2.49
-4.29 12.55 2.49
-4.53 12.44 2.49
-4.78 12.34 2.49
-5.02 12.23 2.49
-5.26 12.11 2.49
-5.49 11.99 2.49
-5.73 11.86 2.49
-5.96 11.73 2.49
-6.19 11.60 2.49
-6.27 11.20 2.44
-6.36 10.85 2.39
-6.57 10.71 2.39
-6.77 10.56 2.39
-6.98 10.41 2.39
-7.18 10.26 2.39
-7.38 10.10 2.39
-7.57 9.94 2.39
-7.76 9.78 2.39
-7.95 9.61 2.39
-8.13 9.44 2.39
-8.31 9.27 2.39
-8.49 9.09 2.39
-8.66 8.91 2.39
-8.83 8.72 2.39
-8.99 8.54 2.39
-9.15 8.35 2.39
-9.31 8.15 2.39
-9.46 7.96 2.39
-9.61 7.76 2.39
-9.76 7.56 2.39
-9.90 7.35 2.39
-10.04 7.15 2.39
-10.17 6.94 2.39
-10.20 6.66 2.37
-10.24 6.40 2.35
-10.28 6.14 2.33
-10.31 5.88 2.31
-10.32 5.61 2.29
-10.30 5.34 2.26
-10.29 5.07 2.24
-10.27 4.81 2.22
-10.28 4.57 2.20
-10.31 4.33 2.19
-10.33 4.10 2.18
-10.35 3.87 2.16
-10.36 3.63 2.15
-10.37 3.41 2.14
-10.38 3.18 2.13
-10.38 2.95 2.12
-10.39 2.73 2.11
-10.39 2.51 2.10
-10.38 2.29 2.09
-10.38 2.07 2.08
-10.37 1.85 2.08
-10.38 1.64 2.07
-10.39 1.43 2.07
-10.39 1.21 2.06
-10.40 1.00 2.06
-10.41 0.79 2.06
-10.41 0.58 2.06
-10.40 0.37 2.06
-10.40 0.16 2.05
-10.39 -0.05 2.05
-10.38 -0.25 2.05
-10.38 -0.46 2.06
-10.38 -0.67 2.06
-10.38 -0.88 2.06
-10.37 -1.09 2.06
-10.37 -1.30 2.07
-10.36 -1.52 2.07
-10.35 -1.73 2.08
-10.34 -1.94 2.08
-10.33 -2.15 2.09
-10.32 -2.37 2.10
-10.31 -2.59 2.11
-10.29 -2.80 2.11
-10.28 -3.02 2.12
-10.26 -3.24 2.13
-10.24 -3.46 2.14
-10.21 -3.69 2.15
-10.18 -3.91 2.16
-10.15 -4.13 2.17
-10.12 -4.36 2.18
-10.08 -4.58 2.19
-10.13 -4.85 2.22
-10.18 -5.13 2.26
-10.22 -5.41 2.29
-10.16 -5.65 2.30
-10.10 -5.88 2.31
-10.03 -6.11 2.32
-9.96 -6.35 2.34
-9.89 -6.59 2.35
-9.82 -6.83 2.36
-9.77 -7.09 2.39
-9.64 -7.30 2.39
-9.50 -7.49 2.39
-9.35 -7.69 2.39
-9.19 -7.88 2.39
-9.04 -8.06 2.39
-8.88 -8.25 2.39
-8.71 -8.43 2.39
-8.55 -8.60 2.39
-8.38 -8.78 2.39
-8.20 -8.95 2.39
-8.02 -9.12 2.39
-7.84 -9.28 2.39
-7.66 -9.44 2.39
-7.47 -9.60 2.39
-7.28 -9.75 2.39
-7.09 -9.90 2.39
-6.89 -10.05 2.39
-6.69 -10.19 2.39
-6.49 -10.33 2.39
-6.29 -10.47 2.39
-6.22 -10.85 2.45
-6.12 -11.19 2.49
-5.90 -11.32 2.49
-5.68 -11.45 2.49
-5.45 -11.57 2.49
-5.22 -11.68 2.49
-4.99 -11.79 2.49
-4.75 -11.90 2.49
-4.52 -12.00 2.49
-4.28 -12.10 2.49
-4.04 -12.20 2.49
-3.80 -12.29 2.49
-3.55 -12.37 2.49
-3.30 -12.45 2.49
-3.06 -12.53 2.49
-2.81 -12.60 2.49
-2.55 -12.66 2.49
-2.30 -12.72 2.49
-2.05 -12.78 2.49
-1.79 -12.83 2.49
-1.54 -12.87 2.49
-1.28 -12.91 2.49
-1.02 -12.95 2.49
-0.76 -12.98 2.49
-0.50 -13.01 2.49
-0.24 -13.03 2.49
0.02 -11.62 2.49
0.26 -11.63 2.49
0.49 -11.63 2.49
0.72 -11.63 2.49
0.96 -11.62 2.49
1.19 -11.61 2.49
1.43 -11.60 2.49
1.66 -11.58 2.49
1.83 -11.16 2.41
2.04 -11.05 2.39
2.26 -11.01 2.39
2.49 -10.98 2.39
2.15 -8.66 1.89
2.93 -10.89 2.39
3.15 -10.84 2.39
3.37 -10.78 2.39
3.59 -10.72 2.39
3.81 -10.66 2.39
4.03 -10.59 2.39
4.24 -10.52 2.39
4.46 -10.44 2.39
4.67 -10.36 2.39
4.88 -10.27 2.39
5.09 -10.18 2.39
5.30 -10.09 2.39
5.51 -9.99 2.39
5.71 -9.89 2.39
5.92 -9.79 2.39
6.13 -9.68 2.39
6.32 -9.57 2.39
6.52 -9.45 2.39
6.72 -9.32 2.39
6.91 -9.20 2.39
7.10 -9.06 2.39
7.29 -8.93 2.39
7.47 -8.79 2.39
7.65 -8.64 2.39
7.83 -8.50 2.39
8.01 -8.35 2.39
8.18 -8.19 2.39
8.35 -8.03 2.39
8.52 -7.87 2.39
8.68 -7.70 2.39
8.84 -7.54 2.39
9.00 -7.36 2.39
9.15 -7.19 2.39
9.30 -7.01 2.39
9.45 -6.83 2.39
9.59 -6.64 2.39
9.73 -6.45 2.39
9.86 -6.26 2.39
10.00 -6.07 2.39
10.12 -5.87 2.39
10.25 -5.67 2.39
10.37 -5.47 2.39
10.48 -5.26 2.39
10.59 -5.05 2.39
10.70 -4.84 2.39
10.80 -4.63 2.39
10.90 -4.42 2.39
10.99 -4.20 2.39
11.08 -3.98 2.39
11.16 -3.76 2.39
11.24 -3.54 2.39
11.32 -3.32 2.39
11.39 -3.09 2.39
11.46 -2.86 2.39
11.52 -2.63 2.39
11.57 -2.40 2.39
11.63 -2.17 2.39
11.67 -1.94 2.39
11.71 -1.71 2.39
11.75 -1.47 2.39
11.78 -1.24 2.39
11.81 -1.00 2.39
11.83 -0.76 2.39
11.85 -0.53 2.39
11.86 -0.29 2.39
11.87 -0.05 2.39
11.87 0.19 2.39
11.87 0.42 2.39
11.86 0.66 2.39
11.85 0.90 2.39
11.83 1.14 2.39
11.81 1.37 2.39
11.78 1.61 2.39
11.75 1.85 2.39
11.71 2.08 2.39
11.67 2.32 2.39
11.62 2.55 2.39
11.57 2.78 2.39
11.51 3.01 2.39
11.45 3.24 2.39
11.38 3.47 2.39
11.31 3.70 2.39
11.23 3.93 2.39
11.15 4.15 2.39
11.07 4.37 2.39
10.98 4.59 2.39
10.88 4.81 2.39
10.78 5.03 2.39
10.68 5.24 2.39
10.57 5.45 2.39
10.46 5.66 2.39
10.34 5.87 2.39
10.22 6.08 2.39
10.09 6.28 2.39
9.96 6.48 2.39
9.83 6.67 2.39
9.69 6.87 2.39
9.54 7.06 2.39
9.40 7.24 2.39
9.25 7.43 2.39
9.09 7.61 2.39
8.94 7.79 2.39
8.77 7.96 2.39
8.61 8.13 2.39
8.44 8.30 2.39
8.27 8.46 2.39
8.09 8.62 2.39
7.92 8.78 2.39
7.73 8.93 2.39
7.55 9.08 2.39
7.36 9.22 2.39
7.17 9.37 2.39
6.98 9.50 2.39
6.78 9.63 2.39
6.59 9.76 2.39
6.38 9.89 2.39
6.18 10.01 2.39
5.97 10.12 2.39
5.76 10.22 2.39
5.55 10.33 2.39
5.34 10.43 2.39
5.13 10.53 2.39
4.91 10.62 2.39
4.69 10.71 2.39
4.47 10.79 2.39
4.25 10.87 2.39
4.03 10.94 2.39
3.81 11.01 2.39
3.58 11.08 2.39
3.36 11.14 2.39
3.13 11.20 2.39
2.90 11.25 2.39
2.68 11.29 2.39
2.45 11.33 2.39
2.22 11.37 2.39
1.99 11.40 2.39
1.78 11.60 2.42
1.59 11.95 2.49
1.35 11.97 2.49
1.11 11.98 2.49
0.87 11.99 2.49
0.63 11.99 2.49
0.38 11.99 2.49
0.14 11.99 2.49
-0.10 11.98 2.49
-0.34 11.96 2.49
-0.58 11.94 2.49
-0.81 11.91 2.49
-1.05 11.88 2.49
-1.29 11.85 2.49
-1.52 11.81 2.49
-1.76 11.76 2.49
-1.99 11.72 2.49
-2.23 11.66 2.49
-2.46 11.60 2.49
-2.69 11.54 2.49
-2.92 11.47 2.49
-3.14 11.40 2.49
-3.37 11.32 2.49
-3.59 11.24 2.49
-3.81 11.16 2.49
-4.03 11.07 2.49
-4.25 10.97 2.49
-4.46 10.88 2.49
-4.68 10.77 2.49
-4.89 10.67 2.49
-5.09 10.56 2.49
-5.30 10.44 2.49
-5.50 10.32 2.49
-5.70 10.20 2.49
-5.90 10.08 2.49
-6.10 9.95 2.49
-6.26 9.77 2.48
-6.27 9.36 2.41
-6.39 9.14 2.39
-6.57 9.00 2.39
-6.74 8.86 2.39
-6.91 8.71 2.39
-7.08 8.57 2.39
-7.24 8.41 2.39
-7.40 8.26 2.39
-7.56 8.10 2.39
-7.72 7.94 2.39
-7.87 7.78 2.39
-8.01 7.61 2.39
-8.16 7.44 2.39
-8.30 7.27 2.39
-8.44 7.10 2.39
-8.57 6.92 2.39
-8.70 6.74 2.39
-8.83 6.56 2.39
-8.95 6.38 2.39
-9.07 6.19 2.39
-9.19 6.00 2.39
-9.30 5.81 2.39
-9.41 5.62 2.39
-9.51 5.43 2.39
-9.61 5.23 2.39
-9.71 5.03 2.39
-9.80 4.83 2.39
-9.89 4.63 2.39
-9.95 4.42 2.39
-9.98 4.19 2.37
-10.00 3.97 2.36
-10.02 3.74 2.35
-10.04 3.52 2.34
-10.05 3.30 2.32
-10.06 3.08 2.31
-10.07 2.86 2.30
-10.07 2.65 2.29
-10.07 2.43 2.28
-10.07 2.22 2.27
-10.07 2.01 2.26
-10.06 1.80 2.25
-10.06 1.59 2.25
-10.06 1.38 2.24
-10.07 1.18 2.24
-10.07 0.97 2.23
-10.08 0.77 2.23
-10.08 0.57 2.23
-10.07 0.36 2.23
-10.07 0.16 2.23
-10.06 -0.04 2.23
-10.05 -0.25 2.22
-10.04 -0.45 2.23
-10.04 -0.65 2.23
-10.03 -0.85 2.23
-10.03 -1.06 2.23
-10.03 -1.26 2.24
-10.02 -1.46 2.24
-10.01 -1.67 2.25
-10.00 -1.87 2.25
-9.99 -2.08 2.26
-9.97 -2.29 2.27
-9.96 -2.50 2.28
-9.94 -2.71 2.28
-9.93 -2.92 2.29
-9.91 -3.13 2.30
-9.89 -3.35 2.32
-9.86 -3.56 2.32
-9.83 -3.77 2.33
-9.80 -3.99 2.35
-9.76 -4.21 2.36
-9.73 -4.42 2.37
-9.69 -4.64 2.38
-9.63 -4.86 2.39
-9.53 -5.05 2.39
-9.43 -5.24 2.39
-9.33 -5.43 2.39
-9.22 -5.62 2.39
-9.10 -5.80 2.39
-8.99 -5.99 2.39
-8.87 -6.17 2.39
-8.74 -6.35 2.39
-8.62 -6.52 2.39
-8.49 -6.70 2.39
-8.35 -6.87 2.39
-8.22 -7.04 2.39
-8.08 -7.21 2.39
-7.93 -7.37 2.39
-7.78 -7.53 2.39
-7.64 -7.69 2.39
-7.48 -7.84 2.39
-7.33 -8.00 2.39
-7.17 -8.15 2.39
-7.01 -8.29 2.39
-6.84 -8.44 2.39
-6.67 -8.58 2.39
-6.50 -8.71 2.39
-6.33 -8.85 2.39
-6.23 -9.09 2.42
-6.23 -9.49 2.49
-6.05 -9.63 2.49
-5.85 -9.75 2.49
-5.66 -9.87 2.49
-5.46 -9.99 2.49
-5.27 -10.11 2.49
-5.06 -10.22 2.49
-4.86 -10.32 2.49
-4.66 -10.43 2.49
-4.45 -10.53 2.49
-4.24 -10.62 2.49
-4.03 -10.71 2.49
-3.82 -10.80 2.49
-3.60 -10.88 2.49
-3.38 -10.96 2.49
-3.16 -11.03 2.49
-2.94 -11.10 2.49
-2.72 -11.17 2.49
-2.50 -11.23 2.49
-2.28 -11.29 2.49
-2.05 -11.34 2.49
-1.82 -11.39 2.49
-1.60 -11.43 2.49
-1.37 -11.47 2.49
-1.14 -11.51 2.49
-0.91 -11.54 2.49
-0.67 -11.57 2.49
-0.44 -11.59 2.49
-0.21 -11.61 2.49
0.02 -10.46 2.49
0.23 -10.47 2.49
0.44 -10.47 2.49
0.65 -10.47 2.49
0.87 -10.46 2.49
1.08 -10.45 2.49
1.29 -10.44 2.49
1.50 -10.42 2.49
1.71 -10.40 2.49
1.84 -9.94 2.39
2.04 -9.91 2.39
2.24 -9.88 2.39
2.15 -8.66 2.10
2.64 -9.79 2.39
2.84 -9.75 2.39
3.04 -9.70 2.39
3.23 -9.64 2.39
3.43 -9.59 2.39
3.62 -9.52 2.39
3.82 -9.46 2.39
4.01 -9.39 2.39
4.20 -9.31 2.39
4.39 -9.23 2.39
4.58 -9.15 2.39
4.77 -9.07 2.39
4.95 -8.98 2.39
5.14 -8.88 2.39
5.32 -8.79 2.39
5.50 -8.69 2.39
5.68 -8.58 2.39
5.86 -8.48 2.39
6.03 -8.37 2.39
6.21 -8.26 2.39
6.38 -8.14 2.39
6.54 -8.02 2.39
6.71 -7.89 2.39
6.87 -7.76 2.39
7.03 -7.63 2.39
7.19 -7.49 2.39
7.34 -7.35 2.39
7.50 -7.21 2.39
7.64 -7.06 2.39
7.79 -6.91 2.39
7.93 -6.76 2.39
8.07 -6.60 2.39
8.21 -6.45 2.39
8.34 -6.28 2.39
8.48 -6.12 2.39
8.60 -5.95 2.39
8.73 -5.78 2.39
8.85 -5.61 2.39
8.96 -5.44 2.39
9.08 -5.26 2.39
9.19 -5.08 2.39
9.29 -4.90 2.39
9.40 -4.72 2.39
9.49 -4.53 2.39
9.59 -4.34 2.39
9.68 -4.15 2.39
9.77 -3.96 2.39
9.85 -3.76 2.39
9.93 -3.57 2.39
10.01 -3.37 2.39
10.08 -3.17 2.39
10.14 -2.97 2.39
10.21 -2.77 2.39
10.26 -2.56 2.39
10.32 -2.36 2.39
10.37 -2.15 2.39
10.41 -1.94 2.39
10.46 -1.74 2.39
10.49 -1.53 2.39
10.53 -1.32 2.39
10.55 -1.11 2.39
10.58 -0.90 2.39
10.60 -0.68 2.39
10.61 -0.47 2.39
10.62 -0.26 2.39
10.63 -0.05 2.39
10.63 0.17 2.39
10.63 0.38 2.39
10.62 0.59 2.39
10.61 0.81 2.39
10.59 1.02 2.39
10.57 1.23 2.39
10.55 1.44 2.39
10.52 1.65 2.39
10.49 1.86 2.39
10.45 2.07 2.39
10.41 2.28 2.39
10.36 2.49 2.39
10.31 2.70 2.39
10.25 2.90 2.39
10.19 3.11 2.39
10.13 3.31 2.39
10.06 3.51 2.39
9.98 3.72 2.39
9.91 3.91 2.39
9.83 4.11 2.39
9.74 4.31 2.39
9.65 4.50 2.39
9.56 4.69 2.39
9.46 4.88 2.39
9.36 5.07 2.39
9.26 5.26 2.39
9.15 5.44 2.39
9.03 5.62 2.39
8.92 5.80 2.39
8.80 5.97 2.39
8.67 6.15 2.39
8.55 6.32 2.39
8.42 6.49 2.39
8.28 6.65 2.39
8.14 6.81 2.39
8.00 6.97 2.39
7.86 7.13 2.39
7.71 7.28 2.39
7.56 7.43 2.39
7.41 7.58 2.39
7.25 7.72 2.39
7.09 7.86 2.39
6.93 8.00 2.39
6.77 8.13 2.39
6.60 8.26 2.39
6.43 8.39 2.39
6.25 8.51 2.39
6.08 8.63 2.39
5.90 8.75 2.39
5.72 8.85 2.39
5.53 8.96 2.39
5.35 9.06 2.39
5.16 9.16 2.39
4.98 9.26 2.39
4.79 9.35 2.39
4.60 9.44 2.39
4.40 9.52 2.39
4.21 9.60 2.39
4.01 9.67 2.39
3.82 9.75 2.39
3.62 9.81 2.39
3.42 9.88 2.39
3.22 9.94 2.39
3.01 9.99 2.39
2.81 10.04 2.39
2.61 10.09 2.39
2.40 10.13 2.39
2.20 10.17 2.39
1.99 10.20 2.39
1.79 10.26 2.40
1.65 10.70 2.49
1.43 10.72 2.49
1.21 10.74 2.49
1.00 10.76 2.49
0.78 10.76 2.49
0.56 10.77 2.49
0.35 10.77 2.49
0.13 10.76 2.49
-0.08 10.76 2.49
-0.30 10.74 2.49
-0.51 10.72 2.49
-0.73 10.70 2.49
-0.94 10.68 2.49
-1.16 10.65 2.49
-1.37 10.61 2.49
-1.58 10.57 2.49
-1.79 10.53 2.49
-2.00 10.48 2.49
-2.21 10.43 2.49
-2.41 10.38 2.49
-2.62 10.32 2.49
-2.82 10.25 2.49
-3.03 10.18 2.49
-3.23 10.11 2.49
-3.43 10.04 2.49
-3.62 9.96 2.49
-3.82 9.87 2.49
-4.01 9.79 2.49
-4.20 9.70 2.49
-4.39 9.60 2.49
-4.58 9.50 2.49
-4.77 9.40 2.49
-4.95 9.29 2.49
-5.13 9.18 2.49
-5.31 9.07 2.49
-5.49 8.96 2.49
-5.66 8.84 2.49
-5.83 8.71 2.49
-6.00 8.59 2.49
-6.17 8.46 2.49
-6.26 8.23 2.47
-6.27 7.91 2.41
-6.37 7.72 2.39
-6.52 7.58 2.39
-6.67 7.44 2.39
-6.81 7.30 2.39
-6.95 7.16 2.39
-7.09 7.01 2.39
-7.22 6.86 2.39
-7.35 6.71 2.39
-7.48 6.56 2.39
-7.60 6.40 2.39
-7.73 6.24 2.39
-7.84 6.08 2.39
-7.96 5.92 2.39
-8.07 5.75 2.39
-8.18 5.58 2.39
-8.28 5.42 2.39
-8.39 5.24 2.39
-8.48 5.07 2.39
-8.58 4.90 2.39
-8.67 4.72 2.39
-8.76 4.54 2.39
-8.84 4.36 2.39
-8.92 4.18 2.39
-9.00 4.00 2.39
-9.07 3.81 2.39
-9.14 3.63 2.39
-9.21 3.44 2.39
-9.27 3.26 2.39
-9.33 3.07 2.39
-9.38 2.88 2.39
-9.44 2.69 2.39
-9.48 2.49 2.39
-9.53 2.30 2.39
-9.57 2.11 2.39
-9.60 1.92 2.39
-9.64 1.72 2.39
-9.66 1.53 2.39
-9.69 1.33 2.39
-9.71 1.14 2.39
-9.73 0.94 2.39
-9.74 0.74 2.39
-9.75 0.55 2.39
-9.76 0.35 2.39
-9.76 0.15 2.39
-9.75 -0.04 2.39
-9.74 -0.24 2.39
-9.73 -0.43 2.39
-9.72 -0.63 2.39
-9.71 -0.83 2.39
-9.69 -1.02 2.39
-9.67 -1.21 2.39
-9.64 -1.41 2.39
-9.61 -1.60 2.39
-9.57 -1.80 2.39
-9.54 -1.99 2.39
-9.49 -2.18 2.39
-9.45 -2.37 2.39
-9.40 -2.56 2.39
-9.34 -2.75 2.39
-9.29 -2.93 2.39
-9.22 -3.12 2.39
-9.16 -3.31 2.39
-9.09 -3.49 2.39
-9.02 -3.67 2.39
-8.94 -3.85 2.39
-8.87 -4.03 2.39
-8.78 -4.21 2.39
-8.70 -4.39 2.39
-8.61 -4.56 2.39
-8.52 -4.73 2.39
-8.42 -4.91 2.39
-8.32 -5.07 2.39
-8.22 -5.24 2.39
-8.12 -5.41 2.39
-8.01 -5.57 2.39
-7.90 -5.73 2.39
-7.78 -5.89 2.39
-7.66 -6.05 2.39
-7.54 -6.20 2.39
-7.42 -6.36 2.39
-7.29 -6.51 2.39
-7.16 -6.65 2.39
-7.03 -6.80 2.39
-6.89 -6.94 2.39
-6.75 -7.08 2.39
-6.61 -7.22 2.39
-6.47 -7.35 2.39
-6.32 -7.49 2.39
-6.24 -7.69 2.41
-6.23 -8.01 2.47
-6.12 -8.20 2.49
-5.96 -8.33 2.49
-5.79 -8.45 2.49
-5.62 -8.57 2.49
-5.45 -8.69 2.49
-5.28 -8.80 2.49
-5.11 -8.91 2.49
-4.93 -9.02 2.49
-4.75 -9.12 2.49
-4.57 -9.22 2.49
-4.38 -9.31 2.49
-4.20 -9.41 2.49
-4.01 -9.49 2.49
-3.82 -9.58 2.49
-3.63 -9.66 2.49
-3.44 -9.74 2.49
-3.24 -9.81 2.49
-3.05 -9.88 2.49
-2.85 -9.95 2.49
-2.65 -10.01 2.49
-2.45 -10.07 2.49
-2.25 -10.13 2.49
-2.05 -10.18 2.49
-1.85 -10.22 2.49
-1.64 -10.27 2.49
-1.44 -10.30 2.49
-1.23 -10.34 2.49
-1.02 -10.37 2.49
-0.81 -10.40 2.49
-0.61 -10.42 2.49
-0.40 -10.44 2.49
-0.19 -10.45 2.49
0.02 -9.51 2.49
0.21 -9.51 2.49
0.41 -9.51 2.49
0.60 -9.51 2.49
0.79 -9.51 2.49
0.98 -9.50 2.49
1.17 -9.48 2.49
1.36 -9.46 2.49
1.55 -9.44 2.49
1.74 -9.42 2.49
1.85 -9.00 2.39
2.04 -8.97 2.39
2.15 -8.65 2.32
2.40 -8.89 2.39
2.58 -8.85 2.39
2.76 -8.80 2.39
2.94 -8.75 2.39
3.11 -8.70 2.39
3.29 -8.64 2.39
3.47 -8.58 2.39
3.64 -8.52 2.39
3.81 -8.45 2.39
3.99 -8.38 2.39
4.16 -8.30 2.39
4.33 -8.22 2.39
4.49 -8.14 2.39
4.66 -8.06 2.39
4.83 -7.97 2.39
4.99 -7.88 2.39
5.15 -7.78 2.39
5.31 -7.68 2.39
5.47 -7.58 2.39
5.62 -7.48 2.39
5.77 -7.37 2.39
5.93 -7.26 2.39
6.08 -7.15 2.39
6.23 -7.03 2.39
6.37 -6.91 2.39
6.52 -6.79 2.39
6.66 -6.66 2.39
6.79 -6.53 2.39
6.93 -6.40 2.39
7.06 -6.26 2.39
7.19 -6.12 2.39
7.32 -5.98 2.39
7.44 -5.84 2.39
7.56 -5.69 2.39
7.68 -5.54 2.39
7.79 -5.39 2.39
7.90 -5.24 2.39
8.01 -5.08 2.39
8.12 -4.92 2.39
8.22 -4.76 2.39
8.32 -4.60 2.39
8.41 -4.43 2.39
8.51 -4.27 2.39
8.60 -4.10 2.39
8.68 -3.93 2.39
8.76 -3.76 2.39
8.84 -3.58 2.39
8.92 -3.40 2.39
8.99 -3.23 2.39
9.05 -3.05 2.39
9.12 -2.87 2.39
9.18 -2.69 2.39
9.24 -2.50 2.39
9.29 -2.32 2.39
9.34 -2.13 2.39
9.38 -1.95 2.39
9.42 -1.76 2.39
9.46 -1.57 2.39
9.49 -1.38 2.39
9.52 -1.19 2.39
9.55 -1.00 2.39
9.57 -0.81 2.39
9.59 -0.62 2.39
9.60 -0.43 2.39
9.61 -0.23 2.39
9.61 -0.04 2.39
9.62 0.15 2.39
9.61 0.34 2.39
9.61 0.54 2.39
9.60 0.73 2.39
9.58 0.92 2.39
9.56 1.11 2.39
9.54 1.30 2.39
9.51 1.50 2.39
9.48 1.69 2.39
9.45 1.88 2.39
9.41 2.07 2.39
9.37 2.25 2.39
9.32 2.44 2.39
9.27 2.63 2.39
9.22 2.81 2.39
9.16 3.00 2.39
9.09 3.18 2.39
9.03 3.36 2.39
8.96 3.54 2.39
8.89 3.72 2.39
8.81 3.89 2.39
8.73 4.07 2.39
8.64 4.24 2.39
8.56 4.42 2.39
8.47 4.58 2.39
8.37 4.75 2.39
8.27 4.92 2.39
8.17 5.08 2.39
8.07 5.24 2.39
7.96 5.40 2.39
7.85 5.56 2.39
7.73 5.71 2.39
7.61 5.87 2.39
7.49 6.02 2.39
7.37 6.16 2.39
7.24 6.31 2.39
7.11 6.45 2.39
6.98 6.59 2.39
6.84 6.72 2.39
6.70 6.86 2.39
6.56 6.99 2.39
6.42 7.11 2.39
6.27 7.24 2.39
6.12 7.36 2.39
5.97 7.48 2.39
5.82 7.59 2.39
5.65 7.69 2.39
5.50 7.80 2.39
5.34 7.91 2.39
5.17 8.01 2.39
5.01 8.11 2.39
4.84 8.20 2.39
4.68 8.29 2.39
4.51 8.38 2.39
4.34 8.46 2.39
4.16 8.54 2.39
3.99 8.62 2.39
3.81 8.69 2.39
3.64 8.76 2.39
3.46 8.83 2.39
3.28 8.89 2.39
3.10 8.95 2.39
2.91 9.00 2.39
2.73 9.05 2.39
2.55 9.10 2.39
2.36 9.14 2.39
2.18 9.18 2.39
1.99 9.21 2.39
1.81 9.25 2.39
1.69 9.67 2.49
1.49 9.70 2.49
1.30 9.72 2.49
1.10 9.74 2.49
0.91 9.75 2.49
0.71 9.76 2.49
0.51 9.76 2.49
0.32 9.76 2.49
0.12 9.76 2.49
-0.07 9.75 2.49
-0.27 9.74 2.49
-0.46 9.73 2.49
-0.66 9.71 2.49
-0.85 9.68 2.49
-1.05 9.66 2.49
-1.24 9.63 2.49
-1.43 9.59 2.49
-1.62 9.55 2.49
-1.81 9.51 2.49
-2.00 9.47 2.49
-2.19 9.42 2.49
-2.37 9.36 2.49
-2.56 9.30 2.49
-2.74 9.24 2.49
-2.93 9.18 2.49
-3.11 9.11 2.49
-3.29 9.04 2.49
-3.46 8.97 2.49
-3.64 8.89 2.49
-3.82 8.80 2.49
-3.99 8.72 2.49
-4.16 8.63 2.49
-4.33 8.54 2.49
-4.50 8.44 2.49
-4.66 8.34 2.49
-4.82 8.24 2.49
-4.98 8.14 2.49
-5.14 8.03 2.49
-5.30 7.92 2.49
-5.45 7.80 2.49
-5.60 7.69 2.49
-5.75 7.57 2.49
-5.90 7.44 2.49
-6.04 7.32 2.49
-6.18 7.19 2.49
-6.26 6.99 2.47
-6.26 6.72 2.42
-6.32 6.51 2.39
-6.44 6.38 2.39
-6.56 6.24 2.39
-6.68 6.10 2.39
-6.80 5.96 2.39
-6.91 5.82 2.39
-7.03 5.68 2.39
-7.13 5.53 2.39
-7.24 5.38 2.39
-7.34 5.23 2.39
-7.44 5.08 2.39
-7.54 4.93 2.39
-7.63 4.77 2.39
-7.72 4.62 2.39
-7.80 4.46 2.39
-7.89 4.30 2.39
-7.97 4.13 2.39
-8.04 3.97 2.39
-8.12 3.81 2.39
-8.19 3.64 2.39
-8.26 3.47 2.39
-8.32 3.30 2.39
-8.38 3.13 2.39
-8.44 2.96 2.39
-8.49 2.79 2.39
-8.54 2.62 2.39
-8.59 2.45 2.39
-8.63 2.27 2.39
-8.67 2.10 2.39
-8.71 1.92 2.39
-8.74 1.75 2.39
-8.77 1.57 2.39
-8.80 1.39 2.39
-8.82 1.21 2.39
-8.84 1.04 2.39
-8.86 0.86 2.39
-8.87 0.68 2.39
-8.88 0.50 2.39
-8.89 0.32 2.39
-8.89 0.14 2.39
-8.89 -0.04 2.39
-8.88 -0.22 2.39
-8.87 -0.39 2.39
-8.86 -0.57 2.39
-8.85 -0.75 2.39
-8.83 -0.93 2.39
-8.81 -1.11 2.39
-8.78 -1.28 2.39
-8.75 -1.46 2.39
-8.72 -1.63 2.39
-8.69 -1.81 2.39
-8.65 -1.98 2.39
-8.60 -2.16 2.39
-8.56 -2.33 2.39
-8.51 -2.50 2.39
-8.46 -2.67 2.39
-8.40 -2.84 2.39
-8.34 -3.01 2.39
-8.28 -3.18 2.39
-8.22 -3.34 2.39
-8.15 -3.51 2.39
-8.08 -3.67 2.39
-8.00 -3.84 2.39
-7.92 -4.00 2.39
-7.84 -4.15 2.39
-7.76 -4.31 2.39
-7.67 -4.47 2.39
-7.58 -4.62 2.39
-7.49 -4.78 2.39
-7.39 -4.93 2.39
-7.29 -5.07 2.39
-7.19 -5.22 2.39
-7.09 -5.37 2.39
-6.98 -5.51 2.39
-6.87 -5.65 2.39
-6.75 -5.79 2.39
-6.64 -5.93 2.39
-6.52 -6.06 2.39
-6.40 -6.19 2.39
-6.28 -6.32 2.39
-6.24 -6.54 2.42
-6.23 -6.80 2.47
-6.14 -6.99 2.49
-6.00 -7.11 2.49
-5.86 -7.23 2.49
-5.72 -7.35 2.49
-5.57 -7.47 2.49
-5.42 -7.58 2.49
-5.27 -7.69 2.49
-5.12 -7.80 2.49
-4.96 -7.91 2.49
-4.81 -8.01 2.49
-4.65 -8.11 2.49
-4.48 -8.21 2.49
-4.32 -8.30 2.49
-4.16 -8.39 2.49
-3.99 -8.48 2.49
-3.82 -8.56 2.49
-3.65 -8.64 2.49
-3.48 -8.72 2.49
-3.30 -8.79 2.49
-3.13 -8.86 2.49
-2.95 -8.93 2.49
-2.77 -8.99 2.49
-2.59 -9.05 2.49
-2.41 -9.11 2.49
-2.23 -9.16 2.49
-2.05 -9.21 2.49
-1.86 -9.25 2.49
-1.68 -9.30 2.49
-1.49 -9.33 2.49
-1.30 -9.37 2.49
-1.12 -9.40 2.49
-0.93 -9.43 2.49
-0.74 -9.45 2.49
-0.55 -9.47 2.49
-0.36 -9.49 2.49
-0.17 -9.50 2.49
0.02 -8.70 2.49
0.20 -8.71 2.49
0.37 -8.71 2.49
0.55 -8.71 2.49
0.72 -8.70 2.49
0.90 -8.69 2.49
1.07 -8.68 2.49
1.25 -8.66 2.49
1.42 -8.64 2.49
1.60 -8.62 2.49
1.77 -8.59 2.49
1.87 -8.20 2.39
2.03 -8.17 2.39
2.20 -8.13 2.39
2.36 -8.09 2.39
2.52 -8.05 2.39
2.69 -8.01 2.39
2.85 -7.96 2.39
3.01 -7.90 2.39
3.17 -7.85 2.39
3.33 -7.79 2.39
3.49 -7.72 2.39
3.65 -7.66 2.39
3.80 -7.59 2.39
3.96 -7.52 2.39
4.11 -7.44 2.39
4.26 -7.36 2.39
4.41 -7.28 2.39
4.56 -7.20 2.39
4.71 -7.11 2.39
4.85 -7.02 2.39
5.00 -6.93 2.39
5.14 -6.83 2.39
5.28 -6.73 2.39
5.42 -6.63 2.39
5.55 -6.52 2.39
5.68 -6.41 2.39
5.82 -6.30 2.39
5.95 -6.20 2.39
6.08 -6.08 2.39
6.21 -5.96 2.39
6.33 -5.84 2.39
6.45 -5.72 2.39
6.57 -5.59 2.39
6.68 -5.46 2.39
6.79 -5.33 2.39
6.90 -5.19 2.39
7.01 -5.06 2.39
7.11 -4.92 2.39
7.22 -4.78 2.39
7.31 -4.64 2.39
7.41 -4.49 2.39
7.50 -4.35 2.39
7.59 -4.20 2.39
7.68 -4.05 2.39
7.76 -3.89 2.39
7.84 -3.74 2.39
7.92 -3.58 2.39
8.00 -3.43 2.39
8.07 -3.27 2.39
8.14 -3.11 2.39
8.20 -2.94 2.39
8.26 -2.78 2.39
8.32 -2.61 2.39
8.37 -2.45 2.39
8.42 -2.28 2.39
8.47 -2.11 2.39
8.52 -1.94 2.39
8.56 -1.77 2.39
8.59 -1.60 2.39
8.63 -1.43 2.39
8.66 -1.26 2.39
8.68 -1.08 2.39
8.71 -0.91 2.39
8.73 -0.74 2.39
8.74 -0.56 2.39
8.75 -0.39 2.39
8.76 -0.21 2.39
8.77 -0.04 2.39
8.77 0.14 2.39
8.77 0.31 2.39
8.76 0.49 2.39
8.75 0.67 2.39
8.74 0.84 2.39
8.72 1.02 2.39
8.70 1.19 2.39
8.67 1.36 2.39
8.65 1.54 2.39
8.61 1.71 2.39
8.58 1.88 2.39
8.54 2.05 2.39
8.50 2.23 2.39
8.45 2.39 2.39
8.40 2.56 2.39
8.35 2.73 2.39
8.29 2.90 2.39
8.23 3.06 2.39
8.17 3.23 2.39
8.10 3.39 2.39
8.03 3.55 2.39
7.96 3.71 2.39
7.88 3.87 2.39
7.80 4.03 2.39
7.72 4.18 2.39
7.63 4.33 2.39
7.54 4.48 2.39
7.45 4.63 2.39
7.35 4.78 2.39
7.26 4.93 2.39
7.15 5.07 2.39
7.05 5.21 2.39
6.94 5.35 2.39
6.83 5.49 2.39
6.72 5.62 2.39
6.60 5.75 2.39
6.48 5.88 2.39
6.36 6.01 2.39
6.24 6.13 2.39
6.11 6.25 2.39
5.99 6.37 2.39
5.85 6.49 2.39
5.71 6.59 2.39
5.58 6.70 2.39
5.44 6.81 2.39
5.30 6.92 2.39
5.16 7.02 2.39
5.02 7.12 2.39
4.87 7.21 2.39
4.72 7.31 2.39
4.57 7.39 2.39
4.42 7.48 2.39
4.27 7.56 2.39
4.11 7.64 2.39
3.96 7.72 2.39
3.80 7.79 2.39
3.64 7.86 2.39
3.48 7.93 2.39
3.32 8.00 2.39
3.16 8.06 2.39
2.99 8.11 2.39
2.83 8.17 2.39
2.66 8.22 2.39
2.50 8.26 2.39
2.33 8.31 2.39
2.16 8.34 2.39
1.99 8.38 2.39
1.82 8.41 2.39
1.72 8.81 2.49
1.54 8.83 2.49
1.37 8.86 2.49
1.19 8.88 2.49
1.01 8.89 2.49
0.83 8.90 2.49
0.65 8.91 2.49
0.47 8.92 2.49
0.29 8.92 2.49
0.11 8.92 2.49
-0.07 8.91 2.49
-0.24 8.90 2.49
-0.42 8.89 2.49
-0.60 8.87 2.49
-0.78 8.85 2.49
-0.95 8.83 2.49
-1.13 8.80 2.49
-1.31 8.77 2.49
-1.48 8.73 2.49
-1.65 8.70 2.49
-1.83 8.65 2.49
-2.00 8.61 2.49
-2.17 8.56 2.49
-2.34 8.51 2.49
-2.51 8.45 2.49
-2.67 8.40 2.49
-2.84 8.33 2.49
-3.00 8.27 2.49
-3.17 8.20 2.49
-3.33 8.13 2.49
-3.49 8.06 2.49
-3.65 7.98 2.49
-3.80 7.90 2.49
-3.96 7.81 2.49
-4.11 7.73 2.49
-4.26 7.64 2.49
-4.41 7.54 2.49
-4.56 7.45 2.49
-4.70 7.35 2.49
-4.85 7.25 2.49
-4.99 7.14 2.49
-5.13 7.04 2.49
-5.26 6.93 2.49
-5.40 6.82 2.49
-5.53 6.70 2.49
-5.66 6.59 2.49
-5.79 6.47 2.49
-5.91 6.34 2.49
-6.03 6.22 2.49
-6.15 6.09 2.49
-6.26 5.95 2.49
-6.26 5.72 2.44
-6.27 5.50 2.40
-6.33 5.33 2.39
-6.43 5.20 2.39
-6.53 5.07 2.39
-6.63 4.93 2.39
-6.72 4.80 2.39
-6.82 4.66 2.39
-6.90 4.52 2.39
-6.99 4.37 2.39
-7.07 4.23 2.39
-7.15 4.09 2.39
-7.23 3.94 2.39
-7.30 3.79 2.39
-7.37 3.64 2.39
-7.44 3.49 2.39
-7.51 3.34 2.39
-7.57 3.18 2.39
-7.63 3.03 2.39
-7.68 2.87 2.39
-7.73 2.72 2.39
-7.78 2.56 2.39
-7.83 2.40 2.39
-7.87 2.24 2.39
-7.91 2.08 2.39
-7.95 1.92 2.39
-7.99 1.76 2.39
-8.02 1.60 2.39
-8.04 1.44 2.39
-8.07 1.28 2.39
-8.09 1.11 2.39
-8.11 0.95 2.39
-8.12 0.79 2.39
-8.14 0.62 2.39
-8.14 0.46 2.39
-8.15 0.29 2.39
-8.15 0.13 2.39
-8.15 -0.03 2.39
-8.15 -0.20 2.39
-8.14 -0.36 2.39
-8.13 -0.53 2.39
-8.12 -0.69 2.39
-8.10 -0.85 2.39
-8.08 -1.01 2.39
-8.06 -1.18 2.39
-8.03 -1.34 2.39
-8.00 -1.50 2.39
-7.97 -1.66 2.39
-7.93 -1.82 2.39
-7.89 -1.98 2.39
-7.85 -2.14 2.39
-7.81 -2.29 2.39
-7.76 -2.45 2.39
-7.71 -2.61 2.39
-7.65 -2.76 2.39
-7.60 -2.92 2.39
-7.54 -3.07 2.39
-7.47 -3.22 2.39
-7.41 -3.37 2.39
-7.34 -3.52 2.39
-7.27 -3.67 2.39
-7.19 -3.81 2.39
-7.12 -3.96 2.39
-7.04 -4.10 2.39
-6.95 -4.24 2.39
-6.87 -4.38 2.39
-6.78 -4.52 2.39
-6.69 -4.65 2.39
-6.59 -4.79 2.39
-6.50 -4.92 2.39
-6.40 -5.05 2.39
-6.30 -5.18 2.39
-6.24 -5.35 2.41
-6.23 -5.57 2.45
-6.23 -5.79 2.49
-6.12 -5.92 2.49
-6.00 -6.05 2.49
-5.88 -6.17 2.49
-5.76 -6.29 2.49
-5.63 -6.41 2.49
-5.50 -6.52 2.49
-5.37 -6.63 2.49
-5.24 -6.74 2.49
-5.11 -6.85 2.49
-4.97 -6.95 2.49
-4.83 -7.05 2.49
-4.69 -7.15 2.49
-4.55 -7.25 2.49
-4.40 -7.34 2.49
-4.26 -7.43 2.49
-4.11 -7.52 2.49
-3.96 -7.61 2.49
-3.81 -7.69 2.49
-3.65 -7.77 2.49
-3.50 -7.84 2.49
-3.34 -7.92 2.49
-3.18 -7.99 2.49
-3.02 -8.05 2.49
-2.86 -8.12 2.49
-2.70 -8.18 2.49
-2.54 -8.24 2.49
-2.37 -8.29 2.49
-2.21 -8.34 2.49
-2.04 -8.39 2.49
-1.87 -8.44 2.49
-1.70 -8.48 2.49
-1.53 -8.51 2.49
-1.36 -8.55 2.49
-1.19 -8.58 2.49
-1.02 -8.61 2.49
-0.85 -8.63 2.49
-0.67 -8.65 2.49
-0.50 -8.67 2.49
-0.33 -8.69 2.49
-0.15 -8.70 2.49
0.02 -8.02 2.49
0.18 -8.02 2.49
0.35 -8.02 2.49
0.51 -8.02 2.49
0.67 -8.01 2.49
0.83 -8.00 2.49
0.99 -7.99 2.49
1.15 -7.97 2.49
1.31 -7.95 2.49
1.47 -7.93 2.49
1.63 -7.91 2.49
1.79 -7.88 2.49
1.87 -7.52 2.39
2.02 -7.49 2.39
2.18 -7.45 2.39
2.33 -7.41 2.39
2.48 -7.37 2.39
2.63 -7.32 2.39
2.77 -7.27 2.39
2.92 -7.22 2.39
3.07 -7.17 2.39
3.21 -7.11 2.39
3.36 -7.05 2.39
3.50 -6.98 2.39
3.64 -6.92 2.39
3.78 -6.85 2.39
3.92 -6.77 2.39
4.06 -6.70 2.39
4.20 -6.62 2.39
4.33 -6.54 2.39
4.46 -6.45 2.39
4.60 -6.37 2.39
4.73 -6.28 2.39
4.85 -6.19 2.39
4.98 -6.09 2.39
5.11 -6.00 2.39
5.23 -5.90 2.39
5.35 -5.79 2.39
5.47 -5.69 2.39
5.58 -5.58 2.39
5.70 -5.47 2.39
5.81 -5.36 2.39
5.93 -5.25 2.39
6.04 -5.14 2.39
6.14 -5.02 2.39
6.24 -4.90 2.39
6.35 -4.77 2.39
6.44 -4.65 2.39
6.54 -4.52 2.39
6.63 -4.39 2.39
6.72 -4.26 2.39
6.81 -4.13 2.39
6.90 -3.99 2.39
6.98 -3.85 2.39
7.06 -3.72 2.39
7.13 -3.58 2.39
7.21 -3.43 2.39
7.28 -3.29 2.39
7.35 -3.15 2.39
7.41 -3.00 2.39
7.47 -2.85 2.39
7.53 -2.70 2.39
7.59 -2.55 2.39
7.64 -2.40 2.39
7.69 -2.25 2.39
7.74 -2.09 2.39
7.78 -1.94 2.39
7.82 -1.78 2.39
7.86 -1.63 2.39
7.89 -1.47 2.39
7.92 -1.31 2.39
7.95 -1.15 2.39
7.97 -1.00 2.39
7.99 -0.84 2.39
8.01 -0.68 2.39
8.03 -0.52 2.39
8.04 -0.35 2.39
8.04 -0.19 2.39
8.05 -0.03 2.39
8.05 0.13 2.39
8.05 0.29 2.39
8.04 0.45 2.39
8.03 0.61 2.39
8.02 0.77 2.39
8.00 0.93 2.39
7.98 1.09 2.39
7.96 1.25 2.39
7.94 1.41 2.39
7.91 1.57 2.39
7.88 1.73 2.39
7.84 1.89 2.39
7.80 2.04 2.39
7.76 2.20 2.39
7.71 2.35 2.39
7.66 2.51 2.39
7.61 2.66 2.39
7.56 2.81 2.39
7.50 2.96 2.39
7.44 3.11 2.39
7.37 3.26 2.39
7.31 3.41 2.39
7.24 3.55 2.39
7.16 3.69 2.39
7.09 3.84 2.39
7.01 3.98 2.39
6.92 4.12 2.39
6.84 4.25 2.39
6.75 4.39 2.39
6.66 4.52 2.39
6.57 4.65 2.39
6.47 4.78 2.39
6.37 4.91 2.39
6.27 5.04 2.39
6.17 5.16 2.39
6.06 5.28 2.39
5.95 5.40 2.39
5.84 5.52 2.39
5.72 5.62 2.39
5.61 5.73 2.39
5.49 5.84 2.39
5.37 5.95 2.39
5.25 6.05 2.39
5.12 6.16 2.39
5.00 6.26 2.39
4.87 6.35 2.39
4.74 6.45 2.39
4.61 6.54 2.39
4.47 6.62 2.39
4.34 6.71 2.39
4.20 6.79 2.39
4.06 6.87 2.39
3.92 6.95 2.39
3.78 7.02 2.39
3.64 7.09 2.39
3.49 7.16 2.39
3.35 7.23 2.39
3.20 7.29 2.39
3.05 7.35 2.39
2.90 7.40 2.39
2.75 7.45 2.39
2.60 7.50 2.39
2.45 7.55 2.39
2.30 7.59 2.39
2.14 7.63 2.39
1.99 7.67 2.39
1.83 7.70 2.39
1.75 8.07 2.49
1.58 8.10 2.49
1.42 8.12 2.49
1.26 8.14 2.49
1.09 8.16 2.49
0.93 8.18 2.49
0.76 8.19 2.49
0.60 8.20 2.49
0.44 8.20 2.49
0.27 8.20 2.49
0.11 8.20 2.49
-0.06 8.20 2.49
-0.22 8.19 2.49
-0.39 8.17 2.49
-0.55 8.16 2.49
-0.71 8.14 2.49
-0.88 8.12 2.49
-1.04 8.10 2.49
-1.20 8.07 2.49
-1.36 8.04 2.49
-1.52 8.00 2.49
-1.68 7.96 2.49
-1.84 7.92 2.49
-1.99 7.88 2.49
-2.15 7.83 2.49
-2.31 7.78 2.49
-2.46 7.73 2.49
-2.61 7.67 2.49
-2.76 7.61 2.49
-2.91 7.55 2.49
-3.06 7.48 2.49
-3.21 7.42 2.49
-3.36 7.35 2.49
-3.50 7.27 2.49
-3.64 7.19 2.49
-3.78 7.12 2.49
-3.92 7.03 2.49
-4.06 6.95 2.49
-4.20 6.86 2.49
-4.33 6.77 2.49
-4.46 6.68 2.49
-4.59 6.58 2.49
-4.72 6.48 2.49
-4.85 6.38 2.49
-4.97 6.28 2.49
-5.09 6.18 2.49
-5.21 6.07 2.49
-5.33 5.96 2.49
-5.45 5.85 2.49
-5.56 5.73 2.49
-5.67 5.62 2.49
-5.78 5.50 2.49
-5.88 5.38 2.49
-5.99 5.25 2.49
-6.09 5.13 2.49
-6.19 5.00 2.49
-6.25 4.85 2.48
-6.25 4.66 2.45
-6.26 4.47 2.41
-6.28 4.29 2.39
-6.36 4.16 2.39
-6.46 4.05 2.40
-6.52 3.90 2.39
-6.59 3.77 2.39
-6.66 3.63 2.39
-6.73 3.50 2.39
-6.80 3.36 2.39
-6.86 3.22 2.39
-6.92 3.08 2.39
-6.98 2.94 2.39
-7.03 2.80 2.39
-7.08 2.65 2.39
-7.13 2.51 2.39
-7.18 2.36 2.39
-7.22 2.22 2.39
-7.26 2.07 2.39
-7.30 1.92 2.39
-7.33 1.78 2.39
-7.37 1.63 2.39
-7.39 1.48 2.39
-7.42 1.33 2.39
-7.44 1.18 2.39
-7.46 1.03 2.39
-7.48 0.88 2.39
-7.49 0.73 2.39
-7.50 0.58 2.39
-7.51 0.42 2.39
-7.52 0.27 2.39
-7.52 0.12 2.39
-7.52 -0.03 2.39
-7.52 -0.18 2.39
-7.51 -0.33 2.39
-7.50 -0.48 2.39
-7.49 -0.63 2.39
-7.47 -0.79 2.39
-7.45 -0.94 2.39
-7.43 -1.09 2.39
-7.41 -1.23 2.39
-7.38 -1.38 2.39
-7.35 -1.53 2.39
-7.32 -1.68 2.39
-7.28 -1.83 2.39
-7.24 -1.97 2.39
-7.20 -2.12 2.39
-7.16 -2.26 2.39
-7.11 -2.41 2.39
-7.06 -2.55 2.39
-7.01 -2.69 2.39
-6.95 -2.83 2.39
-6.90 -2.97 2.39
-6.83 -3.11 2.39
-6.77 -3.25 2.39
-6.70 -3.38 2.39
-6.64 -3.52 2.39
-6.56 -3.65 2.39
-6.49 -3.78 2.39
-6.41 -3.91 2.39
-6.34 -4.04 2.39
-6.25 -4.17 2.39
-6.24 -4.35 2.42
-6.24 -4.53 2.45
-6.24 -4.72 2.49
-6.16 -4.86 2.49
-6.06 -4.99 2.49
-5.96 -5.11 2.49
-5.86 -5.23 2.49
-5.75 -5.35 2.49
-5.65 -5.47 2.49
-5.54 -5.58 2.49
-5.42 -5.69 2.49
-5.31 -5.80 2.49
-5.19 -5.91 2.49
-5.08 -6.01 2.49
-4.96 -6.12 2.49
-4.83 -6.22 2.49
-4.71 -6.32 2.49
-4.58 -6.41 2.49
-4.45 -6.51 2.49
-4.33 -6.60 2.49
-4.19 -6.69 2.49
-4.06 -6.77 2.49
-3.92 -6.86 2.49
-3.79 -6.94 2.49
-3.65 -7.01 2.49
-3.51 -7.09 2.49
-3.37 -7.16 2.49
-3.22 -7.23 2.49
-3.08 -7.30 2.49
-2.93 -7.36 2.49
-2.79 -7.43 2.49
-2.64 -7.48 2.49
-2.49 -7.54 2.49
-2.34 -7.59 2.49
-2.19 -7.64 2.49
-2.03 -7.69 2.49
-1.88 -7.73 2.49
-1.72 -7.77 2.49
-1.57 -7.81 2.49
-1.41 -7.85 2.49
-1.25 -7.88 2.49
-1.10 -7.91 2.49
-0.94 -7.93 2.49
-0.78 -7.95 2.49
-0.62 -7.97 2.49
