ply
format ascii 1.0
element vertex 2908
property float32 x
property float32 y
property float32 z
end_header
-12.27 -6.50 1.77
-12.21 -6.78 1.78
-12.16 -7.08 1.80
-12.10 -7.37 1.81
-12.05 -7.68 1.82
-11.99 -7.98 1.84
-11.94 -8.30 1.85
-7.03 -5.10 1.11
-11.81 -8.94 1.89
-11.77 -9.28 1.91
-11.72 -9.63 1.93
-11.65 -9.97 1.95
-11.56 -10.30 1.97
-11.46 -10.64 1.99
-11.39 -11.01 2.01
-11.29 -11.35 2.03
-11.18 -11.71 2.06
-11.07 -12.06 2.08
-10.95 -12.43 2.10
-10.85 -12.83 2.13
-10.79 -13.29 2.17
-10.72 -13.76 2.21
-10.64 -14.24 2.25
-10.56 -14.73 2.29
-10.45 -15.22 2.33
-10.34 -15.73 2.38
-10.09 -16.04 2.39
-9.78 -16.26 2.39
-9.45 -16.46 2.39
-9.13 -16.66 2.39
-8.80 -16.86 2.39
-8.47 -17.05 2.39
-8.13 -17.23 2.39
-7.79 -17.41 2.39
-7.45 -17.58 2.39
-7.10 -17.74 2.39
-6.79 -18.02 2.41
-6.67 -18.83 2.49
-6.30 -18.98 2.49
-5.92 -19.12 2.49
-5.54 -19.26 2.49
-5.16 -19.39 2.49
-4.78 -19.51 2.49
-4.39 -19.62 2.49
-4.00 -19.73 2.49
-3.60 -19.83 2.49
-3.21 -19.92 2.49
-2.81 -20.01 2.49
-2.41 -20.09 2.49
-2.01 -20.16 2.49
-1.61 -20.22 2.49
-1.20 -20.27 2.49
-0.80 -20.32 2.49
-0.39 -20.36 2.49
0.02 -17.17 2.49
0.36 -17.19 2.49
0.71 -17.20 2.49
1.06 -17.20 2.49
1.35 -16.48 2.39
1.68 -16.47 2.39
2.01 -16.45 2.39
2.34 -16.43 2.39
2.68 -16.40 2.39
3.01 -16.36 2.39
3.34 -16.32 2.39
3.67 -16.27 2.39
4.00 -16.21 2.39
4.33 -16.15 2.39
4.66 -16.08 2.39
4.99 -16.00 2.39
5.32 -15.92 2.39
5.65 -15.85 2.39
5.97 -15.75 2.39
6.30 -15.65 2.39
6.62 -15.54 2.39
6.94 -15.42 2.39
7.26 -15.30 2.39
7.57 -15.17 2.39
7.88 -15.03 2.39
8.19 -14.89 2.39
8.50 -14.74 2.39
8.81 -14.58 2.39
9.11 -14.42 2.39
9.41 -14.25 2.39
9.70 -14.08 2.39
10.00 -13.90 2.39
10.29 -13.71 2.39
10.57 -13.52 2.39
10.86 -13.32 2.39
11.13 -13.12 2.39
11.41 -12.91 2.39
11.68 -12.69 2.39
11.95 -12.47 2.39
12.21 -12.24 2.39
12.47 -12.01 2.39
12.72 -11.77 2.39
12.97 -11.53 2.39
13.21 -11.28 2.39
13.45 -11.02 2.39
13.69 -10.76 2.39
13.92 -10.50 2.39
14.14 -10.23 2.39
14.36 -9.96 2.39
14.57 -9.68 2.39
14.78 -9.39 2.39
14.98 -9.10 2.39
15.18 -8.81 2.39
15.37 -8.51 2.39
15.55 -8.21 2.39
15.73 -7.91 2.39
15.90 -7.60 2.39
16.06 -7.28 2.39
16.22 -6.97 2.39
16.37 -6.65 2.39
16.52 -6.32 2.39
16.66 -6.00 2.39
16.79 -5.67 2.39
16.92 -5.33 2.39
17.03 -5.00 2.39
17.14 -4.66 2.39
17.25 -4.32 2.39
17.35 -3.97 2.39
17.43 -3.63 2.39
17.52 -3.28 2.39
17.59 -2.93 2.39
17.66 -2.58 2.39
17.72 -2.22 2.39
17.77 -1.87 2.39
17.82 -1.51 2.39
17.86 -1.16 2.39
17.89 -0.80 2.39
17.91 -0.44 2.39
17.92 -0.08 2.39
17.93 0.28 2.39
17.93 0.64 2.39
17.92 1.00 2.39
17.91 1.36 2.39
17.88 1.72 2.39
17.85 2.08 2.39
17.82 2.43 2.39
17.77 2.79 2.39
17.72 3.15 2.39
17.65 3.50 2.39
17.58 3.86 2.39
17.51 4.21 2.39
17.42 4.56 2.39
17.33 4.91 2.39
17.23 5.26 2.39
13.72 4.49 1.92
17.01 5.95 2.39
16.89 6.29 2.39
16.76 6.63 2.39
16.63 6.96 2.39
16.48 7.29 2.39
16.33 7.62 2.39
16.18 7.95 2.39
16.01 8.27 2.39
15.84 8.59 2.39
15.66 8.90 2.39
13.32 7.93 2.06
12.78 7.95 2.00
12.78 8.32 2.03
14.89 10.12 2.39
14.68 10.41 2.39
14.46 10.70 2.39
14.24 10.99 2.39
14.01 11.27 2.39
13.78 11.54 2.39
13.31 11.61 2.35
12.87 11.69 2.32
13.04 12.33 2.39
12.79 12.59 2.39
12.53 12.83 2.39
12.26 13.07 2.39
11.99 13.31 2.39
11.71 13.54 2.39
11.43 13.76 2.39
11.15 13.98 2.39
10.86 14.19 2.39
10.56 14.40 2.39
10.27 14.60 2.39
7.85 11.65 1.88
7.61 11.79 1.88
7.37 11.95 1.89
9.04 15.33 2.39
8.72 15.49 2.39
8.40 15.65 2.39
8.08 15.81 2.39
7.75 15.95 2.39
7.43 16.09 2.39
7.10 16.22 2.39
6.76 16.34 2.39
6.43 16.46 2.39
6.09 16.57 2.39
5.74 16.65 2.39
5.40 16.75 2.39
5.06 16.84 2.39
4.72 16.92 2.39
4.37 16.99 2.39
4.03 17.06 2.39
3.68 17.12 2.39
3.33 17.17 2.39
2.98 17.21 2.39
2.21 14.44 2.00
2.29 17.28 2.39
1.94 17.31 2.39
1.66 18.07 2.49
1.29 18.08 2.49
0.93 18.08 2.49
0.56 18.07 2.49
0.20 18.06 2.49
-0.16 18.04 2.49
-0.52 18.01 2.49
-0.88 17.97 2.49
-1.24 17.93 2.49
-1.60 17.88 2.49
-1.95 17.82 2.49
-2.31 17.76 2.49
-2.66 17.68 2.49
-3.01 17.61 2.49
-3.36 17.52 2.49
-3.71 17.43 2.49
-4.05 17.33 2.49
-4.39 17.22 2.49
-4.73 17.11 2.49
-5.07 16.99 2.49
-5.40 16.86 2.49
-5.73 16.73 2.49
-6.06 16.59 2.49
-6.18 15.92 2.41
-6.42 15.62 2.39
-6.73 15.46 2.39
-7.03 15.31 2.39
-7.32 15.14 2.39
-7.62 14.98 2.39
-7.91 14.80 2.39
-8.19 14.62 2.39
-8.47 14.44 2.39
-8.75 14.24 2.39
-9.02 14.05 2.39
-9.29 13.85 2.39
-9.56 13.64 2.39
-9.82 13.43 2.39
-10.07 13.21 2.39
-10.43 13.13 2.42
-10.57 12.78 2.39
-10.75 12.47 2.38
-10.91 12.16 2.36
-11.07 11.85 2.35
-11.24 11.56 2.34
-11.39 11.25 2.32
-11.52 10.93 2.31
-11.65 10.62 2.29
-11.77 10.30 2.28
-11.90 10.00 2.26
-12.02 9.69 2.25
-12.12 9.38 2.24
-12.21 9.06 2.22
-12.30 8.75 2.21
-12.37 8.43 2.19
-12.42 8.11 2.17
-12.47 7.79 2.16
-12.58 7.51 2.15
-12.74 7.26 2.16
-12.87 7.00 2.16
-12.96 6.71 2.15
-13.04 6.42 2.14
-13.13 6.14 2.14
-13.21 5.86 2.13
-13.28 5.58 2.13
-13.39 5.31 2.13
-13.48 5.03 2.13
-13.53 4.74 2.13
-13.57 4.45 2.12
-13.62 4.17 2.11
-13.66 3.88 2.11
-13.68 3.59 2.10
-13.69 3.30 2.10
-13.69 3.01 2.09
-13.70 2.73 2.08
-13.70 2.44 2.08
-13.71 2.16 2.07
-13.71 1.88 2.07
-13.73 1.60 2.07
-13.72 1.32 2.06
-13.71 1.04 2.06
-13.70 0.77 2.05
-13.69 0.49 2.05
-13.68 0.21 2.05
-13.67 -0.06 2.05
-13.65 -0.34 2.05
-13.63 -0.61 2.05
-13.60 -0.88 2.05
-13.56 -1.15 2.04
-13.49 -1.42 2.04
-13.43 -1.69 2.03
-13.36 -1.95 2.03
-13.29 -2.22 2.03
-13.22 -2.48 2.02
-13.17 -2.74 2.02
-13.11 -3.01 2.02
-12.99 -3.26 2.02
-12.87 -3.50 2.01
-12.75 -3.75 2.00
-12.63 -3.99 1.99
-12.51 -4.23 1.99
-12.39 -4.47 1.98
-12.32 -4.73 1.99
-12.27 -4.99 2.00
-12.22 -5.26 2.00
-12.17 -5.53 2.01
-12.12 -5.80 2.02
-12.06 -6.08 2.03
-11.99 -6.35 2.04
-11.90 -6.61 2.05
-11.85 -6.90 2.06
-11.80 -7.19 2.08
-11.74 -7.48 2.10
-11.68 -7.78 2.11
-11.59 -8.06 2.12
-7.03 -5.10 1.31
-11.38 -8.61 2.15
-11.32 -8.92 2.17
-11.24 -9.23 2.19
-11.15 -9.54 2.20
-11.05 -9.85 2.22
-10.96 -10.17 2.24
-10.86 -10.49 2.27
-10.77 -10.84 2.29
-10.70 -11.21 2.32
-10.63 -11.59 2.36
-10.54 -11.96 2.39
-10.31 -12.19 2.39
-10.07 -12.40 2.39
-9.82 -12.61 2.39
-9.57 -12.81 2.39
-9.32 -13.01 2.39
-9.06 -13.20 2.39
-8.80 -13.39 2.39
-8.54 -13.57 2.39
-8.27 -13.75 2.39
-8.00 -13.93 2.39
-7.72 -14.09 2.39
-7.44 -14.26 2.39
-7.16 -14.42 2.39
-6.87 -14.57 2.39
-6.73 -15.04 2.44
-6.56 -15.50 2.49
-6.26 -15.64 2.49
-5.95 -15.78 2.49
-5.63 -15.91 2.49
-5.32 -16.03 2.49
-5.00 -16.15 2.49
-4.68 -16.26 2.49
-4.35 -16.37 2.49
-4.03 -16.47 2.49
-3.70 -16.56 2.49
-3.37 -16.65 2.49
-3.04 -16.73 2.49
-2.70 -16.81 2.49
-2.37 -16.87 2.49
-2.03 -16.94 2.49
-1.69 -16.99 2.49
-1.35 -17.04 2.49
-1.01 -17.08 2.49
-0.67 -17.12 2.49
-0.32 -17.15 2.49
0.02 -14.82 2.49
0.32 -14.83 2.49
0.62 -14.83 2.49
0.91 -14.83 2.49
1.21 -14.83 2.49
1.45 -14.20 2.39
1.74 -14.18 2.39
2.02 -14.16 2.39
2.31 -14.13 2.39
2.60 -14.10 2.39
2.88 -14.06 2.39
3.17 -14.01 2.39
3.45 -13.96 2.39
3.73 -13.90 2.39
4.02 -13.84 2.39
4.30 -13.77 2.39
4.58 -13.70 2.39
4.86 -13.62 2.39
5.14 -13.53 2.39
5.42 -13.46 2.39
5.69 -13.36 2.39
5.97 -13.26 2.39
6.24 -13.15 2.39
6.51 -13.04 2.39
6.78 -12.92 2.39
7.04 -12.79 2.39
7.31 -12.66 2.39
7.57 -12.53 2.39
7.83 -12.39 2.39
8.08 -12.24 2.39
8.33 -12.09 2.39
8.58 -11.93 2.39
8.83 -11.77 2.39
9.08 -11.60 2.39
9.32 -11.43 2.39
9.55 -11.25 2.39
9.79 -11.07 2.39
10.02 -10.88 2.39
10.25 -10.69 2.39
10.47 -10.50 2.39
10.69 -10.29 2.39
10.91 -10.09 2.39
11.12 -9.88 2.39
11.32 -9.66 2.39
11.53 -9.44 2.39
11.73 -9.22 2.39
11.92 -8.99 2.39
12.11 -8.76 2.39
12.29 -8.52 2.39
12.47 -8.28 2.39
12.65 -8.04 2.39
12.82 -7.79 2.39
12.99 -7.54 2.39
13.15 -7.28 2.39
13.30 -7.02 2.39
13.45 -6.76 2.39
13.60 -6.49 2.39
13.74 -6.23 2.39
13.87 -5.95 2.39
14.00 -5.68 2.39
14.12 -5.40 2.39
14.24 -5.12 2.39
14.35 -4.84 2.39
14.45 -4.55 2.39
14.55 -4.27 2.39
14.64 -3.98 2.39
14.73 -3.68 2.39
14.81 -3.39 2.39
14.89 -3.09 2.39
14.96 -2.80 2.39
15.02 -2.50 2.39
15.07 -2.20 2.39
15.12 -1.90 2.39
15.17 -1.59 2.39
15.21 -1.29 2.39
15.24 -0.99 2.39
15.26 -0.68 2.39
15.28 -0.37 2.39
15.29 -0.07 2.39
15.30 0.24 2.39
15.29 0.55 2.39
15.29 0.85 2.39
15.27 1.16 2.39
15.25 1.47 2.39
15.22 1.77 2.39
15.19 2.08 2.39
15.15 2.38 2.39
15.10 2.69 2.39
15.05 2.99 2.39
14.99 3.29 2.39
14.93 3.59 2.39
14.85 3.89 2.39
14.77 4.19 2.39
13.45 4.10 2.19
12.71 4.16 2.08
12.71 4.44 2.10
14.40 5.36 2.39
14.29 5.65 2.39
14.17 5.93 2.39
14.05 6.22 2.39
13.92 6.50 2.39
13.79 6.77 2.39
13.65 7.05 2.39
13.50 7.32 2.39
13.35 7.59 2.39
13.20 7.85 2.39
12.80 7.97 2.35
12.81 8.34 2.38
12.69 8.63 2.39
12.52 8.88 2.39
12.33 9.12 2.39
12.14 9.37 2.39
11.95 9.61 2.39
11.75 9.84 2.39
11.55 10.07 2.39
11.34 10.30 2.39
11.13 10.52 2.39
10.91 10.73 2.39
10.69 10.95 2.39
10.46 11.15 2.39
10.23 11.36 2.39
10.00 11.55 2.39
9.76 11.74 2.39
9.51 11.93 2.39
9.27 12.11 2.39
9.02 12.29 2.39
8.76 12.46 2.39
8.51 12.63 2.39
8.25 12.79 2.39
7.98 12.94 2.39
7.72 13.09 2.39
7.45 13.23 2.39
7.18 13.37 2.39
6.90 13.50 2.39
6.63 13.63 2.39
6.35 13.75 2.39
6.07 13.86 2.39
5.78 13.95 2.39
5.49 14.05 2.39
5.20 14.15 2.39
4.91 14.24 2.39
4.62 14.32 2.39
4.33 14.40 2.39
4.04 14.47 2.39
3.74 14.54 2.39
3.45 14.60 2.39
3.15 14.65 2.39
2.85 14.69 2.39
2.54 14.64 2.37
2.26 14.77 2.39
1.96 14.80 2.39
1.73 15.46 2.49
1.42 15.48 2.49
1.11 15.49 2.49
0.80 15.49 2.49
0.49 15.49 2.49
0.18 15.48 2.49
-0.13 15.46 2.49
-0.44 15.44 2.49
-0.75 15.41 2.49
-1.06 15.38 2.49
-1.37 15.34 2.49
-1.67 15.29 2.49
-1.98 15.24 2.49
-2.28 15.18 2.49
-2.58 15.11 2.49
-2.88 15.04 2.49
-3.18 14.96 2.49
-3.48 14.88 2.49
-3.77 14.79 2.49
-4.06 14.70 2.49
-4.35 14.60 2.49
-4.64 14.49 2.49
-4.92 14.38 2.49
-5.20 14.26 2.49
-5.48 14.14 2.49
-5.76 14.01 2.49
-6.03 13.88 2.49
-6.21 13.54 2.46
-6.30 13.03 2.39
-6.55 12.89 2.39
-6.80 12.74 2.39
-7.05 12.59 2.39
-7.29 12.43 2.39
-7.53 12.27 2.39
-7.77 12.10 2.39
-8.00 11.93 2.39
-8.23 11.75 2.39
-8.46 11.57 2.39
-8.68 11.39 2.39
-8.89 11.20 2.39
-9.11 11.01 2.39
-9.32 10.81 2.39
-9.52 10.61 2.39
-9.72 10.41 2.39
-9.92 10.20 2.39
-10.11 9.99 2.39
-10.46 9.92 2.43
-10.61 9.67 2.42
-10.78 9.44 2.42
-10.94 9.20 2.41
-11.05 8.91 2.40
-11.15 8.63 2.38
-11.25 8.35 2.37
-11.34 8.07 2.36
-11.43 7.79 2.35
-11.53 7.53 2.34
-11.68 7.30 2.34
-11.83 7.06 2.34
-11.97 6.83 2.35
-12.12 6.59 2.35
-12.24 6.34 2.35
-12.32 6.07 2.34
-12.40 5.80 2.34
-12.48 5.54 2.33
-12.55 5.27 2.33
-12.62 5.01 2.32
-12.71 4.74 2.32
-12.81 4.49 2.33
-12.92 4.24 2.33
-13.02 3.99 2.34
-13.12 3.73 2.34
-13.19 3.47 2.34
-13.22 3.19 2.34
-13.23 2.91 2.33
-13.24 2.64 2.32
-13.24 2.36 2.32
-13.25 2.09 2.31
-13.25 1.82 2.31
-13.25 1.55 2.30
-13.26 1.28 2.30
-13.24 1.01 2.29
-13.22 0.74 2.29
-13.19 0.47 2.28
-13.16 0.21 2.28
-13.13 -0.06 2.27
-13.10 -0.32 2.27
-13.07 -0.58 2.27
-13.03 -0.84 2.26
-12.99 -1.10 2.26
-12.93 -1.36 2.25
-12.87 -1.62 2.25
-12.80 -1.87 2.24
-12.74 -2.12 2.24
-12.68 -2.38 2.24
-12.62 -2.63 2.24
-12.57 -2.88 2.24
-12.51 -3.14 2.24
-12.46 -3.39 2.24
-12.40 -3.65 2.25
-12.31 -3.89 2.24
-12.20 -4.12 2.24
-12.08 -4.36 2.23
-11.98 -4.59 2.23
-11.93 -4.85 2.24
-11.88 -5.11 2.25
-11.82 -5.37 2.26
-11.77 -5.64 2.27
-11.72 -5.90 2.28
-11.66 -6.17 2.29
-11.58 -6.43 2.30
-11.48 -6.68 2.31
-11.40 -6.94 2.32
-11.30 -7.20 2.33
-11.20 -7.46 2.34
-11.10 -7.72 2.35
-7.01 -5.08 1.50
-10.89 -8.24 2.37
-10.78 -8.50 2.38
-10.69 -8.79 2.40
-10.47 -8.97 2.39
-10.30 -9.18 2.39
-10.11 -9.39 2.39
-9.93 -9.59 2.39
-9.73 -9.79 2.39
-9.54 -9.99 2.39
-9.34 -10.19 2.39
-9.14 -10.38 2.39
-8.93 -10.56 2.39
-8.72 -10.74 2.39
-8.51 -10.92 2.39
-8.29 -11.10 2.39
-8.07 -11.27 2.39
-7.85 -11.43 2.39
-7.62 -11.60 2.39
-7.39 -11.75 2.39
-7.16 -11.91 2.39
-6.92 -12.06 2.39
-6.69 -12.22 2.39
-6.69 -12.83 2.48
-6.46 -13.01 2.49
-6.20 -13.15 2.49
-5.94 -13.28 2.49
-5.68 -13.41 2.49
-5.41 -13.53 2.49
-5.14 -13.65 2.49
-4.87 -13.76 2.49
-4.60 -13.86 2.49
-4.32 -13.96 2.49
-4.04 -14.06 2.49
-3.76 -14.15 2.49
-3.48 -14.23 2.49
-3.20 -14.31 2.49
-2.91 -14.39 2.49
-2.62 -14.46 2.49
-2.33 -14.52 2.49
-2.04 -14.58 2.49
-1.75 -14.63 2.49
-1.46 -14.67 2.49
-1.17 -14.71 2.49
-0.87 -14.75 2.49
-0.57 -14.78 2.49
-0.28 -14.80 2.49
0.02 -13.02 2.49
0.28 -13.03 2.49
0.54 -13.03 2.49
0.81 -13.03 2.49
1.07 -13.02 2.49
1.33 -13.01 2.49
1.53 -12.45 2.39
1.78 -12.43 2.39
2.03 -12.41 2.39
2.28 -12.37 2.39
2.53 -12.34 2.39
2.78 -12.30 2.39
3.03 -12.25 2.39
3.28 -12.20 2.39
3.53 -12.14 2.39
3.77 -12.08 2.39
4.02 -12.01 2.39
4.26 -11.94 2.39
4.51 -11.86 2.39
4.75 -11.78 2.39
4.99 -11.70 2.39
5.23 -11.60 2.39
5.47 -11.52 2.39
5.71 -11.42 2.39
5.94 -11.31 2.39
6.17 -11.20 2.39
6.40 -11.09 2.39
6.63 -10.97 2.39
6.85 -10.84 2.39
7.08 -10.71 2.39
7.30 -10.58 2.39
7.52 -10.44 2.39
7.73 -10.30 2.39
7.94 -10.15 2.39
8.15 -10.00 2.39
8.36 -9.84 2.39
8.56 -9.68 2.39
8.76 -9.52 2.39
8.96 -9.35 2.39
9.16 -9.17 2.39
9.35 -9.00 2.39
9.53 -8.82 2.39
9.72 -8.63 2.39
9.90 -8.44 2.39
10.07 -8.25 2.39
10.25 -8.05 2.39
10.41 -7.85 2.39
10.58 -7.65 2.39
10.74 -7.44 2.39
10.90 -7.23 2.39
11.05 -7.02 2.39
11.20 -6.80 2.39
11.34 -6.58 2.39
11.48 -6.35 2.39
11.61 -6.13 2.39
11.74 -5.90 2.39
11.87 -5.67 2.39
11.99 -5.43 2.39
12.10 -5.19 2.39
12.21 -4.95 2.39
12.32 -4.71 2.39
12.42 -4.47 2.39
12.51 -4.22 2.39
12.60 -3.97 2.39
12.69 -3.72 2.39
12.77 -3.47 2.39
12.84 -3.21 2.39
12.91 -2.95 2.39
12.98 -2.70 2.39
13.04 -2.44 2.39
13.09 -2.18 2.39
13.14 -1.91 2.39
13.18 -1.65 2.39
13.22 -1.39 2.39
13.25 -1.12 2.39
13.28 -0.86 2.39
13.30 -0.59 2.39
13.31 -0.33 2.39
13.32 -0.06 2.39
13.32 0.21 2.39
13.32 0.48 2.39
13.31 0.74 2.39
13.30 1.01 2.39
13.28 1.28 2.39
13.26 1.54 2.39
13.23 1.81 2.39
13.19 2.07 2.39
13.15 2.34 2.39
13.11 2.60 2.39
13.05 2.87 2.39
13.00 3.13 2.39
12.93 3.39 2.39
12.86 3.65 2.39
12.79 3.90 2.39
12.71 4.16 2.39
12.63 4.41 2.39
12.53 4.67 2.39
12.44 4.92 2.39
12.34 5.17 2.39
12.23 5.41 2.39
12.12 5.66 2.39
12.01 5.90 2.39
11.88 6.14 2.39
11.76 6.37 2.39
11.63 6.61 2.39
11.49 6.84 2.39
11.35 7.06 2.39
11.20 7.29 2.39
11.05 7.51 2.39
10.90 7.73 2.39
10.74 7.94 2.39
8.33 6.42 1.88
8.19 6.59 1.88
8.06 6.75 1.88
7.92 6.91 1.88
7.78 7.06 1.88
7.63 7.21 1.88
7.50 7.38 1.89
9.31 9.53 2.39
9.11 9.71 2.39
8.91 9.89 2.39
8.71 10.06 2.39
8.50 10.23 2.39
8.29 10.40 2.39
8.08 10.55 2.39
7.86 10.71 2.39
7.64 10.86 2.39
7.42 11.00 2.39
7.19 11.14 2.39
6.96 11.28 2.39
6.73 11.41 2.39
6.50 11.54 2.39
5.13 9.54 1.96
6.02 11.77 2.39
5.77 11.87 2.39
5.53 11.97 2.39
5.29 12.07 2.39
5.04 12.17 2.39
4.79 12.26 2.39
4.54 12.34 2.39
4.29 12.42 2.39
4.04 12.50 2.39
3.78 12.57 2.39
3.53 12.63 2.39
3.27 12.69 2.39
3.01 12.74 2.39
2.75 12.79 2.39
2.50 12.83 2.39
2.24 12.87 2.39
1.98 12.90 2.39
1.79 13.48 2.49
1.52 13.51 2.49
1.24 13.52 2.49
0.97 13.53 2.49
0.70 13.54 2.49
0.43 13.54 2.49
0.16 13.53 2.49
-0.12 13.52 2.49
-0.39 13.50 2.49
-0.66 13.48 2.49
-0.93 13.45 2.49
-1.19 13.42 2.49
-1.46 13.38 2.49
-1.73 13.33 2.49
-1.99 13.28 2.49
-2.26 13.23 2.49
-2.52 13.17 2.49
-2.78 13.10 2.49
-3.04 13.03 2.49
-3.30 12.95 2.49
-3.55 12.87 2.49
-3.81 12.79 2.49
-4.06 12.69 2.49
-4.31 12.60 2.49
-4.56 12.50 2.49
-4.80 12.39 2.49
-5.04 12.28 2.49
-5.29 12.16 2.49
-5.52 12.04 2.49
-5.76 11.92 2.49
-5.99 11.79 2.49
-6.22 11.66 2.49
-6.26 11.19 2.42
-6.39 10.90 2.39
-6.60 10.76 2.39
-6.81 10.62 2.39
-7.02 10.47 2.39
-7.22 10.32 2.39
-7.42 10.16 2.39
-7.61 10.00 2.39
-7.81 9.84 2.39
-8.00 9.67 2.39
-8.18 9.50 2.39
-8.36 9.32 2.39
-8.54 9.14 2.39
-8.71 8.96 2.39
-8.88 8.78 2.39
-9.05 8.59 2.39
-9.21 8.40 2.39
-9.37 8.21 2.39
-9.53 8.01 2.39
-9.68 7.81 2.39
-9.82 7.61 2.39
-9.97 7.40 2.39
-10.11 7.19 2.39
-10.24 6.98 2.39
-10.76 7.02 2.48
-10.92 6.82 2.49
-11.09 6.62 2.50
-11.26 6.42 2.51
-11.43 6.21 2.52
-11.56 5.99 2.52
-11.67 5.75 2.52
-11.75 5.50 2.52
-11.82 5.25 2.51
-11.89 5.00 2.51
-11.96 4.74 2.50
-12.03 4.49 2.50
-12.09 4.24 2.49
-12.19 4.00 2.50
-12.29 3.76 2.50
-12.37 3.52 2.51
-12.41 3.26 2.50
-12.45 3.01 2.50
-12.49 2.75 2.50
-12.52 2.49 2.50
-12.53 2.24 2.49
-12.53 1.98 2.48
-12.54 1.72 2.48
-12.54 1.47 2.47
-12.56 1.21 2.47
-12.58 0.96 2.47
-12.59 0.71 2.47
-12.58 0.45 2.47
-12.56 0.20 2.46
-12.53 -0.05 2.46
-12.50 -0.31 2.46
-12.47 -0.56 2.45
-12.44 -0.81 2.45
-12.41 -1.05 2.45
-12.37 -1.30 2.45
-12.33 -1.55 2.44
-12.29 -1.80 2.44
-12.23 -2.04 2.44
-12.17 -2.28 2.44
-12.10 -2.52 2.43
-12.06 -2.77 2.44
-12.00 -3.01 2.44
-11.95 -3.25 2.44
-11.90 -3.50 2.44
-11.84 -3.74 2.45
-11.78 -3.98 2.45
-11.72 -4.23 2.46
-11.66 -4.47 2.46
-11.59 -4.71 2.47
-11.50 -4.95 2.47
-11.41 -5.19 2.47
-11.32 -5.42 2.47
-11.22 -5.66 2.48
-11.13 -5.89 2.48
-11.03 -6.12 2.48
-10.49 -6.10 2.39
-10.36 -6.31 2.39
-10.24 -6.52 2.39
-10.10 -6.73 2.39
-9.97 -6.93 2.39
-7.00 -5.08 1.70
-9.69 -7.33 2.39
-9.54 -7.52 2.39
-9.39 -7.72 2.39
-9.23 -7.91 2.39
-9.08 -8.09 2.39
-8.91 -8.28 2.39
-8.75 -8.46 2.39
-8.58 -8.63 2.39
-8.41 -8.81 2.39
-8.23 -8.98 2.39
-8.05 -9.14 2.39
-7.87 -9.31 2.39
-7.68 -9.47 2.39
-7.50 -9.63 2.39
-7.30 -9.78 2.39
-7.11 -9.93 2.39
-6.91 -10.07 2.39
-6.71 -10.22 2.39
-6.65 -10.58 2.44
-6.57 -10.94 2.49
-6.36 -11.08 2.49
-6.14 -11.21 2.49
-5.91 -11.34 2.49
-5.69 -11.46 2.49
-5.46 -11.58 2.49
-5.23 -11.69 2.49
-5.00 -11.81 2.49
-4.76 -11.91 2.49
-4.52 -12.01 2.49
-4.28 -12.11 2.49
-4.04 -12.20 2.49
-3.80 -12.29 2.49
-3.55 -12.37 2.49
-3.31 -12.45 2.49
-3.06 -12.52 2.49
-2.81 -12.59 2.49
-2.56 -12.65 2.49
-2.30 -12.71 2.49
-2.05 -12.77 2.49
-1.79 -12.82 2.49
-1.54 -12.86 2.49
-1.28 -12.90 2.49
-1.02 -12.93 2.49
-0.76 -12.96 2.49
-0.50 -12.99 2.49
-0.24 -13.00 2.49
0.02 -11.60 2.49
0.25 -11.60 2.49
0.49 -11.61 2.49
0.72 -11.60 2.49
0.95 -11.60 2.49
1.19 -11.58 2.49
1.39 -11.28 2.43
1.59 -11.07 2.39
1.81 -11.04 2.39
2.03 -11.01 2.39
2.26 -10.98 2.39
2.48 -10.94 2.39
2.70 -10.90 2.39
2.92 -10.85 2.39
3.14 -10.80 2.39
3.36 -10.75 2.39
3.58 -10.68 2.39
3.79 -10.62 2.39
4.01 -10.55 2.39
4.22 -10.48 2.39
4.44 -10.40 2.39
4.65 -10.32 2.39
4.86 -10.23 2.39
5.07 -10.14 2.39
5.28 -10.04 2.39
5.49 -9.96 2.39
5.69 -9.85 2.39
5.89 -9.75 2.39
6.09 -9.63 2.39
6.29 -9.52 2.39
6.48 -9.40 2.39
6.68 -9.27 2.39
6.87 -9.15 2.39
7.06 -9.01 2.39
7.24 -8.88 2.39
7.42 -8.74 2.39
7.61 -8.59 2.39
7.78 -8.45 2.39
7.96 -8.30 2.39
8.13 -8.14 2.39
8.30 -7.98 2.39
8.46 -7.82 2.39
8.62 -7.66 2.39
8.78 -7.49 2.39
8.94 -7.32 2.39
9.09 -7.14 2.39
9.24 -6.96 2.39
9.38 -6.78 2.39
9.53 -6.60 2.39
9.66 -6.41 2.39
9.80 -6.22 2.39
9.93 -6.03 2.39
10.05 -5.83 2.39
10.17 -5.63 2.39
10.29 -5.43 2.39
10.41 -5.23 2.39
10.52 -5.02 2.39
10.62 -4.81 2.39
10.72 -4.60 2.39
10.82 -4.39 2.39
10.91 -4.17 2.39
11.00 -3.95 2.39
11.09 -3.74 2.39
11.16 -3.51 2.39
11.24 -3.29 2.39
11.31 -3.07 2.39
11.37 -2.84 2.39
11.44 -2.61 2.39
11.49 -2.39 2.39
11.54 -2.16 2.39
11.59 -1.93 2.39
11.63 -1.69 2.39
11.67 -1.46 2.39
11.70 -1.23 2.39
11.73 -0.99 2.39
11.75 -0.76 2.39
11.77 -0.52 2.39
11.78 -0.29 2.39
11.79 -0.05 2.39
11.79 0.19 2.39
11.79 0.42 2.39
11.78 0.66 2.39
11.77 0.89 2.39
11.75 1.13 2.39
11.73 1.37 2.39
11.70 1.60 2.39
11.67 1.84 2.39
11.64 2.07 2.39
11.59 2.30 2.39
11.55 2.54 2.39
11.50 2.77 2.39
11.44 3.00 2.39
11.38 3.23 2.39
11.31 3.45 2.39
11.24 3.68 2.39
11.17 3.90 2.39
11.09 4.13 2.39
11.00 4.35 2.39
10.91 4.57 2.39
10.82 4.79 2.39
10.72 5.00 2.39
10.62 5.22 2.39
10.51 5.43 2.39
10.40 5.64 2.39
10.28 5.84 2.39
10.16 6.05 2.39
10.04 6.25 2.39
9.91 6.45 2.39
9.78 6.64 2.39
9.64 6.84 2.39
9.50 7.03 2.39
9.36 7.22 2.39
9.21 7.40 2.39
9.06 7.58 2.39
8.90 7.76 2.39
8.74 7.93 2.39
8.58 8.10 2.39
7.38 7.26 2.10
8.24 8.44 2.39
8.07 8.60 2.39
7.89 8.75 2.39
7.71 8.91 2.39
7.53 9.06 2.39
7.34 9.20 2.39
7.15 9.34 2.39
6.96 9.48 2.39
6.76 9.61 2.39
6.57 9.74 2.39
6.37 9.87 2.39
6.17 9.99 2.39
5.96 10.10 2.39
5.75 10.20 2.39
5.54 10.31 2.39
5.33 10.41 2.39
5.12 10.51 2.39
4.90 10.61 2.39
4.63 10.58 2.36
4.47 10.78 2.39
4.25 10.86 2.39
4.03 10.94 2.39
3.80 11.01 2.39
3.58 11.08 2.39
3.35 11.14 2.39
3.13 11.19 2.39
2.90 11.25 2.39
2.67 11.30 2.39
2.44 11.34 2.39
2.21 11.38 2.39
1.99 11.43 2.39
1.80 11.75 2.46
1.59 11.96 2.49
1.35 11.98 2.49
1.11 11.99 2.49
0.86 12.00 2.49
0.62 12.01 2.49
0.38 12.01 2.49
0.14 12.01 2.49
-0.10 12.00 2.49
-0.34 11.98 2.49
-0.58 11.96 2.49
-0.82 11.94 2.49
-1.06 11.91 2.49
-1.30 11.88 2.49
-1.53 11.84 2.49
-1.77 11.80 2.49
-2.00 11.75 2.49
-2.24 11.69 2.49
-2.47 11.64 2.49
-2.70 11.58 2.49
-2.93 11.51 2.49
-3.16 11.44 2.49
-3.38 11.36 2.49
-3.61 11.28 2.49
-3.83 11.20 2.49
-4.05 11.11 2.49
-4.27 11.02 2.49
-4.48 10.92 2.49
-4.70 10.82 2.49
-4.91 10.71 2.49
-5.12 10.60 2.49
-5.33 10.49 2.49
-5.53 10.37 2.49
-5.73 10.25 2.49
-5.93 10.12 2.49
-6.13 9.99 2.49
-6.28 9.79 2.48
-6.30 9.40 2.41
-6.43 9.18 2.39
-6.60 9.05 2.39
-6.78 8.90 2.39
-6.95 8.76 2.39
-7.12 8.61 2.39
-7.28 8.46 2.39
-7.45 8.30 2.39
-7.60 8.15 2.39
-7.76 7.99 2.39
-7.91 7.82 2.39
-8.06 7.66 2.39
-8.21 7.49 2.39
-8.35 7.31 2.39
-8.49 7.14 2.39
-8.62 6.96 2.39
-8.76 6.78 2.39
-8.88 6.60 2.39
-9.01 6.42 2.39
-9.13 6.23 2.39
-9.24 6.04 2.39
-9.36 5.85 2.39
-9.47 5.66 2.39
-9.57 5.46 2.39
-9.67 5.26 2.39
-9.77 5.06 2.39
-9.86 4.86 2.39
-9.95 4.66 2.39
-10.04 4.46 2.39
-10.12 4.25 2.39
-10.20 4.05 2.39
-10.27 3.84 2.39
-10.34 3.63 2.39
-10.40 3.42 2.39
-11.62 3.56 2.65
-11.67 3.32 2.65
-11.71 3.08 2.65
-11.75 2.84 2.64
-11.79 2.60 2.64
-11.83 2.36 2.64
-11.86 2.12 2.64
-11.89 1.88 2.64
-11.89 1.63 2.63
-11.91 1.39 2.63
-11.92 1.15 2.63
-11.94 0.91 2.63
-11.95 0.67 2.63
-11.97 0.43 2.63
-11.97 0.19 2.63
-11.98 -0.05 2.63
-11.95 -0.29 2.63
-11.92 -0.53 2.63
-11.89 -0.77 2.62
-11.86 -1.01 2.62
-11.83 -1.24 2.62
-11.79 -1.48 2.62
-11.75 -1.72 2.62
-11.72 -1.95 2.62
-11.67 -2.19 2.62
-11.63 -2.42 2.62
-11.58 -2.66 2.62
-10.52 -2.64 2.39
-10.46 -2.85 2.39
-10.40 -3.06 2.39
-10.34 -3.26 2.39
-10.27 -3.47 2.39
-10.20 -3.68 2.39
-10.12 -3.88 2.39
-10.04 -4.08 2.39
-9.95 -4.29 2.39
-9.87 -4.48 2.39
-9.77 -4.68 2.39
-9.68 -4.88 2.39
-9.58 -5.07 2.39
-9.48 -5.26 2.39
-9.37 -5.45 2.39
-9.26 -5.64 2.39
-9.14 -5.83 2.39
-9.03 -6.01 2.39
-8.91 -6.19 2.39
-7.00 -5.08 1.91
-8.65 -6.55 2.39
-8.52 -6.72 2.39
-8.39 -6.89 2.39
-8.25 -7.06 2.39
-8.11 -7.23 2.39
-7.96 -7.39 2.39
-7.81 -7.55 2.39
-7.66 -7.71 2.39
-7.51 -7.87 2.39
-7.35 -8.02 2.39
-7.19 -8.17 2.39
-7.03 -8.31 2.39
-6.86 -8.46 2.39
-6.69 -8.60 2.39
-6.62 -8.87 2.43
-6.62 -9.25 2.49
-6.44 -9.38 2.49
-6.25 -9.52 2.49
-6.06 -9.64 2.49
-5.87 -9.77 2.49
-5.67 -9.89 2.49
-5.48 -10.01 2.49
-5.28 -10.12 2.49
-5.07 -10.23 2.49
-4.87 -10.33 2.49
-4.66 -10.44 2.49
-4.46 -10.53 2.49
-4.25 -10.63 2.49
-4.03 -10.72 2.49
-3.82 -10.80 2.49
-3.60 -10.88 2.49
-3.39 -10.96 2.49
-3.17 -11.03 2.49
-2.95 -11.10 2.49
-2.73 -11.17 2.49
-2.50 -11.23 2.49
-2.28 -11.28 2.49
-2.05 -11.34 2.49
-1.83 -11.38 2.49
-1.60 -11.43 2.49
-1.37 -11.46 2.49
-1.14 -11.50 2.49
-0.91 -11.53 2.49
-0.68 -11.55 2.49
-0.45 -11.57 2.49
-0.21 -11.59 2.49
0.02 -10.45 2.49
0.23 -10.45 2.49
0.44 -10.45 2.49
0.65 -10.45 2.49
0.86 -10.44 2.49
1.07 -10.43 2.49
1.28 -10.41 2.49
1.43 -9.97 2.39
1.63 -9.94 2.39
1.83 -9.91 2.39
2.03 -9.88 2.39
2.23 -9.85 2.39
2.43 -9.81 2.39
2.63 -9.77 2.39
2.83 -9.72 2.39
3.02 -9.67 2.39
3.22 -9.61 2.39
3.41 -9.55 2.39
3.61 -9.49 2.39
3.80 -9.42 2.39
3.99 -9.35 2.39
4.18 -9.28 2.39
4.37 -9.20 2.39
4.56 -9.12 2.39
4.75 -9.03 2.39
4.93 -8.94 2.39
5.11 -8.85 2.39
5.29 -8.75 2.39
5.48 -8.66 2.39
5.65 -8.55 2.39
5.83 -8.44 2.39
6.00 -8.33 2.39
6.17 -8.22 2.39
6.34 -8.10 2.39
6.51 -7.97 2.39
6.67 -7.85 2.39
6.83 -7.72 2.39
6.99 -7.59 2.39
7.15 -7.45 2.39
7.30 -7.31 2.39
7.45 -7.17 2.39
7.60 -7.02 2.39
7.74 -6.87 2.39
7.89 -6.72 2.39
8.03 -6.57 2.39
8.16 -6.41 2.39
8.29 -6.25 2.39
8.42 -6.08 2.39
8.55 -5.92 2.39
8.67 -5.75 2.39
8.79 -5.58 2.39
8.91 -5.41 2.39
9.02 -5.23 2.39
9.13 -5.05 2.39
9.23 -4.87 2.39
9.34 -4.69 2.39
9.43 -4.50 2.39
9.53 -4.31 2.39
9.62 -4.12 2.39
9.70 -3.93 2.39
9.79 -3.74 2.39
9.87 -3.54 2.39
9.94 -3.35 2.39
10.01 -3.15 2.39
10.08 -2.95 2.39
10.14 -2.75 2.39
10.20 -2.55 2.39
10.25 -2.34 2.39
10.30 -2.14 2.39
10.35 -1.93 2.39
10.39 -1.72 2.39
10.42 -1.52 2.39
10.46 -1.31 2.39
10.49 -1.10 2.39
10.51 -0.89 2.39
10.53 -0.68 2.39
10.54 -0.47 2.39
10.56 -0.26 2.39
10.56 -0.04 2.39
10.56 0.17 2.39
10.56 0.38 2.39
10.56 0.59 2.39
10.54 0.80 2.39
10.53 1.01 2.39
10.51 1.22 2.39
10.48 1.44 2.39
10.46 1.65 2.39
10.42 1.85 2.39
10.39 2.06 2.39
10.34 2.27 2.39
10.30 2.48 2.39
10.25 2.68 2.39
10.19 2.89 2.39
10.13 3.09 2.39
10.07 3.30 2.39
10.00 3.50 2.39
9.93 3.70 2.39
9.86 3.90 2.39
9.78 4.09 2.39
9.69 4.29 2.39
9.60 4.48 2.39
9.51 4.67 2.39
9.42 4.86 2.39
9.32 5.05 2.39
9.21 5.23 2.39
9.10 5.42 2.39
8.99 5.60 2.39
8.88 5.78 2.39
8.76 5.95 2.39
8.64 6.13 2.39
8.51 6.30 2.39
8.38 6.46 2.39
8.25 6.63 2.39
8.11 6.79 2.39
7.97 6.95 2.39
7.83 7.11 2.39
7.68 7.26 2.39
7.39 7.26 2.35
7.38 7.56 2.39
7.23 7.70 2.39
7.07 7.84 2.39
6.91 7.98 2.39
6.74 8.11 2.39
6.58 8.24 2.39
6.41 8.37 2.39
6.24 8.49 2.39
6.06 8.61 2.39
5.89 8.73 2.39
5.70 8.83 2.39
5.52 8.94 2.39
5.34 9.05 2.39
5.15 9.15 2.39
4.97 9.24 2.39
4.78 9.34 2.39
4.59 9.43 2.39
4.40 9.51 2.39
4.20 9.59 2.39
4.01 9.67 2.39
3.81 9.74 2.39
3.61 9.81 2.39
3.41 9.87 2.39
3.21 9.93 2.39
3.01 9.99 2.39
2.81 10.04 2.39
2.60 10.09 2.39
2.40 10.13 2.39
2.19 10.17 2.39
1.99 10.21 2.39
1.79 10.26 2.39
1.64 10.71 2.49
1.43 10.73 2.49
1.21 10.75 2.49
0.99 10.77 2.49
0.78 10.78 2.49
0.56 10.78 2.49
0.34 10.78 2.49
0.13 10.78 2.49
-0.09 10.77 2.49
-0.30 10.76 2.49
-0.52 10.74 2.49
-0.73 10.72 2.49
-0.95 10.70 2.49
-1.16 10.67 2.49
-1.37 10.64 2.49
-1.59 10.60 2.49
-1.80 10.56 2.49
-2.01 10.51 2.49
-2.22 10.46 2.49
-2.42 10.40 2.49
-2.63 10.35 2.49
-2.83 10.28 2.49
-3.04 10.22 2.49
-3.24 10.14 2.49
-3.44 10.07 2.49
-3.64 9.99 2.49
-3.84 9.91 2.49
-4.03 9.82 2.49
-4.22 9.73 2.49
-4.41 9.64 2.49
-4.60 9.54 2.49
-4.79 9.44 2.49
-4.97 9.33 2.49
-5.16 9.22 2.49
-5.34 9.11 2.49
-5.51 8.99 2.49
-5.69 8.87 2.49
-5.86 8.75 2.49
-6.03 8.63 2.49
-6.20 8.50 2.49
-6.31 8.29 2.47
-6.32 7.97 2.42
-6.41 7.75 2.39
-6.56 7.62 2.39
-6.70 7.48 2.39
-6.85 7.34 2.39
-6.99 7.19 2.39
-7.13 7.05 2.39
-7.26 6.90 2.39
-7.39 6.75 2.39
-7.52 6.59 2.39
-7.65 6.43 2.39
-7.77 6.27 2.39
-7.89 6.11 2.39
-8.00 5.95 2.39
-8.12 5.78 2.39
-8.23 5.62 2.39
-8.33 5.45 2.39
-8.43 5.27 2.39
-8.53 5.10 2.39
-8.63 4.92 2.39
-8.72 4.75 2.39
-8.81 4.57 2.39
-8.89 4.39 2.39
-8.97 4.21 2.39
-9.05 4.02 2.39
-9.13 3.84 2.39
-9.20 3.65 2.39
-9.26 3.46 2.39
-9.33 3.27 2.39
-9.38 3.08 2.39
-9.44 2.89 2.39
-9.49 2.70 2.39
-9.54 2.51 2.39
-9.58 2.32 2.39
-9.62 2.12 2.39
-9.66 1.93 2.39
-9.69 1.73 2.39
-9.72 1.54 2.39
-9.75 1.34 2.39
-9.77 1.14 2.39
-9.78 0.95 2.39
-9.80 0.75 2.39
-9.81 0.55 2.39
-9.81 0.35 2.39
-9.82 0.16 2.39
-9.81 -0.04 2.39
-9.81 -0.24 2.39
-9.80 -0.44 2.39
-9.79 -0.63 2.39
-9.77 -0.83 2.39
-9.75 -1.02 2.39
-9.72 -1.22 2.39
-9.69 -1.42 2.39
-9.66 -1.61 2.39
-9.63 -1.80 2.39
-9.59 -2.00 2.39
-9.54 -2.19 2.39
-9.50 -2.38 2.39
-9.44 -2.57 2.39
-9.39 -2.76 2.39
-9.33 -2.95 2.39
-9.27 -3.13 2.39
-9.20 -3.32 2.39
-9.14 -3.50 2.39
-9.06 -3.69 2.39
-8.99 -3.87 2.39
-8.91 -4.05 2.39
-8.82 -4.23 2.39
-8.74 -4.40 2.39
-8.65 -4.58 2.39
-8.56 -4.75 2.39
-8.46 -4.92 2.39
-8.36 -5.09 2.39
-8.26 -5.26 2.39
-8.15 -5.43 2.39
-8.04 -5.59 2.39
-7.00 -5.08 2.11
-7.81 -5.91 2.39
-7.69 -6.07 2.39
-7.57 -6.22 2.39
-7.44 -6.38 2.39
-7.32 -6.53 2.39
-7.19 -6.67 2.39
-7.05 -6.82 2.39
-6.91 -6.96 2.39
-6.80 -7.12 2.40
-6.63 -7.24 2.39
-6.60 -7.49 2.43
-6.60 -7.81 2.49
-6.46 -7.96 2.49
-6.30 -8.09 2.49
-6.14 -8.22 2.49
-5.97 -8.35 2.49
-5.81 -8.47 2.49
-5.64 -8.59 2.49
-5.47 -8.70 2.49
-5.29 -8.81 2.49
-5.12 -8.92 2.49
-4.94 -9.03 2.49
-4.76 -9.13 2.49
-4.58 -9.23 2.49
-4.39 -9.32 2.49
-4.21 -9.41 2.49
-4.02 -9.50 2.49
-3.83 -9.59 2.49
-3.64 -9.67 2.49
-3.44 -9.74 2.49
-3.25 -9.82 2.49
-3.05 -9.88 2.49
-2.86 -9.95 2.49
-2.66 -10.01 2.49
-2.46 -10.07 2.49
-2.25 -10.12 2.49
-2.05 -10.17 2.49
-1.85 -10.22 2.49
-1.64 -10.26 2.49
-1.44 -10.30 2.49
-1.23 -10.33 2.49
-1.02 -10.36 2.49
-0.82 -10.39 2.49
-0.61 -10.41 2.49
-0.40 -10.42 2.49
-0.19 -10.44 2.49
0.02 -9.50 2.49
0.21 -9.50 2.49
0.40 -9.50 2.49
0.59 -9.50 2.49
0.78 -9.49 2.49
0.98 -9.48 2.49
1.17 -9.46 2.49
1.36 -9.44 2.49
1.48 -9.03 2.39
1.67 -9.01 2.39
1.85 -8.98 2.39
2.03 -8.94 2.39
2.21 -8.91 2.39
2.39 -8.87 2.39
2.57 -8.82 2.39
2.75 -8.78 2.39
2.93 -8.73 2.39
3.10 -8.67 2.39
3.28 -8.62 2.39
3.45 -8.55 2.39
3.63 -8.49 2.39
3.80 -8.42 2.39
3.97 -8.35 2.39
4.14 -8.27 2.39
4.31 -8.19 2.39
4.47 -8.11 2.39
4.64 -8.03 2.39
4.80 -7.94 2.39
4.97 -7.85 2.39
5.13 -7.75 2.39
5.28 -7.65 2.39
5.44 -7.55 2.39
5.60 -7.45 2.39
5.75 -7.34 2.39
5.90 -7.23 2.39
6.05 -7.12 2.39
6.20 -7.00 2.39
6.34 -6.88 2.39
6.48 -6.75 2.39
6.62 -6.63 2.39
6.76 -6.50 2.39
6.89 -6.36 2.39
7.02 -6.23 2.39
7.15 -6.09 2.39
7.28 -5.95 2.39
7.40 -5.81 2.39
7.52 -5.66 2.39
7.63 -5.51 2.39
7.75 -5.36 2.39
7.86 -5.21 2.39
7.97 -5.05 2.39
8.07 -4.90 2.39
8.17 -4.74 2.39
8.27 -4.57 2.39
8.37 -4.41 2.39
8.46 -4.24 2.39
8.55 -4.08 2.39
8.63 -3.91 2.39
8.71 -3.73 2.39
8.79 -3.56 2.39
8.86 -3.38 2.39
8.93 -3.21 2.39
9.00 -3.03 2.39
9.06 -2.85 2.39
9.12 -2.67 2.39
9.18 -2.49 2.39
9.23 -2.30 2.39
9.28 -2.12 2.39
9.33 -1.93 2.39
9.37 -1.75 2.39
9.40 -1.56 2.39
9.44 -1.37 2.39
9.47 -1.18 2.39
9.49 -0.99 2.39
9.51 -0.80 2.39
9.53 -0.61 2.39
9.54 -0.42 2.39
9.55 -0.23 2.39
9.56 -0.04 2.39
9.56 0.15 2.39
9.56 0.34 2.39
9.55 0.53 2.39
9.54 0.73 2.39
9.53 0.92 2.39
9.51 1.11 2.39
9.49 1.30 2.39
9.46 1.49 2.39
9.43 1.68 2.39
9.40 1.87 2.39
9.36 2.06 2.39
9.32 2.24 2.39
9.27 2.43 2.39
9.22 2.61 2.39
9.17 2.80 2.39
9.11 2.98 2.39
9.05 3.16 2.39
8.98 3.35 2.39
8.92 3.52 2.39
8.84 3.70 2.39
8.77 3.88 2.39
8.69 4.05 2.39
8.61 4.23 2.39
8.52 4.40 2.39
8.43 4.57 2.39
8.33 4.74 2.39
8.24 4.90 2.39
8.14 5.06 2.39
8.03 5.23 2.39
7.93 5.38 2.39
7.81 5.54 2.39
7.70 5.70 2.39
7.58 5.85 2.39
7.46 6.00 2.39
7.34 6.14 2.39
7.21 6.29 2.39
7.09 6.43 2.39
5.48 5.17 1.88
5.37 5.28 1.88
5.26 5.39 1.88
5.16 5.50 1.89
5.04 5.59 1.88
4.92 5.69 1.88
4.81 5.78 1.88
4.69 5.88 1.89
4.57 5.97 1.88
4.45 6.05 1.88
4.32 6.14 1.88
5.32 7.89 2.39
5.16 7.99 2.39
5.00 8.09 2.39
4.83 8.19 2.39
4.67 8.28 2.39
4.50 8.37 2.39
4.33 8.45 2.39
4.16 8.53 2.39
3.98 8.61 2.39
3.81 8.68 2.39
3.63 8.75 2.39
3.45 8.82 2.39
3.27 8.88 2.39
3.09 8.94 2.39
2.91 9.00 2.39
2.73 9.05 2.39
2.54 9.10 2.39
2.36 9.14 2.39
2.18 9.18 2.39
1.99 9.22 2.39
1.80 9.25 2.39
1.69 9.68 2.49
1.49 9.70 2.49
1.30 9.73 2.49
1.10 9.74 2.49
0.90 9.76 2.49
0.71 9.77 2.49
0.51 9.77 2.49
0.31 9.77 2.49
0.12 9.77 2.49
-0.08 9.77 2.49
-0.27 9.76 2.49
-0.47 9.74 2.49
-0.66 9.72 2.49
-0.86 9.70 2.49
-1.05 9.68 2.49
-1.24 9.65 2.49
-1.44 9.61 2.49
-1.63 9.58 2.49
-1.82 9.53 2.49
-2.01 9.49 2.49
-2.20 9.44 2.49
-2.38 9.39 2.49
-2.57 9.33 2.49
-2.75 9.27 2.49
-2.94 9.21 2.49
-3.12 9.14 2.49
-3.30 9.07 2.49
-3.48 8.99 2.49
-3.66 8.92 2.49
-3.83 8.83 2.49
-4.01 8.75 2.49
-4.18 8.66 2.49
-4.35 8.57 2.49
-4.51 8.47 2.49
-4.68 8.38 2.49
-4.84 8.27 2.49
-5.01 8.17 2.49
-5.17 8.06 2.49
-5.32 7.95 2.49
-5.48 7.84 2.49
-5.63 7.72 2.49
-5.78 7.60 2.49
-5.93 7.48 2.49
-6.07 7.35 2.49
-6.21 7.22 2.49
-6.33 7.07 2.48
-6.34 6.79 2.43
-6.35 6.54 2.39
-6.47 6.41 2.39
-6.60 6.27 2.39
-6.72 6.13 2.39
-6.84 5.99 2.39
-6.95 5.85 2.39
-7.06 5.71 2.39
-7.17 5.56 2.39
-7.28 5.41 2.39
-7.38 5.26 2.39
-7.48 5.11 2.39
-7.58 4.95 2.39
-7.67 4.80 2.39
-7.76 4.64 2.39
-7.85 4.48 2.39
-7.93 4.32 2.39
-8.01 4.16 2.39
-8.09 3.99 2.39
-8.16 3.83 2.39
-8.23 3.66 2.39
-8.30 3.49 2.39
-8.37 3.32 2.39
-8.43 3.15 2.39
-8.48 2.98 2.39
-8.54 2.81 2.39
-8.59 2.63 2.39
-8.64 2.46 2.39
-8.68 2.28 2.39
-8.72 2.11 2.39
-8.76 1.93 2.39
-8.79 1.75 2.39
-8.82 1.58 2.39
-8.85 1.40 2.39
-8.87 1.22 2.39
-8.89 1.04 2.39
-8.91 0.86 2.39
-8.92 0.68 2.39
-8.93 0.50 2.39
-8.93 0.32 2.39
-8.94 0.14 2.39
-8.93 -0.04 2.39
-8.93 -0.22 2.39
-8.92 -0.40 2.39
-8.91 -0.58 2.39
-8.89 -0.75 2.39
-8.87 -0.93 2.39
-8.85 -1.11 2.39
-8.83 -1.29 2.39
-8.80 -1.47 2.39
-8.76 -1.64 2.39
-8.73 -1.82 2.39
-8.69 -1.99 2.39
-8.65 -2.17 2.39
-8.60 -2.34 2.39
-8.55 -2.51 2.39
-8.50 -2.68 2.39
-8.44 -2.85 2.39
-8.38 -3.02 2.39
-8.32 -3.19 2.39
-8.25 -3.36 2.39
-8.18 -3.52 2.39
-8.11 -3.69 2.39
-8.04 -3.85 2.39
-7.96 -4.01 2.39
-7.87 -4.17 2.39
-7.79 -4.33 2.39
-7.70 -4.48 2.39
-7.61 -4.64 2.39
-7.52 -4.79 2.39
-7.42 -4.94 2.39
-7.32 -5.09 2.39
-7.00 -5.08 2.32
-7.11 -5.38 2.39
-7.00 -5.53 2.39
-6.89 -5.67 2.39
-6.78 -5.81 2.39
-6.66 -5.94 2.39
-6.58 -6.11 2.40
-6.57 -6.36 2.45
-6.57 -6.61 2.49
-6.43 -6.74 2.49
-6.30 -6.87 2.49
-6.16 -7.00 2.49
-6.02 -7.13 2.49
-5.88 -7.25 2.49
-5.73 -7.37 2.49
-5.59 -7.48 2.49
-5.44 -7.60 2.49
-5.28 -7.71 2.49
-5.13 -7.81 2.49
-4.97 -7.92 2.49
-4.82 -8.02 2.49
-4.66 -8.12 2.49
-4.49 -8.22 2.49
-4.33 -8.31 2.49
-4.16 -8.40 2.49
-3.99 -8.48 2.49
-3.83 -8.57 2.49
-3.65 -8.64 2.49
-3.48 -8.72 2.49
-3.31 -8.79 2.49
-3.13 -8.86 2.49
-2.95 -8.93 2.49
-2.78 -8.99 2.49
-2.60 -9.05 2.49
-2.41 -9.11 2.49
-2.23 -9.16 2.49
-2.05 -9.21 2.49
-1.86 -9.25 2.49
-1.68 -9.29 2.49
-1.49 -9.33 2.49
-1.31 -9.36 2.49
-1.12 -9.39 2.49
-0.93 -9.42 2.49
-0.74 -9.44 2.49
-0.55 -9.46 2.49
-0.36 -9.48 2.49
-0.17 -9.49 2.49
0.02 -8.69 2.49
0.19 -8.70 2.49
0.37 -8.70 2.49
0.54 -8.69 2.49
0.72 -8.69 2.49
0.89 -8.67 2.49
1.07 -8.66 2.49
1.24 -8.64 2.49
1.42 -8.62 2.49
1.53 -8.24 2.39
1.69 -8.21 2.39
1.86 -8.18 2.39
2.02 -8.15 2.39
2.19 -8.11 2.39
2.35 -8.07 2.39
2.52 -8.03 2.39
2.68 -7.98 2.39
2.84 -7.93 2.39
3.00 -7.88 2.39
3.16 -7.82 2.39
3.32 -7.76 2.39
3.48 -7.70 2.39
3.63 -7.63 2.39
3.79 -7.56 2.39
3.94 -7.49 2.39
4.09 -7.42 2.39
4.24 -7.34 2.39
4.39 -7.26 2.39
4.54 -7.17 2.39
4.69 -7.08 2.39
4.83 -6.99 2.39
4.97 -6.90 2.39
5.11 -6.80 2.39
5.25 -6.70 2.39
5.39 -6.60 2.39
5.53 -6.50 2.39
5.66 -6.39 2.39
5.80 -6.28 2.39
5.92 -6.17 2.39
6.05 -6.05 2.39
6.17 -5.93 2.39
6.30 -5.81 2.39
6.42 -5.69 2.39
6.53 -5.56 2.39
6.65 -5.43 2.39
6.76 -5.30 2.39
6.87 -5.17 2.39
6.97 -5.03 2.39
7.08 -4.90 2.39
7.18 -4.76 2.39
7.28 -4.61 2.39
7.37 -4.47 2.39
7.46 -4.32 2.39
7.55 -4.17 2.39
7.64 -4.02 2.39
7.72 -3.87 2.39
7.80 -3.72 2.39
7.88 -3.56 2.39
7.95 -3.41 2.39
8.02 -3.25 2.39
8.09 -3.09 2.39
8.16 -2.93 2.39
8.22 -2.76 2.39
8.27 -2.60 2.39
8.33 -2.44 2.39
8.38 -2.27 2.39
8.43 -2.10 2.39
8.47 -1.93 2.39
8.51 -1.76 2.39
8.55 -1.59 2.39
8.58 -1.42 2.39
8.61 -1.25 2.39
8.64 -1.08 2.39
8.66 -0.91 2.39
8.68 -0.73 2.39
8.69 -0.56 2.39
8.71 -0.38 2.39
8.71 -0.21 2.39
8.72 -0.04 2.39
8.72 0.14 2.39
8.72 0.31 2.39
8.71 0.49 2.39
8.70 0.66 2.39
8.69 0.84 2.39
8.67 1.01 2.39
8.65 1.19 2.39
8.63 1.36 2.39
8.60 1.53 2.39
8.57 1.70 2.39
8.54 1.88 2.39
8.50 2.05 2.39
8.46 2.22 2.39
8.41 2.39 2.39
8.36 2.55 2.39
8.31 2.72 2.39
8.25 2.89 2.39
8.19 3.05 2.39
8.13 3.21 2.39
8.07 3.38 2.39
8.00 3.54 2.39
7.92 3.70 2.39
7.85 3.85 2.39
7.77 4.01 2.39
7.69 4.17 2.39
7.60 4.32 2.39
7.51 4.47 2.39
7.42 4.62 2.39
7.33 4.77 2.39
7.23 4.91 2.39
7.13 5.05 2.39
7.02 5.19 2.39
6.92 5.33 2.39
6.81 5.47 2.39
6.70 5.60 2.39
6.58 5.74 2.39
6.46 5.87 2.39
6.34 5.99 2.39
5.24 5.15 2.02
6.10 6.24 2.39
5.97 6.36 2.39
5.84 6.47 2.39
5.70 6.58 2.39
5.56 6.69 2.39
5.43 6.80 2.39
5.29 6.90 2.39
5.15 7.01 2.39
5.00 7.11 2.39
4.86 7.20 2.39
4.71 7.29 2.39
4.56 7.38 2.39
4.41 7.47 2.39
4.26 7.56 2.39
4.11 7.64 2.39
3.95 7.71 2.39
3.79 7.79 2.39
3.64 7.86 2.39
3.48 7.93 2.39
3.31 7.99 2.39
3.15 8.05 2.39
2.99 8.11 2.39
2.82 8.16 2.39
2.66 8.21 2.39
2.49 8.26 2.39
2.32 8.31 2.39
2.16 8.35 2.39
1.99 8.38 2.39
1.82 8.42 2.39
1.72 8.81 2.49
1.54 8.84 2.49
1.36 8.86 2.49
1.18 8.88 2.49
1.01 8.90 2.49
0.83 8.91 2.49
0.65 8.92 2.49
0.47 8.93 2.49
0.29 8.93 2.49
0.11 8.93 2.49
-0.07 8.92 2.49
-0.25 8.91 2.49
-0.43 8.90 2.49
-0.60 8.89 2.49
-0.78 8.87 2.49
-0.96 8.84 2.49
-1.14 8.82 2.49
-1.31 8.79 2.49
-1.49 8.75 2.49
-1.66 8.71 2.49
-1.83 8.67 2.49
-2.01 8.63 2.49
-2.18 8.58 2.49
-2.35 8.53 2.49
-2.52 8.48 2.49
-2.68 8.42 2.49
-2.85 8.36 2.49
-3.02 8.29 2.49
-3.18 8.23 2.49
-3.34 8.15 2.49
-3.50 8.08 2.49
-3.66 8.00 2.49
-3.82 7.92 2.49
-3.97 7.84 2.49
-4.13 7.75 2.49
-4.28 7.66 2.49
-4.43 7.57 2.49
-4.58 7.47 2.49
-4.72 7.38 2.49
-4.87 7.28 2.49
-5.01 7.17 2.49
-5.15 7.06 2.49
-5.29 6.96 2.49
-5.42 6.84 2.49
-5.56 6.73 2.49
-5.69 6.61 2.49
-5.81 6.49 2.49
-5.94 6.37 2.49
-6.06 6.25 2.49
-6.18 6.12 2.49
-6.30 5.99 2.49
-6.35 5.80 2.47
-6.36 5.58 2.43
-6.37 5.37 2.39
-6.47 5.23 2.39
-6.58 5.10 2.39
-6.66 4.96 2.39
-6.76 4.82 2.39
-6.85 4.68 2.39
-6.94 4.54 2.39
-7.02 4.39 2.39
-7.11 4.25 2.39
-7.19 4.10 2.39
-7.26 3.96 2.39
-7.34 3.81 2.39
-7.41 3.66 2.39
-7.48 3.51 2.39
-7.54 3.35 2.39
-7.61 3.20 2.39
-7.66 3.05 2.39
-7.72 2.89 2.39
-7.77 2.73 2.39
-7.82 2.57 2.39
-7.87 2.42 2.39
-7.91 2.26 2.39
-7.95 2.09 2.39
-7.99 1.93 2.39
-8.03 1.77 2.39
-8.06 1.61 2.39
-8.09 1.45 2.39
-8.11 1.28 2.39
-8.13 1.12 2.39
-8.15 0.96 2.39
-8.16 0.79 2.39
-8.18 0.63 2.39
-8.18 0.46 2.39
-8.19 0.30 2.39
-8.19 0.13 2.39
-8.19 -0.03 2.39
-8.19 -0.20 2.39
-8.18 -0.36 2.39
-8.17 -0.53 2.39
-8.15 -0.69 2.39
-8.14 -0.85 2.39
-8.12 -1.02 2.39
-8.09 -1.18 2.39
-8.07 -1.34 2.39
-8.04 -1.50 2.39
-8.00 -1.67 2.39
-7.97 -1.83 2.39
-7.93 -1.99 2.39
-7.89 -2.15 2.39
-7.84 -2.30 2.39
-7.79 -2.46 2.39
-7.74 -2.62 2.39
-7.69 -2.77 2.39
-7.63 -2.93 2.39
-7.57 -3.08 2.39
-7.50 -3.23 2.39
-7.44 -3.38 2.39
-7.37 -3.53 2.39
-7.30 -3.68 2.39
-7.22 -3.82 2.39
-7.14 -3.97 2.39
-7.06 -4.11 2.39
-6.98 -4.25 2.39
-6.89 -4.39 2.39
-6.80 -4.53 2.39
-6.71 -4.67 2.39
-6.62 -4.80 2.39
-6.56 -4.96 2.40
-6.55 -5.17 2.44
-6.56 -5.39 2.48
-6.48 -5.55 2.49
-6.37 -5.68 2.49
-6.26 -5.81 2.49
-6.14 -5.94 2.49
-6.02 -6.06 2.49
-5.90 -6.18 2.49
-5.77 -6.30 2.49
-5.65 -6.42 2.49
-5.52 -6.53 2.49
-5.39 -6.64 2.49
-5.25 -6.75 2.49
-5.12 -6.86 2.49
-4.98 -6.96 2.49
-4.84 -7.06 2.49
-4.70 -7.16 2.49
-4.56 -7.26 2.49
-4.41 -7.35 2.49
-4.27 -7.44 2.49
-4.12 -7.53 2.49
-3.97 -7.61 2.49
-3.81 -7.70 2.49
-3.66 -7.77 2.49
-3.50 -7.85 2.49
-3.35 -7.92 2.49
-3.19 -7.99 2.49
-3.03 -8.06 2.49
-2.87 -8.12 2.49
-2.70 -8.18 2.49
-2.54 -8.24 2.49
-2.38 -8.29 2.49
-2.21 -8.34 2.49
-2.04 -8.39 2.49
-1.88 -8.43 2.49
-1.71 -8.47 2.49
-1.54 -8.51 2.49
-1.37 -8.54 2.49
-1.19 -8.57 2.49
-1.02 -8.60 2.49
-0.85 -8.63 2.49
-0.68 -8.65 2.49
-0.50 -8.66 2.49
-0.33 -8.68 2.49
-0.15 -8.69 2.49
0.02 -8.01 2.49
0.18 -8.01 2.49
0.34 -8.01 2.49
0.50 -8.01 2.49
0.66 -8.00 2.49
0.83 -7.99 2.49
0.99 -7.98 2.49
1.15 -7.96 2.49
1.31 -7.94 2.49
1.45 -7.81 2.46
1.56 -7.56 2.39
1.71 -7.54 2.39
1.86 -7.50 2.39
2.02 -7.47 2.39
2.17 -7.43 2.39
2.32 -7.39 2.39
2.47 -7.35 2.39
2.62 -7.30 2.39
2.76 -7.25 2.39
2.91 -7.20 2.39
3.06 -7.14 2.39
3.20 -7.09 2.39
3.34 -7.03 2.39
3.49 -6.96 2.39
3.63 -6.89 2.39
3.77 -6.82 2.39
3.91 -6.75 2.39
4.04 -6.68 2.39
4.18 -6.60 2.39
4.31 -6.52 2.39
4.45 -6.43 2.39
4.58 -6.35 2.39
4.71 -6.26 2.39
4.83 -6.16 2.39
4.96 -6.07 2.39
5.08 -5.97 2.39
5.21 -5.87 2.39
5.33 -5.77 2.39
5.44 -5.67 2.39
5.57 -5.57 2.39
5.68 -5.46 2.39
5.79 -5.34 2.39
5.90 -5.23 2.39
6.01 -5.11 2.39
6.11 -5.00 2.39
6.21 -4.87 2.39
6.31 -4.75 2.39
6.41 -4.63 2.39
6.51 -4.50 2.39
6.60 -4.37 2.39
6.69 -4.24 2.39
6.78 -4.11 2.39
6.86 -3.97 2.39
6.94 -3.84 2.39
7.02 -3.70 2.39
7.10 -3.56 2.39
7.17 -3.42 2.39
7.24 -3.27 2.39
7.31 -3.13 2.39
7.37 -2.98 2.39
7.43 -2.84 2.39
7.49 -2.69 2.39
7.55 -2.54 2.39
7.60 -2.39 2.39
7.65 -2.24 2.39
7.70 -2.08 2.39
7.74 -1.93 2.39
7.78 -1.77 2.39
7.82 -1.62 2.39
7.85 -1.46 2.39
7.88 -1.31 2.39
7.91 -1.15 2.39
7.93 -0.99 2.39
7.95 -0.83 2.39
7.97 -0.67 2.39
7.99 -0.51 2.39
8.00 -0.35 2.39
8.00 -0.19 2.39
8.01 -0.03 2.39
8.01 0.13 2.39
8.01 0.29 2.39
8.00 0.45 2.39
7.99 0.61 2.39
7.98 0.77 2.39
7.97 0.93 2.39
7.95 1.09 2.39
7.92 1.25 2.39
7.90 1.41 2.39
7.87 1.56 2.39
7.84 1.72 2.39
7.80 1.88 2.39
7.76 2.04 2.39
7.72 2.19 2.39
7.68 2.34 2.39
7.63 2.50 2.39
7.58 2.65 2.39
7.53 2.80 2.39
7.47 2.95 2.39
7.41 3.10 2.39
7.34 3.25 2.39
7.28 3.39 2.39
7.21 3.54 2.39
7.13 3.68 2.39
7.06 3.83 2.39
6.98 3.97 2.39
6.90 4.10 2.39
6.82 4.24 2.39
6.73 4.38 2.39
6.64 4.51 2.39
6.55 4.64 2.39
6.45 4.77 2.39
6.35 4.90 2.39
6.25 5.02 2.39
6.15 5.15 2.39
6.04 5.27 2.39
5.94 5.39 2.39
5.83 5.50 2.39
5.24 5.15 2.19
5.59 5.72 2.39
5.48 5.83 2.39
5.36 5.94 2.39
5.23 6.04 2.39
5.11 6.15 2.39
4.99 6.24 2.39
4.86 6.34 2.39
4.73 6.44 2.39
4.60 6.53 2.39
4.46 6.62 2.39
4.33 6.70 2.39
4.19 6.78 2.39
4.05 6.86 2.39
3.91 6.94 2.39
3.77 7.02 2.39
3.63 7.09 2.39
3.49 7.15 2.39
3.34 7.22 2.39
3.19 7.28 2.39
3.05 7.34 2.39
2.90 7.40 2.39
2.75 7.45 2.39
2.60 7.50 2.39
2.44 7.55 2.39
2.29 7.59 2.39
2.14 7.63 2.39
1.98 7.67 2.39
1.83 7.70 2.39
1.73 8.02 2.48
1.58 8.10 2.49
1.42 8.12 2.49
1.25 8.15 2.49
1.09 8.17 2.49
0.93 8.18 2.49
0.76 8.19 2.49
0.60 8.20 2.49
0.43 8.21 2.49
0.27 8.21 2.49
0.10 8.21 2.49
-0.06 8.21 2.49
-0.23 8.20 2.49
-0.39 8.19 2.49
-0.55 8.17 2.49
-0.72 8.15 2.49
-0.88 8.13 2.49
-1.04 8.11 2.49
-1.20 8.08 2.49
-1.37 8.05 2.49
-1.53 8.02 2.49
-1.69 7.98 2.49
-1.84 7.94 2.49
-2.00 7.90 2.49
-2.16 7.85 2.49
-2.31 7.80 2.49
-2.47 7.75 2.49
-2.62 7.69 2.49
-2.77 7.63 2.49
-2.92 7.57 2.49
-3.07 7.51 2.49
-3.22 7.44 2.49
-3.37 7.37 2.49
-3.51 7.29 2.49
-3.66 7.22 2.49
-3.80 7.14 2.49
-3.94 7.06 2.49
-4.08 6.97 2.49
-4.21 6.88 2.49
-4.35 6.79 2.49
-4.48 6.70 2.49
-4.61 6.60 2.49
-4.74 6.51 2.49
-4.87 6.41 2.49
-4.99 6.30 2.49
-5.12 6.20 2.49
-5.24 6.09 2.49
-5.35 5.98 2.49
-5.47 5.87 2.49
-5.58 5.75 2.49
-5.69 5.64 2.49
-5.80 5.52 2.49
-5.91 5.40 2.49
-6.01 5.28 2.49
-6.11 5.15 2.49
-6.21 5.02 2.49
-6.31 4.90 2.49
-6.37 4.74 2.48
-6.38 4.55 2.45
-6.38 4.36 2.42
-6.40 4.18 2.39
-6.47 4.05 2.39
-6.55 3.92 2.39
-6.62 3.78 2.39
-6.69 3.65 2.39
-6.76 3.51 2.39
-6.83 3.37 2.39
-6.89 3.23 2.39
-6.95 3.09 2.39
-7.01 2.95 2.39
-7.07 2.81 2.39
-7.12 2.66 2.39
-7.17 2.52 2.39
-7.21 2.37 2.39
-7.26 2.23 2.39
-7.30 2.08 2.39
-7.33 1.93 2.39
-7.37 1.78 2.39
-7.40 1.63 2.39
-7.43 1.48 2.39
-7.45 1.33 2.39
-7.48 1.18 2.39
-7.50 1.03 2.39
-7.51 0.88 2.39
-7.53 0.73 2.39
-7.54 0.58 2.39
-7.55 0.43 2.39
-7.55 0.27 2.39
-7.55 0.12 2.39
-7.55 -0.03 2.39
-7.55 -0.18 2.39
-7.54 -0.33 2.39
-7.53 -0.49 2.39
-7.52 -0.64 2.39
-7.50 -0.79 2.39
-7.49 -0.94 2.39
-7.46 -1.09 2.39
-7.44 -1.24 2.39
-7.41 -1.39 2.39
-7.38 -1.54 2.39
-7.35 -1.68 2.39
-7.31 -1.83 2.39
-7.27 -1.98 2.39
-7.23 -2.12 2.39
-7.19 -2.27 2.39
-7.14 -2.41 2.39
-7.09 -2.56 2.39
-7.04 -2.70 2.39
-6.98 -2.84 2.39
-6.92 -2.98 2.39
-6.86 -3.12 2.39
-6.80 -3.26 2.39
-6.73 -3.39 2.39
-6.66 -3.53 2.39
-6.59 -3.66 2.39
-6.54 -3.81 2.40
-6.53 -3.98 2.43
-6.53 -4.17 2.46
-6.54 -4.35 2.49
-6.46 -4.49 2.49
-6.37 -4.62 2.49
-6.27 -4.75 2.49
-6.18 -4.88 2.49
-6.08 -5.00 2.49
-5.98 -5.12 2.49
-5.87 -5.24 2.49
-5.77 -5.36 2.49
-5.66 -5.48 2.49
-5.55 -5.59 2.49
-5.44 -5.70 2.49
-5.32 -5.81 2.49
-5.21 -5.92 2.49
-5.09 -6.02 2.49
-4.97 -6.13 2.49
-4.85 -6.23 2.49
-4.72 -6.33 2.49
-4.59 -6.42 2.49
-4.46 -6.52 2.49
-4.33 -6.61 2.49
-4.20 -6.69 2.49
-4.07 -6.78 2.49
-3.93 -6.86 2.49
-3.79 -6.94 2.49
-3.66 -7.02 2.49
-3.51 -7.10 2.49
-3.37 -7.17 2.49
-3.23 -7.24 2.49
-3.08 -7.30 2.49
-2.94 -7.37 2.49
-2.79 -7.43 2.49
-2.64 -7.49 2.49
-2.49 -7.54 2.49
-2.34 -7.59 2.49
-2.19 -7.64 2.49
-2.04 -7.69 2.49
-1.88 -7.73 2.49
-1.73 -7.77 2.49
-1.57 -7.81 2.49
-1.41 -7.84 2.49
-1.26 -7.87 2.49
-1.10 -7.90 2.49
-0.94 -7.93 2.49
-0.78 -7.95 2.49
-0.62 -7.97 2.49
-0.46 -7.98 2.49
-0.30 -7.99 2.49
-0.14 -8.00 2.49
0.02 -7.42 2.49
0.17 -7.42 2.49
0.32 -7.42 2.49
0.47 -7.41 2.49
0.62 -7.41 2.49
0.77 -7.40 2.49
0.91 -7.38 2.49
1.06 -7.37 2.49
1.21 -7.35 2.49
1.36 -7.33 2.49
1.46 -7.09 2.42
1.59 -6.97 2.39
1.73 -6.95 2.39
1.87 -6.91 2.39
2.01 -6.88 2.39
2.15 -6.84 2.39
2.28 -6.80 2.39
2.42 -6.76 2.39
2.56 -6.71 2.39
2.69 -6.66 2.39
2.83 -6.61 2.39
2.96 -6.56 2.39
3.10 -6.50 2.39
3.23 -6.44 2.39
3.36 -6.38 2.39
3.49 -6.31 2.39
3.62 -6.24 2.39
3.74 -6.17 2.39
3.87 -6.10 2.39
3.99 -6.03 2.39
4.11 -5.95 2.39
4.23 -5.87 2.39
4.35 -5.79 2.39
4.47 -5.70 2.39
4.59 -5.61 2.39
4.70 -5.52 2.39
4.81 -5.43 2.39
4.93 -5.34 2.39
5.03 -5.24 2.39
5.14 -5.14 2.39
5.25 -5.04 2.39
5.35 -4.93 2.39
5.45 -4.83 2.39
5.55 -4.73 2.39
5.65 -4.62 2.39
5.75 -4.50 2.39
5.84 -4.39 2.39
5.93 -4.28 2.39
6.02 -4.16 2.39
6.10 -4.04 2.39
6.18 -3.92 2.39
6.26 -3.79 2.39
6.34 -3.67 2.39
6.42 -3.54 2.39
6.49 -3.42 2.39
6.56 -3.29 2.39
6.63 -3.16 2.39
6.69 -3.02 2.39
6.75 -2.89 2.39
6.81 -2.76 2.39
6.87 -2.62 2.39
6.92 -2.48 2.39
6.98 -2.34 2.39
7.02 -2.21 2.39
7.07 -2.07 2.39
7.11 -1.92 2.39
7.15 -1.78 2.39
7.19 -1.64 2.39
7.22 -1.50 2.39
7.25 -1.35 2.39
7.28 -1.21 2.39
7.31 -1.06 2.39
7.33 -0.91 2.39
7.35 -0.77 2.39
7.36 -0.62 2.39
7.38 -0.47 2.39
7.39 -0.32 2.39
7.39 -0.18 2.39
7.40 -0.03 2.39
7.40 0.12 2.39
7.40 0.27 2.39
7.39 0.42 2.39
7.38 0.56 2.39
7.37 0.71 2.39
7.36 0.86 2.39
7.34 1.01 2.39
7.32 1.15 2.39
7.29 1.30 2.39
7.27 1.45 2.39
7.24 1.59 2.39
7.21 1.74 2.39
7.17 1.88 2.39
7.13 2.02 2.39
7.09 2.17 2.39
7.05 2.31 2.39
7.00 2.45 2.39
6.95 2.59 2.39
6.90 2.73 2.39
6.84 2.86 2.39
6.78 3.00 2.39
6.72 3.14 2.39
6.66 3.27 2.39
6.59 3.40 2.39
6.52 3.53 2.39
6.45 3.66 2.39
6.37 3.79 2.39
6.29 3.92 2.39
6.21 4.04 2.39
6.13 4.16 2.39
6.05 4.29 2.39
5.96 4.41 2.39
5.87 4.52 2.39
5.78 4.64 2.39
5.67 4.75 2.39
5.58 4.86 2.39
5.48 4.97 2.39
5.38 5.08 2.39
5.21 5.13 2.36
5.17 5.29 2.39
5.06 5.39 2.39
4.95 5.49 2.39
4.84 5.58 2.39
4.72 5.68 2.39
4.61 5.77 2.39
4.49 5.86 2.39
4.32 5.88 2.37
4.25 6.03 2.39
4.12 6.11 2.39
4.00 6.19 2.39
3.87 6.27 2.39
3.75 6.34 2.39
3.62 6.41 2.39
3.49 6.48 2.39
3.36 6.55 2.39
3.22 6.61 2.39
3.09 6.67 2.39
2.95 6.73 2.39
2.82 6.78 2.39
2.68 6.84 2.39
2.54 6.89 2.39
2.40 6.93 2.39
2.26 6.98 2.39
2.12 7.02 2.39
1.98 7.05 2.39
1.83 7.09 2.39
1.72 7.25 2.43
1.61 7.46 2.49
1.46 7.49 2.49
1.31 7.51 2.49
1.16 7.53 2.49
1.01 7.55 2.49
0.86 7.56 2.49
0.71 7.57 2.49
0.55 7.58 2.49
0.40 7.59 2.49
0.25 7.59 2.49
0.10 7.59 2.49
-0.06 7.59 2.49
-0.21 7.58 2.49
-0.36 7.57 2.49
-0.51 7.56 2.49
-0.66 7.54 2.49
-0.81 7.52 2.49
-0.96 7.50 2.49
-1.11 7.48 2.49
-1.26 7.45 2.49
-1.41 7.42 2.49
-1.56 7.38 2.49
-1.70 7.34 2.49
-1.85 7.31 2.49
-2.00 7.26 2.49
-2.14 7.22 2.49
-2.28 7.17 2.49
-2.42 7.12 2.49
-2.56 7.06 2.49
-2.70 7.01 2.49
-2.84 6.95 2.49
-2.98 6.88 2.49
-3.12 6.82 2.49
-3.25 6.75 2.49
-3.38 6.68 2.49
-3.51 6.61 2.49
-3.64 6.53 2.49
-3.77 6.45 2.49
-3.90 6.37 2.49
-4.02 6.29 2.49
-4.15 6.20 2.49
-4.27 6.11 2.49
-4.39 6.02 2.49
-4.51 5.93 2.49
-4.62 5.84 2.49
-4.73 5.74 2.49
-4.85 5.64 2.49
-4.96 5.54 2.49
-5.06 5.43 2.49
-5.17 5.33 2.49
-5.27 5.22 2.49
-5.37 5.11 2.49
-5.47 5.00 2.49
-5.57 4.89 2.49
-5.66 4.77 2.49
-5.75 4.65 2.49
-5.84 4.53 2.49
-5.93 4.41 2.49
-6.01 4.29 2.49
-6.10 4.17 2.49
-6.18 4.04 2.49
-6.25 3.92 2.49
-6.33 3.79 2.49
-6.39 3.65 2.49
-6.40 3.49 2.47
-6.40 3.32 2.44
-6.41 3.17 2.42
-6.41 3.01 2.40
-6.44 2.87 2.39
-6.49 2.74 2.39
-6.55 2.60 2.39
-6.59 2.47 2.39
-6.64 2.34 2.39
-6.68 2.20 2.39
-6.72 2.07 2.39
-6.76 1.93 2.39
-6.80 1.79 2.39
-6.83 1.65 2.39
-6.86 1.52 2.39
-6.88 1.38 2.39
-6.91 1.24 2.39
-6.93 1.10 2.39
-6.95 0.96 2.39
-6.96 0.82 2.39
-6.98 0.68 2.39
-6.99 0.54 2.39
-7.00 0.40 2.39
-7.00 0.25 2.39
-7.00 0.11 2.39
-7.00 -0.03 2.39
-7.00 -0.17 2.39
-6.99 -0.31 2.39
-6.98 -0.45 2.39
-6.97 -0.59 2.39
-6.96 -0.73 2.39
-6.94 -0.87 2.39
-6.92 -1.01 2.39
-6.90 -1.15 2.39
-6.87 -1.29 2.39
-6.84 -1.42 2.39
-6.81 -1.56 2.39
-6.78 -1.70 2.39
-6.74 -1.83 2.39
-6.71 -1.97 2.39
-6.66 -2.10 2.39
-6.62 -2.24 2.39
-6.57 -2.37 2.39
-6.52 -2.50 2.39
-6.52 -2.65 2.41
-6.51 -2.80 2.43
-6.51 -2.96 2.45
-6.52 -3.12 2.47
-6.51 -3.28 2.49
-6.44 -3.41 2.49
-6.37 -3.54 2.49
-6.30 -3.67 2.49
-6.22 -3.79 2.49
-6.15 -3.92 2.49
-6.07 -4.04 2.49
-5.99 -4.16 2.49
-5.90 -4.28 2.49
-5.81 -4.40 2.49
-5.73 -4.52 2.49
-5.63 -4.63 2.49
-5.54 -4.75 2.49
-5.45 -4.86 2.49
-5.35 -4.97 2.49
-5.25 -5.08 2.49
-5.15 -5.18 2.49
-5.04 -5.29 2.49
-4.93 -5.39 2.49
-4.83 -5.49 2.49
-4.72 -5.58 2.49
-4.60 -5.68 2.49
-4.49 -5.77 2.49
-4.37 -5.86 2.49
-4.26 -5.95 2.49
-4.14 -6.04 2.49
-4.02 -6.12 2.49
-3.89 -6.20 2.49
-3.77 -6.28 2.49
-3.64 -6.36 2.49
-3.52 -6.43 2.49
-3.39 -6.51 2.49
-3.26 -6.58 2.49
-3.12 -6.64 2.49
-2.99 -6.71 2.49
-2.86 -6.77 2.49
-2.72 -6.83 2.49
-2.58 -6.88 2.49
-2.45 -6.94 2.49
-2.31 -6.99 2.49
-2.17 -7.03 2.49
-2.03 -7.08 2.49
-1.88 -7.12 2.49
-1.74 -7.16 2.49
-1.60 -7.20 2.49
-1.45 -7.23 2.49
-1.31 -7.26 2.49
-1.16 -7.29 2.49
-1.02 -7.32 2.49
-0.87 -7.34 2.49
-0.72 -7.36 2.49
-0.57 -7.38 2.49
-0.43 -7.39 2.49
-0.28 -7.40 2.49
-0.13 -7.41 2.49
0.02 -6.90 2.49
0.16 -6.90 2.49
0.30 -6.90 2.49
0.44 -6.89 2.49
0.57 -6.89 2.49
0.71 -6.88 2.49
0.85 -6.87 2.49
0.99 -6.85 2.49
1.13 -6.83 2.49
1.27 -6.81 2.49
1.40 -6.79 2.49
1.48 -6.50 2.40
1.61 -6.46 2.39
1.74 -6.43 2.39
1.87 -6.39 2.39
2.00 -6.36 2.39
2.13 -6.32 2.39
2.25 -6.28 2.39
2.38 -6.24 2.39
2.51 -6.19 2.39
2.63 -6.14 2.39
2.76 -6.09 2.39
2.88 -6.04 2.39
3.00 -5.98 2.39
3.12 -5.93 2.39
3.24 -5.87 2.39
3.36 -5.80 2.39
3.48 -5.74 2.39
3.60 -5.67 2.39
3.71 -5.60 2.39
3.82 -5.53 2.39
3.94 -5.45 2.39
4.05 -5.37 2.39
4.16 -5.30 2.39
4.26 -5.21 2.39
4.37 -5.13 2.39
4.47 -5.04 2.39
