ply
format ascii 1.0
element vertex 2848
property float32 x
property float32 y
property float32 z
end_header
31.48 18.74 2.39
31.09 19.36 2.39
30.68 19.97 2.39
30.26 20.57 2.39
29.83 21.16 2.39
29.38 21.75 2.39
27.43 21.17 2.27
27.45 22.08 2.31
27.18 22.78 2.33
26.13 22.80 2.28
23.47 21.32 2.08
23.48 22.21 2.13
23.22 22.86 2.15
23.51 24.10 2.22
23.54 25.12 2.27
23.56 26.17 2.32
23.59 27.28 2.38
23.10 27.83 2.39
22.51 28.26 2.39
21.92 28.67 2.39
21.31 29.06 2.39
20.70 29.45 2.39
20.07 29.82 2.39
19.44 30.17 2.39
18.81 30.51 2.39
18.17 30.84 2.39
17.52 31.15 2.39
14.28 26.64 2.03
13.61 26.65 2.01
15.54 32.00 2.39
13.97 30.31 2.25
14.20 32.49 2.39
13.52 32.72 2.39
12.84 32.93 2.39
12.15 33.12 2.39
11.47 33.30 2.39
10.78 33.46 2.39
10.08 33.61 2.39
9.39 33.74 2.39
8.70 33.86 2.39
8.00 33.96 2.39
7.30 34.05 2.39
6.60 34.12 2.39
5.90 34.14 2.39
5.17 33.99 2.38
4.51 34.21 2.39
3.81 34.23 2.39
3.12 34.23 2.39
2.49 35.10 2.45
1.81 35.66 2.49
1.09 35.61 2.49
0.38 35.55 2.49
-0.34 35.47 2.49
-1.05 35.38 2.49
-1.75 35.28 2.49
-2.45 35.16 2.49
-3.15 35.03 2.49
-3.85 34.88 2.49
-4.54 34.72 2.49
-5.22 34.55 2.49
-5.66 32.94 2.39
-6.30 32.74 2.39
-6.94 32.54 2.39
-7.58 32.32 2.39
-8.21 32.09 2.39
-8.83 31.85 2.39
-9.44 31.59 2.39
-10.03 31.27 2.39
-10.47 30.50 2.35
-10.89 29.77 2.31
-11.25 28.93 2.27
-11.59 28.12 2.23
-11.85 27.20 2.18
-12.10 26.32 2.13
-12.48 25.76 2.11
-12.76 25.06 2.08
-12.96 24.23 2.04
-13.13 23.41 1.99
-13.28 22.59 1.95
-13.33 21.67 1.90
-13.38 20.80 1.85
-13.46 20.03 1.81
-13.47 19.21 1.76
-13.50 18.45 1.72
-13.47 17.65 1.67
-13.43 16.89 1.63
-13.31 16.06 1.58
-12.91 14.96 1.50
-12.61 14.03 1.43
-12.51 13.37 1.39
-12.36 12.69 1.35
-12.25 12.08 1.32
-12.22 11.57 1.29
-12.17 11.07 1.26
-12.09 10.57 1.23
-12.03 10.09 1.21
-12.02 9.68 1.19
-12.02 9.29 1.17
-12.02 8.91 1.16
-12.04 8.55 1.15
-12.06 8.21 1.13
-12.04 7.85 1.12
-12.01 7.49 1.10
-11.99 7.14 1.09
-11.96 6.81 1.08
-11.95 6.48 1.07
-11.93 6.17 1.05
-11.93 5.87 1.05
-11.94 5.58 1.04
-11.94 5.29 1.03
-11.95 5.01 1.02
-11.95 4.73 1.02
-11.94 4.45 1.01
-11.93 4.17 1.00
-11.93 3.91 1.00
-11.94 3.65 0.99
-11.96 3.39 0.99
-11.97 3.14 0.99
-11.98 2.88 0.98
-11.99 2.63 0.98
-12.01 2.39 0.98
-12.03 2.14 0.98
-12.04 1.89 0.98
-12.05 1.65 0.98
-12.06 1.40 0.98
-12.07 1.16 0.98
-12.08 0.91 0.98
-12.09 0.67 0.98
-12.12 0.43 0.98
-12.14 0.19 0.98
-12.16 -0.06 0.98
-12.16 -0.30 0.98
-12.17 -0.55 0.99
-12.18 -0.79 0.99
-12.18 -1.04 0.99
-12.18 -1.29 0.99
-12.18 -1.53 1.00
-12.18 -1.78 1.00
-12.18 -2.03 1.00
-12.23 -2.30 1.01
-12.28 -2.56 1.02
-12.34 -2.83 1.03
-12.39 -3.11 1.04
-12.43 -3.38 1.05
-12.47 -3.67 1.06
-12.51 -3.95 1.07
-12.54 -4.24 1.08
-12.56 -4.53 1.09
-12.58 -4.83 1.10
-12.60 -5.13 1.11
-12.63 -5.44 1.12
-12.65 -5.75 1.13
-12.67 -6.07 1.14
-12.67 -6.38 1.15
-12.67 -6.70 1.17
-12.66 -7.03 1.18
-12.66 -7.37 1.19
-12.66 -7.71 1.21
-12.66 -8.06 1.22
-12.64 -8.42 1.23
-12.63 -8.78 1.25
-12.61 -9.15 1.27
-12.60 -9.53 1.28
-12.60 -9.93 1.30
-12.60 -10.35 1.32
-12.61 -10.79 1.34
-12.63 -11.25 1.37
-12.64 -11.72 1.39
-12.65 -12.22 1.42
-12.71 -12.78 1.46
-12.83 -13.43 1.50
-13.00 -14.17 1.55
-12.97 -14.72 1.58
-13.04 -15.41 1.63
-13.18 -16.22 1.68
-13.11 -16.81 1.71
-13.09 -17.50 1.75
-13.07 -18.23 1.80
-12.93 -18.83 1.83
-12.79 -19.45 1.86
-12.65 -20.11 1.90
-12.58 -20.90 1.95
-12.50 -21.75 2.00
-12.35 -22.53 2.05
-12.21 -23.38 2.10
-12.05 -24.24 2.15
-12.00 -25.40 2.23
-12.01 -26.80 2.33
-12.18 -28.71 2.47
-12.05 -30.10 2.56
-10.70 -28.35 2.39
-10.15 -28.61 2.39
-9.58 -28.85 2.39
-9.02 -29.08 2.39
-8.44 -29.30 2.39
-7.87 -29.52 2.39
-7.29 -29.72 2.39
-6.99 -31.20 2.49
-6.37 -31.39 2.49
-5.75 -31.56 2.49
-5.12 -31.73 2.49
-2.14 -15.19 1.19
-1.83 -15.20 1.18
-1.52 -15.20 1.18
-1.22 -15.21 1.18
-0.91 -15.21 1.17
-0.60 -15.22 1.17
-0.64 -32.56 2.49
0.02 -25.16 2.49
0.52 -25.19 2.49
1.03 -25.21 2.49
1.48 -24.21 2.39
1.96 -24.18 2.39
2.45 -24.18 2.39
2.94 -24.16 2.39
3.43 -24.14 2.39
3.92 -24.10 2.39
4.41 -24.06 2.39
4.90 -24.00 2.39
5.40 -23.97 2.39
1.89 -7.67 0.77
6.38 -23.82 2.39
6.87 -23.72 2.39
7.36 -23.62 2.39
7.84 -23.51 2.39
8.33 -23.38 2.39
8.81 -23.25 2.39
9.29 -23.11 2.39
9.77 -22.96 2.39
10.24 -22.80 2.39
10.72 -22.62 2.39
11.19 -22.44 2.39
11.66 -22.25 2.39
12.12 -22.05 2.39
12.58 -21.84 2.39
13.04 -21.62 2.39
13.49 -21.39 2.39
13.94 -21.15 2.39
14.26 -20.71 2.37
14.31 -19.91 2.31
14.35 -19.15 2.25
14.32 -18.33 2.18
14.34 -17.61 2.13
14.36 -16.93 2.08
14.32 -16.21 2.02
14.34 -15.59 1.97
14.36 -15.00 1.93
14.32 -14.37 1.88
14.35 -13.83 1.85
14.38 -13.31 1.81
14.35 -12.77 1.78
14.38 -12.29 1.75
14.41 -11.82 1.72
14.38 -11.32 1.68
14.39 -10.87 1.66
14.40 -10.43 1.63
14.41 -10.00 1.61
14.36 -9.54 1.58
14.37 -9.14 1.56
14.38 -8.75 1.54
14.34 -8.33 1.51
14.34 -7.95 1.49
14.35 -7.59 1.47
14.36 -7.22 1.46
14.31 -6.84 1.44
14.31 -6.49 1.42
14.31 -6.15 1.41
14.31 -5.81 1.39
14.31 -5.48 1.38
14.27 -5.14 1.37
14.32 -4.84 1.36
14.37 -4.54 1.35
14.42 -4.23 1.35
14.56 -3.96 1.35
14.73 -3.69 1.36
14.89 -3.41 1.37
15.06 -3.14 1.37
15.23 -2.85 1.38
15.40 -2.57 1.39
15.58 -2.28 1.40
15.76 -1.98 1.41
15.94 -1.68 1.42
16.13 -1.37 1.44
15.70 -1.02 1.40
15.14 -0.68 1.34
14.97 -0.37 1.33
15.15 -0.07 1.34
15.34 0.23 1.36
15.53 0.55 1.37
15.72 0.87 1.39
15.93 1.20 1.41
16.13 1.55 1.43
16.35 1.90 1.45
16.57 2.26 1.47
16.79 2.64 1.50
17.03 3.02 1.52
17.27 3.43 1.55
17.52 3.84 1.58
17.79 4.28 1.61
18.06 4.73 1.64
18.34 5.20 1.68
18.64 5.69 1.71
18.95 6.20 1.75
19.28 6.74 1.79
19.62 7.30 1.84
25.32 10.01 2.39
25.12 10.51 2.39
24.90 11.02 2.39
24.67 11.51 2.39
24.44 12.00 2.39
24.19 12.49 2.39
23.93 12.97 2.39
23.66 13.44 2.39
23.38 13.91 2.39
23.09 14.38 2.39
22.79 14.83 2.39
22.48 15.28 2.39
22.16 15.72 2.39
21.83 16.16 2.39
21.49 16.58 2.39
21.14 17.00 2.39
20.78 17.41 2.39
20.42 17.82 2.39
20.05 18.21 2.39
19.66 18.60 2.39
19.27 18.98 2.39
18.88 19.34 2.39
18.47 19.70 2.39
18.06 20.06 2.39
17.64 20.40 2.39
17.21 20.73 2.39
16.78 21.05 2.39
16.34 21.37 2.39
15.89 21.67 2.39
15.44 21.96 2.39
14.98 22.25 2.39
14.51 22.52 2.39
14.05 22.78 2.39
13.47 22.86 2.37
13.09 23.28 2.39
12.61 23.51 2.39
12.12 23.73 2.39
11.63 23.94 2.39
11.13 24.14 2.39
10.63 24.32 2.39
10.13 24.50 2.39
9.62 24.67 2.39
9.11 24.82 2.39
8.60 24.95 2.39
8.09 25.10 2.39
7.57 25.22 2.39
7.06 25.34 2.39
6.54 25.44 2.39
6.01 25.50 2.39
5.49 25.58 2.39
4.97 25.64 2.39
4.45 25.70 2.39
3.92 25.74 2.39
3.40 25.78 2.39
2.88 25.80 2.39
2.36 25.81 2.39
1.91 26.93 2.49
1.37 26.92 2.49
0.83 26.90 2.49
0.29 26.87 2.49
-0.25 26.82 2.49
-0.79 26.77 2.49
-1.32 26.70 2.49
-1.85 26.63 2.49
-2.38 26.54 2.49
-2.91 26.44 2.49
-3.44 26.34 2.49
-3.96 26.22 2.49
-4.47 26.09 2.49
-4.99 25.95 2.49
-5.50 25.80 2.49
-5.79 24.70 2.40
-6.24 24.42 2.39
-6.72 24.25 2.39
-7.19 24.07 2.39
-7.66 23.88 2.39
-8.12 23.68 2.39
-8.58 23.47 2.39
-9.03 23.25 2.39
-9.48 23.03 2.39
-10.71 24.60 2.58
-11.07 24.09 2.55
-6.55 13.53 1.45
-11.65 22.89 2.48
-11.99 22.43 2.46
-12.25 21.84 2.43
-12.42 21.13 2.38
-12.56 20.43 2.33
-12.69 19.74 2.29
-12.74 18.98 2.23
-12.79 18.25 2.18
-12.75 17.43 2.11
-12.69 16.63 2.05
-12.66 15.93 2.00
-12.23 14.76 1.89
-12.02 13.93 1.81
-12.00 13.36 1.77
-11.92 12.74 1.73
-11.81 12.13 1.68
-11.79 11.63 1.64
-11.77 11.16 1.61
-11.74 10.69 1.58
-11.68 10.21 1.54
-11.67 9.80 1.52
-11.67 9.40 1.50
-11.67 9.02 1.48
-11.67 8.65 1.46
-11.70 8.31 1.44
-11.70 7.97 1.42
-11.68 7.61 1.40
-11.66 7.27 1.38
-11.63 6.94 1.37
-11.61 6.61 1.35
-11.60 6.30 1.33
-11.60 6.00 1.32
-11.61 5.71 1.31
-11.61 5.43 1.30
-11.62 5.15 1.29
-11.63 4.88 1.28
-11.64 4.61 1.27
-11.64 4.34 1.27
-11.63 4.07 1.26
-11.64 3.82 1.25
-11.66 3.56 1.25
-11.67 3.31 1.24
-11.68 3.06 1.24
-11.69 2.82 1.23
-11.70 2.57 1.23
-11.72 2.33 1.23
-11.74 2.09 1.23
-11.75 1.85 1.22
-11.76 1.61 1.22
-11.77 1.37 1.22
-11.78 1.13 1.22
-11.79 0.89 1.22
-11.79 0.66 1.22
-11.80 0.42 1.22
-11.83 0.18 1.22
-11.85 -0.06 1.23
-11.85 -0.29 1.23
-11.86 -0.53 1.23
-11.86 -0.77 1.23
-11.87 -1.01 1.24
-11.87 -1.25 1.24
-11.88 -1.50 1.24
-11.87 -1.74 1.25
-11.87 -1.98 1.25
-11.91 -2.23 1.26
-11.96 -2.49 1.27
-12.00 -2.76 1.28
-12.05 -3.02 1.29
-12.10 -3.29 1.30
-12.14 -3.57 1.32
-12.18 -3.85 1.33
-12.21 -4.13 1.34
-12.23 -4.41 1.35
-12.25 -4.70 1.37
-12.26 -4.99 1.38
-12.28 -5.29 1.39
-12.30 -5.59 1.41
-12.32 -5.90 1.42
-12.32 -6.21 1.44
-12.32 -6.52 1.45
-12.31 -6.84 1.47
-12.31 -7.16 1.48
-12.30 -7.49 1.50
-12.29 -7.83 1.52
-12.28 -8.18 1.53
-12.26 -8.52 1.55
-12.24 -8.88 1.57
-12.22 -9.24 1.59
-12.20 -9.62 1.61
-12.18 -10.01 1.64
-12.18 -10.42 1.66
-12.19 -10.86 1.69
-12.19 -11.31 1.72
-12.20 -11.78 1.76
-12.21 -12.27 1.79
-12.26 -12.83 1.84
-12.31 -13.41 1.88
-12.44 -14.12 1.94
-12.42 -14.67 1.98
-12.37 -15.23 2.02
-12.38 -15.88 2.08
-12.38 -16.56 2.13
-12.29 -17.15 2.17
-12.19 -17.76 2.21
-12.12 -18.43 2.27
-11.96 -19.01 2.31
-11.80 -19.61 2.35
-11.51 -20.04 2.37
-11.21 -20.45 2.39
-10.95 -20.96 2.42
-10.41 -20.96 2.39
-10.00 -21.18 2.39
-9.58 -21.40 2.39
-9.16 -21.62 2.39
-8.74 -21.82 2.39
-8.31 -22.02 2.39
-7.87 -22.21 2.39
-7.43 -22.39 2.39
-6.99 -22.56 2.39
-6.77 -23.50 2.47
-6.36 -23.87 2.49
-5.89 -24.02 2.49
-5.41 -24.17 2.49
-4.93 -24.30 2.49
-4.45 -24.43 2.49
-3.96 -24.55 2.49
-2.11 -15.00 1.52
-1.81 -15.01 1.51
-1.50 -15.02 1.51
-1.20 -15.02 1.50
-0.90 -15.03 1.50
-0.59 -15.03 1.50
-0.36 -18.40 1.83
0.02 -20.45 2.49
0.43 -20.47 2.49
0.84 -20.49 2.49
1.25 -20.49 2.49
1.60 -19.64 2.39
1.99 -19.63 2.39
2.39 -19.61 2.39
2.79 -19.58 2.39
3.19 -19.55 2.39
3.58 -19.51 2.39
3.98 -19.46 2.39
4.37 -19.40 2.39
1.89 -7.67 0.95
5.16 -19.26 2.39
5.56 -19.21 2.39
5.96 -19.12 2.39
6.35 -19.02 2.39
6.74 -18.91 2.39
7.13 -18.80 2.39
7.51 -18.68 2.39
7.90 -18.55 2.39
8.28 -18.41 2.39
8.66 -18.27 2.39
9.04 -18.12 2.39
9.41 -17.96 2.39
9.78 -17.79 2.39
10.15 -17.61 2.39
10.52 -17.43 2.39
10.88 -17.24 2.39
11.24 -17.04 2.39
11.60 -16.83 2.39
11.95 -16.62 2.39
12.29 -16.40 2.39
12.64 -16.17 2.39
12.98 -15.94 2.39
13.31 -15.69 2.39
13.64 -15.45 2.39
13.97 -15.19 2.39
14.29 -14.92 2.39
14.32 -14.36 2.35
14.35 -13.83 2.30
14.38 -13.31 2.26
14.35 -12.76 2.21
14.38 -12.28 2.18
14.41 -11.82 2.14
14.38 -11.32 2.10
14.39 -10.86 2.07
14.40 -10.42 2.04
14.41 -10.00 2.01
14.36 -9.54 1.97
14.37 -9.14 1.94
14.38 -8.74 1.92
14.34 -8.33 1.89
14.34 -7.95 1.86
14.35 -7.58 1.84
14.36 -7.22 1.82
14.31 -6.84 1.80
14.31 -6.49 1.78
14.31 -6.15 1.76
14.31 -5.81 1.74
14.31 -5.48 1.73
14.27 -5.14 1.71
14.32 -4.84 1.70
14.37 -4.53 1.70
14.42 -4.23 1.69
14.56 -3.96 1.70
14.73 -3.69 1.70
14.89 -3.41 1.71
15.06 -3.14 1.72
15.23 -2.85 1.74
15.41 -2.57 1.75
15.58 -2.28 1.76
15.76 -1.98 1.77
15.94 -1.68 1.79
16.13 -1.37 1.81
15.70 -1.02 1.75
15.14 -0.68 1.69
14.97 -0.37 1.67
15.15 -0.07 1.69
15.34 0.24 1.71
15.53 0.55 1.73
15.73 0.87 1.75
15.93 1.21 1.77
16.13 1.55 1.80
16.35 1.90 1.83
16.57 2.26 1.85
16.79 2.64 1.88
17.03 3.03 1.92
17.27 3.43 1.95
17.52 3.84 1.99
17.79 4.28 2.03
18.06 4.73 2.07
18.34 5.20 2.11
18.64 5.69 2.16
18.95 6.20 2.21
19.28 6.74 2.26
19.62 7.30 2.32
20.12 7.95 2.39
19.95 8.35 2.39
19.78 8.75 2.39
19.60 9.15 2.39
19.41 9.54 2.39
19.22 9.92 2.39
19.01 10.30 2.39
18.80 10.68 2.39
18.57 11.05 2.39
18.35 11.42 2.39
18.11 11.78 2.39
17.86 12.14 2.39
17.61 12.49 2.39
17.35 12.84 2.39
17.08 13.18 2.39
16.81 13.52 2.39
16.53 13.84 2.39
16.24 14.17 2.39
15.94 14.48 2.39
15.64 14.79 2.39
15.33 15.09 2.39
15.02 15.39 2.39
14.70 15.68 2.39
14.37 15.96 2.39
14.04 16.23 2.39
13.70 16.50 2.39
13.36 16.76 2.39
13.01 17.01 2.39
12.66 17.26 2.39
12.30 17.50 2.39
11.94 17.73 2.39
11.57 17.95 2.39
11.20 18.16 2.39
10.82 18.36 2.39
10.44 18.56 2.39
10.06 18.75 2.39
9.67 18.93 2.39
9.28 19.10 2.39
8.89 19.27 2.39
8.49 19.42 2.39
8.09 19.57 2.39
7.69 19.71 2.39
7.29 19.84 2.39
6.88 19.96 2.39
6.47 20.07 2.39
6.05 20.15 2.39
5.64 20.24 2.39
5.23 20.33 2.39
4.81 20.41 2.39
4.40 20.48 2.39
3.98 20.53 2.39
3.56 20.59 2.39
3.15 20.63 2.39
2.73 20.66 2.39
2.31 20.69 2.39
1.97 21.60 2.49
1.54 21.60 2.49
1.10 21.60 2.49
0.67 21.59 2.49
0.24 21.57 2.49
-0.20 21.55 2.49
-0.63 21.51 2.49
-1.06 21.46 2.49
-1.49 21.41 2.49
-1.91 21.35 2.49
-2.34 21.28 2.49
-2.76 21.20 2.49
-3.18 21.11 2.49
-3.60 21.01 2.49
-4.02 20.91 2.49
-4.43 20.79 2.49
-4.84 20.67 2.49
-5.24 20.54 2.49
-5.65 20.40 2.49
-5.88 19.71 2.43
-6.18 19.27 2.39
-6.55 19.12 2.39
-6.93 18.96 2.39
-7.30 18.79 2.39
-7.66 18.61 2.39
-8.02 18.43 2.39
-8.38 18.24 2.39
-6.54 13.52 1.79
-9.08 17.84 2.39
-9.42 17.63 2.39
-9.76 17.41 2.39
-11.26 19.17 2.67
-11.43 18.60 2.62
-11.52 17.92 2.56
-11.59 17.27 2.50
-11.62 16.58 2.44
-11.63 15.91 2.38
-11.66 15.30 2.33
-11.57 14.56 2.25
-11.46 13.84 2.18
-11.46 13.28 2.13
-11.45 12.75 2.08
-11.39 12.18 2.03
-11.38 11.69 1.99
-11.37 11.22 1.95
-11.36 10.77 1.91
-11.35 10.33 1.88
-11.33 9.91 1.84
-11.34 9.52 1.81
-11.34 9.14 1.79
-11.35 8.77 1.76
-11.35 8.42 1.74
-11.36 8.08 1.72
-11.35 7.73 1.69
-11.33 7.39 1.67
-11.32 7.06 1.65
-11.30 6.74 1.63
-11.29 6.43 1.61
-11.27 6.12 1.59
-11.28 5.84 1.58
-11.29 5.56 1.56
-11.31 5.29 1.55
-11.32 5.02 1.54
-11.33 4.75 1.53
-11.33 4.49 1.52
-11.34 4.23 1.51
-11.35 3.98 1.50
-11.36 3.73 1.49
-11.38 3.48 1.49
-11.39 3.23 1.48
-11.41 2.99 1.48
-11.42 2.75 1.47
-11.43 2.51 1.47
-11.44 2.28 1.46
-11.46 2.04 1.46
-11.47 1.80 1.46
-11.48 1.57 1.46
-11.49 1.34 1.46
-11.50 1.11 1.46
-11.51 0.87 1.45
-11.51 0.64 1.45
-11.52 0.41 1.46
-11.53 0.18 1.46
-11.55 -0.05 1.46
-11.55 -0.29 1.46
-11.56 -0.52 1.46
-11.56 -0.75 1.47
-11.57 -0.99 1.47
-11.57 -1.22 1.47
-11.57 -1.46 1.48
-11.58 -1.69 1.48
-11.57 -1.93 1.49
-11.60 -2.18 1.50
-11.64 -2.43 1.51
-11.69 -2.68 1.52
-11.73 -2.94 1.53
-11.77 -3.21 1.55
-11.82 -3.47 1.56
-11.86 -3.75 1.58
-11.89 -4.02 1.59
-11.91 -4.30 1.61
-11.92 -4.57 1.62
-11.94 -4.86 1.64
-11.95 -5.15 1.65
-11.97 -5.44 1.67
-11.98 -5.74 1.69
-11.99 -6.04 1.70
-11.99 -6.35 1.72
-11.98 -6.65 1.74
-11.97 -6.97 1.76
-11.96 -7.29 1.78
-11.95 -7.61 1.80
-11.94 -7.95 1.82
-11.92 -8.28 1.84
-11.89 -8.63 1.86
-11.87 -8.98 1.89
-11.84 -9.33 1.91
-11.81 -9.70 1.93
-11.78 -10.08 1.96
-11.78 -10.50 2.00
-11.77 -10.93 2.03
-11.77 -11.37 2.07
-11.77 -11.83 2.11
-11.77 -12.32 2.15
-11.81 -12.87 2.20
-11.85 -13.45 2.26
-11.90 -14.06 2.32
-11.88 -14.63 2.37
-11.82 -15.17 2.42
-11.76 -15.73 2.47
-11.69 -16.31 2.52
-11.46 -16.68 2.54
-10.46 -15.91 2.39
-10.14 -16.13 2.39
-9.83 -16.34 2.39
-9.50 -16.55 2.39
-9.18 -16.75 2.39
-8.85 -16.94 2.39
-8.51 -17.13 2.39
-8.17 -17.31 2.39
-7.83 -17.49 2.39
-7.48 -17.66 2.39
-7.13 -17.82 2.39
-6.78 -17.98 2.39
-6.68 -18.85 2.49
-6.33 -19.06 2.49
-5.95 -19.21 2.49
-5.57 -19.34 2.49
-5.18 -19.47 2.49
-4.80 -19.59 2.49
-4.41 -19.70 2.49
-4.01 -19.81 2.49
-3.62 -19.91 2.49
-3.22 -20.00 2.49
-2.11 -15.00 1.86
-1.80 -15.01 1.86
-1.50 -15.01 1.85
-1.20 -15.02 1.85
-0.89 -15.02 1.84
-0.59 -15.03 1.84
-0.30 -15.52 1.90
0.02 -17.22 2.49
0.36 -17.23 2.49
0.71 -17.24 2.49
1.06 -17.24 2.49
1.40 -17.19 2.49
1.68 -16.51 2.39
2.01 -16.49 2.39
2.35 -16.46 2.39
2.68 -16.43 2.39
3.01 -16.39 2.39
3.35 -16.35 2.39
3.68 -16.29 2.39
1.89 -7.67 1.13
4.34 -16.17 2.39
4.67 -16.10 2.39
5.00 -16.02 2.39
5.32 -15.94 2.39
5.65 -15.86 2.39
5.98 -15.77 2.39
6.30 -15.66 2.39
6.62 -15.55 2.39
6.94 -15.43 2.39
7.26 -15.31 2.39
7.57 -15.18 2.39
7.88 -15.04 2.39
8.19 -14.89 2.39
8.50 -14.74 2.39
8.81 -14.59 2.39
9.11 -14.42 2.39
9.41 -14.26 2.39
9.70 -14.08 2.39
9.99 -13.90 2.39
10.28 -13.71 2.39
10.57 -13.52 2.39
10.85 -13.32 2.39
11.13 -13.11 2.39
11.40 -12.90 2.39
11.67 -12.68 2.39
11.94 -12.46 2.39
12.20 -12.23 2.39
12.45 -12.00 2.39
12.70 -11.76 2.39
12.95 -11.51 2.39
13.19 -11.26 2.39
13.43 -11.01 2.39
13.66 -10.75 2.39
13.89 -10.48 2.39
14.11 -10.21 2.39
14.33 -9.94 2.39
14.36 -9.54 2.36
14.37 -9.13 2.33
14.38 -8.74 2.30
14.34 -8.32 2.27
14.34 -7.95 2.24
14.35 -7.58 2.21
14.36 -7.22 2.19
14.31 -6.84 2.16
14.31 -6.49 2.14
14.31 -6.15 2.12
14.31 -5.81 2.10
14.31 -5.48 2.08
14.27 -5.14 2.06
14.32 -4.83 2.05
14.37 -4.53 2.04
14.42 -4.23 2.03
14.56 -3.96 2.04
14.73 -3.69 2.05
14.89 -3.41 2.06
15.06 -3.13 2.08
15.23 -2.85 2.09
15.41 -2.57 2.10
15.58 -2.28 2.12
15.76 -1.98 2.14
15.94 -1.68 2.16
16.13 -1.37 2.18
15.69 -1.02 2.11
15.13 -0.68 2.03
14.97 -0.37 2.01
15.15 -0.07 2.03
15.34 0.24 2.06
15.53 0.55 2.08
15.73 0.87 2.11
15.93 1.21 2.14
16.13 1.55 2.17
16.35 1.90 2.20
16.57 2.26 2.24
16.79 2.64 2.27
17.03 3.03 2.31
17.27 3.43 2.35
17.49 3.84 2.39
17.42 4.19 2.39
17.33 4.54 2.39
17.24 4.89 2.39
17.14 5.23 2.39
17.04 5.57 2.39
16.92 5.92 2.39
16.80 6.25 2.39
16.67 6.59 2.39
16.54 6.92 2.39
16.39 7.25 2.39
16.25 7.58 2.39
16.09 7.90 2.39
15.93 8.22 2.39
15.76 8.54 2.39
15.58 8.85 2.39
15.40 9.16 2.39
15.21 9.47 2.39
15.01 9.77 2.39
14.81 10.07 2.39
14.60 10.36 2.39
14.38 10.64 2.39
14.16 10.93 2.39
13.94 11.21 2.39
13.71 11.48 2.39
13.47 11.75 2.39
13.22 12.01 2.39
12.97 12.27 2.39
12.72 12.52 2.39
12.46 12.77 2.39
12.20 13.01 2.39
11.93 13.24 2.39
11.65 13.47 2.39
11.37 13.69 2.39
11.09 13.91 2.39
10.80 14.12 2.39
10.51 14.33 2.39
10.21 14.53 2.39
9.92 14.72 2.39
9.61 14.90 2.39
9.30 15.08 2.39
8.99 15.26 2.39
8.68 15.42 2.39
8.36 15.58 2.39
8.04 15.73 2.39
7.72 15.88 2.39
7.39 16.02 2.39
7.06 16.15 2.39
6.73 16.27 2.39
6.40 16.39 2.39
6.06 16.48 2.39
5.72 16.59 2.39
5.38 16.68 2.39
5.04 16.77 2.39
4.70 16.85 2.39
4.36 16.93 2.39
4.01 17.00 2.39
3.67 17.06 2.39
3.32 17.11 2.39
2.97 17.16 2.39
2.63 17.19 2.39
2.28 17.23 2.39
2.01 17.99 2.49
1.65 18.01 2.49
1.29 18.02 2.49
0.92 18.02 2.49
0.56 18.02 2.49
0.20 18.01 2.49
-0.16 17.99 2.49
-0.52 17.96 2.49
-0.88 17.93 2.49
-1.24 17.89 2.49
-1.60 17.84 2.49
-1.95 17.78 2.49
-2.31 17.72 2.49
-2.66 17.65 2.49
-3.01 17.57 2.49
-3.36 17.49 2.49
-3.70 17.40 2.49
-4.05 17.30 2.49
-4.39 17.19 2.49
-4.73 17.08 2.49
-5.06 16.97 2.49
-5.39 16.84 2.49
-5.72 16.71 2.49
-5.95 16.29 2.45
-6.11 15.75 2.39
-6.42 15.60 2.39
-6.72 15.45 2.39
-7.02 15.30 2.39
-6.54 13.52 2.13
-7.61 14.97 2.39
-7.90 14.80 2.39
-8.19 14.62 2.39
-8.47 14.43 2.39
-8.75 14.24 2.39
-9.02 14.05 2.39
-9.29 13.85 2.39
-9.56 13.65 2.39
-9.82 13.44 2.39
-10.71 14.05 2.54
-10.77 13.55 2.49
-10.78 13.02 2.44
-10.79 12.52 2.38
-10.83 12.06 2.34
-10.85 11.60 2.30
-10.84 11.14 2.25
-10.83 10.69 2.20
-10.82 10.26 2.16
-10.87 9.90 2.13
-10.88 9.52 2.10
-10.90 9.15 2.07
-10.91 8.80 2.04
-10.92 8.45 2.01
-10.93 8.11 1.99
-10.96 7.79 1.96
-10.94 7.46 1.94
-10.92 7.13 1.91
-10.91 6.81 1.88
-10.89 6.50 1.86
-10.87 6.19 1.84
-10.88 5.91 1.82
-10.91 5.65 1.80
-10.92 5.38 1.79
-10.94 5.12 1.78
-10.95 4.86 1.77
-10.97 4.60 1.75
-10.98 4.35 1.74
-10.99 4.10 1.73
-10.99 3.85 1.72
-11.01 3.61 1.71
-11.03 3.37 1.71
-11.05 3.14 1.70
-11.07 2.91 1.70
-11.09 2.67 1.69
-11.10 2.44 1.69
-11.12 2.21 1.68
-11.13 1.98 1.68
-11.14 1.75 1.68
-11.15 1.53 1.67
-11.16 1.30 1.67
-11.18 1.08 1.67
-11.19 0.85 1.67
-11.20 0.62 1.67
-11.21 0.40 1.67
-11.21 0.17 1.67
-11.22 -0.05 1.68
-11.22 -0.28 1.68
-11.23 -0.50 1.68
-11.23 -0.73 1.68
-11.24 -0.96 1.69
-11.24 -1.18 1.69
-11.24 -1.41 1.69
-11.24 -1.64 1.70
-11.24 -1.88 1.71
-11.23 -2.11 1.71
-11.27 -2.35 1.72
-11.36 -2.61 1.75
-11.42 -2.87 1.76
-11.46 -3.12 1.78
-11.50 -3.38 1.80
-11.54 -3.65 1.81
-11.58 -3.92 1.83
-11.60 -4.19 1.85
-11.62 -4.46 1.87
-11.63 -4.73 1.88
-11.64 -5.01 1.90
-11.65 -5.30 1.92
-11.66 -5.59 1.94
-11.67 -5.88 1.96
-11.67 -6.18 1.98
-11.66 -6.48 2.00
-11.65 -6.78 2.02
-11.64 -7.09 2.04
-11.62 -7.40 2.06
-11.61 -7.73 2.09
-11.59 -8.06 2.11
-11.56 -8.39 2.14
-11.53 -8.72 2.16
-11.44 -9.02 2.18
-11.34 -9.32 2.20
-11.25 -9.63 2.21
-11.15 -9.94 2.23
-11.05 -10.26 2.25
-11.00 -10.63 2.28
-10.94 -11.01 2.32
-10.89 -11.41 2.35
-10.84 -11.81 2.39
-10.78 -12.23 2.43
-10.36 -12.25 2.39
-10.12 -12.46 2.39
-9.87 -12.67 2.39
-9.62 -12.87 2.39
-9.36 -13.07 2.39
-9.10 -13.26 2.39
-8.84 -13.45 2.39
-8.57 -13.63 2.39
-8.30 -13.81 2.39
-8.03 -13.99 2.39
-7.75 -14.15 2.39
-7.47 -14.32 2.39
-7.19 -14.48 2.39
-6.90 -14.63 2.39
-6.61 -14.77 2.39
-6.59 -15.56 2.49
-6.28 -15.70 2.49
-5.97 -15.84 2.49
-5.66 -15.97 2.49
-5.34 -16.09 2.49
-5.02 -16.21 2.49
-4.70 -16.32 2.49
-4.37 -16.43 2.49
-4.04 -16.53 2.49
-3.71 -16.62 2.49
-3.38 -16.71 2.49
-3.05 -16.79 2.49
-2.71 -16.86 2.49
-2.16 -15.41 2.27
-1.80 -15.00 2.20
-1.50 -15.01 2.20
-1.19 -15.01 2.19
-0.89 -15.02 2.19
-0.59 -15.02 2.18
-0.29 -15.46 2.24
0.02 -14.85 2.49
0.32 -14.86 2.49
0.62 -14.86 2.49
0.91 -14.86 2.49
1.21 -14.86 2.49
1.47 -14.38 2.42
1.74 -14.21 2.39
2.03 -14.19 2.39
2.31 -14.16 2.39
2.60 -14.12 2.39
2.88 -14.08 2.39
3.17 -14.03 2.39
1.89 -7.66 1.31
3.74 -13.92 2.39
4.02 -13.86 2.39
4.30 -13.79 2.39
4.58 -13.71 2.39
4.86 -13.63 2.39
5.14 -13.54 2.39
5.42 -13.45 2.39
5.70 -13.37 2.39
5.97 -13.27 2.39
6.24 -13.16 2.39
6.51 -13.04 2.39
6.78 -12.92 2.39
7.04 -12.80 2.39
7.31 -12.67 2.39
7.57 -12.53 2.39
7.83 -12.39 2.39
8.08 -12.24 2.39
8.33 -12.09 2.39
8.58 -11.93 2.39
8.83 -11.77 2.39
9.07 -11.60 2.39
9.31 -11.43 2.39
9.55 -11.25 2.39
9.78 -11.07 2.39
10.01 -10.88 2.39
10.24 -10.68 2.39
10.46 -10.49 2.39
10.68 -10.29 2.39
10.89 -10.08 2.39
11.10 -9.87 2.39
11.31 -9.65 2.39
11.51 -9.43 2.39
11.71 -9.21 2.39
11.90 -8.98 2.39
12.09 -8.74 2.39
12.27 -8.51 2.39
12.45 -8.27 2.39
12.63 -8.02 2.39
12.80 -7.77 2.39
12.96 -7.52 2.39
13.12 -7.27 2.39
13.27 -7.01 2.39
13.42 -6.75 2.39
13.56 -6.48 2.39
13.70 -6.21 2.39
13.83 -5.94 2.39
13.96 -5.67 2.39
14.08 -5.39 2.39
14.20 -5.11 2.39
14.31 -4.83 2.39
14.41 -4.54 2.39
14.42 -4.23 2.38
14.56 -3.96 2.39
14.69 -3.67 2.39
14.77 -3.38 2.39
14.84 -3.09 2.39
14.91 -2.79 2.39
14.97 -2.49 2.39
15.02 -2.19 2.39
15.07 -1.89 2.39
15.12 -1.59 2.39
15.15 -1.29 2.39
15.18 -0.98 2.39
15.13 -0.68 2.38
14.97 -0.37 2.35
15.16 -0.07 2.38
15.24 0.24 2.39
15.24 0.54 2.39
15.23 0.85 2.39
15.21 1.15 2.39
15.19 1.46 2.39
15.16 1.76 2.39
15.13 2.07 2.39
15.09 2.37 2.39
15.04 2.67 2.39
14.99 2.98 2.39
14.93 3.28 2.39
14.86 3.58 2.39
14.79 3.87 2.39
14.71 4.17 2.39
14.62 4.46 2.39
14.53 4.76 2.39
14.44 5.05 2.39
14.33 5.33 2.39
14.22 5.62 2.39
14.11 5.91 2.39
13.99 6.19 2.39
13.86 6.47 2.39
13.73 6.74 2.39
13.59 7.02 2.39
13.44 7.29 2.39
13.29 7.55 2.39
13.14 7.82 2.39
12.97 8.08 2.39
12.81 8.33 2.39
12.63 8.59 2.39
12.46 8.84 2.39
12.27 9.08 2.39
12.09 9.32 2.39
11.89 9.56 2.39
11.70 9.80 2.39
11.49 10.02 2.39
11.29 10.25 2.39
11.07 10.47 2.39
10.86 10.69 2.39
10.64 10.90 2.39
10.41 11.10 2.39
10.18 11.30 2.39
9.95 11.50 2.39
9.71 11.69 2.39
9.47 11.88 2.39
9.23 12.06 2.39
8.98 12.24 2.39
8.73 12.41 2.39
8.47 12.57 2.39
8.21 12.73 2.39
7.95 12.89 2.39
7.69 13.04 2.39
7.42 13.18 2.39
7.15 13.32 2.39
6.88 13.45 2.39
6.60 13.57 2.39
6.32 13.69 2.39
6.03 13.79 2.39
5.75 13.90 2.39
5.47 14.00 2.39
5.18 14.10 2.39
4.90 14.19 2.39
4.61 14.27 2.39
4.32 14.35 2.39
4.02 14.42 2.39
3.73 14.49 2.39
3.44 14.55 2.39
3.14 14.60 2.39
2.84 14.65 2.39
2.55 14.69 2.39
2.26 14.77 2.40
2.04 15.39 2.49
1.73 15.42 2.49
1.42 15.43 2.49
1.11 15.44 2.49
0.79 15.45 2.49
0.48 15.45 2.49
0.17 15.44 2.49
-0.14 15.43 2.49
-0.44 15.41 2.49
-0.75 15.38 2.49
-1.06 15.35 2.49
-1.37 15.31 2.49
-1.67 15.26 2.49
-1.98 15.21 2.49
-2.28 15.15 2.49
-2.58 15.09 2.49
-2.88 15.02 2.49
-3.18 14.94 2.49
-3.47 14.86 2.49
-3.77 14.77 2.49
-4.06 14.68 2.49
-4.35 14.58 2.49
-4.63 14.48 2.49
-4.92 14.37 2.49
-5.20 14.25 2.49
-5.48 14.13 2.49
-5.76 14.00 2.49
-6.00 13.80 2.48
-6.04 13.16 2.39
-6.30 13.03 2.39
-6.55 12.88 2.39
-6.80 12.74 2.39
-7.05 12.59 2.39
-7.29 12.43 2.39
-7.53 12.27 2.39
-7.77 12.10 2.39
-8.00 11.93 2.39
-8.23 11.76 2.39
-8.46 11.58 2.39
-8.68 11.40 2.39
-8.90 11.21 2.39
-9.12 11.02 2.39
-9.33 10.82 2.39
-9.53 10.62 2.39
-9.73 10.42 2.39
-9.93 10.21 2.39
-10.16 10.03 2.40
-10.23 9.71 2.37
-10.30 9.39 2.34
-10.34 9.04 2.31
-10.36 8.70 2.28
-10.38 8.37 2.25
-10.40 8.05 2.22
-10.45 7.76 2.20
-10.50 7.47 2.18
-10.50 7.16 2.15
-10.49 6.84 2.12
-10.48 6.54 2.09
-10.46 6.24 2.07
-10.47 5.97 2.05
-10.50 5.71 2.03
-10.53 5.45 2.02
-10.56 5.20 2.00
-10.57 4.95 1.99
-10.59 4.70 1.97
-10.61 4.45 1.96
-10.62 4.21 1.95
-10.63 3.97 1.94
-10.64 3.73 1.93
-10.64 3.49 1.92
-10.66 3.26 1.91
-10.68 3.03 1.90
-10.70 2.81 1.89
-10.71 2.58 1.89
-10.73 2.36 1.88
-10.75 2.14 1.88
-10.76 1.92 1.88
-10.76 1.70 1.87
-10.76 1.48 1.87
-10.78 1.26 1.87
-10.79 1.04 1.86
-10.80 0.82 1.86
-10.81 0.60 1.86
-10.82 0.39 1.86
-10.82 0.17 1.87
-10.83 -0.05 1.87
-10.83 -0.27 1.87
-10.83 -0.48 1.87
-10.84 -0.70 1.87
-10.84 -0.92 1.88
-10.84 -1.14 1.88
-10.84 -1.36 1.89
-10.84 -1.58 1.89
-10.84 -1.81 1.90
-10.83 -2.03 1.90
-10.82 -2.25 1.91
-10.80 -2.48 1.92
-10.80 -2.71 1.92
-10.87 -2.96 1.95
-10.94 -3.22 1.97
-11.01 -3.48 2.00
-11.08 -3.75 2.02
-11.16 -4.02 2.05
-11.13 -4.27 2.06
-11.11 -4.52 2.07
-11.12 -4.79 2.09
-11.13 -5.06 2.12
-11.14 -5.34 2.14
-11.15 -5.62 2.16
-11.15 -5.91 2.18
-11.13 -6.18 2.20
-11.06 -6.44 2.21
-11.00 -6.70 2.23
-10.94 -6.97 2.24
-10.87 -7.24 2.26
-10.80 -7.51 2.27
-10.73 -7.78 2.29
-10.65 -8.06 2.31
-10.58 -8.35 2.33
-10.52 -8.64 2.35
-10.45 -8.95 2.37
-10.34 -9.22 2.39
-10.16 -9.43 2.39
-9.97 -9.63 2.39
-9.78 -9.83 2.39
-9.58 -10.03 2.39
-9.38 -10.23 2.39
-9.18 -10.42 2.39
-8.97 -10.60 2.39
-8.76 -10.79 2.39
-8.54 -10.97 2.39
-8.32 -11.14 2.39
-8.10 -11.31 2.39
-7.88 -11.48 2.39
-7.65 -11.64 2.39
-7.42 -11.80 2.39
-7.18 -11.95 2.39
-6.95 -12.10 2.39
-6.71 -12.25 2.39
-6.55 -12.56 2.42
-6.48 -13.06 2.49
-6.23 -13.20 2.49
-5.96 -13.33 2.49
-5.70 -13.46 2.49
-5.43 -13.58 2.49
-5.16 -13.69 2.49
-4.89 -13.80 2.49
-4.61 -13.91 2.49
-4.33 -14.01 2.49
-4.06 -14.10 2.49
-3.77 -14.19 2.49
-3.49 -14.28 2.49
-3.21 -14.36 2.49
-2.92 -14.43 2.49
-2.63 -14.50 2.49
-2.34 -14.56 2.49
-2.05 -14.62 2.49
-1.76 -14.67 2.49
-1.46 -14.71 2.49
-1.17 -14.75 2.49
-0.87 -14.78 2.49
-0.58 -14.81 2.49
-0.28 -14.83 2.49
0.02 -13.04 2.49
0.28 -13.05 2.49
0.54 -13.05 2.49
0.81 -13.05 2.49
1.07 -13.04 2.49
1.33 -13.03 2.49
1.53 -12.47 2.39
1.78 -12.45 2.39
2.03 -12.42 2.39
2.28 -12.39 2.39
2.53 -12.35 2.39
2.78 -12.31 2.39
1.89 -7.63 1.49
3.28 -12.21 2.39
3.53 -12.15 2.39
3.77 -12.09 2.39
4.02 -12.02 2.39
4.26 -11.95 2.39
4.51 -11.87 2.39
4.75 -11.79 2.39
4.99 -11.70 2.39
5.23 -11.61 2.39
5.46 -11.51 2.39
5.71 -11.43 2.39
5.94 -11.32 2.39
6.17 -11.21 2.39
6.40 -11.09 2.39
6.63 -10.97 2.39
6.85 -10.85 2.39
7.08 -10.72 2.39
7.30 -10.58 2.39
7.51 -10.44 2.39
7.73 -10.30 2.39
7.94 -10.15 2.39
8.15 -10.00 2.39
8.36 -9.84 2.39
8.56 -9.68 2.39
8.76 -9.51 2.39
8.96 -9.34 2.39
9.15 -9.17 2.39
9.34 -8.99 2.39
9.52 -8.81 2.39
9.71 -8.62 2.39
9.89 -8.43 2.39
10.06 -8.24 2.39
10.23 -8.04 2.39
10.40 -7.84 2.39
10.56 -7.64 2.39
10.72 -7.43 2.39
10.88 -7.22 2.39
11.03 -7.01 2.39
11.18 -6.79 2.39
11.32 -6.57 2.39
11.46 -6.34 2.39
11.59 -6.12 2.39
11.72 -5.89 2.39
11.84 -5.66 2.39
11.96 -5.42 2.39
12.07 -5.18 2.39
12.18 -4.94 2.39
12.29 -4.70 2.39
12.39 -4.46 2.39
12.48 -4.21 2.39
12.57 -3.96 2.39
12.66 -3.71 2.39
12.74 -3.46 2.39
12.81 -3.20 2.39
12.88 -2.95 2.39
12.94 -2.69 2.39
13.00 -2.43 2.39
13.05 -2.17 2.39
13.10 -1.91 2.39
13.14 -1.65 2.39
13.18 -1.38 2.39
13.21 -1.12 2.39
13.23 -0.86 2.39
13.25 -0.59 2.39
13.27 -0.33 2.39
13.28 -0.06 2.39
13.28 0.21 2.39
13.28 0.47 2.39
13.27 0.74 2.39
13.26 1.01 2.39
13.24 1.27 2.39
13.21 1.54 2.39
13.18 1.80 2.39
13.15 2.07 2.39
13.10 2.33 2.39
13.06 2.59 2.39
13.01 2.85 2.39
12.95 3.11 2.39
12.88 3.37 2.39
12.82 3.63 2.39
12.74 3.89 2.39
12.66 4.14 2.39
12.57 4.40 2.39
12.48 4.65 2.39
12.39 4.90 2.39
12.29 5.14 2.39
12.18 5.39 2.39
12.07 5.63 2.39
11.96 5.87 2.39
11.84 6.11 2.39
11.71 6.35 2.39
11.58 6.58 2.39
11.44 6.81 2.39
11.30 7.04 2.39
11.16 7.26 2.39
11.01 7.48 2.39
10.85 7.70 2.39
10.69 7.91 2.39
10.53 8.12 2.39
10.36 8.33 2.39
10.19 8.53 2.39
10.02 8.73 2.39
9.84 8.93 2.39
9.65 9.12 2.39
9.46 9.31 2.39
9.27 9.50 2.39
9.08 9.68 2.39
8.88 9.85 2.39
8.67 10.02 2.39
8.47 10.19 2.39
8.26 10.36 2.39
8.05 10.51 2.39
7.83 10.67 2.39
7.61 10.82 2.39
7.39 10.96 2.39
7.16 11.10 2.39
6.94 11.24 2.39
6.71 11.37 2.39
6.47 11.49 2.39
6.24 11.62 2.39
5.99 11.72 2.39
5.75 11.83 2.39
5.51 11.93 2.39
5.27 12.04 2.39
5.02 12.13 2.39
4.77 12.22 2.39
4.53 12.31 2.39
4.27 12.39 2.39
4.02 12.46 2.39
3.77 12.53 2.39
3.52 12.59 2.39
3.26 12.65 2.39
3.00 12.71 2.39
2.75 12.75 2.39
2.49 12.80 2.39
2.23 12.83 2.39
2.04 13.30 2.47
1.78 13.45 2.49
1.51 13.47 2.49
1.24 13.49 2.49
0.97 13.50 2.49
0.70 13.51 2.49
0.43 13.51 2.49
0.15 13.50 2.49
-0.12 13.49 2.49
-0.39 13.47 2.49
-0.66 13.45 2.49
-0.93 13.42 2.49
-1.19 13.39 2.49
-1.46 13.35 2.49
-1.73 13.31 2.49
-1.99 13.26 2.49
-2.26 13.21 2.49
-2.52 13.15 2.49
-2.78 13.08 2.49
-3.04 13.01 2.49
-3.30 12.94 2.49
-3.55 12.86 2.49
-3.81 12.77 2.49
-4.06 12.68 2.49
-4.31 12.59 2.49
-4.55 12.49 2.49
-4.80 12.38 2.49
-5.04 12.27 2.49
-5.28 12.16 2.49
-5.52 12.04 2.49
-5.76 11.91 2.49
-5.99 11.79 2.49
-6.06 11.35 2.43
-6.18 11.04 2.39
-6.39 10.90 2.39
-6.61 10.76 2.39
-6.82 10.62 2.39
-7.02 10.47 2.39
-7.22 10.32 2.39
-7.42 10.16 2.39
-7.62 10.00 2.39
-7.81 9.84 2.39
-8.00 9.67 2.39
-8.19 9.50 2.39
-8.37 9.33 2.39
-8.55 9.15 2.39
-8.72 8.97 2.39
-8.89 8.79 2.39
-9.06 8.60 2.39
-9.22 8.41 2.39
-9.38 8.21 2.39
-9.54 8.02 2.39
-9.69 7.82 2.39
-9.84 7.62 2.39
-9.98 7.41 2.39
-10.06 7.16 2.37
-10.08 6.88 2.35
-10.08 6.58 2.32
-10.08 6.29 2.29
-10.08 6.02 2.26
-10.11 5.77 2.25
-10.15 5.52 2.23
-10.18 5.27 2.22
-10.21 5.03 2.20
-10.23 4.79 2.19
-10.25 4.55 2.17
-10.27 4.31 2.16
-10.28 4.08 2.15
-10.29 3.84 2.13
-10.30 3.61 2.12
-10.31 3.38 2.11
-10.31 3.16 2.10
-10.32 2.94 2.09
-10.34 2.72 2.08
-10.36 2.50 2.08
-10.38 2.29 2.07
-10.40 2.07 2.07
-10.40 1.86 2.06
-10.41 1.64 2.06
-10.41 1.43 2.05
-10.42 1.22 2.05
-10.42 1.00 2.05
-10.43 0.79 2.04
-10.44 0.58 2.04
-10.45 0.37 2.04
-10.46 0.16 2.05
-10.46 -0.05 2.05
-10.47 -0.26 2.05
-10.47 -0.47 2.05
-10.47 -0.68 2.05
-10.47 -0.89 2.06
-10.47 -1.10 2.06
-10.46 -1.32 2.07
-10.46 -1.53 2.07
-10.46 -1.74 2.08
-10.45 -1.96 2.09
-10.44 -2.18 2.09
-10.42 -2.39 2.10
-10.40 -2.61 2.10
-10.38 -2.83 2.11
-10.36 -3.05 2.12
-10.40 -3.29 2.14
-10.46 -3.54 2.17
-10.52 -3.79 2.20
-10.58 -4.06 2.22
-10.54 -4.29 2.23
-10.49 -4.52 2.24
-10.44 -4.75 2.25
-10.39 -4.98 2.26
-10.33 -5.21 2.27
-10.33 -5.47 2.29
-10.32 -5.73 2.32
-10.31 -6.00 2.34
-10.27 -6.26 2.36
-10.19 -6.50 2.37
-10.12 -6.74 2.38
-10.01 -6.96 2.39
-9.87 -7.16 2.39
-9.72 -7.36 2.39
-9.58 -7.55 2.39
-9.42 -7.75 2.39
-9.27 -7.94 2.39
-9.11 -8.12 2.39
-8.95 -8.31 2.39
-8.78 -8.49 2.39
-8.61 -8.66 2.39
-8.44 -8.84 2.39
-8.26 -9.01 2.39
-8.08 -9.18 2.39
-7.90 -9.34 2.39
-7.71 -9.50 2.39
-7.52 -9.66 2.39
-7.33 -9.81 2.39
-7.14 -9.96 2.39
-6.94 -10.11 2.39
-6.74 -10.25 2.39
-6.53 -10.39 2.39
-6.51 -10.84 2.46
-6.38 -11.11 2.49
-6.16 -11.25 2.49
-5.93 -11.37 2.49
-5.71 -11.50 2.49
-5.48 -11.62 2.49
-5.25 -11.73 2.49
-5.01 -11.84 2.49
-4.78 -11.95 2.49
-4.54 -12.05 2.49
-4.30 -12.14 2.49
-4.06 -12.24 2.49
-3.81 -12.32 2.49
-3.57 -12.41 2.49
-3.32 -12.48 2.49
-3.07 -12.56 2.49
-2.82 -12.62 2.49
-2.57 -12.69 2.49
-2.31 -12.75 2.49
-2.06 -12.80 2.49
-1.80 -12.85 2.49
-1.54 -12.89 2.49
-1.28 -12.93 2.49
-1.03 -12.96 2.49
-0.77 -12.99 2.49
-0.50 -13.01 2.49
-0.24 -13.03 2.49
0.02 -11.62 2.49
0.25 -11.62 2.49
0.49 -11.63 2.49
0.72 -11.62 2.49
0.95 -11.61 2.49
1.19 -11.60 2.49
1.42 -11.58 2.49
1.59 -11.08 2.39
1.81 -11.06 2.39
2.03 -11.03 2.39
2.26 -10.99 2.39
2.48 -10.96 2.39
1.89 -7.63 1.67
2.92 -10.86 2.39
3.14 -10.81 2.39
3.36 -10.75 2.39
3.58 -10.69 2.39
3.79 -10.63 2.39
4.01 -10.56 2.39
4.23 -10.48 2.39
4.44 -10.41 2.39
4.65 -10.32 2.39
4.86 -10.24 2.39
5.07 -10.14 2.39
5.28 -10.05 2.39
5.48 -9.95 2.39
5.69 -9.86 2.39
5.89 -9.75 2.39
6.09 -9.64 2.39
6.29 -9.52 2.39
6.48 -9.40 2.39
6.68 -9.27 2.39
6.87 -9.15 2.39
7.05 -9.01 2.39
7.24 -8.88 2.39
7.42 -8.74 2.39
7.60 -8.59 2.39
7.78 -8.44 2.39
7.95 -8.29 2.39
8.12 -8.14 2.39
8.29 -7.98 2.39
8.45 -7.82 2.39
8.62 -7.65 2.39
8.77 -7.48 2.39
8.93 -7.31 2.39
9.08 -7.13 2.39
9.23 -6.96 2.39
9.37 -6.77 2.39
9.51 -6.59 2.39
9.65 -6.40 2.39
9.78 -6.21 2.39
9.91 -6.02 2.39
10.04 -5.82 2.39
10.16 -5.62 2.39
10.28 -5.42 2.39
10.39 -5.22 2.39
10.50 -5.01 2.39
10.60 -4.80 2.39
10.70 -4.59 2.39
10.80 -4.38 2.39
10.89 -4.16 2.39
10.98 -3.95 2.39
11.06 -3.73 2.39
11.14 -3.51 2.39
11.21 -3.29 2.39
11.28 -3.06 2.39
11.35 -2.84 2.39
11.41 -2.61 2.39
11.46 -2.38 2.39
11.51 -2.15 2.39
11.56 -1.92 2.39
11.60 -1.69 2.39
11.64 -1.46 2.39
11.67 -1.23 2.39
11.70 -0.99 2.39
11.72 -0.76 2.39
11.73 -0.52 2.39
11.75 -0.29 2.39
11.75 -0.05 2.39
11.76 0.18 2.39
11.75 0.42 2.39
11.75 0.66 2.39
11.73 0.89 2.39
11.72 1.13 2.39
11.69 1.36 2.39
11.67 1.60 2.39
11.64 1.83 2.39
11.60 2.06 2.39
11.56 2.30 2.39
11.51 2.53 2.39
11.46 2.76 2.39
11.40 2.99 2.39
11.34 3.21 2.39
11.28 3.44 2.39
11.21 3.67 2.39
11.13 3.89 2.39
11.05 4.11 2.39
10.96 4.33 2.39
10.88 4.55 2.39
10.78 4.77 2.39
10.68 4.98 2.39
10.58 5.20 2.39
10.47 5.41 2.39
10.36 5.62 2.39
10.25 5.82 2.39
10.13 6.03 2.39
10.00 6.23 2.39
9.88 6.43 2.39
9.74 6.62 2.39
9.61 6.81 2.39
9.47 7.00 2.39
9.32 7.19 2.39
9.17 7.37 2.39
9.02 7.55 2.39
8.87 7.73 2.39
8.71 7.91 2.39
8.55 8.08 2.39
8.38 8.24 2.39
8.21 8.41 2.39
8.04 8.57 2.39
7.86 8.72 2.39
7.68 8.88 2.39
7.50 9.02 2.39
7.31 9.17 2.39
7.13 9.31 2.39
6.93 9.45 2.39
6.74 9.58 2.39
6.54 9.71 2.39
6.35 9.83 2.39
6.14 9.95 2.39
5.93 10.06 2.39
5.73 10.17 2.39
5.52 10.28 2.39
5.31 10.38 2.39
5.10 10.48 2.39
4.89 10.58 2.39
4.67 10.67 2.39
4.45 10.75 2.39
4.23 10.83 2.39
4.01 10.91 2.39
3.79 10.98 2.39
3.57 11.05 2.39
3.34 11.11 2.39
3.12 11.17 2.39
2.89 11.22 2.39
2.66 11.27 2.39
2.44 11.31 2.39
2.21 11.35 2.39
2.00 11.53 2.42
1.82 11.91 2.49
1.58 11.93 2.49
1.34 11.95 2.49
1.10 11.97 2.49
0.86 11.98 2.49
0.62 11.99 2.49
0.38 11.99 2.49
0.14 11.98 2.49
-0.10 11.97 2.49
-0.34 11.96 2.49
-0.58 11.94 2.49
-0.82 11.92 2.49
-1.06 11.89 2.49
-1.30 11.86 2.49
-1.53 11.82 2.49
-1.77 11.78 2.49
-2.00 11.73 2.49
-2.23 11.68 2.49
-2.47 11.62 2.49
-2.70 11.56 2.49
-2.93 11.50 2.49
-3.15 11.43 2.49
-3.38 11.35 2.49
-3.60 11.27 2.49
-3.83 11.19 2.49
-4.05 11.10 2.49
-4.27 11.01 2.49
-4.48 10.91 2.49
-4.70 10.81 2.49
-4.91 10.71 2.49
-5.12 10.60 2.49
-5.33 10.49 2.49
-5.53 10.37 2.49
-5.73 10.25 2.49
-5.93 10.12 2.49
-6.08 9.91 2.47
-6.10 9.51 2.40
-6.25 9.32 2.39
-6.43 9.19 2.39
-6.61 9.05 2.39
-6.78 8.91 2.39
-6.95 8.76 2.39
-7.12 8.61 2.39
-7.29 8.46 2.39
-7.45 8.31 2.39
-7.61 8.15 2.39
-7.77 7.99 2.39
-7.92 7.83 2.39
-8.07 7.66 2.39
-8.22 7.49 2.39
-8.36 7.32 2.39
-8.50 7.15 2.39
-8.64 6.97 2.39
-8.77 6.79 2.39
-8.90 6.61 2.39
-9.02 6.42 2.39
-9.14 6.24 2.39
-9.26 6.05 2.39
-9.37 5.86 2.39
-9.48 5.66 2.39
-9.59 5.47 2.39
-9.69 5.27 2.39
-9.79 5.07 2.39
-9.88 4.87 2.39
-9.91 4.64 2.37
-9.93 4.41 2.36
-9.95 4.18 2.34
-9.96 3.95 2.33
-9.97 3.72 2.32
-9.98 3.50 2.30
-9.99 3.28 2.29
-9.99 3.06 2.28
-10.00 2.84 2.27
-10.01 2.63 2.26
-10.03 2.42 2.25
-10.05 2.21 2.25
-10.07 2.01 2.24
-10.07 1.80 2.24
-10.08 1.59 2.23
-10.08 1.38 2.23
-10.09 1.18 2.22
-10.09 0.97 2.22
-10.09 0.77 2.21
-10.10 0.57 2.21
-10.10 0.36 2.21
-10.11 0.16 2.22
-10.12 -0.04 2.22
-10.12 -0.25 2.22
-10.12 -0.45 2.22
-10.12 -0.66 2.22
-10.12 -0.86 2.23
-10.12 -1.06 2.23
-10.11 -1.27 2.24
-10.11 -1.48 2.24
-10.10 -1.68 2.25
-10.10 -1.89 2.26
-10.09 -2.10 2.26
-10.07 -2.31 2.27
-10.05 -2.52 2.28
-10.03 -2.73 2.28
-10.01 -2.94 2.29
-9.98 -3.15 2.30
-9.96 -3.37 2.31
-9.95 -3.59 2.32
-10.00 -3.83 2.35
-10.04 -4.09 2.38
-9.99 -4.30 2.39
-9.90 -4.50 2.39
-9.81 -4.70 2.39
-9.71 -4.89 2.39
-9.61 -5.09 2.39
-9.51 -5.28 2.39
-9.40 -5.47 2.39
-9.29 -5.66 2.39
-9.18 -5.85 2.39
-9.06 -6.03 2.39
-8.94 -6.21 2.39
-8.81 -6.39 2.39
-8.68 -6.57 2.39
-8.55 -6.74 2.39
-8.41 -6.92 2.39
-8.28 -7.09 2.39
-8.13 -7.25 2.39
-7.99 -7.42 2.39
-7.84 -7.58 2.39
-7.69 -7.74 2.39
-7.53 -7.89 2.39
-7.38 -8.04 2.39
-7.21 -8.19 2.39
-7.05 -8.34 2.39
-6.88 -8.48 2.39
-6.71 -8.62 2.39
-6.54 -8.76 2.39
-6.48 -9.05 2.43
-6.46 -9.41 2.49
-6.27 -9.54 2.49
-6.08 -9.67 2.49
-5.89 -9.80 2.49
-5.69 -9.92 2.49
-5.49 -10.04 2.49
-5.29 -10.15 2.49
-5.09 -10.26 2.49
-4.89 -10.36 2.49
-4.68 -10.47 2.49
-4.47 -10.56 2.49
-4.26 -10.66 2.49
-4.05 -10.75 2.49
-3.83 -10.83 2.49
-3.62 -10.91 2.49
-3.40 -10.99 2.49
-3.18 -11.06 2.49
-2.96 -11.13 2.49
-2.73 -11.20 2.49
-2.51 -11.26 2.49
-2.28 -11.31 2.49
-2.06 -11.36 2.49
-1.83 -11.41 2.49
-1.60 -11.45 2.49
-1.37 -11.49 2.49
-1.14 -11.52 2.49
-0.91 -11.55 2.49
-0.68 -11.57 2.49
-0.45 -11.59 2.49
-0.21 -11.61 2.49
0.02 -10.46 2.49
0.23 -10.47 2.49
0.44 -10.47 2.49
0.65 -10.47 2.49
0.86 -10.46 2.49
1.07 -10.45 2.49
1.28 -10.43 2.49
1.49 -10.41 2.49
1.63 -9.95 2.39
1.83 -9.93 2.39
2.03 -9.89 2.39
2.23 -9.86 2.39
1.89 -7.63 1.86
2.63 -9.78 2.39
2.83 -9.73 2.39
3.02 -9.68 2.39
3.22 -9.62 2.39
3.42 -9.56 2.39
3.61 -9.50 2.39
3.80 -9.43 2.39
3.99 -9.36 2.39
4.18 -9.28 2.39
4.37 -9.20 2.39
4.56 -9.12 2.39
4.74 -9.03 2.39
4.93 -8.94 2.39
5.11 -8.85 2.39
5.29 -8.75 2.39
5.47 -8.65 2.39
5.65 -8.55 2.39
5.83 -8.45 2.39
6.00 -8.33 2.39
6.17 -8.22 2.39
6.34 -8.10 2.39
6.51 -7.97 2.39
6.67 -7.85 2.39
6.83 -7.72 2.39
6.99 -7.58 2.39
7.14 -7.45 2.39
7.30 -7.31 2.39
7.45 -7.16 2.39
7.59 -7.02 2.39
7.74 -6.87 2.39
7.88 -6.72 2.39
8.02 -6.56 2.39
8.15 -6.40 2.39
8.29 -6.24 2.39
8.41 -6.08 2.39
8.54 -5.91 2.39
8.66 -5.74 2.39
8.78 -5.57 2.39
8.90 -5.40 2.39
9.01 -5.22 2.39
9.12 -5.04 2.39
9.22 -4.86 2.39
9.32 -4.68 2.39
9.42 -4.49 2.39
9.51 -4.31 2.39
9.60 -4.12 2.39
9.69 -3.93 2.39
9.77 -3.73 2.39
9.85 -3.54 2.39
9.92 -3.34 2.39
9.99 -3.14 2.39
10.06 -2.95 2.39
10.12 -2.74 2.39
10.18 -2.54 2.39
10.23 -2.34 2.39
10.28 -2.13 2.39
10.32 -1.93 2.39
10.36 -1.72 2.39
10.40 -1.51 2.39
10.43 -1.31 2.39
10.46 -1.10 2.39
10.48 -0.89 2.39
10.50 -0.68 2.39
10.52 -0.47 2.39
10.53 -0.26 2.39
10.53 -0.05 2.39
10.54 0.17 2.39
10.53 0.38 2.39
10.53 0.59 2.39
10.52 0.80 2.39
10.50 1.01 2.39
10.48 1.22 2.39
10.46 1.43 2.39
10.43 1.64 2.39
10.39 1.85 2.39
10.36 2.06 2.39
10.31 2.26 2.39
10.27 2.47 2.39
10.22 2.68 2.39
10.16 2.88 2.39
10.10 3.08 2.39
10.04 3.29 2.39
9.97 3.49 2.39
9.90 3.69 2.39
9.83 3.88 2.39
9.74 4.08 2.39
9.66 4.27 2.39
9.57 4.47 2.39
9.48 4.66 2.39
9.39 4.85 2.39
9.29 5.03 2.39
9.18 5.22 2.39
9.07 5.40 2.39
8.96 5.58 2.39
8.85 5.76 2.39
8.73 5.93 2.39
8.61 6.10 2.39
8.48 6.28 2.39
8.35 6.44 2.39
8.22 6.61 2.39
8.09 6.77 2.39
7.95 6.93 2.39
7.80 7.08 2.39
7.66 7.24 2.39
7.51 7.39 2.39
7.36 7.53 2.39
7.20 7.68 2.39
7.05 7.82 2.39
6.89 7.96 2.39
6.72 8.09 2.39
6.56 8.22 2.39
6.39 8.35 2.39
6.22 8.47 2.39
6.04 8.59 2.39
5.86 8.69 2.39
5.68 8.81 2.39
5.50 8.92 2.39
5.32 9.02 2.39
5.14 9.12 2.39
4.95 9.22 2.39
4.76 9.31 2.39
4.57 9.40 2.39
4.38 9.48 2.39
4.19 9.57 2.39
4.00 9.64 2.39
3.80 9.72 2.39
3.60 9.78 2.39
3.40 9.85 2.39
3.20 9.91 2.39
3.00 9.97 2.39
2.80 10.02 2.39
2.60 10.07 2.39
2.39 10.11 2.39
2.19 10.15 2.39
1.98 10.19 2.39
1.85 10.66 2.49
1.64 10.69 2.49
1.42 10.71 2.49
1.21 10.73 2.49
0.99 10.75 2.49
0.78 10.76 2.49
0.56 10.76 2.49
0.34 10.76 2.49
0.13 10.76 2.49
-0.09 10.76 2.49
-0.30 10.74 2.49
-0.52 10.73 2.49
-0.73 10.71 2.49
-0.95 10.68 2.49
-1.16 10.66 2.49
-1.37 10.62 2.49
-1.59 10.59 2.49
-1.80 10.54 2.49
-2.01 10.50 2.49
-2.22 10.45 2.49
-2.42 10.39 2.49
-2.63 10.34 2.49
-2.83 10.27 2.49
-3.04 10.21 2.49
-3.24 10.14 2.49
-3.44 10.06 2.49
-3.64 9.98 2.49
-3.83 9.90 2.49
-4.03 9.82 2.49
-4.22 9.73 2.49
-4.41 9.63 2.49
-4.60 9.53 2.49
-4.79 9.43 2.49
-4.97 9.33 2.49
-5.16 9.22 2.49
-5.34 9.11 2.49
-5.52 8.99 2.49
-5.69 8.87 2.49
-5.86 8.75 2.49
-6.03 8.63 2.49
-6.11 8.38 2.46
-6.13 8.06 2.40
-6.26 7.89 2.39
-6.41 7.76 2.39
-6.56 7.62 2.39
-6.71 7.48 2.39
-6.85 7.34 2.39
-6.99 7.20 2.39
-7.13 7.05 2.39
-7.27 6.90 2.39
-7.40 6.75 2.39
-7.53 6.60 2.39
-7.66 6.44 2.39
-7.78 6.28 2.39
-7.90 6.12 2.39
-8.01 5.95 2.39
-8.13 5.79 2.39
-8.24 5.62 2.39
-8.34 5.45 2.39
-8.45 5.28 2.39
-8.55 5.11 2.39
-8.64 4.93 2.39
-8.73 4.75 2.39
-8.82 4.57 2.39
-8.91 4.39 2.39
-8.99 4.21 2.39
-9.07 4.03 2.39
-9.14 3.84 2.39
-9.21 3.66 2.39
-9.28 3.47 2.39
-9.34 3.28 2.39
-9.40 3.09 2.39
-9.46 2.90 2.39
-9.51 2.71 2.39
-9.56 2.51 2.39
-9.61 2.32 2.39
-9.65 2.13 2.39
-9.68 1.93 2.39
-9.72 1.73 2.39
-9.75 1.54 2.39
-9.77 1.34 2.39
-9.77 1.14 2.39
-9.77 0.94 2.38
-9.78 0.75 2.38
-9.78 0.55 2.38
-9.78 0.35 2.38
-9.79 0.15 2.38
-9.79 -0.04 2.38
-9.79 -0.24 2.38
-9.79 -0.44 2.38
-9.79 -0.63 2.39
-9.79 -0.83 2.39
-9.78 -1.03 2.39
-9.75 -1.22 2.39
-9.72 -1.42 2.39
-9.69 -1.62 2.39
-9.65 -1.81 2.39
-9.61 -2.00 2.39
-9.57 -2.20 2.39
-9.52 -2.39 2.39
-9.47 -2.58 2.39
-9.42 -2.77 2.39
-9.36 -2.96 2.39
-9.30 -3.14 2.39
-9.23 -3.33 2.39
-9.16 -3.52 2.39
-9.09 -3.70 2.39
-9.02 -3.88 2.39
-8.94 -4.06 2.39
-8.85 -4.24 2.39
-8.77 -4.42 2.39
-8.68 -4.59 2.39
-8.58 -4.77 2.39
-8.48 -4.94 2.39
-8.38 -5.11 2.39
-8.28 -5.28 2.39
-8.17 -5.44 2.39
-8.06 -5.61 2.39
-7.95 -5.77 2.39
-7.83 -5.93 2.39
-7.72 -6.09 2.39
-7.59 -6.24 2.39
-7.47 -6.40 2.39
-7.34 -6.55 2.39
-7.21 -6.69 2.39
-7.07 -6.84 2.39
-6.94 -6.98 2.39
-6.80 -7.12 2.39
-6.65 -7.26 2.39
-6.51 -7.39 2.39
-6.45 -7.63 2.42
-6.45 -7.95 2.48
-6.32 -8.12 2.49
-6.16 -8.24 2.49
-5.99 -8.37 2.49
-5.82 -8.49 2.49
-5.65 -8.61 2.49
-5.48 -8.73 2.49
-5.31 -8.84 2.49
-5.13 -8.95 2.49
-4.95 -9.05 2.49
-4.77 -9.15 2.49
-4.59 -9.25 2.49
-4.40 -9.35 2.49
-4.22 -9.44 2.49
-4.03 -9.53 2.49
-3.84 -9.61 2.49
-3.65 -9.69 2.49
-3.45 -9.77 2.49
-3.26 -9.84 2.49
-3.06 -9.91 2.49
-2.86 -9.97 2.49
-2.66 -10.03 2.49
-2.46 -10.09 2.49
-2.26 -10.14 2.49
-2.06 -10.19 2.49
-1.85 -10.24 2.49
-1.65 -10.28 2.49
-1.44 -10.32 2.49
-1.24 -10.35 2.49
-1.03 -10.38 2.49
-0.82 -10.41 2.49
-0.61 -10.43 2.49
-0.40 -10.44 2.49
-0.19 -10.46 2.49
0.02 -9.51 2.49
0.21 -9.51 2.49
0.40 -9.51 2.49
0.59 -9.51 2.49
0.78 -9.50 2.49
0.97 -9.49 2.49
1.17 -9.47 2.49
1.36 -9.45 2.49
1.55 -9.43 2.49
1.67 -9.02 2.39
1.85 -8.99 2.39
2.03 -8.95 2.39
1.89 -7.63 2.04
2.39 -8.88 2.39
2.57 -8.83 2.39
2.75 -8.78 2.39
2.93 -8.73 2.39
3.10 -8.68 2.39
3.28 -8.62 2.39
3.45 -8.56 2.39
3.63 -8.49 2.39
3.80 -8.42 2.39
3.97 -8.35 2.39
4.14 -8.28 2.39
4.31 -8.20 2.39
4.47 -8.11 2.39
4.64 -8.03 2.39
4.80 -7.94 2.39
4.96 -7.85 2.39
5.12 -7.75 2.39
5.28 -7.65 2.39
5.44 -7.55 2.39
5.59 -7.44 2.39
5.75 -7.34 2.39
5.90 -7.23 2.39
6.05 -7.12 2.39
6.19 -7.00 2.39
6.34 -6.88 2.39
6.48 -6.75 2.39
6.62 -6.62 2.39
6.75 -6.49 2.39
6.89 -6.36 2.39
7.02 -6.23 2.39
7.14 -6.09 2.39
7.27 -5.95 2.39
7.39 -5.80 2.39
7.51 -5.66 2.39
7.63 -5.51 2.39
7.74 -5.36 2.39
7.85 -5.20 2.39
7.96 -5.05 2.39
8.06 -4.89 2.39
8.16 -4.73 2.39
8.26 -4.57 2.39
8.35 -4.40 2.39
8.44 -4.24 2.39
8.53 -4.07 2.39
8.62 -3.90 2.39
8.70 -3.73 2.39
8.77 -3.56 2.39
8.85 -3.38 2.39
8.92 -3.20 2.39
8.99 -3.03 2.39
9.05 -2.85 2.39
9.11 -2.67 2.39
9.16 -2.48 2.39
9.21 -2.30 2.39
9.26 -2.12 2.39
9.31 -1.93 2.39
9.35 -1.75 2.39
9.38 -1.56 2.39
9.42 -1.37 2.39
9.44 -1.18 2.39
9.47 -0.99 2.39
9.49 -0.80 2.39
9.51 -0.61 2.39
9.52 -0.42 2.39
9.53 -0.23 2.39
9.54 -0.04 2.39
9.54 0.15 2.39
9.53 0.34 2.39
9.53 0.53 2.39
9.52 0.72 2.39
9.50 0.91 2.39
9.48 1.10 2.39
9.46 1.29 2.39
9.44 1.48 2.39
9.41 1.67 2.39
9.37 1.86 2.39
9.33 2.05 2.39
9.29 2.24 2.39
9.25 2.42 2.39
9.20 2.61 2.39
9.14 2.79 2.39
9.09 2.97 2.39
9.02 3.16 2.39
8.96 3.34 2.39
8.89 3.51 2.39
8.82 3.69 2.39
8.74 3.87 2.39
8.66 4.04 2.39
8.58 4.21 2.39
8.49 4.38 2.39
8.40 4.55 2.39
8.31 4.72 2.39
8.21 4.89 2.39
8.11 5.05 2.39
8.01 5.21 2.39
7.90 5.37 2.39
7.79 5.52 2.39
7.68 5.68 2.39
7.56 5.83 2.39
7.44 5.98 2.39
7.32 6.13 2.39
7.19 6.27 2.39
7.06 6.41 2.39
6.93 6.55 2.39
6.80 6.69 2.39
6.66 6.82 2.39
6.52 6.95 2.39
6.38 7.08 2.39
6.23 7.20 2.39
6.09 7.32 2.39
5.93 7.43 2.39
5.78 7.55 2.39
5.62 7.66 2.39
5.47 7.77 2.39
5.31 7.87 2.39
5.15 7.97 2.39
4.99 8.07 2.39
4.82 8.17 2.39
4.65 8.26 2.39
4.49 8.35 2.39
4.32 8.43 2.39
4.14 8.51 2.39
3.97 8.59 2.39
3.80 8.66 2.39
3.62 8.73 2.39
3.44 8.80 2.39
3.26 8.86 2.39
3.08 8.92 2.39
2.90 8.98 2.39
2.72 9.03 2.39
2.54 9.08 2.39
2.35 9.12 2.39
2.17 9.16 2.39
1.98 9.20 2.39
1.88 9.63 2.49
1.68 9.66 2.49
1.49 9.69 2.49
1.29 9.71 2.49
1.10 9.73 2.49
0.90 9.74 2.49
0.70 9.75 2.49
0.51 9.76 2.49
0.31 9.76 2.49
0.12 9.76 2.49
-0.08 9.75 2.49
-0.27 9.74 2.49
-0.47 9.73 2.49
-0.66 9.71 2.49
-0.86 9.69 2.49
-1.05 9.66 2.49
-1.24 9.63 2.49
-1.44 9.60 2.49
-1.63 9.56 2.49
-1.82 9.52 2.49
-2.01 9.48 2.49
-2.20 9.43 2.49
-2.38 9.38 2.49
-2.57 9.32 2.49
-2.75 9.26 2.49
-2.94 9.20 2.49
-3.12 9.13 2.49
-3.30 9.06 2.49
-3.48 8.99 2.49
-3.66 8.91 2.49
-3.83 8.83 2.49
-4.01 8.75 2.49
-4.18 8.66 2.49
-4.35 8.57 2.49
-4.52 8.47 2.49
-4.68 8.37 2.49
-4.85 8.27 2.49
-5.01 8.17 2.49
-5.17 8.06 2.49
-5.32 7.95 2.49
-5.48 7.84 2.49
-5.63 7.72 2.49
-5.78 7.60 2.49
-5.93 7.48 2.49
-6.08 7.35 2.49
-6.14 7.13 2.46
-6.15 6.87 2.41
-6.23 6.67 2.39
-6.36 6.55 2.39
-6.48 6.41 2.39
-6.60 6.27 2.39
-6.72 6.14 2.39
-6.84 6.00 2.39
-6.96 5.85 2.39
-7.07 5.71 2.39
-7.18 5.56 2.39
-7.29 5.41 2.39
-7.39 5.26 2.39
-7.49 5.11 2.39
-7.59 4.96 2.39
-7.68 4.80 2.39
-7.77 4.64 2.39
-7.86 4.48 2.39
-7.94 4.32 2.39
-8.02 4.16 2.39
-8.10 4.00 2.39
-8.18 3.83 2.39
-8.25 3.66 2.39
-8.32 3.50 2.39
-8.38 3.33 2.39
-8.44 3.16 2.39
-8.50 2.98 2.39
-8.55 2.81 2.39
-8.61 2.64 2.39
-8.65 2.46 2.39
-8.70 2.29 2.39
-8.74 2.11 2.39
-8.78 1.94 2.39
-8.81 1.76 2.39
-8.84 1.58 2.39
-8.87 1.40 2.39
-8.89 1.22 2.39
-8.91 1.04 2.39
-8.93 0.86 2.39
-8.94 0.68 2.39
-8.95 0.50 2.39
-8.96 0.32 2.39
-8.96 0.14 2.39
-8.96 -0.04 2.39
-8.95 -0.22 2.39
-8.94 -0.40 2.39
-8.93 -0.58 2.39
-8.92 -0.76 2.39
-8.90 -0.94 2.39
-8.88 -1.11 2.39
-8.85 -1.29 2.39
-8.82 -1.47 2.39
-8.79 -1.65 2.39
-8.75 -1.82 2.39
-8.71 -2.00 2.39
-8.67 -2.17 2.39
-8.62 -2.35 2.39
-8.57 -2.52 2.39
-8.52 -2.69 2.39
-8.46 -2.86 2.39
-8.40 -3.03 2.39
-8.34 -3.20 2.39
-8.28 -3.37 2.39
-8.21 -3.53 2.39
-8.13 -3.70 2.39
-8.06 -3.86 2.39
-7.98 -4.02 2.39
-7.90 -4.18 2.39
-7.81 -4.34 2.39
-7.72 -4.50 2.39
-7.63 -4.65 2.39
-7.54 -4.80 2.39
-7.44 -4.96 2.39
-7.34 -5.11 2.39
-7.24 -5.25 2.39
-7.13 -5.40 2.39
-7.02 -5.54 2.39
-6.91 -5.68 2.39
-6.80 -5.82 2.39
-6.68 -5.96 2.39
-6.56 -6.09 2.39
-6.44 -6.22 2.39
-6.42 -6.47 2.43
-6.43 -6.74 2.48
-6.32 -6.89 2.49
-6.18 -7.02 2.49
-6.04 -7.14 2.49
-5.89 -7.27 2.49
-5.75 -7.39 2.49
-5.60 -7.50 2.49
-5.45 -7.62 2.49
-5.30 -7.73 2.49
-5.14 -7.83 2.49
-4.99 -7.94 2.49
-4.83 -8.04 2.49
-4.67 -8.14 2.49
-4.50 -8.24 2.49
-4.34 -8.33 2.49
-4.17 -8.42 2.49
-4.01 -8.50 2.49
-3.84 -8.59 2.49
-3.66 -8.66 2.49
-3.49 -8.74 2.49
-3.32 -8.81 2.49
-3.14 -8.88 2.49
-2.96 -8.95 2.49
-2.78 -9.01 2.49
-2.60 -9.07 2.49
-2.42 -9.12 2.49
-2.24 -9.18 2.49
-2.05 -9.22 2.49
-1.87 -9.27 2.49
-1.68 -9.31 2.49
-1.50 -9.35 2.49
-1.31 -9.38 2.49
-1.12 -9.41 2.49
-0.93 -9.44 2.49
-0.74 -9.46 2.49
-0.55 -9.48 2.49
-0.36 -9.49 2.49
-0.17 -9.50 2.49
0.02 -8.71 2.49
0.19 -8.71 2.49
0.37 -8.71 2.49
0.54 -8.70 2.49
0.72 -8.70 2.49
0.89 -8.68 2.49
1.07 -8.67 2.49
1.24 -8.65 2.49
1.42 -8.63 2.49
1.58 -8.55 2.48
1.69 -8.22 2.39
1.86 -8.19 2.39
1.89 -7.63 2.23
2.19 -8.12 2.39
2.35 -8.08 2.39
2.52 -8.04 2.39
2.68 -7.99 2.39
2.84 -7.94 2.39
3.00 -7.88 2.39
3.16 -7.83 2.39
3.32 -7.77 2.39
3.48 -7.70 2.39
3.63 -7.64 2.39
3.79 -7.57 2.39
3.94 -7.49 2.39
4.09 -7.42 2.39
4.24 -7.34 2.39
4.39 -7.26 2.39
4.54 -7.17 2.39
4.69 -7.08 2.39
4.83 -6.99 2.39
4.97 -6.90 2.39
5.11 -6.80 2.39
5.25 -6.70 2.39
5.39 -6.60 2.39
5.52 -6.49 2.39
5.66 -6.39 2.39
5.79 -6.28 2.39
5.92 -6.17 2.39
6.05 -6.05 2.39
6.17 -5.93 2.39
6.29 -5.81 2.39
6.41 -5.69 2.39
6.53 -5.56 2.39
6.64 -5.43 2.39
6.75 -5.30 2.39
6.86 -5.17 2.39
6.97 -5.03 2.39
7.07 -4.89 2.39
7.17 -4.75 2.39
7.27 -4.61 2.39
7.36 -4.47 2.39
7.45 -4.32 2.39
7.54 -4.17 2.39
7.63 -4.02 2.39
7.71 -3.87 2.39
7.79 -3.72 2.39
7.87 -3.56 2.39
7.94 -3.40 2.39
8.01 -3.25 2.39
8.08 -3.09 2.39
8.14 -2.92 2.39
8.20 -2.76 2.39
8.26 -2.60 2.39
8.31 -2.43 2.39
8.36 -2.27 2.39
8.41 -2.10 2.39
8.45 -1.93 2.39
8.49 -1.76 2.39
8.53 -1.59 2.39
8.56 -1.42 2.39
8.59 -1.25 2.39
8.62 -1.08 2.39
8.64 -0.90 2.39
8.66 -0.73 2.39
8.68 -0.56 2.39
8.69 -0.38 2.39
8.70 -0.21 2.39
8.70 -0.04 2.39
8.70 0.14 2.39
8.70 0.31 2.39
8.69 0.49 2.39
8.68 0.66 2.39
8.67 0.83 2.39
8.65 1.01 2.39
8.63 1.18 2.39
8.61 1.35 2.39
8.58 1.53 2.39
8.55 1.70 2.39
8.52 1.87 2.39
8.48 2.04 2.39
8.44 2.21 2.39
8.39 2.38 2.39
8.34 2.55 2.39
8.29 2.71 2.39
8.23 2.88 2.39
8.17 3.04 2.39
8.11 3.21 2.39
8.05 3.37 2.39
7.98 3.53 2.39
7.90 3.69 2.39
7.83 3.84 2.39
7.75 4.00 2.39
7.67 4.15 2.39
7.58 4.31 2.39
7.49 4.46 2.39
7.40 4.61 2.39
7.31 4.75 2.39
7.21 4.90 2.39
7.11 5.04 2.39
7.00 5.18 2.39
6.90 5.32 2.39
6.79 5.46 2.39
6.68 5.59 2.39
6.56 5.72 2.39
6.45 5.85 2.39
6.33 5.98 2.39
6.20 6.10 2.39
6.08 6.22 2.39
5.95 6.34 2.39
5.82 6.45 2.39
5.68 6.56 2.39
5.55 6.67 2.39
5.41 6.78 2.39
5.27 6.89 2.39
5.13 6.99 2.39
4.99 7.09 2.39
4.85 7.18 2.39
4.70 7.28 2.39
4.55 7.37 2.39
4.40 7.45 2.39
4.25 7.54 2.39
4.10 7.62 2.39
3.94 7.70 2.39
3.78 7.77 2.39
3.63 7.84 2.39
