ply
format ascii 1.0
element vertex 2868
property float32 x
property float32 y
property float32 z
end_header
43.26 23.45 2.43
42.08 23.92 2.39
41.58 24.75 2.39
41.06 25.57 2.39
39.91 25.98 2.35
39.97 27.18 2.39
20.90 16.13 1.31
20.05 16.13 1.28
20.00 16.76 1.29
20.00 17.45 1.32
29.88 27.16 2.00
28.77 27.22 1.97
27.63 27.22 1.93
26.55 27.22 1.89
25.50 27.21 1.85
24.49 27.21 1.82
23.52 27.21 1.79
22.58 27.21 1.76
21.67 27.21 1.73
20.79 27.21 1.71
19.94 27.21 1.68
19.11 27.20 1.66
18.30 27.20 1.64
17.52 27.20 1.62
16.76 27.20 1.60
16.01 27.20 1.58
15.28 27.20 1.56
14.57 27.20 1.54
13.84 27.13 1.53
13.20 27.20 1.51
12.53 27.19 1.50
11.87 27.19 1.49
11.23 27.19 1.48
10.59 27.19 1.47
9.97 27.19 1.46
9.35 27.19 1.45
8.75 27.19 1.44
2.57 8.58 0.45
7.56 27.19 1.42
6.97 27.19 1.41
6.39 27.18 1.41
5.81 27.12 1.40
5.25 27.18 1.40
4.69 27.18 1.39
4.13 27.18 1.39
3.57 27.18 1.39
3.02 27.18 1.38
2.46 27.18 1.38
1.91 27.12 1.38
1.37 27.18 1.38
0.82 27.18 1.38
0.27 27.17 1.38
-0.27 27.17 1.38
-0.82 27.17 1.38
-1.36 27.17 1.38
-1.91 27.17 1.39
-2.46 27.17 1.39
-3.01 27.17 1.39
-3.56 27.17 1.40
-4.12 27.17 1.40
-4.68 27.17 1.41
-5.24 27.17 1.41
-5.81 27.16 1.42
-6.38 27.16 1.43
-6.96 27.16 1.44
-7.54 27.16 1.44
-8.13 27.16 1.45
-8.73 27.16 1.46
-9.34 27.16 1.47
-9.95 27.16 1.48
-10.57 27.16 1.50
-11.21 27.16 1.51
-11.85 27.16 1.52
-12.50 27.15 1.54
-13.17 27.15 1.55
-13.85 27.15 1.57
-14.54 27.15 1.59
-15.25 27.15 1.61
-15.98 27.15 1.63
-16.72 27.15 1.65
-17.48 27.15 1.67
-18.26 27.14 1.69
-19.06 27.14 1.71
-19.88 27.14 1.74
-20.73 27.14 1.77
-21.61 27.14 1.80
-22.51 27.14 1.83
-23.45 27.14 1.86
-24.41 27.13 1.89
-25.42 27.13 1.93
-26.46 27.13 1.97
-9.90 9.75 0.72
-9.81 9.29 0.70
-10.01 9.10 0.70
-10.37 9.05 0.72
-10.76 9.02 0.73
-12.78 10.29 0.85
-9.95 7.68 0.65
-9.99 7.40 0.65
-10.22 7.26 0.65
-10.58 7.19 0.67
-15.62 10.17 0.97
-9.72 6.05 0.60
-9.78 5.82 0.59
-9.98 5.67 0.60
-10.29 5.58 0.61
-19.31 9.97 1.13
-20.10 9.88 1.17
-21.36 9.97 1.23
-22.31 9.87 1.27
-9.52 3.98 0.54
-9.42 3.72 0.53
-9.82 3.66 0.55
-10.14 3.55 0.56
-13.17 4.31 0.72
-13.17 4.02 0.72
-13.17 3.73 0.72
-13.17 3.45 0.71
-13.17 3.16 0.71
-9.67 2.12 0.52
-9.49 1.88 0.51
-9.52 1.69 0.51
-9.53 1.50 0.50
-10.44 1.42 0.55
-13.16 1.53 0.69
-13.16 1.26 0.69
-13.16 0.99 0.69
-13.16 0.73 0.69
-13.16 0.46 0.69
-13.16 0.20 0.69
-10.45 -0.05 0.55
-9.82 -0.25 0.51
-9.97 -0.45 0.52
-13.16 -0.86 0.69
-13.16 -1.13 0.69
-13.16 -1.39 0.69
-13.16 -1.66 0.69
-13.16 -1.93 0.69
-9.90 -1.65 0.52
-9.78 -1.84 0.52
-9.64 -2.01 0.51
-9.86 -2.26 0.53
-33.98 -8.53 1.83
-31.51 -8.59 1.71
-29.32 -8.62 1.60
-27.57 -8.71 1.51
-25.75 -8.71 1.42
-9.75 -3.52 0.54
-9.74 -3.74 0.54
-9.71 -3.95 0.55
-9.64 -4.15 0.55
-17.95 -8.16 1.03
-16.69 -8.00 0.96
-16.00 -8.06 0.93
-10.53 -5.58 0.62
-9.99 -5.55 0.59
-9.72 -5.65 0.59
-9.63 -5.86 0.59
-9.67 -6.16 0.60
-12.03 -8.01 0.75
-10.71 -7.44 0.68
-10.16 -7.37 0.65
-9.92 -7.50 0.65
-9.82 -7.74 0.65
-9.83 -8.07 0.66
-10.66 -9.12 0.73
-12.46 -11.10 0.86
-11.98 -11.11 0.85
-11.59 -11.19 0.83
-11.50 -11.56 0.84
-11.49 -12.03 0.86
-19.99 -21.78 1.53
-19.99 -22.68 1.56
-19.12 -22.58 1.53
-19.99 -24.60 1.64
-6.26 -8.03 0.53
-22.62 -30.24 1.95
-21.05 -29.35 1.86
-20.88 -30.39 1.90
-19.38 -29.45 1.82
-18.78 -29.82 1.81
-25.00 -41.53 2.49
-16.88 -29.35 1.74
-16.61 -30.28 1.78
-15.37 -29.39 1.70
-14.66 -29.47 1.69
-16.85 -35.65 2.02
-10.45 -23.31 1.31
-10.12 -23.84 1.33
-10.18 -25.38 1.40
-10.12 -26.79 1.47
-10.18 -28.68 1.56
-14.76 -44.37 2.39
-13.87 -44.69 2.39
-12.98 -44.98 2.39
-8.10 -30.34 1.60
-7.53 -30.68 1.61
-10.27 -45.77 2.39
-9.35 -45.99 2.39
-8.44 -46.20 2.39
-7.51 -46.39 2.39
-6.58 -46.56 2.39
-5.89 -48.73 2.49
-4.92 -48.87 2.49
-3.94 -48.99 2.49
-2.96 -49.08 2.49
-1.97 -49.17 2.49
-0.98 -49.23 2.49
0.00 -34.06 2.49
0.69 -34.06 2.49
1.37 -34.06 2.49
2.06 -34.04 2.49
2.63 -32.60 2.39
3.28 -32.55 2.39
3.94 -32.50 2.39
4.59 -32.42 2.39
5.24 -32.34 2.39
5.64 -30.88 2.29
5.61 -27.58 2.05
5.80 -25.81 1.93
7.64 -31.09 2.33
8.31 -31.10 2.34
9.29 -32.15 2.44
9.93 -31.95 2.43
9.86 -29.62 2.27
10.24 -28.83 2.22
10.36 -27.41 2.13
6.10 -15.21 1.19
6.12 -14.41 1.14
6.09 -13.59 1.08
6.07 -12.83 1.03
6.07 -12.19 0.99
6.23 -11.91 0.97
8.72 -15.89 1.31
9.16 -15.93 1.33
9.59 -15.93 1.35
10.03 -15.92 1.36
10.55 -16.03 1.39
11.02 -16.02 1.41
11.50 -16.02 1.43
11.99 -16.02 1.45
12.50 -16.02 1.47
13.03 -16.02 1.49
13.57 -16.02 1.52
14.13 -16.02 1.54
14.71 -16.02 1.57
15.31 -16.02 1.60
15.94 -16.02 1.63
16.59 -16.02 1.66
17.27 -16.01 1.70
17.98 -16.01 1.74
18.72 -16.01 1.78
19.50 -16.01 1.82
20.32 -16.01 1.86
20.47 -15.48 1.85
21.34 -15.47 1.90
22.96 -15.95 2.01
23.25 -15.47 2.01
24.30 -15.47 2.07
24.75 -15.07 2.08
25.67 -14.93 2.14
26.85 -14.90 2.21
27.58 -14.59 2.24
27.87 -14.04 2.24
27.36 -13.10 2.18
27.62 -12.55 2.18
23.61 -10.16 1.85
28.92 -11.77 2.24
24.72 -9.48 1.90
29.38 -10.60 2.24
29.59 -10.01 2.24
13.86 -4.38 1.04
13.43 -3.95 1.00
13.10 -3.57 0.97
13.17 -3.31 0.97
12.85 -2.95 0.95
12.51 -2.61 0.92
12.19 -2.29 0.89
11.88 -1.99 0.86
11.60 -1.70 0.84
11.32 -1.43 0.82
11.07 -1.17 0.80
10.82 -0.93 0.78
10.59 -0.69 0.76
10.36 -0.47 0.74
10.15 -0.25 0.73
9.94 -0.05 0.71
9.74 0.15 0.70
9.56 0.34 0.69
9.37 0.52 0.67
9.19 0.69 0.66
9.40 0.90 0.68
9.61 1.11 0.69
9.84 1.34 0.71
10.07 1.58 0.73
10.33 1.83 0.75
10.59 2.10 0.78
10.88 2.38 0.80
11.18 2.69 0.83
11.50 3.01 0.85
11.84 3.35 0.88
12.10 3.69 0.91
12.39 4.05 0.94
12.82 4.48 0.98
13.51 5.03 1.04
14.02 5.54 1.08
14.59 6.11 1.14
15.20 6.73 1.20
15.89 7.41 1.26
21.81 10.71 1.75
19.75 10.20 1.60
30.46 16.51 2.49
30.12 17.12 2.49
29.76 17.72 2.49
29.39 18.30 2.49
29.01 18.89 2.49
28.62 19.46 2.49
22.69 16.10 2.01
21.75 16.10 1.95
20.90 16.13 1.90
20.04 16.12 1.86
19.23 16.12 1.81
18.75 16.36 1.80
18.75 17.04 1.83
18.75 17.74 1.86
23.79 23.43 2.41
23.09 23.68 2.39
22.61 24.13 2.39
22.11 24.57 2.39
21.61 25.00 2.39
21.09 25.42 2.39
20.57 25.83 2.39
20.04 26.23 2.39
19.50 26.61 2.39
18.96 26.99 2.39
5.21 7.75 0.68
5.01 7.78 0.67
4.94 8.03 0.68
13.84 27.13 2.21
13.17 27.14 2.19
12.50 27.14 2.17
11.85 27.14 2.15
11.21 27.15 2.14
10.58 27.17 2.12
9.97 27.19 2.11
9.35 27.19 2.10
8.75 27.19 2.08
2.57 8.58 0.65
7.56 27.19 2.06
6.01 23.43 1.77
5.51 23.44 1.76
5.81 27.12 2.03
5.25 27.18 2.02
4.69 27.18 2.02
4.13 27.18 2.01
3.57 27.18 2.01
3.02 27.18 2.00
2.46 27.18 2.00
1.91 27.12 1.99
1.37 27.18 2.00
0.71 23.58 1.73
0.28 27.17 1.99
-0.27 27.17 2.00
-0.82 27.17 2.00
-1.36 27.17 2.00
-1.91 27.17 2.00
-2.46 27.17 2.01
-3.01 27.17 2.01
-3.56 27.17 2.02
-3.56 23.48 1.75
-4.68 27.17 2.03
-4.52 23.42 1.76
-5.01 23.42 1.77
-5.50 23.41 1.77
-6.00 23.40 1.78
-6.50 23.39 1.79
-7.01 23.39 1.80
-7.52 23.39 1.82
-8.04 23.39 1.83
-8.57 23.39 1.84
-9.11 23.40 1.86
-9.66 23.41 1.87
-10.22 23.41 1.89
-10.78 23.42 1.91
-11.36 23.41 1.93
-11.94 23.41 1.95
-12.53 23.40 1.97
-13.14 23.38 1.99
-17.43 27.07 2.39
-17.96 26.71 2.39
-18.49 26.33 2.39
-19.01 25.95 2.39
-19.52 25.55 2.39
-20.02 25.15 2.39
-20.52 24.73 2.39
-21.00 24.31 2.39
-21.48 23.88 2.39
-21.95 23.43 2.39
-22.77 23.35 2.43
-9.63 9.49 1.01
-9.69 9.17 0.99
-9.97 9.07 1.00
-10.33 9.02 1.02
-10.75 9.02 1.05
-9.81 7.89 0.94
-9.87 7.62 0.93
-9.90 7.33 0.92
-10.12 7.18 0.93
-10.59 7.20 0.96
-9.74 6.34 0.87
-9.61 5.99 0.85
-9.64 5.74 0.84
-9.91 5.63 0.85
-10.32 5.59 0.88
-10.77 5.56 0.91
-20.10 9.88 1.68
-13.20 6.16 1.09
-9.62 4.26 0.79
-9.49 3.97 0.77
-9.53 3.77 0.77
-9.73 3.62 0.78
-10.27 3.59 0.81
-10.86 3.55 0.86
-13.17 4.02 1.03
-13.17 3.73 1.02
-13.17 3.45 1.02
-13.17 3.16 1.01
-9.62 2.11 0.74
-9.48 1.88 0.72
-9.39 1.67 0.71
-9.51 1.49 0.72
-10.32 1.41 0.78
-13.16 1.53 0.99
-13.16 1.26 0.99
-13.16 0.99 0.99
-13.16 0.73 0.99
-13.16 0.46 0.99
-13.16 0.20 0.99
-9.76 -0.05 0.73
-9.73 -0.24 0.73
-9.76 -0.44 0.73
-9.85 -0.64 0.74
-13.16 -1.13 0.99
-13.16 -1.39 0.99
-13.16 -1.66 0.99
-13.16 -1.93 1.00
-9.67 -1.62 0.73
-9.58 -1.80 0.73
-9.55 -1.99 0.73
-9.58 -2.20 0.74
-29.16 -7.32 2.25
-29.02 -7.91 2.25
-28.86 -8.49 2.25
-27.62 -8.73 2.17
-10.62 -3.59 0.84
-10.06 -3.63 0.80
-9.60 -3.68 0.77
-9.53 -3.88 0.77
-9.63 -4.15 0.78
-17.84 -8.11 1.46
-16.71 -8.01 1.38
-16.05 -8.09 1.34
-10.35 -5.48 0.87
-9.83 -5.46 0.84
-9.60 -5.59 0.83
-9.49 -5.78 0.83
-9.57 -6.10 0.85
-11.99 -7.98 1.07
-10.60 -7.36 0.96
-10.14 -7.35 0.93
-9.84 -7.44 0.92
-9.70 -7.64 0.92
-9.76 -8.02 0.94
-10.29 -8.81 1.01
-12.37 -11.02 1.23
-11.89 -11.03 1.21
-11.53 -11.13 1.19
-11.45 -11.51 1.21
-11.45 -11.98 1.23
-11.46 -12.48 1.26
-18.90 -21.43 2.12
-18.90 -22.32 2.17
-19.12 -23.52 2.25
-6.26 -8.03 0.76
-19.01 -25.42 2.36
-18.47 -25.75 2.35
-17.93 -26.09 2.35
-17.40 -26.44 2.35
-17.33 -27.52 2.41
-16.76 -27.84 2.41
-13.78 -23.97 2.05
-13.31 -24.26 2.05
-12.82 -24.53 2.05
-12.39 -24.90 2.06
-11.03 -23.35 1.91
-10.45 -23.32 1.89
-10.12 -23.86 1.91
-10.22 -25.49 2.03
-9.57 -25.34 2.00
-9.58 -27.00 2.11
-10.23 -30.77 2.39
-9.62 -30.98 2.39
-9.00 -31.18 2.39
-8.37 -31.37 2.39
-7.74 -31.54 2.39
-7.42 -33.07 2.49
-6.76 -33.23 2.49
-6.09 -33.37 2.49
-5.42 -33.50 2.49
-4.75 -33.62 2.49
-4.08 -33.72 2.49
-3.40 -33.81 2.49
-2.72 -33.89 2.49
-2.04 -33.95 2.49
-1.36 -34.00 2.49
-0.68 -34.04 2.49
0.00 -26.00 2.49
0.53 -26.01 2.49
1.05 -26.00 2.49
1.57 -25.98 2.49
2.08 -25.80 2.48
2.51 -24.84 2.39
3.00 -24.80 2.39
3.50 -24.74 2.39
3.97 -24.50 2.37
4.46 -24.42 2.37
4.99 -24.51 2.39
5.48 -24.41 2.39
5.61 -22.81 2.24
5.60 -20.97 2.07
5.71 -19.78 1.97
7.48 -24.08 2.41
7.97 -23.93 2.41
8.45 -23.78 2.41
8.88 -23.49 2.39
6.10 -15.21 1.56
6.12 -14.41 1.49
6.09 -13.59 1.42
6.13 -12.96 1.37
6.13 -12.31 1.31
6.09 -11.65 1.25
6.12 -11.16 1.21
6.09 -10.59 1.16
6.12 -10.17 1.13
6.09 -9.66 1.09
6.06 -9.21 1.05
6.06 -8.81 1.02
6.06 -8.45 0.99
6.15 -8.21 0.97
6.31 -8.09 0.97
13.03 -16.02 1.96
13.57 -16.02 1.99
14.13 -16.02 2.03
14.71 -16.02 2.06
15.31 -16.02 2.10
15.94 -16.02 2.14
16.59 -16.02 2.19
17.27 -16.01 2.23
17.67 -15.74 2.24
17.99 -15.39 2.24
18.30 -15.03 2.24
18.60 -14.66 2.24
18.90 -14.28 2.24
19.18 -13.90 2.24
18.91 -13.14 2.18
19.18 -12.76 2.18
19.43 -12.37 2.18
19.68 -11.98 2.18
20.50 -11.92 2.24
20.73 -11.51 2.24
20.96 -11.09 2.24
21.19 -10.67 2.24
21.40 -10.25 2.24
21.60 -9.82 2.24
21.80 -9.38 2.24
21.98 -8.94 2.24
22.16 -8.50 2.24
22.33 -8.06 2.24
22.49 -7.61 2.24
14.08 -4.45 1.39
13.55 -3.99 1.33
13.07 -3.56 1.28
12.69 -3.19 1.24
12.41 -2.85 1.20
12.03 -2.51 1.16
11.70 -2.20 1.12
11.47 -1.92 1.10
11.09 -1.63 1.06
10.83 -1.37 1.03
10.59 -1.12 1.01
10.35 -0.89 0.98
10.30 -0.67 0.97
10.31 -0.47 0.97
10.15 -0.25 0.96
9.94 -0.05 0.94
9.75 0.15 0.92
9.56 0.34 0.90
9.37 0.52 0.89
9.20 0.69 0.87
9.40 0.90 0.89
9.61 1.11 0.91
9.84 1.34 0.94
10.07 1.58 0.96
10.33 1.83 0.99
10.59 2.10 1.02
10.88 2.38 1.05
11.18 2.69 1.09
11.50 3.01 1.12
11.84 3.35 1.16
12.10 3.69 1.20
12.39 4.05 1.23
12.82 4.48 1.28
13.51 5.03 1.36
14.02 5.54 1.43
14.80 6.19 1.52
15.43 6.82 1.60
15.89 7.41 1.66
21.81 10.71 2.30
19.75 10.20 2.10
22.21 12.04 2.39
21.90 12.44 2.38
21.68 12.91 2.39
21.43 13.35 2.39
21.15 13.77 2.39
20.87 14.19 2.39
20.58 14.60 2.39
20.27 15.01 2.39
20.83 16.07 2.49
20.49 16.48 2.49
19.26 16.14 2.38
19.81 17.29 2.49
19.45 17.68 2.49
19.09 18.06 2.49
18.72 18.43 2.49
14.13 14.49 1.92
17.95 19.16 2.49
17.56 19.51 2.49
17.16 19.85 2.49
16.75 20.19 2.49
16.34 20.52 2.49
15.92 20.83 2.49
15.50 21.14 2.49
15.06 21.44 2.49
5.12 7.60 0.87
4.94 7.67 0.87
4.82 7.83 0.88
13.28 22.56 2.49
12.82 22.81 2.49
12.36 23.06 2.49
11.89 23.29 2.49
11.35 23.39 2.48
10.77 23.39 2.46
10.21 23.39 2.44
9.66 23.39 2.42
9.11 23.39 2.40
8.61 23.49 2.39
8.14 23.66 2.39
7.66 23.81 2.39
2.57 8.58 0.86
6.69 24.08 2.39
6.21 24.20 2.39
5.72 24.31 2.39
5.23 24.41 2.39
4.73 24.51 2.39
4.24 24.59 2.39
3.74 24.66 2.39
3.25 24.72 2.39
2.75 24.77 2.39
2.25 24.82 2.39
1.75 24.85 2.39
1.25 24.87 2.39
0.71 23.58 2.27
0.25 24.88 2.39
-0.25 24.88 2.39
-0.74 24.86 2.39
-1.24 24.83 2.39
-1.74 24.79 2.39
-2.24 24.74 2.39
-2.73 24.68 2.39
-3.23 24.62 2.39
-3.57 23.57 2.30
-4.21 24.45 2.39
-4.55 23.57 2.31
-5.18 24.25 2.39
-5.67 24.13 2.39
-6.15 24.00 2.39
-6.54 23.57 2.36
-7.10 23.72 2.39
-7.58 23.57 2.39
-8.05 23.41 2.39
-8.56 23.36 2.40
-9.09 23.36 2.42
-9.64 23.35 2.44
-10.19 23.35 2.46
-10.75 23.35 2.49
-11.24 23.19 2.49
-11.70 22.95 2.49
-12.16 22.70 2.49
-12.61 22.45 2.49
-13.05 22.19 2.49
-13.49 21.91 2.49
-13.93 21.63 2.49
-14.35 21.34 2.49
-14.78 21.04 2.49
-15.19 20.74 2.49
-15.60 20.42 2.49
-16.00 20.10 2.49
-16.40 19.77 2.49
-16.79 19.43 2.49
-17.17 19.09 2.49
-17.55 18.74 2.49
-9.61 9.86 1.34
-9.63 9.48 1.31
-9.69 9.17 1.30
-9.95 9.04 1.31
-10.33 9.02 1.33
-10.77 9.03 1.37
-9.79 7.88 1.22
-9.84 7.60 1.21
-9.89 7.33 1.20
-10.16 7.21 1.21
-10.58 7.20 1.25
-9.45 6.16 1.10
-9.47 5.90 1.09
-9.52 5.67 1.08
-9.81 5.58 1.10
-10.31 5.59 1.14
-10.76 5.56 1.18
-19.93 9.79 2.16
-13.26 6.19 1.43
-9.33 4.13 0.99
-9.34 3.91 0.99
-9.39 3.71 0.98
-9.71 3.61 1.01
-10.17 3.56 1.05
-13.17 4.31 1.35
-13.17 4.02 1.34
-13.17 3.73 1.33
-13.17 3.45 1.33
-13.17 3.16 1.32
-9.31 2.04 0.93
-9.32 1.85 0.93
-9.32 1.65 0.92
-9.48 1.49 0.94
-10.39 1.42 1.02
-13.16 1.53 1.29
-13.16 1.26 1.29
-13.16 0.99 1.29
-13.16 0.73 1.29
-13.16 0.46 1.29
-9.75 0.15 0.95
-9.59 -0.05 0.94
-9.63 -0.24 0.94
-9.66 -0.44 0.94
-9.85 -0.64 0.96
-13.16 -1.13 1.29
-13.16 -1.39 1.29
-13.16 -1.66 1.29
-13.16 -1.93 1.30
-9.57 -1.60 0.95
-9.37 -1.76 0.93
-9.36 -1.95 0.93
-9.41 -2.16 0.94
-9.74 -2.45 0.98
-21.92 -5.97 2.22
-21.90 -6.44 2.23
-21.88 -6.92 2.24
-10.54 -3.57 1.08
-9.82 -3.55 1.02
-9.55 -3.67 1.00
-9.47 -3.85 1.00
-9.48 -4.08 1.01
-9.53 -4.33 1.02
-16.85 -8.07 1.82
-16.06 -8.10 1.75
-10.33 -5.47 1.14
-9.82 -5.46 1.09
-9.57 -5.57 1.08
-9.48 -5.77 1.08
-9.51 -6.06 1.10
-12.01 -7.99 1.40
-10.58 -7.35 1.25
-10.14 -7.36 1.22
-9.84 -7.44 1.20
-9.67 -7.63 1.20
-9.74 -8.00 1.22
-10.31 -8.82 1.32
-12.37 -11.02 1.61
-11.88 -11.02 1.57
-11.51 -11.11 1.55
-11.45 -11.51 1.58
-11.46 -11.99 1.61
-11.46 -12.49 1.64
-16.42 -18.62 2.41
-15.89 -18.77 2.39
-15.26 -18.78 2.35
-6.26 -8.03 0.99
-14.60 -19.52 2.36
-14.22 -19.82 2.36
-13.82 -20.11 2.36
-13.42 -20.39 2.36
-12.90 -20.49 2.34
-12.50 -20.77 2.35
-12.10 -21.04 2.35
-12.05 -21.98 2.42
-11.53 -22.07 2.41
-11.09 -22.30 2.41
-10.65 -22.53 2.41
-10.19 -22.74 2.41
-9.67 -22.80 2.39
-9.22 -22.99 2.39
-8.76 -23.18 2.39
-8.29 -23.36 2.39
-7.82 -23.53 2.39
-7.35 -23.69 2.39
-6.88 -23.84 2.39
-6.40 -23.98 2.39
-5.95 -24.23 2.40
-5.67 -25.28 2.49
-5.16 -25.40 2.49
-4.65 -25.50 2.49
-4.14 -25.60 2.49
-3.63 -25.69 2.49
-3.11 -25.76 2.49
-2.60 -25.83 2.49
-2.08 -25.88 2.49
-1.56 -25.93 2.49
-1.04 -25.96 2.49
-0.52 -25.99 2.49
0.00 -21.01 2.49
0.43 -21.01 2.49
0.85 -21.01 2.49
1.27 -20.99 2.49
1.69 -20.97 2.49
2.07 -20.48 2.44
2.43 -20.03 2.39
2.83 -19.98 2.39
3.23 -19.93 2.39
3.63 -19.86 2.39
4.03 -19.79 2.39
4.43 -19.71 2.39
4.82 -19.62 2.39
5.22 -19.53 2.39
5.61 -19.42 2.39
5.60 -18.02 2.23
5.63 -16.91 2.11
6.01 -16.91 2.12
7.19 -19.02 2.40
6.10 -15.21 1.94
6.12 -14.41 1.85
6.09 -13.58 1.76
6.13 -12.96 1.69
6.13 -12.31 1.62
6.09 -11.65 1.55
6.12 -11.16 1.50
6.09 -10.58 1.44
6.12 -10.16 1.40
6.09 -9.66 1.35
6.12 -9.30 1.31
6.12 -8.90 1.27
6.09 -8.48 1.23
6.12 -8.18 1.20
6.12 -7.84 1.17
6.08 -7.48 1.14
6.12 -7.22 1.11
6.12 -6.94 1.09
6.06 -6.60 1.05
6.06 -6.34 1.03
6.06 -6.09 1.01
6.06 -5.85 0.99
6.08 -5.64 0.97
6.19 -5.51 0.97
6.30 -5.39 0.97
6.41 -5.26 0.97
15.00 -11.82 2.24
14.85 -11.22 2.19
15.03 -10.89 2.18
15.24 -10.59 2.18
15.46 -10.28 2.18
15.66 -9.97 2.18
15.86 -9.66 2.18
16.52 -9.61 2.24
16.71 -9.28 2.24
16.89 -8.94 2.24
17.07 -8.60 2.24
17.24 -8.26 2.24
17.41 -7.91 2.24
17.56 -7.56 2.24
17.71 -7.21 2.24
17.86 -6.85 2.24
17.99 -6.49 2.24
18.12 -6.13 2.24
14.08 -4.45 1.73
13.55 -3.99 1.66
13.07 -3.56 1.59
12.69 -3.19 1.53
12.41 -2.85 1.49
12.03 -2.51 1.44
11.70 -2.20 1.40
11.47 -1.92 1.36
11.14 -1.63 1.32
10.93 -1.38 1.29
10.63 -1.12 1.25
10.44 -0.89 1.23
10.16 -0.66 1.19
10.00 -0.45 1.17
9.80 -0.25 1.15
9.57 -0.05 1.12
9.44 0.14 1.11
9.26 0.33 1.09
9.00 0.50 1.06
8.76 0.66 1.03
8.28 0.79 0.97
8.26 0.96 0.97
8.24 1.12 0.97
10.07 1.58 1.20
10.48 1.86 1.25
10.75 2.13 1.28
10.94 2.40 1.31
11.18 2.69 1.35
11.50 3.01 1.39
11.84 3.35 1.44
12.10 3.69 1.48
12.39 4.05 1.53
12.82 4.48 1.59
13.51 5.03 1.69
14.02 5.54 1.77
14.80 6.19 1.88
15.20 6.72 1.95
15.89 7.41 2.06
17.23 8.46 2.25
17.12 8.84 2.26
17.01 9.22 2.27
16.95 9.64 2.29
16.94 10.08 2.32
17.03 10.60 2.36
17.12 11.14 2.40
16.82 11.44 2.39
16.59 11.77 2.39
16.35 12.10 2.39
16.10 12.42 2.39
15.84 12.74 2.39
15.58 13.05 2.39
15.31 13.36 2.39
15.04 13.66 2.39
14.76 13.96 2.39
14.47 14.25 2.39
14.18 14.54 2.39
13.88 14.82 2.39
13.58 15.09 2.39
13.84 16.02 2.49
13.52 16.29 2.49
13.18 16.55 2.49
3.47 4.54 0.67
3.35 4.57 0.67
3.27 4.66 0.67
3.25 4.83 0.69
4.94 7.66 1.08
4.82 7.82 1.08
10.72 18.20 2.49
10.35 18.41 2.49
9.97 18.61 2.49
9.60 18.80 2.49
9.21 18.99 2.49
8.83 19.16 2.49
8.44 19.33 2.49
8.05 19.49 2.49
7.65 19.65 2.49
7.26 19.79 2.49
6.86 19.93 2.49
6.45 20.05 2.49
2.57 8.58 1.06
5.64 20.29 2.49
5.23 20.39 2.49
4.82 20.49 2.49
4.41 20.57 2.49
3.99 20.65 2.49
3.57 20.72 2.49
3.16 20.78 2.49
2.74 20.84 2.49
2.32 20.88 2.49
1.90 20.92 2.49
1.48 20.95 2.49
1.06 20.97 2.49
0.64 20.98 2.49
0.21 20.98 2.49
-0.21 20.98 2.49
-0.63 20.96 2.49
-1.05 20.94 2.49
-1.47 20.91 2.49
-1.89 20.87 2.49
-2.30 20.82 2.49
-2.72 20.77 2.49
-3.14 20.70 2.49
-3.55 20.63 2.49
-3.96 20.55 2.49
-4.37 20.46 2.49
-4.78 20.36 2.49
-5.19 20.26 2.49
-5.59 20.14 2.49
-5.99 20.02 2.49
-6.39 19.89 2.49
-6.79 19.76 2.49
-7.18 19.61 2.49
-7.57 19.46 2.49
-7.96 19.30 2.49
-8.34 19.13 2.49
-8.72 18.95 2.49
-9.10 18.77 2.49
-9.47 18.58 2.49
-9.84 18.38 2.49
-10.21 18.17 2.49
-7.62 12.95 1.80
-7.63 12.38 1.74
-7.83 12.17 1.73
-8.12 12.08 1.74
-8.60 12.24 1.79
-12.30 16.79 2.49
-12.63 16.54 2.49
-12.96 16.28 2.49
-13.28 16.01 2.49
-13.04 15.09 2.39
-13.33 14.82 2.39
-13.63 14.55 2.39
-13.91 14.27 2.39
-9.62 9.48 1.62
-9.69 9.17 1.60
-9.93 9.03 1.61
-10.32 9.01 1.64
-10.76 9.02 1.69
-9.78 7.87 1.51
-9.82 7.59 1.49
-9.89 7.32 1.48
-10.15 7.20 1.49
-10.58 7.20 1.54
-9.44 6.14 1.35
-9.48 5.91 1.34
-9.54 5.68 1.33
-9.79 5.57 1.35
-10.24 5.55 1.40
-10.77 5.56 1.46
-17.96 8.83 2.41
-9.28 4.33 1.23
-9.31 4.12 1.22
-9.34 3.91 1.22
-9.40 3.72 1.22
-9.68 3.60 1.24
-10.17 3.55 1.30
-13.17 4.31 1.67
-13.17 4.02 1.66
-13.17 3.73 1.65
-13.17 3.45 1.64
-13.17 3.16 1.63
-9.27 2.03 1.14
-9.33 1.85 1.15
-9.31 1.65 1.14
-9.46 1.48 1.15
-10.37 1.41 1.26
-13.16 1.53 1.60
-13.16 1.26 1.59
-13.16 0.99 1.59
-13.16 0.73 1.59
-13.16 0.46 1.59
-9.75 0.15 1.17
-9.57 -0.05 1.15
-9.59 -0.24 1.15
-9.63 -0.44 1.16
-9.84 -0.64 1.19
-13.16 -1.13 1.59
-13.16 -1.39 1.59
-13.16 -1.66 1.60
-13.16 -1.93 1.60
-9.57 -1.60 1.17
-9.36 -1.76 1.15
-9.36 -1.95 1.15
-9.43 -2.17 1.16
-9.73 -2.44 1.21
-16.52 -4.50 2.06
-16.43 -4.83 2.06
-16.33 -5.16 2.06
-10.55 -3.57 1.34
-9.82 -3.55 1.26
-9.56 -3.67 1.23
-9.44 -3.84 1.23
-9.49 -4.09 1.24
-9.55 -4.34 1.26
-16.91 -8.10 2.25
-16.14 -8.13 2.17
-10.37 -5.49 1.41
-9.82 -5.46 1.35
-9.44 -5.50 1.31
-9.45 -5.76 1.33
-9.50 -6.05 1.35
-12.00 -7.99 1.73
-10.56 -7.34 1.54
-10.16 -7.37 1.51
-9.78 -7.39 1.47
-9.63 -7.59 1.47
-9.64 -7.92 1.50
-10.27 -8.79 1.62
-12.40 -11.05 1.99
-11.87 -11.01 1.94
-11.48 -11.08 1.91
-11.41 -11.47 1.94
-11.43 -11.96 1.98
-12.77 -13.91 2.26
-12.55 -14.24 2.27
-12.32 -14.56 2.28
-12.63 -15.54 2.40
-6.26 -8.03 1.22
-12.03 -16.08 2.40
-11.72 -16.34 2.41
-11.40 -16.58 2.41
-11.06 -16.81 2.41
-10.73 -17.04 2.41
-10.38 -17.25 2.41
-9.97 -17.34 2.39
-9.62 -17.55 2.39
-9.27 -17.74 2.39
-8.92 -17.93 2.39
-8.56 -18.11 2.39
-8.19 -18.28 2.39
-7.83 -18.44 2.39
-7.46 -18.60 2.39
-7.08 -18.75 2.39
-6.71 -18.90 2.39
-6.33 -19.03 2.39
-5.96 -19.20 2.40
-5.80 -20.11 2.49
-5.40 -20.23 2.49
-4.99 -20.34 2.49
-4.58 -20.44 2.49
-4.17 -20.54 2.49
-3.76 -20.62 2.49
-3.35 -20.70 2.49
-2.93 -20.77 2.49
-2.52 -20.83 2.49
-2.10 -20.88 2.49
-1.68 -20.92 2.49
-1.26 -20.96 2.49
-0.84 -20.98 2.49
-0.42 -21.00 2.49
0.00 -17.61 2.49
0.36 -17.61 2.49
0.71 -17.61 2.49
1.06 -17.59 2.49
1.42 -17.57 2.49
1.77 -17.54 2.49
2.08 -17.15 2.44
2.37 -16.75 2.39
2.71 -16.70 2.39
3.04 -16.64 2.39
3.38 -16.58 2.39
3.71 -16.52 2.39
4.04 -16.44 2.39
4.37 -16.36 2.39
4.70 -16.27 2.39
5.03 -16.18 2.39
5.35 -16.08 2.39
5.68 -15.97 2.39
6.00 -15.86 2.39
6.10 -15.21 2.31
6.12 -14.41 2.21
6.09 -13.58 2.10
6.13 -12.95 2.02
6.13 -12.31 1.94
6.09 -11.64 1.85
6.12 -11.16 1.79
6.09 -10.58 1.72
6.12 -10.16 1.67
6.09 -9.66 1.61
6.12 -9.30 1.57
6.12 -8.90 1.52
6.09 -8.48 1.47
6.12 -8.18 1.44
6.12 -7.84 1.40
6.08 -7.48 1.36
6.12 -7.22 1.33
6.12 -6.94 1.30
6.08 -6.62 1.26
6.12 -6.40 1.24
6.12 -6.15 1.22
6.12 -5.90 1.19
6.08 -5.64 1.16
6.08 -5.42 1.14
6.11 -5.23 1.13
6.11 -5.02 1.11
6.11 -4.82 1.09
6.08 -4.60 1.07
6.05 -4.39 1.05
6.05 -4.20 1.03
6.05 -4.03 1.02
6.05 -3.85 1.01
6.05 -3.69 0.99
6.05 -3.52 0.98
6.08 -3.37 0.97
6.14 -3.25 0.97
6.21 -3.13 0.97
6.27 -3.00 0.97
6.33 -2.88 0.97
6.39 -2.75 0.97
14.82 -6.03 2.24
14.94 -5.73 2.24
15.05 -5.43 2.24
15.11 -5.11 2.24
14.08 -4.45 2.07
13.55 -3.98 1.98
13.07 -3.56 1.90
12.69 -3.19 1.83
12.41 -2.85 1.78
12.03 -2.51 1.72
11.70 -2.20 1.67
11.47 -1.92 1.63
11.14 -1.63 1.58
10.93 -1.38 1.54
10.63 -1.12 1.50
10.44 -0.89 1.47
10.16 -0.66 1.43
10.00 -0.45 1.40
9.80 -0.25 1.37
9.57 -0.05 1.34
9.44 0.14 1.32
9.26 0.33 1.30
9.03 0.50 1.27
8.86 0.67 1.25
6.92 0.66 0.97
6.91 0.80 0.97
6.89 0.94 0.97
10.22 1.60 1.45
10.48 1.86 1.49
10.75 2.13 1.54
10.94 2.40 1.57
11.18 2.69 1.61
11.50 3.01 1.67
11.84 3.35 1.73
12.10 3.69 1.77
12.39 4.05 1.83
12.82 4.48 1.90
13.41 4.99 2.01
13.31 5.26 2.01
13.98 5.85 2.13
13.77 6.09 2.11
12.40 5.78 1.92
13.33 6.55 2.08
13.19 6.81 2.08
13.96 7.57 2.23
14.33 8.14 2.31
14.70 8.75 2.40
14.55 9.06 2.41
14.37 9.35 2.41
14.18 9.64 2.41
13.98 9.92 2.41
13.77 10.20 2.41
13.56 10.47 2.41
13.35 10.74 2.41
13.13 11.00 2.41
12.90 11.26 2.41
12.59 11.44 2.39
12.35 11.69 2.39
12.12 11.93 2.39
11.87 12.17 2.39
11.62 12.40 2.39
11.37 12.63 2.39
11.11 12.85 2.39
10.85 13.07 2.39
3.55 4.45 0.80
3.40 4.45 0.79
3.29 4.49 0.78
3.21 4.57 0.79
3.15 4.68 0.79
4.94 7.66 1.28
4.82 7.82 1.29
8.61 14.62 2.39
8.31 14.78 2.39
8.01 14.94 2.39
7.71 15.10 2.39
7.72 15.90 2.49
7.40 16.05 2.49
7.07 16.19 2.49
6.74 16.33 2.49
6.41 16.46 2.49
6.08 16.58 2.49
5.75 16.70 2.49
5.41 16.80 2.49
2.57 8.58 1.27
4.73 17.00 2.49
4.38 17.09 2.49
4.04 17.17 2.49
3.69 17.24 2.49
3.35 17.31 2.49
3.00 17.37 2.49
2.65 17.42 2.49
2.30 17.47 2.49
1.94 17.51 2.49
1.59 17.54 2.49
1.24 17.56 2.49
0.89 17.58 2.49
0.53 17.59 2.49
0.18 17.59 2.49
-0.17 17.59 2.49
-0.53 17.58 2.49
-0.88 17.56 2.49
-1.23 17.53 2.49
-1.58 17.50 2.49
-1.93 17.46 2.49
-2.28 17.42 2.49
-2.63 17.36 2.49
-2.98 17.30 2.49
-3.32 17.24 2.49
-3.67 17.16 2.49
-4.01 17.08 2.49
-4.35 16.99 2.49
-4.69 16.90 2.49
-5.03 16.80 2.49
-5.36 16.69 2.49
-5.70 16.58 2.49
-6.03 16.45 2.49
-6.35 16.33 2.49
-6.68 16.19 2.49
-7.00 16.05 2.49
-7.32 15.90 2.49
-7.64 15.75 2.49
-7.95 15.59 2.49
-8.26 15.43 2.49
-8.57 15.25 2.49
-8.87 15.08 2.49
-7.90 12.84 2.15
-7.99 12.41 2.11
-9.35 13.91 2.39
-9.63 13.71 2.39
-9.90 13.52 2.39
-10.17 13.31 2.39
-10.43 13.10 2.39
-10.69 12.89 2.39
-10.94 12.67 2.39
-11.19 12.44 2.39
-11.44 12.22 2.39
-9.61 9.86 1.97
-9.64 9.50 1.93
-9.70 9.18 1.91
-9.96 9.06 1.92
-10.25 8.95 1.95
-10.87 9.11 2.03
-9.77 7.86 1.79
-9.81 7.58 1.77
-9.89 7.32 1.76
-10.14 7.20 1.78
-9.44 6.42 1.63
-9.36 6.09 1.60
-9.38 5.85 1.58
-9.53 5.67 1.59
-9.82 5.58 1.62
-10.28 5.58 1.67
-10.77 5.56 1.74
-15.20 7.47 2.43
-9.31 4.35 1.47
-9.22 4.08 1.44
-9.26 3.88 1.44
-9.39 3.71 1.45
-9.67 3.60 1.48
-10.23 3.58 1.55
-13.17 4.31 1.98
-13.17 4.02 1.97
-13.17 3.73 1.96
-13.17 3.45 1.95
-9.30 2.24 1.37
-9.27 2.03 1.36
-9.30 1.84 1.36
-9.30 1.65 1.35
-9.39 1.47 1.36
-10.38 1.42 1.50
-13.16 1.53 1.90
-13.16 1.26 1.89
-13.16 0.99 1.89
-13.16 0.73 1.89
-13.16 0.46 1.89
-9.56 0.14 1.37
-9.56 -0.05 1.37
-9.58 -0.24 1.37
-9.62 -0.43 1.38
-9.66 -0.63 1.39
-13.16 -1.13 1.89
-13.16 -1.39 1.90
-13.16 -1.66 1.90
-13.16 -1.93 1.91
-9.35 -1.56 1.36
-9.33 -1.75 1.36
-9.29 -1.94 1.36
-9.42 -2.17 1.38
-9.47 -2.38 1.40
-13.88 -3.78 2.06
-13.80 -4.06 2.06
-13.71 -4.34 2.06
-10.73 -3.63 1.62
-9.82 -3.55 1.50
-9.45 -3.63 1.45
-9.41 -3.83 1.45
-9.43 -4.06 1.47
-9.54 -4.34 1.50
-14.74 -7.06 2.34
-14.79 -7.46 2.37
-10.39 -5.50 1.68
-9.82 -5.46 1.61
-9.47 -5.51 1.57
-9.43 -5.75 1.58
-9.44 -6.01 1.60
-12.08 -8.04 2.07
-10.58 -7.35 1.84
-10.17 -7.37 1.79
-9.79 -7.41 1.75
-9.64 -7.60 1.75
-9.73 -8.00 1.80
-10.37 -8.87 1.95
-12.00 -10.70 2.30
-11.83 -10.98 2.30
-11.65 -11.25 2.31
-11.47 -11.53 2.32
-11.28 -11.81 2.33
-11.09 -12.08 2.34
-10.89 -12.35 2.35
-10.68 -12.62 2.36
-10.47 -12.89 2.37
-6.25 -8.01 1.45
-10.04 -13.42 2.39
-9.77 -13.63 2.39
-9.50 -13.83 2.39
-9.22 -14.02 2.39
-8.94 -14.20 2.39
-8.66 -14.38 2.39
-8.37 -14.55 2.39
-8.07 -14.72 2.39
-7.78 -14.88 2.39
-7.48 -15.04 2.39
-7.18 -15.19 2.39
-6.87 -15.34 2.39
-6.57 -15.47 2.39
-6.25 -15.61 2.39
-5.98 -15.83 2.41
-5.87 -16.54 2.49
-5.54 -16.65 2.49
-5.20 -16.77 2.49
-4.87 -16.87 2.49
-4.53 -16.97 2.49
-4.19 -17.06 2.49
-3.84 -17.14 2.49
-3.50 -17.22 2.49
-3.15 -17.29 2.49
-2.81 -17.36 2.49
-2.46 -17.41 2.49
-2.11 -17.46 2.49
-1.76 -17.51 2.49
-1.41 -17.54 2.49
-1.06 -17.57 2.49
-0.70 -17.59 2.49
-0.35 -17.61 2.49
0.00 -15.15 2.49
0.31 -15.15 2.49
0.61 -15.14 2.49
0.92 -15.13 2.49
1.22 -15.11 2.49
1.52 -15.09 2.49
1.83 -15.06 2.49
2.08 -14.66 2.43
2.33 -14.36 2.39
2.62 -14.31 2.39
2.90 -14.26 2.39
3.19 -14.20 2.39
3.48 -14.13 2.39
3.76 -14.06 2.39
4.04 -13.99 2.39
4.32 -13.91 2.39
4.60 -13.82 2.39
4.88 -13.73 2.39
5.15 -13.63 2.39
5.43 -13.53 2.39
5.70 -13.42 2.39
5.97 -13.30 2.39
6.13 -12.95 2.35
6.13 -12.31 2.25
6.09 -11.64 2.15
6.12 -11.16 2.09
6.09 -10.58 2.00
6.12 -10.16 1.94
6.09 -9.66 1.87
6.12 -9.30 1.82
6.12 -8.90 1.77
6.09 -8.48 1.71
6.12 -8.18 1.67
6.12 -7.84 1.63
6.08 -7.48 1.58
6.12 -7.22 1.55
6.12 -6.94 1.51
6.08 -6.62 1.47
6.12 -6.40 1.45
6.12 -6.15 1.42
6.12 -5.90 1.39
6.08 -5.64 1.36
6.08 -5.42 1.33
6.11 -5.23 1.32
6.11 -5.02 1.29
6.11 -4.82 1.27
6.08 -4.60 1.25
6.09 -4.41 1.23
6.11 -4.25 1.22
6.11 -4.07 1.20
6.11 -3.89 1.18
6.08 -3.70 1.16
6.08 -3.54 1.15
6.08 -3.37 1.14
6.11 -3.23 1.13
6.11 -3.08 1.12
6.11 -2.93 1.11
6.11 -2.78 1.10
6.08 -2.62 1.08
6.08 -2.47 1.07
6.05 -2.32 1.06
6.05 -2.18 1.05
6.05 -2.05 1.04
6.05 -1.91 1.04
6.05 -1.78 1.03
6.05 -1.65 1.02
6.05 -1.52 1.02
6.05 -1.39 1.01
6.05 -1.26 1.01
6.05 -1.14 1.00
6.35 -1.06 1.05
11.14 -1.63 1.84
10.93 -1.38 1.80
10.63 -1.12 1.74
10.44 -0.89 1.71
10.16 -0.66 1.66
10.00 -0.45 1.63
9.80 -0.25 1.60
9.57 -0.05 1.56
9.44 0.14 1.54
9.26 0.33 1.51
9.03 0.50 1.48
8.86 0.67 1.45
6.22 0.59 1.02
6.21 0.72 1.02
6.19 0.84 1.02
10.22 1.60 1.69
10.48 1.86 1.74
10.75 2.13 1.79
10.94 2.40 1.83
11.18 2.69 1.88
11.50 3.01 1.94
11.83 3.35 2.01
11.76 3.59 2.01
11.68 3.82 2.01
11.60 4.05 2.01
11.52 4.29 2.01
10.90 4.31 1.91
10.83 4.53 1.92
11.24 4.97 2.01
11.44 5.33 2.06
11.49 5.64 2.09
11.33 5.85 2.08
11.16 6.05 2.07
10.99 6.25 2.07
10.82 6.44 2.06
10.69 6.66 2.06
10.69 6.96 2.08
11.06 7.52 2.19
11.46 8.13 2.30
11.78 8.72 2.40
11.65 8.99 2.41
11.47 9.22 2.41
11.28 9.45 2.41
11.09 9.67 2.41
10.89 9.89 2.41
10.69 10.11 2.41
10.48 10.32 2.41
10.27 10.53 2.41
10.05 10.73 2.41
9.83 10.93 2.41
9.61 11.12 2.41
9.39 11.31 2.41
3.51 4.41 0.92
3.37 4.41 0.91
3.27 4.46 0.91
3.18 4.53 0.91
3.12 4.64 0.92
3.12 4.85 0.95
4.82 7.82 1.51
7.40 12.56 2.39
7.14 12.71 2.39
6.88 12.84 2.39
6.62 12.98 2.39
6.36 13.11 2.39
6.10 13.23 2.39
5.83 13.35 2.39
5.56 13.46 2.39
5.29 13.56 2.39
5.01 13.66 2.39
4.74 13.76 2.39
4.46 13.85 2.39
2.57 8.55 1.47
4.06 14.62 2.49
3.77 14.69 2.49
3.47 14.76 2.49
3.18 14.83 2.49
2.88 14.88 2.49
2.58 14.94 2.49
2.28 14.98 2.49
1.98 15.02 2.49
1.67 15.05 2.49
1.37 15.08 2.49
1.07 15.10 2.49
0.76 15.12 2.49
0.46 15.13 2.49
0.16 15.13 2.49
-0.15 15.13 2.49
-0.45 15.12 2.49
-0.75 15.10 2.49
-1.06 15.08 2.49
-1.36 15.06 2.49
-1.66 15.02 2.49
-1.96 14.98 2.49
-2.26 14.94 2.49
-2.56 14.89 2.49
-2.86 14.83 2.49
-3.16 14.77 2.49
-3.45 14.70 2.49
-3.74 14.62 2.49
-4.04 14.54 2.49
-4.33 14.46 2.49
-4.62 14.36 2.49
-4.90 14.26 2.49
-5.19 14.16 2.49
-5.47 14.05 2.49
-5.75 13.94 2.49
-6.03 13.82 2.49
-6.30 13.69 2.49
-6.57 13.56 2.49
-6.84 13.42 2.49
-7.11 13.28 2.49
-7.37 13.13 2.49
-7.42 12.61 2.42
-7.57 12.29 2.39
-7.81 12.13 2.39
-8.05 11.97 2.39
-8.29 11.81 2.39
-8.52 11.64 2.39
-8.75 11.46 2.39
-8.98 11.28 2.39
-9.20 11.10 2.39
-9.42 10.91 2.39
-9.64 10.72 2.39
-9.85 10.52 2.39
-10.06 10.32 2.39
-9.62 9.48 2.24
-9.70 9.18 2.22
-9.95 9.05 2.23
-9.96 8.70 2.19
-9.96 8.35 2.16
-9.78 7.87 2.08
-9.82 7.58 2.06
-9.88 7.32 2.04
-9.98 7.08 2.03
-9.98 6.79 2.00
-9.40 6.12 1.86
-9.45 5.89 1.85
-9.53 5.67 1.84
-9.82 5.59 1.88
-10.31 5.59 1.95
-12.86 6.65 2.41
-12.99 6.39 2.41
-9.34 4.36 1.71
-9.22 4.08 1.68
-9.28 3.89 1.67
-9.39 3.71 1.68
-9.62 3.58 1.71
-10.30 3.60 1.81
-14.33 4.69 2.51
-14.64 4.47 2.54
-14.92 4.23 2.58
-15.21 3.98 2.61
-15.50 3.73 2.65
-9.26 2.03 1.58
-9.30 1.84 1.58
-9.29 1.65 1.57
-9.42 1.48 1.59
-10.79 1.47 1.81
-13.16 1.53 2.20
-13.16 1.26 2.20
-13.16 0.99 2.20
-13.16 0.73 2.19
-13.16 0.46 2.19
-9.58 0.14 1.59
-9.54 -0.05 1.59
-9.58 -0.24 1.59
-9.53 -0.43 1.59
-9.59 -0.63 1.60
-13.16 -1.13 2.20
-13.16 -1.39 2.20
-13.16 -1.66 2.21
-13.16 -1.93 2.21
-9.57 -1.60 1.61
-9.32 -1.75 1.58
-9.29 -1.94 1.58
-9.34 -2.15 1.59
-9.49 -2.38 1.63
-13.34 -3.64 2.30
-13.30 -3.91 2.30
-13.26 -4.19 2.31
-10.54 -3.57 1.85
-9.82 -3.55 1.74
-9.47 -3.64 1.69
-9.41 -3.83 1.69
-9.45 -4.07 1.71
-9.54 -4.34 1.74
-12.79 -6.13 2.36
-12.69 -6.40 2.36
-10.36 -5.49 1.95
-9.82 -5.46 1.87
-9.50 -5.53 1.82
-9.42 -5.74 1.83
-9.52 -6.06 1.87
-9.94 -6.62 1.98
-9.95 -6.92 2.01
-9.95 -7.22 2.04
-9.66 -7.31 2.01
-9.66 -7.61 2.04
-9.64 -7.92 2.07
-9.95 -8.52 2.17
-10.83 -9.65 2.41
-10.64 -9.87 2.41
-10.44 -10.08 2.41
-10.13 -10.19 2.38
-9.96 -10.43 2.39
-9.75 -10.63 2.39
-9.54 -10.82 2.39
-9.32 -11.01 2.39
-9.10 -11.20 2.39
-6.24 -8.01 1.68
-8.64 -11.56 2.39
-8.41 -11.73 2.39
-8.18 -11.90 2.39
-7.94 -12.06 2.39
-7.70 -12.22 2.39
-7.45 -12.38 2.39
-7.20 -12.53 2.39
-6.95 -12.67 2.39
-6.69 -12.81 2.39
-6.44 -12.94 2.39
-6.19 -13.09 2.39
-5.98 -13.34 2.42
-5.89 -13.89 2.49
-5.61 -14.01 2.49
-5.33 -14.12 2.49
-5.05 -14.23 2.49
-4.76 -14.33 2.49
-4.48 -14.43 2.49
-4.19 -14.51 2.49
-3.89 -14.60 2.49
-3.60 -14.68 2.49
-3.31 -14.75 2.49
-3.01 -14.82 2.49
-2.71 -14.88 2.49
-2.41 -14.93 2.49
-2.11 -14.98 2.49
-1.81 -15.02 2.49
-1.51 -15.06 2.49
-1.21 -15.09 2.49
-0.91 -15.11 2.49
-0.60 -15.13 2.49
-0.30 -15.14 2.49
0.00 -13.28 2.49
0.27 -13.28 2.49
0.54 -13.27 2.49
0.80 -13.26 2.49
1.07 -13.24 2.49
1.34 -13.22 2.49
1.60 -13.19 2.49
1.87 -13.16 2.49
2.08 -12.79 2.43
2.29 -12.54 2.39
2.55 -12.49 2.39
2.80 -12.44 2.39
3.05 -12.38 2.39
3.29 -12.32 2.39
3.54 -12.26 2.39
3.79 -12.18 2.39
4.03 -12.11 2.39
4.27 -12.03 2.39
4.52 -11.94 2.39
4.76 -11.85 2.39
4.99 -11.75 2.39
5.23 -11.65 2.39
5.46 -11.55 2.39
5.69 -11.44 2.39
5.92 -11.32 2.39
6.12 -11.16 2.38
6.09 -10.58 2.28
6.12 -10.16 2.22
6.09 -9.66 2.14
6.12 -9.29 2.08
6.12 -8.90 2.02
6.09 -8.48 1.95
6.12 -8.17 1.91
6.12 -7.84 1.86
6.08 -7.48 1.80
6.12 -7.22 1.77
6.12 -6.93 1.73
6.08 -6.62 1.68
6.12 -6.40 1.65
6.12 -6.14 1.62
6.12 -5.90 1.59
6.08 -5.64 1.55
6.08 -5.42 1.52
6.11 -5.23 1.50
6.11 -5.02 1.48
6.11 -4.82 1.45
6.08 -4.60 1.42
6.09 -4.41 1.40
6.11 -4.25 1.39
6.11 -4.07 1.37
6.11 -3.89 1.35
6.08 -3.70 1.33
6.08 -3.54 1.31
6.08 -3.37 1.30
6.11 -3.23 1.29
6.11 -3.08 1.28
6.11 -2.93 1.26
6.11 -2.78 1.25
6.08 -2.62 1.23
6.08 -2.47 1.22
6.11 -2.34 1.22
6.11 -2.20 1.21
6.11 -2.07 1.20
6.11 -1.93 1.19
6.11 -1.80 1.19
6.08 -1.65 1.17
6.08 -1.52 1.17
6.07 -1.40 1.16
6.11 -1.27 1.16
6.11 -1.15 1.16
6.35 -1.06 1.20
11.14 -1.63 2.10
10.93 -1.38 2.05
10.63 -1.12 1.99
10.44 -0.89 1.95
10.16 -0.66 1.90
10.00 -0.45 1.87
9.80 -0.25 1.83
9.57 -0.05 1.78
9.44 0.14 1.76
9.26 0.33 1.73
9.03 0.50 1.69
8.86 0.67 1.66
6.53 0.62 1.22
6.21 0.72 1.16
6.19 0.84 1.16
10.11 1.58 1.91
10.33 1.83 1.95
10.59 2.10 2.01
10.88 2.38 2.08
10.77 2.59 2.06
10.69 2.80 2.06
10.67 3.02 2.07
10.66 3.25 2.08
10.64 3.48 2.09
10.62 3.71 2.10
10.59 3.94 2.11
10.57 4.18 2.12
10.54 4.41 2.13
10.51 4.65 2.14
10.45 4.88 2.15
10.39 5.10 2.16
10.32 5.33 2.17
10.24 5.55 2.17
10.16 5.77 2.18
10.08 6.00 2.19
9.99 6.22 2.20
9.90 6.44 2.20
9.81 6.67 2.21
9.73 6.90 2.23
9.65 7.14 2.24
9.56 7.38 2.26
9.47 7.62 2.27
9.38 7.86 2.29
9.29 8.11 2.30
9.31 8.46 2.35
9.36 8.85 2.41
9.18 9.04 2.41
8.99 9.22 2.41
8.81 9.40 2.41
8.61 9.57 2.41
8.42 9.74 2.41
8.22 9.90 2.41
3.51 4.41 1.05
3.37 4.41 1.04
3.27 4.45 1.03
3.18 4.53 1.04
3.12 4.64 1.05
3.12 4.85 1.08
4.82 7.82 1.72
6.48 11.00 2.39
6.26 11.13 2.39
6.03 11.25 2.39
5.80 11.37 2.39
5.57 11.48 2.39
5.34 11.59 2.39
5.11 11.69 2.39
4.87 11.79 2.39
4.63 11.88 2.39
4.39 11.97 2.39
4.15 12.06 2.39
3.91 12.13 2.39
2.57 8.55 1.68
3.41 12.28 2.39
3.17 12.35 2.39
3.04 12.94 2.49
2.78 12.99 2.49
2.52 13.04 2.49
2.26 13.09 2.49
2.00 13.13 2.49
1.73 13.16 2.49
1.47 13.19 2.49
1.20 13.22 2.49
0.94 13.24 2.49
0.67 13.25 2.49
0.40 13.26 2.49
0.14 13.26 2.49
-0.13 13.26 2.49
-0.40 13.25 2.49
-0.66 13.24 2.49
-0.93 13.22 2.49
-1.19 13.20 2.49
-1.46 13.17 2.49
-1.72 13.14 2.49
-1.98 13.10 2.49
-2.24 13.05 2.49
-2.51 13.00 2.49
-2.77 12.95 2.49
-3.02 12.89 2.49
-3.28 12.82 2.49
-3.54 12.75 2.49
-3.79 12.67 2.49
-4.05 12.59 2.49
-4.30 12.51 2.49
-4.55 12.42 2.49
-4.79 12.32 2.49
-5.04 12.22 2.49
-5.28 12.12 2.49
-5.52 12.00 2.49
-5.76 11.89 2.49
-6.00 11.77 2.49
-6.23 11.65 2.49
-6.47 11.52 2.49
-6.42 10.91 2.39
-6.63 10.78 2.39
-6.85 10.64 2.39
-7.06 10.50 2.39
-7.27 10.36 2.39
-7.47 10.21 2.39
-7.68 10.05 2.39
-7.88 9.89 2.39
-8.07 9.73 2.39
-8.26 9.57 2.39
-8.45 9.40 2.39
-8.64 9.23 2.39
-8.82 9.05 2.39
-9.00 8.87 2.39
-9.18 8.69 2.39
-9.35 8.50 2.39
-9.52 8.31 2.39
-9.68 8.12 2.39
-9.77 7.86 2.37
-9.82 7.58 2.35
-9.88 7.32 2.33
-9.98 7.08 2.32
-9.43 6.41 2.16
-9.38 6.11 2.12
-9.47 5.90 2.11
-9.52 5.67 2.10
-9.87 5.61 2.15
-9.97 5.41 2.15
-9.97 5.15 2.13
-9.97 4.90 2.11
-9.29 4.34 1.94
-9.30 4.12 1.93
-9.35 3.91 1.92
-9.39 3.71 1.91
-9.69 3.61 1.96
-9.97 3.49 2.00
-9.96 3.26 1.99
-9.96 3.04 1.97
-9.96 2.82 1.96
-9.98 2.61 1.96
-9.28 2.23 1.81
-9.31 2.04 1.81
-9.33 1.85 1.80
-9.31 1.65 1.79
-9.41 1.48 1.81
-9.99 1.36 1.91
-12.73 1.48 2.43
-12.69 1.21 2.42
-12.64 0.95 2.40
-12.58 0.70 2.39
-12.57 0.44 2.38
-9.88 0.15 1.87
-9.53 -0.05 1.81
-9.57 -0.24 1.81
-9.63 -0.44 1.83
-9.68 -0.63 1.84
-12.47 -1.07 2.37
-12.43 -1.31 2.37
-12.39 -1.56 2.37
-10.21 -1.50 1.96
-9.63 -1.61 1.85
-9.31 -1.75 1.80
-9.35 -1.95 1.81
-9.39 -2.16 1.83
-9.48 -2.38 1.85
-9.96 -2.71 1.96
-9.95 -2.93 1.97
-9.95 -3.15 1.98
-9.96 -3.37 1.99
-9.82 -3.55 1.98
-9.43 -3.62 1.91
-9.44 -3.84 1.93
-9.47 -4.08 1.95
-9.53 -4.33 1.98
-9.96 -4.77 2.09
-9.96 -5.02 2.11
-9.96 -5.27 2.13
-9.82 -5.46 2.13
-9.46 -5.51 2.07
-9.40 -5.73 2.08
-9.43 -6.01 2.12
-9.57 -6.37 2.18
-9.95 -6.92 2.29
-9.95 -7.22 2.33
-9.79 -7.40 2.32
-9.64 -7.60 2.32
-9.72 -7.99 2.38
-9.60 -8.22 2.39
-9.44 -8.41 2.39
-9.27 -8.60 2.39
-9.10 -8.79 2.39
-8.92 -8.97 2.39
-8.74 -9.15 2.39
-8.55 -9.32 2.39
-8.37 -9.49 2.39
-8.17 -9.66 2.39
-7.98 -9.82 2.39
-6.24 -8.01 1.92
-7.58 -10.14 2.39
-7.38 -10.29 2.39
-7.17 -10.44 2.39
-6.96 -10.58 2.39
-6.75 -10.72 2.39
-6.53 -10.85 2.39
-6.31 -10.99 2.39
-6.09 -11.11 2.39
-5.98 -11.44 2.43
-5.89 -11.84 2.49
-5.65 -11.96 2.49
-5.41 -12.07 2.49
-5.17 -12.18 2.49
-4.92 -12.28 2.49
-4.68 -12.38 2.49
-4.43 -12.47 2.49
-4.18 -12.56 2.49
-3.92 -12.65 2.49
-3.67 -12.72 2.49
-3.41 -12.80 2.49
-3.16 -12.87 2.49
-2.90 -12.93 2.49
-2.64 -12.99 2.49
-2.38 -13.04 2.49
-2.12 -13.09 2.49
-1.85 -13.13 2.49
-1.59 -13.17 2.49
-1.33 -13.20 2.49
-1.06 -13.22 2.49
-0.79 -13.24 2.49
-0.53 -13.26 2.49
-0.26 -13.27 2.49
0.00 -11.80 2.49
0.24 -11.80 2.49
0.48 -11.80 2.49
0.71 -11.79 2.49
0.95 -11.77 2.49
1.19 -11.75 2.49
1.42 -11.73 2.49
1.66 -11.70 2.49
1.89 -11.67 2.49
2.07 -11.33 2.43
2.26 -11.11 2.39
2.49 -11.06 2.39
2.71 -11.01 2.39
2.93 -10.95 2.39
3.15 -10.89 2.39
3.37 -10.83 2.39
3.58 -10.76 2.39
3.80 -10.69 2.39
4.01 -10.61 2.39
4.23 -10.53 2.39
4.44 -10.45 2.39
4.65 -10.36 2.39
4.86 -10.26 2.39
5.06 -10.16 2.39
5.26 -10.06 2.39
5.47 -9.96 2.39
5.67 -9.85 2.39
5.86 -9.73 2.39
6.06 -9.61 2.39
6.12 -9.29 2.34
6.12 -8.90 2.27
6.09 -8.48 2.20
6.12 -8.17 2.15
6.12 -7.84 2.09
6.08 -7.48 2.03
6.12 -7.22 1.99
6.12 -6.93 1.94
6.08 -6.62 1.89
6.12 -6.40 1.86
6.12 -6.14 1.82
6.12 -5.90 1.79
6.08 -5.64 1.74
6.08 -5.41 1.71
6.11 -5.23 1.69
6.11 -5.02 1.66
6.11 -4.82 1.63
6.08 -4.60 1.60
6.09 -4.41 1.58
6.11 -4.25 1.56
6.11 -4.07 1.54
6.11 -3.89 1.52
6.08 -3.70 1.49
6.08 -3.54 1.48
6.08 -3.37 1.46
6.11 -3.23 1.45
6.11 -3.08 1.44
6.11 -2.93 1.42
6.11 -2.78 1.41
6.08 -2.62 1.39
6.08 -2.47 1.38
6.11 -2.34 1.37
6.11 -2.20 1.36
6.11 -2.07 1.35
6.11 -1.93 1.34
6.11 -1.80 1.34
6.08 -1.65 1.32
6.08 -1.52 1.31
6.07 -1.40 1.31
6.11 -1.27 1.31
6.11 -1.15 1.30
6.35 -1.06 1.35
11.14 -1.63 2.36
10.93 -1.38 2.31
10.63 -1.12 2.24
10.44 -0.89 2.20
10.16 -0.66 2.14
10.00 -0.45 2.10
9.80 -0.25 2.06
9.57 -0.05 2.01
9.44 0.14 1.98
9.26 0.33 1.94
9.03 0.50 1.90
8.86 0.67 1.86
6.53 0.62 1.38
6.21 0.72 1.31
6.19 0.84 1.31
10.07 1.58 2.14
10.33 1.83 2.20
10.40 2.06 2.22
10.28 2.25 2.21
10.17 2.44 2.19
10.05 2.63 2.18
10.00 2.83 2.18
9.96 3.04 2.19
9.93 3.25 2.19
9.89 3.46 2.20
9.86 3.67 2.21
9.83 3.88 2.22
9.80 4.10 2.23
9.76 4.32 2.24
9.73 4.54 2.25
9.68 4.76 2.26
9.62 4.97 2.27
9.56 5.18 2.28
9.49 5.39 2.29
9.42 5.61 2.30
9.35 5.82 2.31
9.27 6.04 2.32
9.19 6.25 2.34
9.10 6.46 2.35
9.01 6.67 2.36
8.92 6.89 2.37
8.84 7.11 2.38
8.75 7.33 2.40
8.63 7.53 2.41
8.47 7.70 2.41
8.32 7.87 2.41
8.16 8.03 2.41
7.99 8.19 2.41
7.83 8.35 2.41
7.66 8.50 2.41
7.48 8.65 2.41
7.31 8.80 2.41
3.51 4.41 1.19
3.37 4.41 1.17
3.27 4.45 1.16
3.18 4.53 1.17
3.12 4.64 1.18
3.12 4.85 1.21
4.82 7.82 1.93
5.76 9.78 2.39
5.56 9.89 2.39
5.36 10.00 2.39
5.16 10.11 2.39
4.95 10.21 2.39
4.75 10.30 2.39
4.54 10.39 2.39
4.33 10.48 2.39
4.12 10.56 2.39
3.90 10.64 2.39
3.69 10.72 2.39
3.47 10.79 2.39
2.57 8.55 1.88
3.04 10.92 2.39
2.82 10.97 2.39
2.60 11.03 2.39
2.48 11.55 2.49
2.24 11.60 2.49
2.01 11.64 2.49
1.77 11.67 2.49
1.54 11.70 2.49
1.30 11.73 2.49
1.07 11.75 2.49
0.83 11.77 2.49
0.60 11.78 2.49
0.36 11.79 2.49
0.12 11.79 2.49
-0.11 11.79 2.49
-0.35 11.79 2.49
-0.59 11.77 2.49
-0.82 11.76 2.49
-1.06 11.74 2.49
-1.29 11.71 2.49
-1.53 11.68 2.49
-1.76 11.65 2.49
-2.00 11.61 2.49
-2.23 11.56 2.49
-2.46 11.51 2.49
-2.69 11.46 2.49
-2.92 11.40 2.49
-3.15 11.34 2.49
-3.37 11.27 2.49
-3.60 11.20 2.49
-3.82 11.13 2.49
-4.04 11.05 2.49
-4.26 10.96 2.49
-4.48 10.87 2.49
-4.70 10.78 2.49
-4.91 10.68 2.49
-5.13 10.58 2.49
-5.34 10.47 2.49
-5.55 10.36 2.49
-5.75 10.25 2.49
-5.96 10.13 2.49
-6.10 9.90 2.47
-6.09 9.47 2.39
-6.28 9.34 2.39
-6.47 9.21 2.39
-6.65 9.08 2.39
-6.83 8.94 2.39
-7.01 8.80 2.39
-7.18 8.66 2.39
-7.35 8.51 2.39
-7.52 8.36 2.39
-7.69 8.21 2.39
-7.85 8.05 2.39
-8.01 7.89 2.39
-8.17 7.73 2.39
-8.32 7.56 2.39
-8.47 7.39 2.39
-8.61 7.22 2.39
-8.76 7.05 2.39
-8.89 6.87 2.39
-9.03 6.69 2.39
-9.16 6.51 2.39
-9.29 6.32 2.39
-9.38 6.11 2.38
-9.37 5.84 2.35
-9.52 5.67 2.36
-9.76 5.55 2.39
-9.87 5.35 2.39
-9.97 5.15 2.39
-9.97 4.90 2.37
-9.32 4.35 2.19
-9.16 4.05 2.13
-9.26 3.88 2.14
-9.29 3.67 2.13
-9.43 3.51 2.14
-9.97 3.49 2.25
-9.97 3.26 2.23
-9.97 3.04 2.22
-9.97 2.82 2.21
-9.97 2.61 2.19
-9.31 2.24 2.04
-9.25 2.03 2.02
-9.24 1.83 2.01
-9.30 1.65 2.01
-9.41 1.48 2.03
-9.97 1.36 2.14
-9.97 1.16 2.14
-9.97 0.95 2.13
-9.97 0.75 2.13
-9.97 0.55 2.13
-9.97 0.35 2.12
-9.57 0.14 2.04
-9.59 -0.05 2.04
-9.58 -0.24 2.04
-9.62 -0.44 2.05
-9.66 -0.63 2.06
-9.96 -0.85 2.13
-9.96 -1.05 2.13
-9.96 -1.26 2.14
-9.96 -1.46 2.14
-9.36 -1.57 2.02
-9.33 -1.75 2.02
-9.29 -1.94 2.02
-9.42 -2.17 2.06
-9.47 -2.38 2.08
-9.96 -2.71 2.20
-9.96 -2.93 2.21
-9.96 -3.15 2.22
-9.96 -3.37 2.24
-9.86 -3.56 2.23
-9.46 -3.63 2.16
-9.42 -3.83 2.16
-9.44 -4.07 2.19
-9.53 -4.33 2.23
-9.96 -4.77 2.35
-9.96 -5.02 2.37
-9.93 -5.26 2.39
-9.82 -5.46 2.39
-9.55 -5.56 2.35
-9.43 -5.74 2.35
-9.48 -6.04 2.39
-9.36 -6.23 2.39
-9.23 -6.42 2.39
-9.10 -6.60 2.39
-8.97 -6.78 2.39
-8.83 -6.96 2.39
-8.69 -7.14 2.39
-8.55 -7.31 2.39
-8.40 -7.48 2.39
-8.25 -7.65 2.39
-8.09 -7.82 2.39
-7.93 -7.98 2.39
-7.77 -8.14 2.39
-7.61 -8.29 2.39
-7.44 -8.44 2.39
-7.27 -8.59 2.39
-7.10 -8.74 2.39
-6.24 -8.01 2.16
-6.74 -9.02 2.39
-6.56 -9.15 2.39
-6.38 -9.28 2.39
-6.19 -9.41 2.39
-6.00 -9.54 2.39
-5.98 -9.93 2.46
-5.86 -10.19 2.49
-5.65 -10.31 2.49
-5.45 -10.42 2.49
-5.24 -10.53 2.49
-5.03 -10.64 2.49
-4.81 -10.74 2.49
-4.60 -10.83 2.49
-4.38 -10.93 2.49
-4.16 -11.01 2.49
-3.94 -11.10 2.49
-3.71 -11.17 2.49
-3.49 -11.25 2.49
-3.26 -11.32 2.49
-3.04 -11.38 2.49
-2.81 -11.44 2.49
-2.58 -11.50 2.49
-2.35 -11.55 2.49
-2.11 -11.60 2.49
-1.88 -11.64 2.49
-1.65 -11.68 2.49
-1.41 -11.71 2.49
-1.18 -11.74 2.49
-0.94 -11.76 2.49
-0.71 -11.78 2.49
-0.47 -11.79 2.49
-0.23 -11.80 2.49
0.00 -10.62 2.49
0.22 -10.62 2.49
0.43 -10.61 2.49
0.64 -10.60 2.49
0.86 -10.59 2.49
1.07 -10.57 2.49
1.28 -10.55 2.49
1.49 -10.52 2.49
1.70 -10.49 2.49
1.91 -10.46 2.49
2.07 -10.16 2.43
2.24 -9.94 2.39
2.44 -9.90 2.39
2.63 -9.85 2.39
2.83 -9.80 2.39
3.03 -9.74 2.39
3.22 -9.68 2.39
3.42 -9.61 2.39
3.61 -9.54 2.39
3.80 -9.47 2.39
3.99 -9.39 2.39
4.18 -9.31 2.39
4.37 -9.23 2.39
4.55 -9.14 2.39
4.73 -9.05 2.39
4.92 -8.95 2.39
5.09 -8.85 2.39
5.27 -8.75 2.39
5.45 -8.64 2.39
5.62 -8.53 2.39
5.79 -8.42 2.39
5.96 -8.30 2.39
6.12 -8.17 2.39
6.12 -7.84 2.33
6.08 -7.48 2.26
6.12 -7.22 2.21
6.12 -6.93 2.16
6.08 -6.62 2.10
6.12 -6.40 2.07
6.12 -6.14 2.03
6.12 -5.90 1.99
6.08 -5.64 1.94
6.08 -5.41 1.90
6.11 -5.23 1.88
6.11 -5.02 1.85
6.11 -4.82 1.82
6.08 -4.60 1.78
6.09 -4.41 1.76
6.11 -4.25 1.74
6.11 -4.07 1.71
6.11 -3.89 1.69
6.08 -3.70 1.66
6.08 -3.54 1.64
6.08 -3.37 1.62
6.11 -3.23 1.61
6.11 -3.08 1.60
6.11 -2.93 1.58
6.11 -2.78 1.57
6.08 -2.62 1.54
6.08 -2.47 1.53
6.11 -2.34 1.53
6.11 -2.20 1.52
6.11 -2.07 1.51
6.11 -1.93 1.50
6.11 -1.80 1.49
6.08 -1.65 1.47
6.08 -1.52 1.46
6.07 -1.40 1.45
6.11 -1.27 1.46
6.11 -1.15 1.45
6.35 -1.06 1.50
9.91 -1.45 2.34
9.94 -1.25 2.34
9.97 -1.05 2.34
10.00 -0.85 2.34
10.02 -0.65 2.34
10.00 -0.45 2.34
9.80 -0.25 2.29
9.57 -0.05 2.23
9.44 0.14 2.20
9.26 0.33 2.16
9.03 0.50 2.11
8.86 0.67 2.07
6.53 0.62 1.53
6.21 0.72 1.46
6.19 0.84 1.46
10.05 1.58 2.37
9.95 1.76 2.36
9.84 1.95 2.34
9.74 2.13 2.33
9.63 2.31 2.31
9.53 2.49 2.30
9.42 2.67 2.28
9.38 2.86 2.29
9.34 3.06 2.30
9.31 3.25 2.30
9.27 3.45 2.31
9.22 3.64 2.32
9.18 3.84 2.32
9.13 4.04 2.33
9.08 4.24 2.34
9.03 4.44 2.35
8.99 4.64 2.36
8.93 4.84 2.37
8.87 5.04 2.38
8.80 5.24 2.39
8.73 5.44 2.40
8.63 5.62 2.41
8.52 5.79 2.41
8.40 5.96 2.41
8.28 6.13 2.41
8.15 6.29 2.41
8.02 6.45 2.41
7.89 6.61 2.41
7.76 6.77 2.41
7.62 6.92 2.41
7.48 7.07 2.41
7.33 7.22 2.41
7.19 7.36 2.41
7.04 7.51 2.41
6.88 7.64 2.41
6.73 7.78 2.41
6.64 7.99 2.43
3.51 4.41 1.32
3.37 4.41 1.30
3.27 4.45 1.29
3.18 4.53 1.30
3.12 4.64 1.31
3.12 4.85 1.35
4.84 7.84 2.16
5.18 8.79 2.39
5.00 8.89 2.39
4.82 8.99 2.39
4.64 9.09 2.39
4.46 9.18 2.39
4.27 9.26 2.39
4.08 9.35 2.39
3.89 9.42 2.39
3.70 9.50 2.39
3.51 9.57 2.39
3.32 9.64 2.39
3.12 9.70 2.39
2.57 8.55 2.09
2.73 9.82 2.39
2.53 9.87 2.39
2.33 9.91 2.39
2.15 10.01 2.40
2.02 10.43 2.49
1.81 10.47 2.49
1.60 10.50 2.49
1.39 10.53 2.49
1.17 10.55 2.49
0.96 10.57 2.49
0.75 10.59 2.49
0.54 10.60 2.49
0.32 10.60 2.49
0.11 10.61 2.49
-0.10 10.61 2.49
-0.32 10.60 2.49
-0.53 10.59 2.49
-0.74 10.58 2.49
-0.95 10.56 2.49
-1.16 10.54 2.49
-1.38 10.51 2.49
-1.59 10.48 2.49
-1.80 10.44 2.49
-2.00 10.40 2.49
-2.21 10.36 2.49
-2.42 10.31 2.49
-2.63 10.26 2.49
-2.83 10.20 2.49
-3.03 10.14 2.49
-3.24 10.08 2.49
-3.44 10.01 2.49
-3.64 9.94 2.49
-3.84 9.86 2.49
-4.03 9.78 2.49
-4.23 9.70 2.49
-4.42 9.61 2.49
-4.61 9.52 2.49
-4.80 9.42 2.49
-4.99 9.32 2.49
-5.18 9.22 2.49
-5.36 9.11 2.49
-5.54 9.00 2.49
-5.72 8.89 2.49
-5.90 8.77 2.49
-6.02 8.58 2.47
-6.04 8.24 2.41
-6.15 8.05 2.39
-6.30 7.92 2.39
-6.46 7.79 2.39
-6.62 7.66 2.39
-6.77 7.53 2.39
-6.92 7.39 2.39
-7.06 7.25 2.39
-7.21 7.10 2.39
-7.35 6.96 2.39
-7.48 6.81 2.39
-7.62 6.65 2.39
-7.75 6.50 2.39
-7.88 6.34 2.39
-8.00 6.18 2.39
-8.07 5.98 2.37
-8.19 5.81 2.37
-8.30 5.65 2.37
-8.41 5.48 2.37
-8.52 5.31 2.37
-8.64 5.14 2.38
-8.79 5.00 2.39
-8.88 4.82 2.39
-8.98 4.64 2.39
-9.07 4.46 2.39
-9.16 4.27 2.39
-9.22 4.08 2.38
-9.31 3.90 2.39
-9.40 3.72 2.39
-9.47 3.53 2.39
-9.54 3.33 2.39
-9.60 3.14 2.39
-9.66 2.95 2.39
-9.72 2.75 2.39
-9.77 2.56 2.39
-9.82 2.36 2.39
-9.26 2.03 2.24
-9.30 1.84 2.24
-9.29 1.65 2.23
-9.40 1.48 2.25
-9.96 1.36 2.38
-9.97 1.16 2.37
-9.97 0.95 2.37
-9.97 0.75 2.37
-9.97 0.55 2.36
-9.97 0.35 2.36
-9.59 0.14 2.27
-9.54 -0.05 2.26
-9.57 -0.24 2.27
-9.53 -0.43 2.26
-9.66 -0.63 2.29
-9.96 -0.85 2.37
-9.96 -1.05 2.37
-9.96 -1.26 2.38
-9.96 -1.46 2.38
-9.55 -1.60 2.29
-9.32 -1.75 2.24
-9.29 -1.94 2.25
-9.34 -2.15 2.27
-9.47 -2.38 2.31
-9.75 -2.66 2.39
-9.69 -2.85 2.39
-9.64 -3.05 2.39
-9.57 -3.24 2.39
-9.51 -3.43 2.39
-9.44 -3.62 2.39
-9.36 -3.81 2.39
-9.28 -4.00 2.39
-9.20 -4.18 2.39
-9.12 -4.37 2.39
-9.03 -4.55 2.39
-8.94 -4.73 2.39
-8.84 -4.91 2.39
-8.74 -5.09 2.39
-4.14 -2.52 1.14
-4.09 -2.60 1.15
-4.04 -2.69 1.15
-3.98 -2.77 1.15
-3.93 -2.85 1.15
-3.87 -2.93 1.15
-3.81 -3.01 1.15
-7.82 -6.42 2.39
-7.69 -6.58 2.39
-7.56 -6.73 2.39
-7.42 -6.89 2.39
-7.28 -7.03 2.39
-7.14 -7.18 2.39
-6.99 -7.32 2.39
-6.85 -7.46 2.39
-6.70 -7.60 2.39
-6.54 -7.73 2.39
-6.39 -7.86 2.39
-6.23 -7.99 2.39
-6.07 -8.12 2.39
-5.98 -8.35 2.42
-5.98 -8.70 2.49
-5.81 -8.83 2.49
-5.63 -8.95 2.49
-5.45 -9.06 2.49
-5.27 -9.17 2.49
-5.09 -9.28 2.49
-4.90 -9.38 2.49
-4.71 -9.48 2.49
-4.52 -9.57 2.49
-4.33 -9.66 2.49
-4.13 -9.75 2.49
-3.94 -9.83 2.49
-3.74 -9.91 2.49
-3.54 -9.98 2.49
-3.34 -10.05 2.49
-3.14 -10.12 2.49
-2.93 -10.18 2.49
-2.73 -10.24 2.49
-2.52 -10.29 2.49
-2.32 -10.34 2.49
-2.11 -10.39 2.49
-1.90 -10.43 2.49
-1.69 -10.47 2.49
-1.48 -10.50 2.49
-1.27 -10.53 2.49
-1.06 -10.56 2.49
-0.85 -10.58 2.49
-0.63 -10.59 2.49
-0.42 -10.60 2.49
-0.21 -10.61 2.49
0.00 -9.64 2.49
0.20 -9.64 2.49
0.39 -9.63 2.49
0.58 -9.62 2.49
0.78 -9.61 2.49
0.97 -9.59 2.49
1.16 -9.57 2.49
1.35 -9.55 2.49
1.55 -9.52 2.49
1.74 -9.49 2.49
1.93 -9.45 2.49
2.07 -9.20 2.44
2.21 -8.98 2.39
2.39 -8.94 2.39
2.57 -8.89 2.39
2.75 -8.84 2.39
2.93 -8.78 2.39
3.10 -8.72 2.39
3.28 -8.66 2.39
3.45 -8.59 2.39
3.62 -8.52 2.39
3.79 -8.45 2.39
3.96 -8.37 2.39
4.13 -8.29 2.39
4.30 -8.21 2.39
4.46 -8.12 2.39
4.62 -8.03 2.39
4.78 -7.94 2.39
4.94 -7.84 2.39
5.10 -7.74 2.39
5.25 -7.64 2.39
5.41 -7.53 2.39
5.56 -7.42 2.39
5.71 -7.31 2.39
5.85 -7.20 2.39
6.00 -7.08 2.39
6.12 -6.93 2.38
6.08 -6.62 2.32
6.12 -6.40 2.28
6.12 -6.14 2.23
6.12 -5.90 2.19
6.08 -5.64 2.14
6.08 -5.41 2.10
6.11 -5.23 2.07
6.11 -5.02 2.04
6.11 -4.82 2.00
6.08 -4.59 1.96
6.09 -4.41 1.94
6.11 -4.25 1.92
6.11 -4.07 1.89
6.11 -3.89 1.87
6.08 -3.70 1.83
6.08 -3.54 1.81
6.08 -3.37 1.79
6.11 -3.23 1.78
6.11 -3.08 1.76
6.11 -2.93 1.74
6.11 -2.78 1.73
6.08 -2.61 1.70
6.08 -2.47 1.69
6.11 -2.34 1.68
6.11 -2.20 1.67
6.11 -2.07 1.66
6.11 -1.93 1.65
6.11 -1.80 1.64
6.08 -1.65 1.62
6.08 -1.52 1.61
6.07 -1.40 1.60
6.11 -1.27 1.61
6.11 -1.15 1.60
6.35 -1.06 1.66
9.04 -1.32 2.35
9.07 -1.14 2.35
9.09 -0.96 2.35
9.11 -0.78 2.35
9.13 -0.60 2.35
9.14 -0.41 2.35
9.16 -0.23 2.36
9.16 -0.05 2.36
9.42 0.14 2.42
9.26 0.33 2.38
9.03 0.50 2.33
8.86 0.67 2.29
6.53 0.62 1.69
6.21 0.72 1.61
6.19 0.84 1.61
9.26 1.45 2.41
9.23 1.64 2.41
9.19 1.82 2.41
9.15 2.00 2.41
9.11 2.19 2.41
9.05 2.37 2.41
8.95 2.53 2.39
8.85 2.70 2.38
8.82 2.88 2.39
8.78 3.07 2.39
8.74 3.25 2.40
8.70 3.44 2.41
8.63 3.61 2.41
8.55 3.78 2.41
8.47 3.95 2.41
8.39 4.12 2.41
8.31 4.29 2.41
8.22 4.45 2.41
8.13 4.62 2.41
8.03 4.78 2.41
7.93 4.94 2.41
7.83 5.10 2.41
7.73 5.25 2.41
7.62 5.41 2.41
7.51 5.56 2.41
7.40 5.71 2.41
7.28 5.85 2.41
7.16 6.00 2.41
7.04 6.14 2.41
6.91 6.28 2.41
6.78 6.42 2.41
6.67 6.56 2.41
6.62 6.78 2.44
6.57 7.01 2.48
6.52 7.24 2.51
6.46 7.48 2.55
5.92 7.13 2.39
3.51 4.41 1.45
3.37 4.41 1.43
3.27 4.45 1.43
3.18 4.53 1.43
3.12 4.63 1.44
3.12 4.84 1.49
4.86 7.88 2.39
4.70 7.98 2.39
4.54 8.07 2.39
4.38 8.16 2.39
4.21 8.25 2.39
4.04 8.33 2.39
3.88 8.41 2.39
3.71 8.48 2.39
3.53 8.55 2.39
3.36 8.62 2.39
3.19 8.69 2.39
3.01 8.75 2.39
2.84 8.80 2.39
2.57 8.55 2.31
2.48 8.91 2.39
2.30 8.96 2.39
2.12 9.00 2.39
2.02 9.43 2.49
1.83 9.47 2.49
1.64 9.50 2.49
1.45 9.53 2.49
1.26 9.55 2.49
1.07 9.58 2.49
0.87 9.59 2.49
0.68 9.61 2.49
0.49 9.62 2.49
0.29 9.63 2.49
0.10 9.63 2.49
-0.09 9.63 2.49
-0.29 9.62 2.49
-0.48 9.61 2.49
-0.67 9.60 2.49
