ply
format ascii 1.0
element vertex 2965
property float32 x
property float32 y
property float32 z
end_header
-9.89 6.16 1.91
-9.89 5.88 1.88
-9.88 5.61 1.86
-9.88 5.35 1.84
-9.88 5.10 1.82
-9.87 4.85 1.80
-9.87 4.60 1.78
-9.87 4.36 1.76
-9.87 4.13 1.75
-9.86 3.89 1.73
-9.86 3.67 1.72
-9.86 3.44 1.70
-9.85 3.22 1.69
-9.78 2.98 1.67
-9.85 2.79 1.67
-9.85 2.57 1.66
-9.84 2.36 1.65
-9.84 2.15 1.64
-9.84 1.95 1.63
-9.84 1.74 1.63
-9.83 1.54 1.62
-9.83 1.34 1.62
-9.83 1.14 1.61
-9.83 0.94 1.61
-9.82 0.74 1.60
-9.82 0.54 1.60
-9.82 0.34 1.60
-9.82 0.15 1.60
-9.81 -0.05 1.60
-9.81 -0.25 1.60
-9.81 -0.44 1.60
-9.81 -0.64 1.60
-9.81 -0.84 1.60
-9.74 -1.03 1.59
-9.80 -1.24 1.61
-9.80 -1.44 1.61
-9.80 -1.64 1.61
-9.79 -1.84 1.62
-9.79 -2.04 1.63
-9.79 -2.25 1.63
-6.47 -1.63 1.08
-9.78 -2.67 1.65
-9.78 -2.88 1.66
-9.78 -3.09 1.67
-9.78 -3.31 1.68
-9.77 -3.53 1.69
-9.77 -3.75 1.70
-9.77 -3.97 1.71
-9.76 -4.20 1.73
-9.76 -4.44 1.74
-9.76 -4.67 1.76
-9.75 -5.16 1.79
-9.75 -5.41 1.81
-9.75 -5.67 1.83
-9.74 -5.93 1.85
-9.74 -6.20 1.88
-9.74 -6.48 1.90
-9.73 -6.76 1.93
-9.73 -7.05 1.95
-9.73 -7.35 1.98
-9.72 -7.66 2.01
-9.72 -7.98 2.04
-9.71 -8.31 2.08
-9.71 -8.65 2.11
-9.65 -8.95 2.14
-9.64 -9.31 2.18
-9.73 -11.03 2.39
-9.50 -11.22 2.39
-9.28 -11.41 2.39
-9.04 -11.59 2.39
-8.81 -11.77 2.39
-8.57 -11.94 2.39
-8.33 -12.11 2.39
-8.08 -12.27 2.39
-7.83 -12.43 2.39
-7.58 -12.58 2.39
-7.33 -12.73 2.39
-7.07 -12.87 2.39
-6.81 -13.01 2.39
-6.54 -13.14 2.39
-6.28 -13.27 2.39
-6.01 -13.39 2.39
-5.84 -13.76 2.44
-5.70 -14.20 2.49
-5.41 -14.31 2.49
-5.12 -14.41 2.49
-4.83 -14.51 2.49
-4.54 -14.60 2.49
-4.24 -14.69 2.49
-3.95 -14.77 2.49
-3.65 -14.84 2.49
-3.35 -14.91 2.49
-3.05 -14.97 2.49
-2.75 -15.02 2.49
-2.45 -15.07 2.49
-2.14 -15.11 2.49
-1.84 -15.15 2.49
-1.53 -15.18 2.49
-1.23 -15.20 2.49
-0.92 -15.22 2.49
-0.62 -15.23 2.49
-0.31 -15.24 2.49
-0.01 -13.35 2.49
0.26 -13.34 2.49
0.53 -13.33 2.49
0.80 -13.31 2.49
1.06 -13.29 2.49
1.33 -13.26 2.49
1.60 -13.23 2.49
1.86 -13.19 2.49
2.12 -13.15 2.49
2.39 -13.10 2.49
2.65 -13.05 2.49
2.79 -12.45 2.39
3.04 -12.39 2.39
3.29 -12.33 2.39
3.53 -12.25 2.39
3.78 -12.18 2.39
4.02 -12.10 2.39
2.77 -7.80 1.55
4.50 -11.92 2.39
4.74 -11.82 2.39
4.97 -11.72 2.39
5.20 -11.62 2.39
5.43 -11.51 2.39
5.66 -11.39 2.39
5.89 -11.27 2.39
6.11 -11.15 2.39
6.38 -11.10 2.41
6.60 -10.96 2.41
6.81 -10.83 2.41
7.03 -10.69 2.41
7.24 -10.54 2.41
7.45 -10.39 2.41
7.65 -10.24 2.41
7.85 -10.08 2.41
8.05 -9.92 2.41
8.25 -9.75 2.41
8.44 -9.58 2.41
8.63 -9.41 2.41
8.77 -9.19 2.40
8.88 -8.93 2.38
8.98 -8.68 2.36
9.08 -8.43 2.34
9.18 -8.18 2.32
9.27 -7.94 2.30
9.36 -7.70 2.29
9.45 -7.46 2.27
9.54 -7.22 2.26
9.62 -6.98 2.25
9.70 -6.75 2.23
9.78 -6.51 2.22
9.85 -6.28 2.21
9.91 -6.04 2.20
9.98 -5.81 2.19
10.06 -5.59 2.18
10.13 -5.37 2.17
10.20 -5.14 2.16
10.27 -4.92 2.16
10.33 -4.70 2.15
10.40 -4.48 2.14
10.45 -4.26 2.14
10.51 -4.04 2.13
10.56 -3.81 2.13
10.63 -3.60 2.13
10.62 -3.36 2.11
10.28 -3.03 2.03
9.96 -2.72 1.96
10.03 -2.52 1.96
10.21 -2.35 1.99
10.39 -2.17 2.01
10.56 -1.99 2.04
10.75 -1.80 2.07
10.94 -1.61 2.10
11.13 -1.41 2.13
11.33 -1.20 2.16
11.54 -0.99 2.20
11.75 -0.77 2.24
11.61 -0.53 2.21
11.61 -0.29 2.21
11.61 -0.06 2.21
11.60 0.17 2.20
11.59 0.41 2.20
11.57 0.64 2.20
11.55 0.87 2.20
11.53 1.10 2.20
11.50 1.33 2.20
6.94 0.95 1.33
6.91 1.08 1.33
6.84 1.21 1.32
6.80 1.35 1.32
6.77 1.48 1.32
6.76 1.63 1.32
6.73 1.76 1.32
6.69 1.90 1.32
6.66 2.03 1.32
6.62 2.17 1.33
6.59 2.30 1.33
6.52 2.43 1.32
6.48 2.56 1.33
6.45 2.70 1.33
6.44 2.85 1.34
6.41 2.99 1.35
6.38 3.14 1.35
6.38 3.30 1.37
6.35 3.44 1.37
6.34 3.61 1.39
6.38 3.80 1.41
6.37 3.97 1.43
6.37 4.15 1.45
6.37 4.33 1.47
6.33 4.50 1.48
6.33 4.69 1.50
6.36 4.91 1.53
6.35 5.11 1.55
6.35 5.32 1.58
6.32 5.51 1.60
6.35 5.77 1.63
6.35 6.01 1.66
6.34 6.25 1.69
6.31 6.47 1.72
6.30 6.73 1.75
6.34 7.04 1.80
8.28 9.58 2.41
8.08 9.75 2.41
7.89 9.91 2.41
7.69 10.06 2.41
7.48 10.22 2.41
7.28 10.37 2.41
7.07 10.51 2.41
6.86 10.65 2.41
6.64 10.79 2.41
6.43 10.92 2.41
6.21 11.05 2.41
5.98 11.17 2.41
5.72 11.22 2.39
5.49 11.33 2.39
5.27 11.44 2.39
5.04 11.55 2.39
4.80 11.65 2.39
4.57 11.75 2.39
4.33 11.84 2.39
4.10 11.92 2.39
3.86 12.01 2.39
3.62 12.08 2.39
3.37 12.15 2.39
2.97 11.60 2.27
2.84 12.08 2.35
2.59 12.14 2.35
2.31 11.97 2.31
2.14 12.44 2.39
1.89 12.49 2.39
1.71 13.06 2.49
1.45 13.10 2.49
1.18 13.13 2.49
0.92 13.15 2.49
0.66 13.17 2.49
0.39 13.18 2.49
0.13 13.19 2.49
-0.14 13.19 2.49
-0.40 13.19 2.49
-0.67 13.18 2.49
-0.93 13.17 2.49
-1.20 13.15 2.49
-1.46 13.13 2.49
-1.72 13.10 2.49
-1.99 13.07 2.49
-2.25 13.03 2.49
-2.51 12.98 2.49
-2.77 12.93 2.49
-3.03 12.88 2.49
-3.29 12.82 2.49
-3.55 12.75 2.49
-3.80 12.68 2.49
-4.06 12.60 2.49
-4.31 12.52 2.49
-4.56 12.44 2.49
-4.81 12.35 2.49
-5.06 12.25 2.49
-5.31 12.15 2.49
-5.55 12.04 2.49
-5.79 11.93 2.49
-6.03 11.82 2.49
-6.16 11.49 2.45
-6.24 11.09 2.39
-6.46 10.97 2.39
-6.68 10.84 2.39
-6.90 10.70 2.39
-7.11 10.57 2.39
-7.33 10.42 2.39
-7.54 10.28 2.39
-7.74 10.13 2.39
-7.95 9.97 2.39
-8.15 9.81 2.39
-8.34 9.65 2.39
-8.54 9.48 2.39
-8.73 9.31 2.39
-8.92 9.14 2.39
-9.10 8.96 2.39
-9.28 8.77 2.39
-9.46 8.59 2.39
-9.63 8.40 2.39
-9.80 8.21 2.39
-9.96 8.01 2.39
-10.12 7.81 2.39
-9.83 6.97 2.25
-9.84 6.40 2.19
-9.83 6.12 2.16
-9.84 5.85 2.14
-9.87 5.61 2.12
-9.88 5.35 2.10
-9.88 5.10 2.07
-9.87 4.85 2.05
-9.87 4.60 2.03
-9.87 4.36 2.01
-9.87 4.13 1.99
-9.86 3.89 1.98
-9.86 3.67 1.96
-9.86 3.44 1.95
-9.85 3.22 1.93
-9.78 2.98 1.90
-9.85 2.79 1.91
-9.85 2.57 1.90
-9.84 2.36 1.89
-9.84 2.15 1.88
-9.84 1.95 1.87
-9.84 1.74 1.86
-9.83 1.54 1.85
-9.83 1.34 1.85
-9.83 1.14 1.84
-9.83 0.94 1.84
-9.82 0.74 1.83
-9.82 0.54 1.83
-9.82 0.34 1.83
-9.82 0.15 1.83
-9.81 -0.05 1.82
-9.81 -0.25 1.82
-9.81 -0.45 1.83
-9.81 -0.64 1.83
-9.81 -0.84 1.83
-9.74 -1.03 1.82
-9.80 -1.24 1.84
-9.80 -1.44 1.84
-9.80 -1.64 1.84
-9.79 -1.84 1.85
-9.79 -2.04 1.86
-9.79 -2.25 1.87
-6.47 -1.63 1.24
-9.78 -2.67 1.88
-9.78 -2.88 1.89
-9.78 -3.09 1.90
-9.78 -3.31 1.92
-9.77 -3.53 1.93
-9.77 -3.75 1.94
-9.77 -3.97 1.96
-9.76 -4.20 1.97
-9.76 -4.44 1.99
-9.76 -4.67 2.01
-9.75 -5.16 2.05
-9.75 -5.41 2.07
-9.75 -5.67 2.09
-9.74 -5.93 2.12
-9.70 -6.18 2.14
-9.68 -6.44 2.16
-9.68 -6.72 2.19
-9.79 -8.37 2.39
-9.62 -8.56 2.39
-9.44 -8.75 2.39
-9.26 -8.94 2.39
-9.08 -9.12 2.39
-8.90 -9.30 2.39
-8.71 -9.48 2.39
-8.51 -9.65 2.39
-8.32 -9.82 2.39
-8.12 -9.98 2.39
-7.92 -10.14 2.39
-7.71 -10.30 2.39
-7.50 -10.45 2.39
-7.29 -10.60 2.39
-7.07 -10.74 2.39
-6.86 -10.88 2.39
-6.63 -11.01 2.39
-6.41 -11.14 2.39
-6.19 -11.27 2.39
-5.96 -11.39 2.39
-5.87 -11.79 2.45
-5.73 -12.11 2.49
-5.49 -12.23 2.49
-5.24 -12.33 2.49
-4.99 -12.43 2.49
-4.74 -12.53 2.49
-4.49 -12.62 2.49
-4.23 -12.70 2.49
-3.97 -12.78 2.49
-3.72 -12.86 2.49
-3.46 -12.93 2.49
-3.20 -12.99 2.49
-2.93 -13.05 2.49
-2.67 -13.10 2.49
-2.41 -13.15 2.49
-2.14 -13.20 2.49
-1.88 -13.23 2.49
-1.61 -13.27 2.49
-1.34 -13.29 2.49
-1.08 -13.31 2.49
-0.81 -13.33 2.49
-0.54 -13.34 2.49
-0.27 -13.35 2.49
-0.01 -11.86 2.49
0.23 -11.86 2.49
0.47 -11.85 2.49
0.71 -11.83 2.49
0.95 -11.81 2.49
1.18 -11.79 2.49
1.42 -11.76 2.49
1.65 -11.73 2.49
1.89 -11.69 2.49
2.12 -11.65 2.49
2.26 -11.12 2.39
2.48 -11.07 2.39
2.70 -11.02 2.39
2.92 -10.96 2.39
3.14 -10.89 2.39
3.36 -10.83 2.39
3.57 -10.75 2.39
2.77 -7.80 1.75
4.00 -10.60 2.39
4.21 -10.51 2.39
4.42 -10.42 2.39
4.63 -10.33 2.39
4.83 -10.23 2.39
5.04 -10.13 2.39
5.24 -10.03 2.39
5.44 -9.92 2.39
5.63 -9.80 2.39
5.83 -9.69 2.39
6.02 -9.57 2.39
6.25 -9.50 2.41
6.44 -9.37 2.41
6.62 -9.24 2.41
6.81 -9.10 2.41
6.99 -8.96 2.41
7.16 -8.82 2.41
7.34 -8.67 2.41
7.51 -8.52 2.41
7.68 -8.37 2.41
7.84 -8.21 2.41
8.00 -8.05 2.41
8.16 -7.89 2.41
8.31 -7.72 2.41
8.47 -7.55 2.41
8.61 -7.37 2.41
8.73 -7.18 2.40
8.82 -6.95 2.38
8.90 -6.73 2.37
8.98 -6.51 2.36
9.05 -6.30 2.34
9.13 -6.08 2.33
9.20 -5.86 2.32
9.27 -5.65 2.31
9.35 -5.45 2.30
9.42 -5.24 2.29
9.49 -5.03 2.29
9.55 -4.82 2.28
9.61 -4.61 2.27
9.66 -4.40 2.26
9.71 -4.19 2.25
9.76 -3.98 2.24
9.82 -3.77 2.24
9.89 -3.57 2.24
9.95 -3.37 2.24
10.02 -3.17 2.24
10.08 -2.97 2.24
9.96 -2.72 2.20
10.04 -2.52 2.21
10.21 -2.35 2.23
10.31 -2.15 2.25
10.29 -1.94 2.23
10.32 -1.73 2.23
10.34 -1.52 2.23
10.36 -1.31 2.23
10.38 -1.10 2.23
10.40 -0.89 2.23
10.41 -0.68 2.23
10.41 -0.47 2.22
10.41 -0.26 2.22
10.41 -0.05 2.22
10.41 0.15 2.22
10.40 0.36 2.22
10.38 0.57 2.22
10.37 0.78 2.22
10.35 0.99 2.22
10.32 1.19 2.22
6.94 0.95 1.50
6.91 1.08 1.49
6.84 1.21 1.48
6.80 1.35 1.48
6.77 1.48 1.48
6.76 1.62 1.49
6.73 1.76 1.49
6.69 1.90 1.49
6.66 2.03 1.49
6.62 2.17 1.49
6.59 2.30 1.49
6.52 2.43 1.49
6.48 2.56 1.49
6.45 2.70 1.49
6.44 2.85 1.51
6.41 2.99 1.51
6.38 3.14 1.52
6.38 3.30 1.54
6.35 3.44 1.54
6.34 3.61 1.56
6.38 3.80 1.59
6.37 3.97 1.60
6.37 4.15 1.62
6.37 4.33 1.65
6.33 4.50 1.66
6.33 4.69 1.68
6.36 4.91 1.72
6.35 5.11 1.74
6.35 5.32 1.77
6.32 5.51 1.79
6.35 5.77 1.83
6.35 6.01 1.87
6.34 6.25 1.90
6.31 6.47 1.93
6.30 6.73 1.97
6.34 7.04 2.02
7.37 8.53 2.41
7.20 8.68 2.41
7.02 8.82 2.41
6.84 8.96 2.41
6.66 9.10 2.41
6.48 9.23 2.41
6.29 9.36 2.41
6.10 9.48 2.41
5.87 9.54 2.39
5.68 9.66 2.39
5.49 9.77 2.39
5.29 9.88 2.39
5.09 9.99 2.39
4.89 10.09 2.39
4.69 10.19 2.39
4.48 10.28 2.39
4.28 10.37 2.39
4.07 10.45 2.39
3.86 10.54 2.39
3.65 10.61 2.39
3.43 10.69 2.39
3.22 10.75 2.39
2.85 10.27 2.27
2.74 10.70 2.35
2.44 10.38 2.27
2.32 10.86 2.36
2.13 11.03 2.39
1.90 11.07 2.39
1.75 11.59 2.49
1.52 11.63 2.49
1.29 11.66 2.49
1.05 11.68 2.49
0.82 11.70 2.49
0.58 11.72 2.49
0.35 11.73 2.49
0.11 11.74 2.49
-0.12 11.74 2.49
-0.36 11.74 2.49
-0.59 11.73 2.49
-0.83 11.72 2.49
-1.07 11.70 2.49
-1.30 11.68 2.49
-1.53 11.65 2.49
-1.77 11.62 2.49
-2.00 11.59 2.49
-2.23 11.55 2.49
-2.47 11.50 2.49
-2.70 11.45 2.49
-2.93 11.40 2.49
-3.16 11.34 2.49
-3.38 11.28 2.49
-3.61 11.21 2.49
-3.84 11.14 2.49
-4.06 11.06 2.49
-4.28 10.98 2.49
-4.50 10.89 2.49
-4.72 10.80 2.49
-4.94 10.71 2.49
-5.15 10.61 2.49
-5.37 10.51 2.49
-5.58 10.40 2.49
-5.79 10.29 2.49
-5.99 10.17 2.49
-6.14 9.97 2.47
-6.15 9.54 2.40
-6.35 9.43 2.40
-6.51 9.27 2.39
-6.70 9.14 2.39
-6.88 9.00 2.39
-7.07 8.86 2.39
-7.24 8.72 2.39
-7.42 8.58 2.39
-7.59 8.43 2.39
-7.76 8.28 2.39
-7.93 8.12 2.39
-8.09 7.96 2.39
-8.25 7.80 2.39
-8.41 7.63 2.39
-8.56 7.46 2.39
-8.71 7.29 2.39
-8.86 7.12 2.39
-9.00 6.94 2.39
-9.14 6.76 2.39
-9.27 6.58 2.39
-9.41 6.39 2.39
-9.53 6.20 2.39
-9.66 6.01 2.39
-9.78 5.82 2.39
-9.90 5.62 2.39
-10.01 5.42 2.39
-9.84 3.89 2.22
-9.80 3.65 2.19
-9.80 3.42 2.18
-9.80 3.20 2.16
-9.78 2.98 2.14
-9.81 2.77 2.14
-9.82 2.57 2.13
-9.83 2.36 2.12
-9.84 2.15 2.11
-9.84 1.95 2.10
-9.84 1.74 2.09
-9.83 1.54 2.09
-9.83 1.34 2.08
-9.83 1.14 2.07
-9.83 0.94 2.07
-9.82 0.74 2.06
-9.82 0.54 2.06
-9.82 0.34 2.06
-9.82 0.15 2.06
-9.81 -0.05 2.05
-9.81 -0.25 2.05
-9.81 -0.45 2.05
-9.81 -0.64 2.06
-9.81 -0.84 2.06
-9.74 -1.03 2.05
-9.80 -1.24 2.07
-9.80 -1.44 2.07
-9.80 -1.64 2.08
-9.79 -1.84 2.08
-9.79 -2.04 2.09
-9.79 -2.25 2.10
-6.45 -1.62 1.39
-9.77 -2.66 2.12
-9.76 -2.87 2.13
-9.74 -3.08 2.14
-9.72 -3.29 2.15
-9.72 -3.51 2.16
-9.71 -3.73 2.17
-9.71 -3.95 2.19
-9.74 -4.19 2.22
-9.89 -5.75 2.39
-9.77 -5.95 2.39
-9.65 -6.14 2.39
-9.52 -6.34 2.39
-9.39 -6.53 2.39
-9.26 -6.71 2.39
-9.12 -6.90 2.39
-8.98 -7.08 2.39
-8.84 -7.26 2.39
-8.69 -7.43 2.39
-8.54 -7.61 2.39
-8.39 -7.77 2.39
-8.23 -7.94 2.39
-8.07 -8.10 2.39
-7.90 -8.26 2.39
-7.73 -8.42 2.39
-7.56 -8.57 2.39
-7.39 -8.72 2.39
-7.21 -8.87 2.39
-7.03 -9.01 2.39
-6.85 -9.15 2.39
-6.66 -9.28 2.39
-6.47 -9.41 2.39
-6.28 -9.54 2.39
-6.10 -9.69 2.40
-5.90 -9.80 2.39
-5.89 -10.23 2.47
-5.73 -10.44 2.49
-5.52 -10.55 2.49
-5.31 -10.66 2.49
-5.09 -10.76 2.49
-4.87 -10.86 2.49
-4.65 -10.95 2.49
-4.43 -11.04 2.49
-4.21 -11.13 2.49
-3.99 -11.21 2.49
-3.76 -11.29 2.49
-3.53 -11.36 2.49
-3.30 -11.42 2.49
-3.07 -11.49 2.49
-2.84 -11.54 2.49
-2.61 -11.60 2.49
-2.37 -11.64 2.49
-2.14 -11.69 2.49
-1.90 -11.73 2.49
-1.67 -11.76 2.49
-1.43 -11.79 2.49
-1.19 -11.81 2.49
-0.96 -11.83 2.49
-0.72 -11.85 2.49
-0.48 -11.86 2.49
-0.24 -11.86 2.49
-0.01 -10.66 2.49
0.21 -10.66 2.49
0.42 -10.65 2.49
0.64 -10.64 2.49
0.85 -10.62 2.49
1.06 -10.60 2.49
1.27 -10.57 2.49
1.49 -10.54 2.49
1.70 -10.51 2.49
1.91 -10.47 2.49
2.12 -10.43 2.49
2.23 -9.95 2.39
2.43 -9.91 2.39
2.63 -9.85 2.39
2.82 -9.80 2.39
3.02 -9.74 2.39
3.21 -9.67 2.39
2.77 -7.80 1.94
3.60 -9.53 2.39
3.79 -9.45 2.39
3.97 -9.37 2.39
4.16 -9.29 2.39
4.35 -9.20 2.39
4.53 -9.11 2.39
4.71 -9.02 2.39
4.89 -8.92 2.39
5.07 -8.82 2.39
5.24 -8.71 2.39
5.41 -8.60 2.39
5.58 -8.49 2.39
5.75 -8.38 2.39
5.92 -8.26 2.39
6.08 -8.14 2.39
6.28 -8.06 2.41
6.44 -7.93 2.41
6.60 -7.80 2.41
6.75 -7.67 2.41
6.90 -7.53 2.41
7.05 -7.39 2.41
7.20 -7.24 2.41
7.34 -7.09 2.41
7.48 -6.94 2.41
7.62 -6.79 2.41
7.75 -6.64 2.41
7.88 -6.48 2.41
8.01 -6.32 2.41
8.13 -6.15 2.41
8.25 -5.99 2.41
8.37 -5.82 2.41
8.48 -5.65 2.41
8.59 -5.48 2.41
8.69 -5.30 2.40
8.75 -5.10 2.39
8.82 -4.90 2.38
8.88 -4.70 2.37
8.93 -4.51 2.37
8.99 -4.31 2.36
9.04 -4.11 2.35
9.09 -3.92 2.34
9.16 -3.73 2.34
9.22 -3.54 2.34
9.29 -3.36 2.34
9.04 -3.06 2.26
9.09 -2.88 2.26
9.14 -2.69 2.25
9.18 -2.50 2.25
9.22 -2.32 2.25
9.26 -2.13 2.25
9.29 -1.94 2.25
9.32 -1.75 2.25
9.34 -1.56 2.24
9.37 -1.38 2.24
9.39 -1.19 2.24
9.40 -1.00 2.24
9.42 -0.81 2.24
9.43 -0.62 2.24
9.43 -0.43 2.24
9.44 -0.24 2.24
9.43 -0.05 2.24
9.43 0.14 2.24
9.42 0.33 2.24
9.41 0.52 2.24
9.40 0.71 2.24
9.38 0.89 2.23
9.35 1.08 2.23
6.94 0.95 1.66
6.91 1.08 1.66
6.84 1.21 1.65
6.80 1.35 1.65
6.77 1.48 1.64
6.76 1.62 1.65
6.73 1.76 1.65
6.69 1.90 1.65
6.66 2.03 1.65
6.62 2.17 1.65
6.59 2.30 1.66
6.52 2.43 1.65
6.48 2.56 1.65
6.45 2.70 1.66
6.44 2.85 1.67
6.41 2.99 1.68
6.38 3.14 1.69
6.38 3.30 1.71
6.35 3.44 1.71
6.34 3.61 1.73
6.38 3.80 1.76
6.37 3.97 1.78
6.37 4.15 1.80
6.37 4.33 1.83
6.33 4.50 1.84
6.33 4.69 1.87
6.36 4.91 1.91
6.35 5.11 1.94
6.35 5.32 1.97
6.32 5.51 1.99
6.35 5.77 2.04
6.35 6.01 2.07
6.34 6.25 2.11
6.31 6.47 2.14
6.30 6.73 2.19
6.34 7.04 2.25
6.63 7.68 2.41
6.48 7.81 2.41
6.32 7.94 2.41
6.16 8.07 2.41
6.00 8.19 2.41
5.79 8.25 2.39
5.63 8.37 2.39
5.46 8.48 2.39
5.29 8.59 2.39
5.11 8.69 2.39
4.94 8.80 2.39
4.76 8.90 2.39
4.58 8.99 2.39
4.40 9.08 2.39
4.22 9.17 2.39
4.03 9.25 2.39
3.85 9.33 2.39
3.66 9.41 2.39
3.47 9.48 2.39
3.28 9.55 2.39
2.94 9.14 2.27
2.85 9.52 2.35
2.65 9.56 2.35
2.38 9.29 2.27
2.31 9.84 2.39
2.11 9.89 2.39
1.91 9.93 2.39
1.79 10.40 2.49
1.58 10.43 2.49
1.37 10.46 2.49
1.16 10.49 2.49
0.95 10.51 2.49
0.74 10.53 2.49
0.52 10.55 2.49
0.31 10.56 2.49
0.10 10.56 2.49
-0.11 10.56 2.49
-0.32 10.56 2.49
-0.54 10.55 2.49
-0.75 10.54 2.49
-0.96 10.53 2.49
-1.17 10.51 2.49
-1.38 10.49 2.49
-1.59 10.46 2.49
-1.80 10.43 2.49
-2.01 10.39 2.49
-2.22 10.35 2.49
-2.43 10.30 2.49
-2.63 10.26 2.49
-2.84 10.20 2.49
-3.05 10.15 2.49
-3.25 10.08 2.49
-3.45 10.02 2.49
-3.65 9.95 2.49
-3.85 9.88 2.49
-4.05 9.80 2.49
-4.25 9.72 2.49
-4.44 9.63 2.49
-4.64 9.54 2.49
-4.83 9.45 2.49
-5.02 9.35 2.49
-5.20 9.25 2.49
-5.39 9.15 2.49
-5.57 9.04 2.49
-5.76 8.93 2.49
-5.93 8.81 2.49
-6.11 8.69 2.49
-6.13 8.35 2.43
-6.19 8.09 2.39
-6.35 7.97 2.39
-6.51 7.84 2.39
-6.67 7.71 2.39
-6.83 7.58 2.39
-6.98 7.44 2.39
-7.13 7.30 2.39
-7.27 7.16 2.39
-7.42 7.01 2.39
-7.56 6.86 2.39
-7.70 6.71 2.39
-7.83 6.56 2.39
-7.96 6.40 2.39
-8.09 6.24 2.39
-8.22 6.08 2.39
-8.34 5.91 2.39
-8.46 5.74 2.39
-8.57 5.57 2.39
-8.68 5.40 2.39
-8.79 5.23 2.39
-8.90 5.05 2.39
-9.00 4.87 2.39
-9.09 4.69 2.39
-9.19 4.51 2.39
-9.28 4.32 2.39
-9.36 4.14 2.39
-9.45 3.95 2.39
-9.53 3.76 2.39
-9.60 3.57 2.39
-9.67 3.38 2.39
-9.74 3.18 2.39
-9.80 2.99 2.39
-9.86 2.79 2.39
-9.92 2.59 2.39
-9.97 2.39 2.39
-10.02 2.19 2.39
-10.06 1.99 2.39
-9.74 -1.03 2.28
-6.45 -1.62 1.55
-9.91 -2.70 2.39
-9.86 -2.90 2.39
-9.80 -3.10 2.39
-9.73 -3.29 2.39
-9.67 -3.49 2.39
-9.59 -3.68 2.39
-9.52 -3.87 2.39
-9.44 -4.06 2.39
-9.36 -4.25 2.39
-9.27 -4.44 2.39
-9.18 -4.62 2.39
-9.08 -4.81 2.39
-8.99 -4.99 2.39
-8.88 -5.17 2.39
-8.78 -5.35 2.39
-8.67 -5.52 2.39
-8.56 -5.69 2.39
-8.44 -5.86 2.39
-8.32 -6.03 2.39
-8.20 -6.20 2.39
-8.07 -6.36 2.39
-7.94 -6.52 2.39
-7.81 -6.68 2.39
-7.67 -6.83 2.39
-7.53 -6.99 2.39
-7.39 -7.13 2.39
-7.25 -7.28 2.39
-7.10 -7.42 2.39
-6.95 -7.56 2.39
-6.79 -7.70 2.39
-6.64 -7.84 2.39
-6.48 -7.97 2.39
-6.32 -8.10 2.39
-6.15 -8.22 2.39
-5.99 -8.34 2.39
-5.91 -8.59 2.43
-5.89 -8.94 2.49
-5.71 -9.06 2.49
-5.52 -9.17 2.49
-5.34 -9.28 2.49
-5.15 -9.38 2.49
-4.96 -9.48 2.49
-4.77 -9.58 2.49
-4.58 -9.67 2.49
-4.38 -9.76 2.49
-4.18 -9.84 2.49
-3.98 -9.92 2.49
-3.78 -10.00 2.49
-3.58 -10.07 2.49
-3.38 -10.14 2.49
-3.17 -10.21 2.49
-2.97 -10.27 2.49
-2.76 -10.32 2.49
-2.55 -10.37 2.49
-2.34 -10.42 2.49
-2.13 -10.47 2.49
-1.92 -10.50 2.49
-1.71 -10.54 2.49
-1.50 -10.57 2.49
-1.29 -10.60 2.49
-1.07 -10.62 2.49
-0.86 -10.64 2.49
-0.65 -10.65 2.49
-0.43 -10.66 2.49
-0.22 -10.66 2.49
-0.01 -9.67 2.49
0.19 -9.67 2.49
0.38 -9.66 2.49
0.58 -9.65 2.49
0.77 -9.64 2.49
0.96 -9.62 2.49
1.16 -9.60 2.49
1.35 -9.57 2.49
1.54 -9.54 2.49
1.73 -9.50 2.49
1.92 -9.47 2.49
2.11 -9.42 2.49
2.20 -8.99 2.39
2.38 -8.94 2.39
2.56 -8.89 2.39
2.74 -8.84 2.39
2.91 -8.78 2.39
2.76 -7.80 2.14
3.26 -8.65 2.39
3.44 -8.58 2.39
3.61 -8.51 2.39
3.78 -8.43 2.39
3.94 -8.35 2.39
4.11 -8.27 2.39
4.27 -8.19 2.39
4.44 -8.10 2.39
4.60 -8.00 2.39
4.76 -7.91 2.39
4.91 -7.81 2.39
5.07 -7.71 2.39
5.22 -7.60 2.39
5.37 -7.50 2.39
5.52 -7.39 2.39
5.67 -7.27 2.39
5.81 -7.16 2.39
5.95 -7.04 2.39
6.09 -6.91 2.39
6.27 -6.83 2.41
6.40 -6.71 2.41
6.54 -6.58 2.41
6.66 -6.44 2.41
6.79 -6.31 2.41
6.92 -6.17 2.41
7.04 -6.03 2.41
7.16 -5.88 2.41
7.27 -5.74 2.41
7.38 -5.59 2.41
7.49 -5.44 2.41
7.60 -5.29 2.41
7.70 -5.13 2.41
7.80 -4.97 2.41
7.90 -4.82 2.41
7.99 -4.66 2.41
8.08 -4.49 2.41
8.17 -4.33 2.41
8.26 -4.16 2.41
8.34 -4.00 2.41
8.00 -3.64 2.29
8.06 -3.48 2.29
8.12 -3.31 2.28
8.17 -3.14 2.28
8.22 -2.97 2.28
8.27 -2.80 2.28
8.32 -2.63 2.27
8.36 -2.46 2.27
8.40 -2.29 2.27
8.44 -2.12 2.27
8.47 -1.95 2.27
8.50 -1.78 2.26
8.53 -1.61 2.26
8.55 -1.43 2.26
8.57 -1.26 2.26
8.59 -1.09 2.26
8.61 -0.91 2.26
8.62 -0.74 2.26
8.63 -0.57 2.26
8.63 -0.39 2.25
8.63 -0.22 2.25
8.63 -0.05 2.25
8.63 0.13 2.25
8.62 0.30 2.25
8.61 0.47 2.25
8.59 0.65 2.25
8.57 0.82 2.25
8.55 0.99 2.25
6.94 0.95 1.83
6.91 1.08 1.83
6.84 1.21 1.81
6.80 1.35 1.81
6.77 1.48 1.81
6.76 1.62 1.82
6.73 1.76 1.82
6.69 1.90 1.82
6.66 2.03 1.82
6.62 2.17 1.82
6.59 2.30 1.82
6.52 2.43 1.82
6.48 2.56 1.82
6.45 2.70 1.83
6.44 2.85 1.84
6.41 2.99 1.85
6.38 3.14 1.86
6.38 3.30 1.88
6.35 3.44 1.89
6.34 3.61 1.91
6.38 3.80 1.94
6.37 3.97 1.96
6.37 4.15 1.99
6.37 4.33 2.01
6.33 4.50 2.03
6.33 4.69 2.06
6.36 4.91 2.10
6.35 5.11 2.13
6.35 5.33 2.17
6.32 5.51 2.19
6.35 5.77 2.24
6.35 6.01 2.28
6.34 6.25 2.33
6.31 6.47 2.36
6.30 6.73 2.41
6.16 6.85 2.41
6.02 6.98 2.41
5.84 7.05 2.39
5.70 7.16 2.39
5.56 7.28 2.39
5.41 7.39 2.39
5.26 7.50 2.39
5.11 7.60 2.39
4.96 7.70 2.39
4.80 7.80 2.39
4.65 7.90 2.39
4.49 7.99 2.39
4.33 8.08 2.39
4.16 8.17 2.39
4.00 8.25 2.39
3.83 8.33 2.39
3.66 8.40 2.39
3.50 8.48 2.39
3.32 8.55 2.39
2.99 8.17 2.27
2.93 8.52 2.35
2.76 8.59 2.35
2.59 8.65 2.35
2.35 8.47 2.29
2.28 8.89 2.39
2.10 8.97 2.40
1.92 9.01 2.40
1.81 9.40 2.49
1.62 9.44 2.49
1.43 9.47 2.49
1.24 9.50 2.49
1.05 9.53 2.49
0.86 9.55 2.49
0.67 9.56 2.49
0.48 9.58 2.49
0.28 9.59 2.49
0.09 9.59 2.49
-0.10 9.59 2.49
-0.29 9.59 2.49
-0.49 9.58 2.49
-0.68 9.57 2.49
-0.87 9.56 2.49
-1.06 9.54 2.49
-1.25 9.52 2.49
-1.45 9.49 2.49
-1.64 9.47 2.49
-1.83 9.43 2.49
-2.02 9.40 2.49
-2.20 9.35 2.49
-2.39 9.31 2.49
-2.58 9.26 2.49
-2.76 9.21 2.49
-2.95 9.15 2.49
-3.13 9.10 2.49
-3.32 9.03 2.49
-3.50 8.97 2.49
-3.68 8.89 2.49
-3.86 8.82 2.49
-4.03 8.74 2.49
-4.21 8.66 2.49
-4.38 8.58 2.49
-4.55 8.49 2.49
-4.72 8.40 2.49
-4.89 8.30 2.49
-5.06 8.20 2.49
-5.22 8.10 2.49
-5.39 8.00 2.49
-5.55 7.89 2.49
-5.71 7.78 2.49
-5.86 7.66 2.49
-6.02 7.55 2.49
-6.11 7.36 2.47
-6.12 7.07 2.42
-6.19 6.88 2.39
-6.33 6.75 2.39
-6.47 6.63 2.39
-6.60 6.50 2.39
-6.73 6.36 2.39
-6.86 6.23 2.39
-6.98 6.09 2.39
-7.11 5.95 2.39
-7.22 5.81 2.39
-7.34 5.66 2.39
-7.45 5.51 2.39
-7.57 5.36 2.39
-7.67 5.21 2.39
-7.78 5.06 2.39
-7.88 4.90 2.39
-7.98 4.74 2.39
-8.07 4.58 2.39
-8.16 4.42 2.39
-8.25 4.26 2.39
-8.34 4.09 2.39
-8.42 3.92 2.39
-8.50 3.75 2.39
-8.57 3.58 2.39
-8.64 3.41 2.39
-8.71 3.24 2.39
-8.77 3.06 2.39
-8.84 2.89 2.39
-8.89 2.71 2.39
-8.95 2.53 2.39
-9.00 2.35 2.39
-9.04 2.17 2.39
-9.09 1.99 2.39
-9.12 1.81 2.39
-9.16 1.62 2.39
-9.19 1.44 2.39
-9.22 1.25 2.39
-9.24 1.07 2.39
-9.26 0.88 2.39
-9.28 0.70 2.39
-9.29 0.51 2.39
-9.30 0.32 2.39
-9.31 0.14 2.39
-9.31 -0.05 2.39
-9.31 -0.24 2.39
-9.30 -0.42 2.39
-9.29 -0.61 2.39
-9.28 -0.80 2.39
-9.26 -0.98 2.39
-9.24 -1.17 2.39
-9.22 -1.35 2.39
-9.19 -1.54 2.39
-9.16 -1.72 2.39
-9.12 -1.91 2.39
-9.08 -2.09 2.39
-6.45 -1.62 1.71
-8.99 -2.45 2.39
-8.94 -2.63 2.39
-8.89 -2.81 2.39
-8.83 -2.99 2.39
-8.77 -3.16 2.39
-8.70 -3.34 2.39
-8.63 -3.51 2.39
-8.56 -3.69 2.39
-8.49 -3.86 2.39
-8.41 -4.03 2.39
-8.32 -4.19 2.39
-8.24 -4.36 2.39
-8.15 -4.52 2.39
-8.06 -4.69 2.39
-7.96 -4.85 2.39
-7.86 -5.01 2.39
-7.76 -5.16 2.39
-7.65 -5.32 2.39
-7.55 -5.47 2.39
-7.43 -5.62 2.39
-7.32 -5.77 2.39
-7.20 -5.91 2.39
-7.08 -6.06 2.39
-6.96 -6.20 2.39
-6.83 -6.34 2.39
-6.70 -6.47 2.39
-6.57 -6.60 2.39
-6.44 -6.73 2.39
-6.30 -6.86 2.39
-6.16 -6.99 2.39
-6.02 -7.11 2.39
-5.92 -7.28 2.41
-5.92 -7.58 2.47
-5.82 -7.78 2.49
-5.66 -7.89 2.49
-5.50 -8.00 2.49
-5.34 -8.11 2.49
-5.18 -8.22 2.49
-5.01 -8.32 2.49
-4.84 -8.41 2.49
-4.67 -8.51 2.49
-4.50 -8.60 2.49
-4.33 -8.69 2.49
-4.15 -8.77 2.49
-3.97 -8.85 2.49
-3.79 -8.93 2.49
-3.61 -9.00 2.49
-3.43 -9.07 2.49
-3.25 -9.14 2.49
-3.07 -9.20 2.49
-2.88 -9.26 2.49
-2.69 -9.31 2.49
-2.51 -9.36 2.49
-2.32 -9.41 2.49
-2.13 -9.45 2.49
-1.94 -9.49 2.49
-1.75 -9.53 2.49
-1.55 -9.56 2.49
-1.36 -9.59 2.49
-1.17 -9.61 2.49
-0.97 -9.63 2.49
-0.78 -9.65 2.49
-0.59 -9.66 2.49
-0.39 -9.67 2.49
-0.20 -9.67 2.49
-0.01 -8.85 2.49
0.17 -8.84 2.49
0.35 -8.84 2.49
0.53 -8.83 2.49
0.70 -8.81 2.49
0.88 -8.79 2.49
1.06 -8.77 2.49
1.23 -8.75 2.49
1.41 -8.72 2.49
1.58 -8.69 2.49
1.76 -8.66 2.49
1.93 -8.62 2.49
2.10 -8.57 2.49
2.18 -8.18 2.39
2.34 -8.13 2.39
2.50 -8.08 2.39
2.66 -8.03 2.39
2.76 -7.80 2.34
2.98 -7.91 2.39
3.14 -7.85 2.39
3.30 -7.78 2.39
3.45 -7.71 2.39
3.61 -7.64 2.39
3.76 -7.57 2.39
3.91 -7.49 2.39
4.06 -7.41 2.39
4.20 -7.32 2.39
4.35 -7.23 2.39
4.49 -7.14 2.39
4.64 -7.05 2.39
4.77 -6.96 2.39
4.91 -6.86 2.39
5.05 -6.76 2.39
5.18 -6.65 2.39
5.31 -6.55 2.39
5.44 -6.44 2.39
5.57 -6.33 2.39
5.70 -6.21 2.39
5.82 -6.09 2.39
5.94 -5.98 2.39
6.06 -5.85 2.39
6.21 -5.77 2.41
6.33 -5.64 2.41
6.44 -5.51 2.41
6.55 -5.38 2.41
6.65 -5.25 2.41
6.75 -5.11 2.41
6.85 -4.98 2.41
6.95 -4.84 2.41
7.05 -4.69 2.41
7.14 -4.55 2.41
7.23 -4.41 2.41
7.31 -4.26 2.41
7.40 -4.11 2.41
7.22 -3.82 2.32
7.28 -3.67 2.32
7.34 -3.52 2.32
7.40 -3.37 2.31
7.45 -3.21 2.31
7.51 -3.06 2.31
7.56 -2.90 2.30
7.60 -2.75 2.30
7.65 -2.59 2.30
7.69 -2.43 2.30
7.73 -2.28 2.29
7.76 -2.12 2.29
7.80 -1.96 2.29
7.83 -1.80 2.29
7.85 -1.64 2.29
7.88 -1.48 2.28
7.90 -1.32 2.28
7.92 -1.16 2.28
7.94 -1.00 2.28
7.95 -0.84 2.28
7.96 -0.68 2.28
7.96 -0.52 2.28
7.96 -0.36 2.27
7.96 -0.20 2.27
7.96 -0.04 2.27
7.95 0.12 2.27
7.95 0.28 2.27
7.94 0.44 2.27
7.93 0.60 2.27
7.91 0.75 2.27
7.89 0.91 2.27
6.94 0.95 2.00
6.91 1.08 2.00
6.84 1.21 1.98
6.80 1.35 1.98
6.77 1.48 1.98
6.76 1.62 1.99
6.73 1.76 1.99
6.69 1.89 1.99
6.66 2.03 1.99
6.62 2.17 1.99
6.59 2.30 1.99
6.52 2.43 1.99
6.48 2.56 1.99
6.45 2.70 2.00
6.44 2.85 2.01
6.41 2.99 2.02
6.38 3.14 2.03
6.38 3.30 2.05
6.35 3.44 2.06
6.34 3.61 2.08
6.38 3.80 2.12
6.37 3.97 2.14
6.37 4.15 2.17
6.37 4.33 2.20
6.33 4.50 2.22
6.33 4.69 2.25
6.36 4.91 2.29
6.35 5.11 2.33
6.35 5.33 2.37
6.32 5.52 2.39
6.24 5.67 2.41
6.12 5.80 2.41
5.97 5.88 2.39
5.85 6.00 2.39
5.73 6.12 2.39
5.60 6.23 2.39
5.48 6.34 2.39
5.35 6.45 2.39
5.22 6.56 2.39
5.09 6.66 2.39
4.95 6.76 2.39
4.82 6.86 2.39
4.68 6.96 2.39
4.54 7.05 2.39
4.39 7.14 2.39
4.25 7.23 2.39
4.11 7.31 2.39
3.96 7.39 2.39
3.81 7.47 2.39
3.66 7.55 2.39
3.51 7.62 2.39
3.35 7.69 2.39
3.04 7.36 2.27
2.95 7.58 2.32
2.84 7.75 2.35
2.68 7.81 2.35
2.44 7.59 2.27
2.36 7.88 2.34
2.24 8.09 2.39
2.08 8.14 2.39
1.93 8.23 2.41
1.83 8.57 2.49
1.66 8.61 2.49
1.48 8.64 2.49
1.31 8.67 2.49
1.14 8.69 2.49
0.96 8.72 2.49
0.79 8.73 2.49
0.61 8.75 2.49
0.44 8.76 2.49
0.26 8.77 2.49
0.08 8.77 2.49
-0.09 8.78 2.49
-0.27 8.77 2.49
-0.45 8.77 2.49
-0.62 8.76 2.49
-0.80 8.75 2.49
-0.97 8.73 2.49
-1.15 8.71 2.49
-1.32 8.69 2.49
-1.50 8.66 2.49
-1.67 8.63 2.49
-1.84 8.59 2.49
-2.02 8.56 2.49
-2.19 8.52 2.49
-2.36 8.47 2.49
-2.53 8.42 2.49
-2.70 8.37 2.49
-2.87 8.32 2.49
-3.03 8.26 2.49
-3.20 8.20 2.49
-3.36 8.14 2.49
-3.53 8.07 2.49
-3.69 8.00 2.49
-3.85 7.92 2.49
-4.01 7.85 2.49
-4.17 7.76 2.49
-4.32 7.68 2.49
-4.48 7.59 2.49
-4.63 7.50 2.49
-4.78 7.41 2.49
-4.93 7.31 2.49
-5.07 7.22 2.49
-5.22 7.11 2.49
-5.36 7.01 2.49
-5.50 6.90 2.49
-5.64 6.79 2.49
-5.78 6.68 2.49
-5.91 6.56 2.49
-6.04 6.44 2.49
-6.10 6.25 2.47
-6.10 6.00 2.42
-6.16 5.82 2.39
-6.27 5.69 2.39
-6.39 5.57 2.39
-6.50 5.44 2.39
-6.61 5.31 2.39
-6.71 5.18 2.39
-6.82 5.04 2.39
-6.92 4.90 2.39
-7.02 4.76 2.39
-7.11 4.62 2.39
-7.20 4.48 2.39
-7.29 4.34 2.39
-7.38 4.19 2.39
-7.46 4.04 2.39
-7.54 3.89 2.39
-7.62 3.74 2.39
-7.70 3.59 2.39
-7.77 3.43 2.39
-7.84 3.28 2.39
-7.90 3.12 2.39
-7.96 2.96 2.39
-8.02 2.80 2.39
-8.08 2.64 2.39
-8.13 2.48 2.39
-8.18 2.31 2.39
-8.22 2.15 2.39
-8.27 1.98 2.39
-8.31 1.82 2.39
-8.34 1.65 2.39
-8.37 1.48 2.39
-8.40 1.31 2.39
-8.43 1.15 2.39
-8.45 0.98 2.39
-8.47 0.81 2.39
-8.48 0.64 2.39
-8.50 0.47 2.39
-8.50 0.30 2.39
-8.51 0.13 2.39
-8.51 -0.05 2.39
-8.51 -0.22 2.39
-8.50 -0.39 2.39
-8.50 -0.56 2.39
-8.48 -0.73 2.39
-8.47 -0.90 2.39
-8.45 -1.07 2.39
-8.43 -1.24 2.39
-8.40 -1.41 2.39
-8.37 -1.57 2.39
-8.34 -1.74 2.39
-8.30 -1.91 2.39
-6.44 -1.62 1.87
-8.22 -2.24 2.39
-8.17 -2.40 2.39
-8.12 -2.57 2.39
-8.07 -2.73 2.39
-8.01 -2.89 2.39
-7.95 -3.05 2.39
-7.89 -3.21 2.39
-7.82 -3.37 2.39
-7.76 -3.53 2.39
-7.68 -3.68 2.39
-7.61 -3.83 2.39
-7.53 -3.99 2.39
-7.45 -4.14 2.39
-7.36 -4.28 2.39
-7.28 -4.43 2.39
-7.19 -4.58 2.39
-7.09 -4.72 2.39
-7.00 -4.86 2.39
-6.90 -5.00 2.39
-6.80 -5.14 2.39
-6.69 -5.27 2.39
-6.58 -5.40 2.39
-6.47 -5.54 2.39
-6.36 -5.66 2.39
-6.25 -5.79 2.39
-6.14 -5.93 2.40
-6.01 -6.04 2.39
-5.93 -6.20 2.41
-5.93 -6.46 2.46
-5.88 -6.66 2.49
-5.74 -6.78 2.49
-5.60 -6.89 2.49
-5.46 -7.00 2.49
-5.32 -7.11 2.49
-5.18 -7.21 2.49
-5.03 -7.31 2.49
-4.88 -7.41 2.49
-4.73 -7.51 2.49
-4.58 -7.60 2.49
-4.43 -7.69 2.49
-4.27 -7.78 2.49
-4.11 -7.86 2.49
-3.96 -7.94 2.49
-3.79 -8.02 2.49
-3.63 -8.09 2.49
-3.47 -8.16 2.49
-3.30 -8.23 2.49
-3.14 -8.29 2.49
-2.97 -8.35 2.49
-2.80 -8.41 2.49
-2.63 -8.46 2.49
-2.46 -8.51 2.49
-2.29 -8.56 2.49
-2.12 -8.60 2.49
-1.94 -8.64 2.49
-1.77 -8.68 2.49
-1.60 -8.71 2.49
-1.42 -8.74 2.49
-1.24 -8.77 2.49
-1.07 -8.79 2.49
-0.89 -8.81 2.49
-0.71 -8.82 2.49
-0.54 -8.83 2.49
-0.36 -8.84 2.49
-0.18 -8.85 2.49
-0.01 -8.14 2.49
0.16 -8.14 2.49
0.32 -8.13 2.49
0.48 -8.12 2.49
0.65 -8.11 2.49
0.81 -8.09 2.49
0.97 -8.07 2.49
1.13 -8.05 2.49
1.29 -8.03 2.49
1.46 -8.00 2.49
1.62 -7.96 2.49
1.77 -7.93 2.49
1.93 -7.89 2.49
2.09 -7.85 2.49
2.15 -7.48 2.39
2.32 -7.48 2.40
2.45 -7.39 2.39
2.60 -7.34 2.39
2.75 -7.28 2.39
2.89 -7.22 2.39
3.03 -7.16 2.39
3.18 -7.10 2.39
3.32 -7.03 2.39
3.46 -6.96 2.39
3.60 -6.89 2.39
3.73 -6.82 2.39
3.87 -6.74 2.39
4.00 -6.66 2.39
4.14 -6.58 2.39
4.27 -6.49 2.39
4.39 -6.40 2.39
4.52 -6.31 2.39
4.65 -6.22 2.39
4.77 -6.12 2.39
4.89 -6.03 2.39
5.01 -5.93 2.39
5.13 -5.82 2.39
5.24 -5.72 2.39
5.36 -5.61 2.39
5.47 -5.50 2.39
5.57 -5.39 2.39
5.68 -5.28 2.39
5.78 -5.16 2.39
5.89 -5.04 2.39
5.99 -4.92 2.39
6.08 -4.80 2.39
6.22 -4.71 2.41
6.31 -4.58 2.41
6.40 -4.45 2.41
6.49 -4.32 2.41
6.57 -4.19 2.41
6.65 -4.06 2.41
6.73 -3.92 2.41
6.67 -3.71 2.36
6.73 -3.57 2.35
6.79 -3.43 2.35
6.85 -3.28 2.35
6.90 -3.14 2.34
6.95 -3.00 2.34
7.00 -2.85 2.34
7.04 -2.71 2.33
7.09 -2.56 2.33
7.13 -2.42 2.33
7.17 -2.27 2.33
7.20 -2.12 2.32
7.24 -1.98 2.32
7.27 -1.83 2.32
7.30 -1.68 2.32
7.33 -1.53 2.32
7.35 -1.38 2.31
7.37 -1.23 2.31
7.38 -1.09 2.31
7.40 -0.94 2.31
7.41 -0.79 2.31
7.42 -0.64 2.31
7.42 -0.49 2.30
7.43 -0.34 2.30
7.43 -0.19 2.30
7.43 -0.04 2.30
7.43 0.11 2.30
7.42 0.26 2.30
7.42 0.41 2.30
7.41 0.56 2.30
7.39 0.71 2.30
7.72 0.89 2.41
6.94 0.94 2.17
6.91 1.08 2.17
6.84 1.21 2.15
6.80 1.35 2.15
6.77 1.48 2.15
6.76 1.62 2.16
6.73 1.76 2.16
6.69 1.89 2.16
6.66 2.03 2.16
6.62 2.17 2.16
6.59 2.30 2.16
6.52 2.43 2.16
6.48 2.56 2.16
6.45 2.70 2.17
6.44 2.85 2.18
6.41 2.99 2.19
6.38 3.14 2.21
6.38 3.30 2.23
6.35 3.44 2.24
6.34 3.61 2.26
6.38 3.80 2.30
6.37 3.97 2.33
6.37 4.15 2.36
6.37 4.33 2.39
6.33 4.49 2.41
6.24 4.62 2.41
6.15 4.75 2.41
6.05 4.87 2.41
5.91 4.96 2.39
5.81 5.07 2.39
5.71 5.19 2.39
5.60 5.30 2.39
5.49 5.41 2.39
5.39 5.52 2.39
5.27 5.63 2.39
5.16 5.74 2.39
5.04 5.84 2.39
4.93 5.94 2.39
4.81 6.04 2.39
4.68 6.13 2.39
4.56 6.23 2.39
4.43 6.32 2.39
4.31 6.41 2.39
4.18 6.49 2.39
4.05 6.58 2.39
3.91 6.66 2.39
3.78 6.73 2.39
3.64 6.81 2.39
3.51 6.88 2.39
3.37 6.95 2.39
3.06 6.66 2.27
2.96 6.78 2.29
2.90 7.03 2.35
2.75 7.08 2.35
2.61 7.14 2.35
2.38 6.94 2.27
2.36 7.36 2.39
2.21 7.41 2.39
2.07 7.45 2.39
1.94 7.57 2.42
1.84 7.85 2.49
1.68 7.89 2.49
1.53 7.92 2.49
1.37 7.95 2.49
1.21 7.98 2.49
1.05 8.00 2.49
0.88 8.02 2.49
0.72 8.04 2.49
0.56 8.06 2.49
0.40 8.07 2.49
0.24 8.07 2.49
0.08 8.08 2.49
-0.09 8.08 2.49
-0.25 8.08 2.49
-0.41 8.07 2.49
-0.57 8.06 2.49
-0.73 8.05 2.49
-0.90 8.04 2.49
-1.06 8.02 2.49
-1.22 8.00 2.49
-1.38 7.97 2.49
-1.54 7.94 2.49
-1.70 7.91 2.49
-1.86 7.88 2.49
-2.02 7.84 2.49
-2.17 7.80 2.49
-2.33 7.75 2.49
-2.48 7.71 2.49
-2.64 7.66 2.49
-2.79 7.60 2.49
-2.95 7.55 2.49
-3.10 7.49 2.49
-3.25 7.43 2.49
-3.40 7.36 2.49
-3.54 7.29 2.49
-3.69 7.22 2.49
-3.83 7.15 2.49
-3.98 7.07 2.49
-4.12 6.99 2.49
-4.26 6.91 2.49
-4.40 6.82 2.49
-4.54 6.73 2.49
-4.67 6.64 2.49
-4.80 6.55 2.49
-4.93 6.45 2.49
-5.06 6.35 2.49
-5.19 6.25 2.49
-5.32 6.14 2.49
-5.44 6.04 2.49
-5.56 5.93 2.49
-5.68 5.82 2.49
-5.80 5.70 2.49
-5.91 5.58 2.49
-6.02 5.47 2.49
-6.09 5.31 2.48
-6.09 5.10 2.43
-6.09 4.90 2.40
-6.18 4.76 2.39
-6.29 4.65 2.40
-6.36 4.51 2.39
-6.46 4.38 2.39
-6.54 4.25 2.39
-6.63 4.12 2.39
-6.71 3.99 2.39
-6.79 3.85 2.39
-6.87 3.72 2.39
-6.94 3.58 2.39
-7.01 3.44 2.39
-7.08 3.30 2.39
-7.15 3.16 2.39
-7.21 3.01 2.39
-7.27 2.87 2.39
-7.33 2.72 2.39
-7.38 2.58 2.39
-7.43 2.43 2.39
-7.48 2.28 2.39
-7.52 2.13 2.39
-7.57 1.98 2.39
-7.61 1.82 2.39
-7.64 1.67 2.39
-7.67 1.52 2.39
-7.70 1.36 2.39
-7.73 1.21 2.39
-7.75 1.05 2.39
-7.77 0.90 2.39
-7.79 0.74 2.39
-7.80 0.59 2.39
-7.82 0.43 2.39
-7.82 0.27 2.39
-7.83 0.12 2.39
-7.83 -0.04 2.39
-7.83 -0.20 2.39
-7.82 -0.36 2.39
-7.81 -0.51 2.39
-7.80 -0.67 2.39
-7.79 -0.83 2.39
-7.77 -0.98 2.39
-7.75 -1.14 2.39
-7.73 -1.29 2.39
-7.70 -1.45 2.39
-7.67 -1.60 2.39
-7.64 -1.76 2.39
-6.44 -1.62 2.03
-7.56 -2.06 2.39
-7.52 -2.21 2.39
-7.47 -2.36 2.39
-7.42 -2.51 2.39
-7.37 -2.66 2.39
-7.32 -2.81 2.39
-7.26 -2.95 2.39
-7.20 -3.10 2.39
-7.13 -3.24 2.39
-7.07 -3.39 2.39
-7.00 -3.53 2.39
-6.93 -3.67 2.39
-6.85 -3.80 2.39
-6.77 -3.94 2.39
-6.69 -4.08 2.39
-6.61 -4.21 2.39
-6.52 -4.34 2.39
-6.44 -4.47 2.39
-6.34 -4.60 2.39
-6.25 -4.73 2.39
-6.16 -4.85 2.39
-6.06 -4.97 2.39
-5.96 -5.09 2.39
-5.94 -5.29 2.43
-5.94 -5.51 2.47
-5.88 -5.67 2.49
-5.76 -5.79 2.49
-5.65 -5.91 2.49
-5.53 -6.02 2.49
-5.41 -6.13 2.49
-5.28 -6.23 2.49
-5.15 -6.34 2.49
-5.03 -6.44 2.49
-4.90 -6.54 2.49
-4.76 -6.63 2.49
-4.63 -6.73 2.49
-4.49 -6.82 2.49
-4.35 -6.91 2.49
-4.21 -6.99 2.49
-4.07 -7.08 2.49
-3.93 -7.16 2.49
-3.79 -7.23 2.49
-3.64 -7.31 2.49
-3.49 -7.38 2.49
-3.34 -7.44 2.49
-3.19 -7.51 2.49
-3.04 -7.57 2.49
-2.89 -7.63 2.49
-2.73 -7.69 2.49
-2.58 -7.74 2.49
-2.42 -7.79 2.49
-2.27 -7.83 2.49
-2.11 -7.88 2.49
-1.95 -7.92 2.49
-1.79 -7.95 2.49
-1.63 -7.99 2.49
-1.47 -8.02 2.49
-1.31 -8.04 2.49
-1.15 -8.07 2.49
-0.98 -8.09 2.49
-0.82 -8.10 2.49
-0.66 -8.12 2.49
-0.49 -8.13 2.49
-0.33 -8.13 2.49
-0.17 -8.14 2.49
-0.01 -7.53 2.49
0.15 -7.53 2.49
0.30 -7.52 2.49
0.45 -7.51 2.49
0.60 -7.50 2.49
0.75 -7.49 2.49
0.90 -7.47 2.49
1.05 -7.45 2.49
1.20 -7.43 2.49
1.35 -7.40 2.49
1.49 -7.37 2.49
1.64 -7.34 2.49
1.79 -7.30 2.49
1.93 -7.26 2.49
2.08 -7.22 2.49
2.13 -6.88 2.39
2.27 -6.84 2.39
2.40 -6.79 2.39
2.54 -6.74 2.39
2.67 -6.68 2.39
2.81 -6.63 2.39
2.94 -6.57 2.39
3.07 -6.51 2.39
3.20 -6.44 2.39
3.33 -6.38 2.39
3.45 -6.31 2.39
3.58 -6.24 2.39
3.70 -6.16 2.39
3.83 -6.09 2.39
3.95 -6.01 2.39
4.07 -5.93 2.39
4.18 -5.84 2.39
4.30 -5.76 2.39
4.41 -5.67 2.39
4.53 -5.58 2.39
4.64 -5.48 2.39
4.74 -5.39 2.39
4.85 -5.29 2.39
4.96 -5.19 2.39
5.06 -5.09 2.39
5.16 -4.99 2.39
5.26 -4.88 2.39
5.35 -4.78 2.39
5.45 -4.67 2.39
5.54 -4.56 2.39
5.63 -4.44 2.39
5.72 -4.33 2.39
5.80 -4.21 2.39
5.88 -4.09 2.39
5.96 -3.97 2.39
6.04 -3.85 2.39
6.16 -3.76 2.41
6.23 -3.63 2.41
6.28 -3.49 2.40
6.33 -3.35 2.39
6.38 -3.22 2.38
6.43 -3.08 2.38
6.48 -2.95 2.38
6.53 -2.81 2.37
6.57 -2.68 2.37
6.62 -2.54 2.37
6.66 -2.41 2.37
6.70 -2.27 2.36
6.73 -2.13 2.36
6.77 -1.99 2.36
6.80 -1.86 2.36
6.83 -1.72 2.35
6.86 -1.58 2.35
6.88 -1.44 2.35
6.91 -1.30 2.35
6.93 -1.16 2.35
6.95 -1.02 2.35
6.96 -0.88 2.35
6.98 -0.74 2.35
6.99 -0.60 2.35
7.00 -0.46 2.35
7.00 -0.32 2.35
7.01 -0.18 2.35
7.01 -0.04 2.35
7.01 0.10 2.35
7.01 0.24 2.35
7.01 0.39 2.35
7.00 0.53 2.35
6.99 0.67 2.35
7.14 0.83 2.41
6.94 0.94 2.35
6.91 1.08 2.34
6.84 1.21 2.33
6.80 1.35 2.32
6.77 1.48 2.32
6.76 1.62 2.33
6.73 1.76 2.33
6.69 1.89 2.33
6.66 2.03 2.33
6.62 2.17 2.33
6.59 2.30 2.34
6.52 2.43 2.33
6.48 2.56 2.33
6.45 2.70 2.34
6.44 2.85 2.36
6.41 2.99 2.37
6.38 3.14 2.38
6.39 3.30 2.41
6.32 3.43 2.41
6.25 3.55 2.41
6.18 3.68 2.41
6.10 3.80 2.41
5.98 3.90 2.39
5.90 4.02 2.39
5.82 4.13 2.39
5.74 4.25 2.39
5.65 4.36 2.39
5.56 4.48 2.39
5.47 4.59 2.39
5.38 4.70 2.39
5.28 4.80 2.39
5.19 4.91 2.39
5.09 5.01 2.39
4.99 5.11 2.39
4.88 5.21 2.39
4.78 5.31 2.39
4.67 5.41 2.39
4.56 5.50 2.39
4.45 5.59 2.39
4.34 5.68 2.39
4.22 5.76 2.39
4.10 5.85 2.39
3.99 5.93 2.39
3.87 6.01 2.39
3.75 6.09 2.39
3.62 6.16 2.39
3.50 6.23 2.39
3.37 6.30 2.39
3.08 6.05 2.27
2.97 6.12 2.28
2.94 6.39 2.35
2.81 6.45 2.35
2.68 6.50 2.35
2.46 6.33 2.27
2.37 6.49 2.31
2.32 6.77 2.39
2.19 6.81 2.39
2.05 6.86 2.39
1.94 7.00 2.43
1.85 7.23 2.49
1.70 7.27 2.49
1.56 7.30 2.49
1.41 7.33 2.49
1.26 7.36 2.49
1.12 7.39 2.49
0.97 7.41 2.49
0.82 7.43 2.49
0.67 7.44 2.49
0.52 7.46 2.49
0.37 7.47 2.49
0.22 7.47 2.49
0.07 7.48 2.49
-0.08 7.48 2.49
-0.23 7.48 2.49
-0.38 7.47 2.49
-0.53 7.46 2.49
-0.68 7.45 2.49
-0.83 7.44 2.49
-0.98 7.42 2.49
-1.13 7.40 2.49
-1.28 7.38 2.49
-1.42 7.35 2.49
-1.57 7.32 2.49
-1.72 7.29 2.49
-1.87 7.25 2.49
-2.01 7.22 2.49
-2.16 7.18 2.49
-2.30 7.13 2.49
-2.44 7.09 2.49
-2.58 7.04 2.49
-2.73 6.98 2.49
-2.87 6.93 2.49
-3.00 6.87 2.49
-3.14 6.81 2.49
-3.28 6.75 2.49
-3.41 6.68 2.49
-3.55 6.61 2.49
-3.68 6.54 2.49
-3.81 6.47 2.49
-3.94 6.39 2.49
-4.07 6.31 2.49
-4.20 6.23 2.49
-4.32 6.14 2.49
-4.44 6.06 2.49
-4.57 5.97 2.49
-4.69 5.87 2.49
-4.80 5.78 2.49
-4.92 5.68 2.49
-5.03 5.58 2.49
-5.14 5.48 2.49
-5.25 5.38 2.49
-5.36 5.27 2.49
-5.47 5.17 2.49
-5.57 5.06 2.49
-5.67 4.94 2.49
-5.77 4.83 2.49
-5.87 4.71 2.49
-5.96 4.60 2.49
-6.05 4.48 2.49
-6.08 4.31 2.47
-6.08 4.13 2.43
-6.08 3.95 2.40
-6.13 3.81 2.39
-6.21 3.69 2.39
-6.28 3.57 2.39
-6.35 3.44 2.39
-6.42 3.31 2.39
-6.49 3.18 2.39
-6.55 3.05 2.39
-6.61 2.92 2.39
-6.67 2.79 2.39
-6.72 2.65 2.39
-6.78 2.52 2.39
-6.83 2.38 2.39
-6.87 2.24 2.39
-6.92 2.11 2.39
-6.96 1.97 2.39
-7.00 1.83 2.39
-7.03 1.69 2.39
-7.07 1.55 2.39
-7.10 1.40 2.39
-7.13 1.26 2.39
-7.15 1.12 2.39
-7.17 0.97 2.39
-7.19 0.83 2.39
-7.21 0.69 2.39
-7.22 0.54 2.39
-7.23 0.40 2.39
-7.24 0.25 2.39
-7.24 0.11 2.39
-7.24 -0.04 2.39
-7.24 -0.18 2.39
-7.24 -0.33 2.39
-7.23 -0.47 2.39
-7.22 -0.62 2.39
-7.20 -0.76 2.39
-7.19 -0.91 2.39
-7.17 -1.05 2.39
-7.15 -1.20 2.39
-7.12 -1.34 2.39
-7.09 -1.48 2.39
-7.06 -1.62 2.39
-6.44 -1.62 2.19
-6.99 -1.91 2.39
-6.95 -2.05 2.39
-6.91 -2.18 2.39
-6.86 -2.32 2.39
-6.82 -2.46 2.39
-6.77 -2.60 2.39
-6.71 -2.73 2.39
-6.66 -2.87 2.39
-6.60 -3.00 2.39
-6.54 -3.13 2.39
-6.47 -3.26 2.39
-6.41 -3.39 2.39
-6.34 -3.52 2.39
-6.26 -3.64 2.39
-6.19 -3.77 2.39
-6.11 -3.89 2.39
-6.03 -4.01 2.39
-5.96 -4.14 2.40
-5.95 -4.31 2.43
-5.95 -4.50 2.46
-5.94 -4.68 2.49
-5.84 -4.80 2.49
-5.74 -4.91 2.49
-5.65 -5.03 2.49
-5.54 -5.14 2.49
-5.44 -5.25 2.49
-5.33 -5.36 2.49
-5.22 -5.46 2.49
-5.11 -5.57 2.49
-5.00 -5.67 2.49
-4.88 -5.77 2.49
-4.77 -5.86 2.49
-4.65 -5.96 2.49
-4.53 -6.05 2.49
-4.41 -6.14 2.49
-4.28 -6.22 2.49
-4.16 -6.31 2.49
-4.03 -6.39 2.49
-3.90 -6.47 2.49
-3.77 -6.54 2.49
-3.64 -6.62 2.49
-3.50 -6.69 2.49
-3.37 -6.76 2.49
-3.23 -6.82 2.49
-3.09 -6.89 2.49
-2.95 -6.95 2.49
-2.81 -7.00 2.49
-2.67 -7.06 2.49
-2.53 -7.11 2.49
-2.39 -7.16 2.49
-2.24 -7.20 2.49
-2.10 -7.25 2.49
-1.95 -7.29 2.49
-1.80 -7.32 2.49
-1.66 -7.36 2.49
-1.51 -7.39 2.49
-1.36 -7.41 2.49
-1.21 -7.44 2.49
-1.06 -7.46 2.49
-0.91 -7.48 2.49
-0.76 -7.50 2.49
-0.61 -7.51 2.49
-0.46 -7.52 2.49
-0.31 -7.53 2.49
-0.16 -7.53 2.49
-0.01 -7.00 2.49
0.14 -7.00 2.49
0.28 -6.99 2.49
0.42 -6.98 2.49
0.56 -6.97 2.49
0.70 -6.96 2.49
0.83 -6.94 2.49
0.97 -6.92 2.49
1.11 -6.90 2.49
1.25 -6.88 2.49
1.39 -6.85 2.49
1.53 -6.82 2.49
1.66 -6.79 2.49
1.80 -6.75 2.49
1.93 -6.71 2.49
2.07 -6.67 2.49
2.11 -6.36 2.39
2.23 -6.31 2.39
2.36 -6.26 2.39
2.49 -6.21 2.39
2.61 -6.16 2.39
2.73 -6.11 2.39
2.85 -6.05 2.39
2.97 -5.99 2.39
3.09 -5.93 2.39
3.21 -5.86 2.39
2.66 -4.63 1.91
2.78 -4.62 1.93
2.90 -4.61 1.95
2.93 -4.45 1.91
3.78 -5.51 2.39
3.89 -5.43 2.39
4.00 -5.35 2.39
4.10 -5.27 2.39
4.21 -5.18 2.39
4.31 -5.10 2.39
4.41 -5.01 2.39
4.51 -4.92 2.39
4.61 -4.83 2.39
4.70 -4.73 2.39
4.80 -4.64 2.39
4.89 -4.54 2.39
4.98 -4.44 2.39
5.06 -4.34 2.39
5.15 -4.24 2.39
5.23 -4.13 2.39
5.31 -4.02 2.39
5.39 -3.92 2.39
5.47 -3.81 2.39
5.54 -3.70 2.39
5.62 -3.58 2.39
5.69 -3.47 2.39
5.75 -3.35 2.39
5.82 -3.24 2.39
5.88 -3.12 2.39
5.94 -3.00 2.39
6.00 -2.88 2.39
6.06 -2.76 2.39
6.15 -2.65 2.41
6.20 -2.53 2.41
6.24 -2.40 2.40
6.27 -2.27 2.40
6.31 -2.14 2.39
6.34 -2.01 2.39
6.38 -1.88 2.39
6.41 -1.75 2.39
6.44 -1.62 2.39
6.46 -1.49 2.39
6.49 -1.36 2.38
6.51 -1.23 2.38
6.53 -1.09 2.38
6.54 -0.96 2.38
6.56 -0.83 2.38
6.58 -0.70 2.38
6.59 -0.57 2.38
6.60 -0.43 2.38
6.60 -0.30 2.38
6.61 -0.17 2.38
6.61 -0.04 2.38
6.61 0.10 2.38
6.61 0.23 2.38
6.60 0.36 2.38
6.60 0.50 2.38
6.59 0.63 2.38
6.58 0.76 2.38
6.62 0.90 2.41
6.61 1.03 2.41
6.58 1.17 2.41
6.56 1.30 2.41
6.53 1.43 2.41
6.50 1.56 2.41
6.47 1.69 2.41
6.43 1.82 2.41
6.39 1.95 2.41
6.35 2.08 2.41
6.31 2.20 2.41
6.26 2.33 2.41
6.22 2.46 2.41
6.17 2.58 2.41
6.11 2.70 2.41
6.06 2.83 2.41
5.96 2.93 2.39
5.90 3.05 2.39
5.84 3.16 2.39
5.77 3.28 2.39
5.70 3.40 2.39
5.64 3.51 2.39
5.56 3.62 2.39
5.49 3.73 2.39
5.41 3.84 2.39
5.34 3.95 2.39
5.26 4.06 2.39
5.17 4.16 2.39
5.09 4.27 2.39
5.00 4.37 2.39
4.91 4.47 2.39
4.82 4.57 2.39
4.73 4.66 2.39
4.64 4.76 2.39
4.54 4.85 2.39
4.44 4.94 2.39
4.34 5.03 2.39
4.24 5.11 2.39
4.14 5.20 2.39
4.03 5.28 2.39
3.92 5.36 2.39
3.82 5.44 2.39
3.71 5.51 2.39
3.60 5.59 2.39
3.48 5.66 2.39
3.37 5.73 2.39
3.09 5.50 2.27
2.98 5.57 2.27
2.96 5.81 2.35
2.85 5.88 2.35
2.73 5.94 2.35
2.61 6.00 2.35
2.41 5.84 2.27
2.38 6.11 2.36
2.29 6.25 2.39
2.16 6.29 2.39
2.03 6.33 2.39
1.94 6.50 2.44
1.85 6.69 2.49
1.72 6.73 2.49
1.58 6.76 2.49
1.45 6.79 2.49
1.31 6.82 2.49
1.17 6.84 2.49
1.04 6.87 2.49
0.90 6.89 2.49
0.76 6.91 2.49
0.62 6.92 2.49
0.48 6.93 2.49
0.34 6.94 2.49
0.20 6.95 2.49
0.06 6.95 2.49
-0.07 6.95 2.49
-0.21 6.95 2.49
-0.35 6.95 2.49
-0.49 6.94 2.49
-0.63 6.93 2.49
-0.77 6.91 2.49
-0.91 6.90 2.49
-1.05 6.88 2.49
-1.19 6.86 2.49
-1.32 6.83 2.49
-1.46 6.81 2.49
-1.60 6.78 2.49
-1.73 6.74 2.49
-1.87 6.71 2.49
-2.00 6.67 2.49
-2.14 6.63 2.49
-2.27 6.59 2.49
-2.40 6.54 2.49
-2.53 6.49 2.49
-2.66 6.44 2.49
-2.79 6.39 2.49
-2.92 6.33 2.49
-3.05 6.27 2.49
-3.17 6.21 2.49
-3.30 6.15 2.49
-3.42 6.08 2.49
-3.54 6.01 2.49
-3.66 5.94 2.49
-3.78 5.86 2.49
-3.90 5.79 2.49
-4.02 5.71 2.49
-4.13 5.63 2.49
-4.24 5.55 2.49
-4.35 5.46 2.49
-4.46 5.37 2.49
-4.57 5.28 2.49
-4.68 5.19 2.49
-4.78 5.10 2.49
-4.88 5.00 2.49
-4.98 4.90 2.49
-5.08 4.80 2.49
-5.18 4.70 2.49
-5.27 4.59 2.49
-5.36 4.49 2.49
-5.45 4.38 2.49
-5.54 4.27 2.49
-5.63 4.16 2.49
-5.71 4.05 2.49
-5.79 3.93 2.49
-5.87 3.81 2.49
-5.94 3.70 2.49
-6.02 3.58 2.49
-6.07 3.44 2.48
-6.06 3.28 2.46
-6.06 3.13 2.43
-6.07 2.98 2.41
-6.09 2.84 2.39
-6.14 2.71 2.39
-6.20 2.59 2.39
-6.27 2.47 2.40
-6.30 2.34 2.39
-6.34 2.21 2.39
-6.39 2.09 2.39
-6.43 1.96 2.39
-6.47 1.83 2.39
-6.50 1.70 2.39
-6.54 1.57 2.39
-6.57 1.44 2.39
-6.60 1.30 2.39
-6.62 1.17 2.39
-6.64 1.04 2.39
-6.66 0.91 2.39
-6.68 0.77 2.39
-6.70 0.64 2.39
-6.71 0.50 2.39
-6.72 0.37 2.39
-6.72 0.23 2.39
-6.73 0.10 2.39
-6.73 -0.04 2.39
-6.73 -0.17 2.39
-6.72 -0.31 2.39
-6.72 -0.44 2.39
-6.71 -0.58 2.39
-6.69 -0.71 2.39
-6.68 -0.84 2.39
-6.66 -0.98 2.39
-6.64 -1.11 2.39
-6.62 -1.24 2.39
-6.59 -1.38 2.39
-6.56 -1.51 2.39
-6.44 -1.62 2.36
-6.50 -1.77 2.39
-6.46 -1.90 2.39
-6.42 -2.03 2.39
-6.38 -2.16 2.39
-6.33 -2.29 2.39
-6.29 -2.41 2.39
-6.24 -2.54 2.39
-6.19 -2.66 2.39
-6.13 -2.79 2.39
-6.07 -2.91 2.39
-6.01 -3.03 2.39
-5.97 -3.16 2.40
-5.96 -3.31 2.42
-5.96 -3.47 2.45
-5.96 -3.63 2.48
-5.93 -3.77 2.49
-5.85 -3.89 2.49
-5.77 -4.01 2.49
-5.69 -4.12 2.49
-5.60 -4.24 2.49
-5.52 -4.35 2.49
-5.43 -4.46 2.49
-5.34 -4.56 2.49
-5.25 -4.67 2.49
-5.15 -4.77 2.49
-5.05 -4.88 2.49
-4.95 -4.98 2.49
-4.85 -5.07 2.49
-4.75 -5.17 2.49
-4.65 -5.26 2.49
-4.54 -5.36 2.49
-4.43 -5.45 2.49
-4.32 -5.53 2.49
-4.21 -5.62 2.49
-4.09 -5.70 2.49
-3.98 -5.78 2.49
-3.86 -5.86 2.49
-3.74 -5.94 2.49
-3.62 -6.01 2.49
-3.50 -6.08 2.49
-3.38 -6.15 2.49
-3.25 -6.22 2.49
-3.13 -6.28 2.49
-3.00 -6.34 2.49
-2.87 -6.40 2.49
-2.74 -6.45 2.49
-2.61 -6.51 2.49
-2.48 -6.56 2.49
-2.35 -6.61 2.49
-2.22 -6.65 2.49
-2.08 -6.69 2.49
-1.95 -6.73 2.49
-1.81 -6.77 2.49
-1.68 -6.80 2.49
-1.54 -6.84 2.49
-1.40 -6.86 2.49
-1.26 -6.89 2.49
-1.12 -6.91 2.49
-0.99 -6.93 2.49
-0.85 -6.95 2.49
-0.71 -6.97 2.49
-0.57 -6.98 2.49
-0.43 -6.99 2.49
-0.29 -6.99 2.49
-0.15 -7.00 2.49
-0.01 -6.53 2.49
0.13 -6.53 2.49
0.26 -6.52 2.49
0.39 -6.51 2.49
0.52 -6.51 2.49
0.65 -6.49 2.49
0.78 -6.48 2.49
0.91 -6.46 2.49
1.04 -6.44 2.49
1.17 -6.42 2.49
1.29 -6.39 2.49
1.42 -6.36 2.49
1.55 -6.33 2.49
1.68 -6.30 2.49
1.80 -6.26 2.49
1.93 -6.22 2.49
2.05 -6.18 2.49
2.10 -5.93 2.41
2.20 -5.84 2.39
2.32 -5.80 2.39
2.43 -5.75 2.39
2.55 -5.70 2.39
2.66 -5.64 2.39
2.78 -5.59 2.39
2.89 -5.53 2.39
2.42 -4.42 1.93
2.65 -4.61 2.04
2.77 -4.61 2.06
2.89 -4.60 2.08
2.73 -4.16 1.91
2.83 -4.13 1.92
3.63 -5.07 2.39
3.73 -4.99 2.39
3.83 -4.92 2.39
3.93 -4.84 2.39
4.02 -4.76 2.39
4.12 -4.68 2.39
4.21 -4.59 2.39
4.30 -4.51 2.39
4.39 -4.42 2.39
4.48 -4.33 2.39
4.56 -4.24 2.39
4.64 -4.14 2.39
4.73 -4.05 2.39
4.81 -3.95 2.39
4.88 -3.86 2.39
4.96 -3.76 2.39
5.03 -3.66 2.39
5.11 -3.55 2.39
5.17 -3.45 2.39
5.24 -3.34 2.39
5.31 -3.24 2.39
5.37 -3.13 2.39
5.43 -3.02 2.39
5.49 -2.91 2.39
5.55 -2.80 2.39
5.60 -2.69 2.39
5.65 -2.57 2.39
5.70 -2.46 2.39
5.75 -2.34 2.39
5.80 -2.23 2.39
5.84 -2.11 2.39
5.88 -1.99 2.39
5.92 -1.87 2.39
5.96 -1.76 2.39
5.99 -1.64 2.39
6.02 -1.51 2.39
6.05 -1.39 2.39
6.12 -1.28 2.41
6.14 -1.16 2.41
6.16 -1.03 2.41
6.18 -0.91 2.41
6.19 -0.78 2.41
6.21 -0.66 2.40
6.21 -0.53 2.40
6.22 -0.41 2.40
6.23 -0.28 2.40
6.23 -0.16 2.40
6.23 -0.03 2.40
6.23 0.09 2.40
6.23 0.22 2.40
6.22 0.34 2.40
6.21 0.47 2.40
6.20 0.59 2.40
6.19 0.72 2.40
6.18 0.84 2.41
6.17 0.97 2.41
6.15 1.09 2.41
6.12 1.21 2.41
6.10 1.33 2.41
6.07 1.46 2.41
6.00 1.57 2.39
5.96 1.69 2.39
5.93 1.81 2.39
5.89 1.93 2.39
5.85 2.04 2.39
5.81 2.16 2.39
5.76 2.28 2.39
5.72 2.39 2.39
5.67 2.51 2.39
5.62 2.62 2.39
5.56 2.73 2.39
5.51 2.84 2.39
5.45 2.95 2.39
5.39 3.06 2.39
5.33 3.17 2.39
5.26 3.28 2.39
5.19 3.38 2.39
5.12 3.49 2.39
5.05 3.59 2.39
4.94 3.66 2.37
4.87 3.76 2.37
4.79 3.86 2.37
4.75 3.98 2.39
4.67 4.08 2.39
4.59 4.17 2.39
4.50 4.26 2.39
4.42 4.35 2.39
4.33 4.44 2.39
4.24 4.53 2.39
4.15 4.61 2.39
4.05 4.69 2.39
3.96 4.77 2.39
3.86 4.85 2.39
3.76 4.93 2.39
3.66 5.00 2.39
3.56 5.08 2.39
3.46 5.15 2.39
3.36 5.22 2.39
3.09 5.01 2.27
2.98 5.08 2.27
2.97 5.30 2.34
2.88 5.38 2.35
2.77 5.44 2.35
2.66 5.49 2.35
2.46 5.35 2.27
2.39 5.47 2.30
2.37 5.74 2.39
2.25 5.79 2.39
2.14 5.86 2.40
2.02 5.87 2.39
1.95 6.07 2.46
1.86 6.21 2.49
1.73 6.24 2.49
1.60 6.28 2.49
1.48 6.31 2.49
1.35 6.34 2.49
1.22 6.36 2.49
1.10 6.39 2.49
0.97 6.41 2.49
0.84 6.43 2.49
0.71 6.45 2.49
0.58 6.46 2.49
0.45 6.47 2.49
0.32 6.48 2.49
0.19 6.48 2.49
0.06 6.49 2.49
-0.07 6.49 2.49
-0.20 6.49 2.49
-0.33 6.48 2.49
-0.46 6.47 2.49
-0.59 6.46 2.49
-0.72 6.45 2.49
-0.85 6.44 2.49
-0.98 6.42 2.49
-1.11 6.40 2.49
-1.24 6.38 2.49
-1.36 6.35 2.49
-1.49 6.32 2.49
-1.62 6.29 2.49
-1.75 6.26 2.49
-1.87 6.23 2.49
-2.00 6.19 2.49
-2.12 6.15 2.49
-2.24 6.10 2.49
-2.37 6.06 2.49
-2.49 6.01 2.49
-2.61 5.96 2.49
-2.73 5.91 2.49
-2.85 5.85 2.49
-2.96 5.79 2.49
-3.08 5.73 2.49
-3.19 5.67 2.49
-3.31 5.61 2.49
-3.42 5.54 2.49
-3.53 5.47 2.49
-3.64 5.40 2.49
-3.75 5.33 2.49
-3.86 5.25 2.49
-3.96 5.17 2.49
-4.06 5.09 2.49
-4.17 5.01 2.49
-4.27 4.93 2.49
-4.36 4.84 2.49
-4.46 4.75 2.49
-4.56 4.66 2.49
-4.65 4.57 2.49
-4.74 4.48 2.49
-4.83 4.38 2.49
-4.92 4.29 2.49
-5.00 4.19 2.49
-5.09 4.09 2.49
-5.17 3.98 2.49
-5.25 3.88 2.49
-5.33 3.77 2.49
-5.40 3.67 2.49
-5.48 3.56 2.49
-5.55 3.45 2.49
-5.61 3.34 2.49
-5.68 3.22 2.49
-5.75 3.11 2.49
-5.81 2.99 2.49
-5.87 2.88 2.49
-5.92 2.76 2.49
-5.98 2.64 2.49
-6.03 2.52 2.49
-6.05 2.39 2.48
-6.05 2.25 2.46
-6.05 2.11 2.44
-6.05 1.98 2.43
-6.05 1.84 2.41
-6.05 1.71 2.40
-6.07 1.58 2.39
-6.10 1.46 2.39
-6.13 1.34 2.39
-6.15 1.22 2.39
-6.18 1.09 2.39
-6.20 0.97 2.39
-6.22 0.84 2.39
-6.24 0.72 2.40
-6.25 0.59 2.39
-6.26 0.47 2.39
-6.27 0.34 2.39
-6.27 0.22 2.39
-6.28 0.09 2.39
-6.28 -0.03 2.39
-6.28 -0.16 2.39
-6.27 -0.29 2.39
-6.26 -0.41 2.39
-6.26 -0.54 2.39
-6.24 -0.66 2.39
-6.23 -0.79 2.39
-6.21 -0.91 2.39
-6.21 -1.04 2.40
-6.17 -1.16 2.39
-6.15 -1.28 2.39
-6.12 -1.41 2.39
-6.09 -1.53 2.39
-6.06 -1.65 2.39
-6.03 -1.77 2.39
-5.99 -1.90 2.39
-5.98 -2.03 2.40
-5.98 -2.16 2.42
-5.98 -2.29 2.44
-5.98 -2.43 2.46
-5.97 -2.57 2.48
-5.97 -2.71 2.49
-5.91 -2.83 2.49
-5.85 -2.95 2.49
-5.79 -3.07 2.49
-5.73 -3.18 2.49
-5.66 -3.30 2.49
-5.60 -3.41 2.49
-5.53 -3.52 2.49
-5.46 -3.63 2.49
-5.38 -3.74 2.49
-5.31 -3.85 2.49
-5.23 -3.95 2.49
-5.15 -4.05 2.49
-5.06 -4.16 2.49
-4.98 -4.26 2.49
-4.89 -4.36 2.49
-4.80 -4.45 2.49
-4.71 -4.55 2.49
-4.62 -4.64 2.49
-4.53 -4.73 2.49
-4.43 -4.82 2.49
-4.33 -4.91 2.49
-4.23 -5.00 2.49
-4.13 -5.08 2.49
-4.03 -5.16 2.49
-3.93 -5.24 2.49
-3.82 -5.32 2.49
-3.71 -5.39 2.49
-3.60 -5.47 2.49
-3.49 -5.54 2.49
-3.38 -5.61 2.49
-3.27 -5.67 2.49
-3.15 -5.74 2.49
-3.04 -5.80 2.49
-2.92 -5.86 2.49
-2.80 -5.91 2.49
-2.68 -5.97 2.49
-2.56 -6.02 2.49
-2.44 -6.07 2.49
-2.32 -6.12 2.49
-2.19 -6.16 2.49
-2.07 -6.20 2.49
-1.94 -6.24 2.49
-1.82 -6.28 2.49
-1.69 -6.32 2.49
-1.56 -6.35 2.49
-1.44 -6.38 2.49
-1.31 -6.40 2.49
-1.18 -6.43 2.49
-1.05 -6.45 2.49
-0.92 -6.47 2.49
-0.79 -6.49 2.49
-0.66 -6.50 2.49
-0.53 -6.51 2.49
-0.40 -6.52 2.49
-0.27 -6.52 2.49
-0.14 -6.53 2.49
-0.01 -6.11 2.49
0.12 -6.11 2.49
0.24 -6.11 2.49
0.36 -6.10 2.49
0.48 -6.09 2.49
0.61 -6.08 2.49
0.73 -6.06 2.49
0.85 -6.05 2.49
0.97 -6.03 2.49
1.09 -6.01 2.49
1.21 -5.98 2.49
1.33 -5.96 2.49
1.45 -5.93 2.49
1.57 -5.90 2.49
1.69 -5.86 2.49
1.80 -5.83 2.49
1.92 -5.79 2.49
2.04 -5.75 2.49
2.09 -5.55 2.43
2.17 -5.43 2.39
2.29 -5.42 2.41
2.39 -5.34 2.39
2.49 -5.29 2.39
2.60 -5.23 2.39
2.70 -5.18 2.39
2.42 -4.42 2.06
2.42 -4.21 1.99
2.48 -4.13 1.98
2.60 -4.13 2.00
2.71 -4.13 2.02
2.83 -4.13 2.05
3.40 -4.75 2.39
3.49 -4.68 2.39
3.58 -4.60 2.39
3.68 -4.53 2.39
3.77 -4.46 2.39
3.85 -4.38 2.39
3.94 -4.30 2.39
4.03 -4.22 2.39
4.11 -4.14 2.39
4.19 -4.05 2.39
4.27 -3.97 2.39
4.35 -3.88 2.39
4.43 -3.79 2.39
4.50 -3.70 2.39
4.57 -3.61 2.39
4.64 -3.52 2.39
4.71 -3.42 2.39
4.78 -3.33 2.39
4.85 -3.23 2.39
4.91 -3.13 2.39
4.97 -3.03 2.39
5.03 -2.93 2.39
5.09 -2.83 2.39
5.14 -2.73 2.39
5.20 -2.62 2.39
5.25 -2.52 2.39
5.30 -2.41 2.39
5.34 -2.30 2.39
5.39 -2.20 2.39
5.43 -2.09 2.39
5.47 -1.98 2.39
5.51 -1.87 2.39
5.54 -1.76 2.39
5.58 -1.64 2.39
5.61 -1.53 2.39
5.64 -1.42 2.39
5.67 -1.31 2.39
5.69 -1.19 2.39
5.71 -1.08 2.39
5.73 -0.96 2.39
5.75 -0.85 2.39
5.77 -0.73 2.39
5.78 -0.61 2.39
5.79 -0.50 2.39
5.80 -0.38 2.39
5.80 -0.27 2.39
5.81 -0.15 2.39
5.81 -0.03 2.39
5.81 0.09 2.39
5.80 0.20 2.39
5.80 0.32 2.39
5.79 0.43 2.39
