ply
format ascii 1.0
element vertex 2954
property float32 x
property float32 y
property float32 z
end_header
2.08 0.87 0.37
2.09 0.92 0.37
13.20 6.17 2.39
13.08 6.43 2.39
12.95 6.69 2.39
12.82 6.95 2.39
12.68 7.21 2.39
12.53 7.47 2.39
12.38 7.72 2.39
12.23 7.97 2.39
12.07 8.21 2.39
11.90 8.45 2.39
11.73 8.69 2.39
11.56 8.93 2.39
11.38 9.16 2.39
11.20 9.39 2.39
11.48 10.03 2.49
11.28 10.26 2.49
11.07 10.48 2.49
10.86 10.71 2.49
10.65 10.92 2.49
10.43 11.14 2.49
10.20 11.35 2.49
9.98 11.55 2.49
9.74 11.75 2.49
9.51 11.95 2.49
9.27 12.14 2.49
9.02 12.32 2.49
8.78 12.50 2.49
8.53 12.68 2.49
8.27 12.85 2.49
8.01 13.01 2.49
7.75 13.17 2.49
7.49 13.33 2.49
7.22 13.48 2.49
6.95 13.62 2.49
6.67 13.76 2.49
6.40 13.89 2.49
6.12 14.02 2.49
5.83 14.14 2.49
5.55 14.26 2.49
5.26 14.37 2.49
4.97 14.47 2.49
4.68 14.57 2.49
4.39 14.66 2.49
4.10 14.75 2.49
3.80 14.83 2.49
3.50 14.90 2.49
3.20 14.97 2.49
2.90 15.03 2.49
2.60 15.09 2.49
2.30 15.14 2.49
1.99 15.18 2.49
1.69 15.22 2.49
1.38 15.25 2.49
1.07 15.28 2.49
0.77 15.30 2.49
0.46 15.31 2.49
0.15 15.31 2.49
-0.15 15.32 2.49
-0.46 15.31 2.49
-0.77 15.30 2.49
-1.07 15.27 2.49
-1.38 15.21 2.49
-1.68 15.16 2.48
-1.98 15.10 2.48
-2.28 15.04 2.48
-2.58 14.98 2.48
-2.88 14.93 2.47
-3.18 14.87 2.48
-3.48 14.81 2.48
-3.78 14.75 2.48
-4.08 14.70 2.48
-4.38 14.64 2.49
-4.69 14.58 2.49
-4.98 14.48 2.49
-5.27 14.37 2.49
-5.55 14.26 2.49
-5.84 14.15 2.49
-6.12 14.03 2.49
-6.40 13.90 2.49
-6.68 13.77 2.49
-6.95 13.63 2.49
-7.22 13.49 2.49
-7.49 13.34 2.49
-7.76 13.18 2.49
-8.02 13.02 2.49
-8.28 12.86 2.49
-8.53 12.69 2.49
-8.79 12.51 2.49
-9.03 12.33 2.49
-9.28 12.15 2.49
-9.52 11.96 2.49
-9.76 11.76 2.49
-9.99 11.56 2.49
-10.22 11.36 2.49
-10.44 11.15 2.49
-10.66 10.94 2.49
-10.88 10.72 2.49
-11.09 10.50 2.49
-11.29 10.27 2.49
-11.50 10.04 2.49
-11.69 9.81 2.49
-11.89 9.57 2.49
-12.07 9.32 2.49
-12.26 9.08 2.49
-12.43 8.83 2.49
-12.61 8.58 2.49
-12.77 8.32 2.49
-12.93 8.06 2.49
-13.09 7.80 2.49
-13.24 7.53 2.49
-13.39 7.26 2.49
-13.53 6.99 2.49
-13.66 6.72 2.49
-13.79 6.44 2.49
-13.92 6.16 2.49
-14.03 5.88 2.49
-8.76 3.46 1.54
-9.39 3.50 1.64
-9.63 3.37 1.67
-9.75 3.19 1.68
-9.81 3.00 1.68
-9.83 2.79 1.68
-9.73 2.55 1.65
-9.14 2.20 1.54
-14.22 3.12 2.39
-14.27 2.83 2.39
-14.33 2.55 2.39
-14.37 2.26 2.39
-14.41 1.97 2.39
-14.44 1.68 2.39
-14.47 1.39 2.39
-11.86 0.90 1.96
-11.87 0.66 1.96
-11.60 0.41 1.91
-11.56 0.18 1.90
-11.55 -0.05 1.90
-10.10 -0.25 1.66
-9.99 -0.45 1.65
-10.00 -0.65 1.65
-10.03 -0.85 1.66
-10.55 -1.11 1.75
-14.48 -1.82 2.41
-14.44 -2.11 2.41
-14.39 -2.40 2.41
-14.34 -2.69 2.41
-9.95 -2.07 1.68
-9.86 -2.26 1.67
-9.85 -2.47 1.68
-9.87 -2.69 1.69
-14.06 -4.13 2.42
-14.00 -4.42 2.42
-13.92 -4.71 2.43
-10.32 -3.72 1.81
-9.27 -3.55 1.64
-6.35 -2.58 1.13
-9.16 -3.94 1.65
-9.18 -4.17 1.67
-13.79 -6.60 2.53
-13.61 -6.85 2.52
-13.41 -7.09 2.51
-13.20 -7.32 2.50
-9.77 -5.68 1.87
-9.10 -5.54 1.76
-8.71 -5.54 1.71
-8.65 -5.75 1.72
-8.68 -6.03 1.75
-11.95 -8.66 2.45
-11.72 -8.86 2.44
-9.26 -7.30 1.96
-9.11 -7.48 1.96
-9.01 -7.70 1.97
-8.63 -7.68 1.92
-8.27 -7.66 1.87
-8.30 -8.01 1.91
-8.32 -8.35 1.96
-8.75 -9.15 2.10
-8.69 -9.46 2.13
-8.59 -9.73 2.16
-8.24 -9.73 2.12
-8.13 -10.00 2.14
-8.09 -10.36 2.18
-8.36 -11.17 2.32
-8.20 -11.43 2.34
-7.88 -11.45 2.31
-7.64 -11.60 2.31
-7.66 -12.16 2.39
-7.41 -12.31 2.39
-3.70 -6.43 1.23
-3.45 -6.29 1.19
-3.30 -6.31 1.19
-3.18 -6.39 1.19
-3.10 -6.54 1.20
-5.88 -13.10 2.39
-5.61 -13.21 2.39
-5.35 -13.32 2.39
-5.08 -13.43 2.39
-4.80 -13.52 2.39
-4.53 -13.62 2.39
-4.26 -13.70 2.39
-3.98 -13.78 2.39
-3.77 -14.10 2.43
-3.57 -14.53 2.49
-3.28 -14.60 2.49
-2.34 -11.50 1.96
-2.09 -11.45 1.94
-1.85 -11.40 1.92
-1.61 -11.35 1.91
-1.37 -11.30 1.90
-1.19 -11.85 1.99
-1.02 -12.70 2.12
-0.90 -14.93 2.49
-0.60 -14.95 2.49
-0.30 -14.95 2.49
-0.00 -13.13 2.49
0.26 -13.12 2.49
0.53 -13.12 2.49
0.79 -13.10 2.49
1.05 -13.09 2.49
1.32 -13.06 2.49
1.58 -13.03 2.49
1.84 -13.00 2.49
2.10 -12.96 2.49
2.36 -12.91 2.49
2.62 -12.86 2.49
2.88 -12.81 2.49
3.13 -12.75 2.49
3.39 -12.69 2.49
1.62 -5.61 1.11
1.71 -5.50 1.09
1.81 -5.44 1.09
1.92 -5.42 1.09
2.06 -5.44 1.10
4.69 -11.69 2.39
4.92 -11.59 2.39
5.15 -11.49 2.39
5.38 -11.38 2.39
5.61 -11.28 2.39
5.84 -11.16 2.39
6.06 -11.04 2.39
6.28 -10.92 2.39
6.50 -10.79 2.39
6.72 -10.66 2.39
6.93 -10.52 2.39
7.14 -10.38 2.39
7.35 -10.24 2.39
7.55 -10.09 2.39
7.77 -9.95 2.39
7.62 -9.37 2.29
7.57 -8.94 2.22
7.44 -8.44 2.13
7.41 -8.06 2.08
7.61 -7.96 2.09
8.96 -9.00 2.41
9.14 -8.82 2.41
9.32 -8.64 2.41
9.49 -8.45 2.41
7.12 -6.09 1.77
7.33 -6.02 1.80
7.51 -5.92 1.81
7.73 -5.84 1.83
7.99 -5.79 1.87
8.22 -5.71 1.89
8.43 -5.60 1.91
8.68 -5.53 1.95
9.01 -5.48 1.99
9.30 -5.41 2.03
10.15 -5.63 2.19
10.28 -5.44 2.20
10.41 -5.24 2.20
10.55 -5.05 2.21
10.68 -4.85 2.22
10.82 -4.65 2.22
10.95 -4.45 2.23
11.08 -4.25 2.24
10.94 -3.94 2.19
10.80 -3.65 2.15
10.77 -3.40 2.13
10.78 -3.17 2.12
10.82 -2.94 2.11
10.85 -2.72 2.11
10.88 -2.50 2.11
10.91 -2.27 2.10
10.94 -2.05 2.10
10.81 -1.80 2.07
10.86 -1.59 2.07
11.00 -1.38 2.09
11.12 -1.17 2.11
11.11 -0.95 2.10
11.09 -0.72 2.09
11.07 -0.50 2.09
11.04 -0.27 2.08
11.01 -0.05 2.07
10.98 0.17 2.07
10.94 0.39 2.06
10.89 0.61 2.05
11.07 0.84 2.09
11.25 1.08 2.12
11.43 1.33 2.16
11.62 1.59 2.20
11.79 1.85 2.24
11.96 2.13 2.28
12.14 2.41 2.32
12.33 2.71 2.37
12.47 3.00 2.41
12.41 3.25 2.41
12.34 3.50 2.41
12.27 3.75 2.41
12.20 3.99 2.41
12.12 4.24 2.41
12.03 4.48 2.41
2.11 0.83 0.42
2.08 0.87 0.42
2.09 0.92 0.43
11.64 5.44 2.41
11.46 5.63 2.39
11.34 5.86 2.39
11.23 6.09 2.39
11.10 6.32 2.39
10.98 6.54 2.39
10.84 6.76 2.39
10.71 6.98 2.39
10.57 7.19 2.39
10.42 7.40 2.39
10.28 7.61 2.39
10.12 7.82 2.39
9.97 8.02 2.39
9.80 8.22 2.39
9.64 8.42 2.39
9.47 8.61 2.39
9.30 8.80 2.39
9.12 8.99 2.39
9.32 9.57 2.49
9.13 9.75 2.49
8.94 9.94 2.49
8.74 10.11 2.49
8.53 10.29 2.49
8.32 10.46 2.49
8.11 10.63 2.49
7.90 10.79 2.49
7.68 10.95 2.49
7.46 11.10 2.49
7.24 11.25 2.49
7.01 11.39 2.49
6.78 11.53 2.49
6.55 11.67 2.49
6.32 11.80 2.49
6.08 11.92 2.49
5.84 12.05 2.49
5.60 12.16 2.49
5.35 12.27 2.49
5.11 12.38 2.49
4.86 12.48 2.49
4.61 12.58 2.49
4.35 12.67 2.49
4.10 12.75 2.49
3.84 12.83 2.49
3.58 12.91 2.49
3.33 12.98 2.49
3.06 13.04 2.49
2.80 13.10 2.49
2.54 13.16 2.49
2.27 13.21 2.49
2.01 13.25 2.49
1.74 13.29 2.49
1.48 13.32 2.49
1.21 13.35 2.49
0.94 13.37 2.49
0.67 13.39 2.49
0.40 13.40 2.49
0.13 13.40 2.49
-0.13 13.40 2.49
-0.40 13.40 2.49
-0.67 13.39 2.49
-0.94 13.37 2.49
-1.21 13.35 2.49
-1.48 13.32 2.49
-1.74 13.29 2.49
-2.01 13.25 2.49
-2.28 13.21 2.49
-2.54 13.16 2.49
-2.80 13.11 2.49
-3.07 13.05 2.49
-3.33 12.98 2.49
-3.59 12.91 2.49
-3.85 12.84 2.49
-4.10 12.76 2.49
-4.36 12.67 2.49
-4.61 12.58 2.49
-4.86 12.49 2.49
-5.11 12.39 2.49
-5.36 12.28 2.49
-5.60 12.17 2.49
-5.84 12.05 2.49
-6.09 11.93 2.49
-6.32 11.81 2.49
-6.56 11.68 2.49
-6.79 11.54 2.49
-7.02 11.40 2.49
-7.25 11.26 2.49
-7.47 11.11 2.49
-7.69 10.95 2.49
-7.91 10.80 2.49
-8.12 10.64 2.49
-8.33 10.47 2.49
-8.54 10.30 2.49
-8.74 10.12 2.49
-8.94 9.94 2.49
-9.14 9.76 2.49
-9.33 9.58 2.49
-9.52 9.38 2.49
-9.71 9.19 2.49
-9.89 8.99 2.49
-10.07 8.79 2.49
-10.24 8.59 2.49
-10.41 8.38 2.49
-10.57 8.17 2.49
-10.73 7.95 2.49
-10.89 7.73 2.49
-11.04 7.51 2.49
-11.18 7.29 2.49
-11.33 7.06 2.49
-11.46 6.83 2.49
-11.60 6.60 2.49
-11.72 6.36 2.49
-11.85 6.12 2.49
-11.97 5.88 2.49
-12.08 5.64 2.49
-12.19 5.40 2.49
-12.29 5.15 2.49
-11.88 4.70 2.39
-8.66 3.22 1.73
-8.55 2.99 1.69
-8.56 2.80 1.69
-8.60 2.63 1.68
-8.71 2.47 1.70
-8.90 2.33 1.72
-12.40 2.99 2.39
-12.46 2.74 2.39
-12.51 2.48 2.39
-12.55 2.23 2.39
-12.59 1.98 2.39
-12.63 1.73 2.39
-12.65 1.47 2.39
-12.68 1.22 2.39
-11.86 0.90 2.23
-11.35 0.63 2.13
-11.02 0.39 2.07
-10.81 0.17 2.03
-10.65 -0.05 2.00
-10.06 -0.25 1.89
-10.05 -0.45 1.89
-10.04 -0.65 1.89
-10.04 -0.85 1.89
-10.34 -1.09 1.96
-10.32 -1.30 1.96
-10.29 -1.50 1.96
-10.25 -1.71 1.96
-10.21 -1.91 1.96
-9.92 -2.07 1.91
-9.88 -2.27 1.91
-9.88 -2.48 1.92
-9.86 -2.68 1.92
-9.96 -2.93 1.96
-9.90 -3.12 1.96
-9.84 -3.33 1.96
-9.80 -3.53 1.96
-9.35 -3.58 1.89
-6.35 -2.58 1.29
-9.18 -3.95 1.88
-9.22 -4.19 1.91
-9.61 -4.60 2.01
-9.57 -4.82 2.02
-9.53 -5.04 2.03
-9.48 -5.26 2.05
-9.44 -5.49 2.06
-9.03 -5.50 2.00
-8.72 -5.55 1.95
-8.68 -5.77 1.97
-8.70 -6.04 2.00
-8.73 -6.32 2.04
-9.17 -6.93 2.17
-9.12 -7.18 2.19
-9.07 -7.44 2.22
-9.02 -7.71 2.24
-8.56 -7.62 2.17
-8.27 -7.67 2.13
-8.21 -7.92 2.16
-8.32 -8.36 2.23
-8.73 -9.13 2.39
-8.54 -9.30 2.39
-8.35 -9.47 2.39
-8.16 -9.63 2.39
-7.96 -9.79 2.39
-7.76 -9.95 2.39
-7.56 -10.10 2.39
-7.35 -10.25 2.39
-7.15 -10.39 2.39
-6.94 -10.53 2.39
-6.72 -10.67 2.39
-6.51 -10.80 2.39
-3.70 -6.43 1.41
-3.45 -6.29 1.36
-3.30 -6.31 1.35
-3.18 -6.39 1.35
-3.10 -6.55 1.37
-5.16 -11.50 2.39
-4.92 -11.60 2.39
-4.69 -11.69 2.39
-4.45 -11.78 2.39
-4.22 -11.87 2.39
-4.10 -12.32 2.46
-3.90 -12.54 2.49
-3.64 -12.62 2.49
-3.39 -12.69 2.49
-3.13 -12.75 2.49
-2.65 -11.78 2.29
-2.34 -11.51 2.23
-2.09 -11.46 2.21
-1.85 -11.41 2.19
-1.61 -11.36 2.18
-1.37 -11.31 2.16
-1.16 -11.49 2.19
-1.05 -13.09 2.49
-0.79 -13.10 2.49
-0.53 -13.12 2.49
-0.26 -13.13 2.49
-0.00 -11.69 2.49
0.23 -11.68 2.49
0.47 -11.68 2.49
0.70 -11.66 2.49
0.94 -11.65 2.49
1.17 -11.63 2.49
1.40 -11.60 2.49
1.64 -11.57 2.49
1.87 -11.54 2.49
2.10 -11.50 2.49
2.33 -11.45 2.49
2.56 -11.40 2.49
2.79 -11.35 2.49
3.02 -11.29 2.49
1.62 -5.61 1.25
1.71 -5.50 1.23
1.81 -5.44 1.22
1.92 -5.42 1.23
2.06 -5.44 1.24
4.17 -10.40 2.39
4.38 -10.32 2.39
4.59 -10.23 2.39
4.79 -10.13 2.39
5.00 -10.04 2.39
5.20 -9.93 2.39
5.40 -9.83 2.39
5.59 -9.72 2.39
5.79 -9.61 2.39
5.98 -9.49 2.39
6.17 -9.37 2.39
6.36 -9.24 2.39
6.54 -9.11 2.39
6.72 -8.98 2.39
6.90 -8.85 2.39
7.08 -8.71 2.39
7.25 -8.56 2.39
7.43 -8.42 2.39
7.41 -8.06 2.33
7.61 -7.96 2.34
6.34 -6.37 1.91
6.78 -6.54 2.01
6.58 -6.10 1.91
8.34 -7.43 2.38
7.12 -6.09 1.99
7.33 -6.02 2.02
7.51 -5.92 2.03
7.73 -5.84 2.06
7.99 -5.79 2.10
8.22 -5.71 2.13
8.43 -5.60 2.15
8.69 -5.53 2.19
9.01 -5.48 2.24
9.30 -5.41 2.29
9.91 -5.50 2.41
10.03 -5.30 2.41
10.14 -5.10 2.41
10.25 -4.90 2.41
10.35 -4.70 2.41
10.33 -4.44 2.39
10.21 -4.15 2.34
10.10 -3.87 2.30
10.04 -3.62 2.26
10.06 -3.40 2.25
10.08 -3.18 2.24
10.10 -2.97 2.23
10.11 -2.75 2.22
10.14 -2.54 2.22
10.17 -2.33 2.21
10.20 -2.13 2.21
10.23 -1.92 2.20
10.25 -1.71 2.20
10.27 -1.50 2.20
10.27 -1.29 2.19
10.27 -1.08 2.19
10.25 -0.87 2.18
10.22 -0.66 2.17
10.20 -0.46 2.16
10.17 -0.25 2.15
10.14 -0.05 2.14
10.10 0.16 2.14
10.07 0.36 2.13
10.04 0.56 2.13
10.02 0.76 2.12
10.06 0.97 2.14
10.20 1.19 2.17
10.34 1.41 2.21
10.49 1.65 2.24
10.64 1.89 2.28
10.78 2.14 2.32
10.92 2.40 2.36
11.05 2.66 2.40
11.03 2.89 2.41
10.97 3.11 2.41
10.91 3.33 2.41
10.84 3.55 2.41
10.77 3.77 2.41
10.69 3.99 2.41
2.11 0.83 0.48
2.08 0.87 0.47
2.09 0.92 0.48
10.35 4.83 2.41
10.25 5.04 2.41
10.08 5.21 2.39
9.98 5.41 2.39
9.87 5.61 2.39
9.75 5.81 2.39
9.64 6.01 2.39
9.52 6.20 2.39
9.39 6.39 2.39
9.26 6.58 2.39
9.13 6.77 2.39
9.00 6.95 2.39
8.86 7.13 2.39
8.71 7.31 2.39
8.56 7.48 2.39
8.41 7.65 2.39
8.26 7.82 2.39
8.10 7.99 2.39
7.94 8.15 2.39
7.78 8.31 2.39
7.61 8.46 2.39
7.44 8.62 2.39
7.58 9.14 2.49
7.40 9.29 2.49
7.21 9.44 2.49
7.02 9.59 2.49
6.83 9.73 2.49
6.63 9.86 2.49
6.43 9.99 2.49
6.23 10.12 2.49
6.03 10.25 2.49
5.82 10.37 2.49
5.61 10.48 2.49
5.40 10.59 2.49
5.19 10.70 2.49
4.97 10.80 2.49
4.76 10.90 2.49
4.54 11.00 2.49
4.32 11.09 2.49
4.09 11.17 2.49
3.87 11.25 2.49
3.64 11.33 2.49
3.41 11.40 2.49
3.18 11.47 2.49
2.95 11.53 2.49
2.72 11.59 2.49
2.49 11.64 2.49
2.26 11.69 2.49
2.02 11.73 2.49
1.78 11.77 2.49
1.55 11.80 2.49
1.31 11.83 2.49
1.07 11.86 2.49
0.84 11.88 2.49
0.60 11.89 2.49
0.36 11.90 2.49
0.12 11.91 2.49
-0.12 11.91 2.49
-0.36 11.90 2.49
-0.60 11.89 2.49
-0.84 11.88 2.49
-1.07 11.86 2.49
-1.31 11.83 2.49
-1.55 11.81 2.49
-1.79 11.77 2.49
-2.02 11.73 2.49
-2.26 11.69 2.49
-2.49 11.64 2.49
-2.72 11.59 2.49
-2.96 11.53 2.49
-3.19 11.47 2.49
-3.42 11.40 2.49
-3.64 11.33 2.49
-3.87 11.26 2.49
-4.09 11.18 2.49
-4.32 11.09 2.49
-4.54 11.00 2.49
-4.76 10.91 2.49
-4.98 10.81 2.49
-5.19 10.71 2.49
-5.41 10.60 2.49
-5.62 10.49 2.49
-5.83 10.37 2.49
-6.03 10.25 2.49
-6.24 10.13 2.49
-6.44 10.00 2.49
-6.64 9.87 2.49
-6.83 9.73 2.49
-7.03 9.59 2.49
-7.22 9.45 2.49
-7.40 9.30 2.49
-7.59 9.15 2.49
-7.77 8.99 2.49
-7.95 8.84 2.49
-8.12 8.67 2.49
-8.29 8.51 2.49
-8.46 8.34 2.49
-8.62 8.17 2.49
-8.79 7.99 2.49
-8.94 7.81 2.49
-9.10 7.63 2.49
-9.25 7.44 2.49
-9.39 7.26 2.49
-9.54 7.06 2.49
-9.67 6.87 2.49
-9.81 6.67 2.49
-9.94 6.48 2.49
-10.07 6.27 2.49
-10.19 6.07 2.49
-10.31 5.86 2.49
-10.42 5.65 2.49
-10.53 5.44 2.49
-10.63 5.23 2.49
-10.74 5.01 2.49
-10.83 4.80 2.49
-10.47 4.39 2.39
-10.56 4.18 2.39
-10.64 3.96 2.39
-8.70 3.04 1.94
-8.68 2.84 1.92
-8.72 2.66 1.92
-8.84 2.51 1.94
-9.17 2.40 2.00
-11.02 2.65 2.39
-11.07 2.43 2.39
-11.12 2.21 2.39
-11.16 1.98 2.39
-11.19 1.76 2.39
-11.22 1.53 2.39
-11.25 1.31 2.39
-11.27 1.08 2.39
-11.29 0.86 2.39
-11.30 0.63 2.39
-11.03 0.39 2.33
-10.81 0.17 2.28
-10.65 -0.05 2.25
-10.09 -0.25 2.13
-9.98 -0.45 2.11
-9.99 -0.65 2.12
-10.03 -0.85 2.13
-10.03 -1.06 2.13
-10.22 -1.28 2.18
-10.18 -1.49 2.18
-10.14 -1.69 2.18
-10.11 -1.89 2.18
-9.94 -2.07 2.15
-9.86 -2.26 2.14
-9.83 -2.46 2.15
-9.83 -2.68 2.16
-9.87 -2.90 2.18
-9.89 -3.12 2.20
-9.85 -3.33 2.20
-9.81 -3.54 2.21
-9.25 -3.55 2.10
-6.35 -2.58 1.45
-9.19 -3.95 2.12
-9.21 -4.18 2.14
-9.22 -4.41 2.17
-9.57 -4.82 2.27
-9.53 -5.04 2.29
-9.48 -5.26 2.30
-9.44 -5.49 2.32
-9.12 -5.55 2.27
-8.73 -5.55 2.20
-8.65 -5.75 2.21
-8.63 -5.99 2.23
-9.11 -6.60 2.39
-8.98 -6.78 2.39
-8.84 -6.96 2.39
-8.69 -7.13 2.39
-8.55 -7.31 2.39
-8.40 -7.47 2.39
-8.24 -7.64 2.39
-8.09 -7.80 2.39
-7.93 -7.96 2.39
-7.77 -8.12 2.39
-7.60 -8.27 2.39
-7.43 -8.42 2.39
-7.26 -8.57 2.39
-7.09 -8.71 2.39
-6.91 -8.85 2.39
-6.73 -8.98 2.39
-6.54 -9.12 2.39
-6.36 -9.24 2.39
-6.17 -9.37 2.39
-5.98 -9.49 2.39
-5.79 -9.61 2.39
-3.70 -6.43 1.58
-3.45 -6.29 1.53
-3.30 -6.31 1.52
-3.18 -6.39 1.52
-3.10 -6.55 1.54
-4.59 -10.23 2.39
-4.45 -10.48 2.43
-4.36 -10.85 2.49
-4.14 -10.94 2.49
-3.92 -11.02 2.49
-3.69 -11.10 2.49
-3.47 -11.17 2.49
-3.24 -11.23 2.49
-3.02 -11.30 2.49
-2.79 -11.35 2.49
-2.56 -11.41 2.49
-2.33 -11.45 2.49
-2.10 -11.50 2.49
-1.87 -11.54 2.49
-1.64 -11.57 2.49
-1.41 -11.60 2.49
-1.17 -11.63 2.49
-0.94 -11.65 2.49
-0.70 -11.67 2.49
-0.47 -11.68 2.49
-0.23 -11.68 2.49
-0.00 -10.52 2.49
0.21 -10.52 2.49
0.42 -10.51 2.49
0.63 -10.50 2.49
0.84 -10.48 2.49
1.05 -10.47 2.49
1.26 -10.44 2.49
1.47 -10.42 2.49
1.68 -10.38 2.49
1.89 -10.35 2.49
2.10 -10.31 2.49
2.30 -10.26 2.49
2.51 -10.22 2.49
2.72 -10.16 2.49
1.62 -5.61 1.38
1.71 -5.50 1.36
1.81 -5.44 1.36
1.92 -5.42 1.36
2.06 -5.44 1.38
3.76 -9.36 2.39
2.46 -5.79 1.49
4.13 -9.21 2.39
4.31 -9.12 2.39
4.50 -9.03 2.39
4.68 -8.94 2.39
4.86 -8.85 2.39
5.03 -8.75 2.39
5.21 -8.65 2.39
5.38 -8.54 2.39
5.55 -8.43 2.39
5.72 -8.32 2.39
5.89 -8.20 2.39
6.05 -8.08 2.39
6.21 -7.96 2.39
6.37 -7.84 2.39
6.53 -7.71 2.39
6.68 -7.57 2.39
6.83 -7.44 2.39
6.98 -7.30 2.39
6.34 -6.36 2.12
6.36 -6.13 2.09
6.57 -6.09 2.12
7.53 -6.70 2.38
7.12 -6.09 2.21
7.33 -6.02 2.24
7.51 -5.92 2.26
7.73 -5.84 2.29
7.99 -5.79 2.33
8.22 -5.71 2.36
8.43 -5.60 2.39
8.59 -5.47 2.41
8.70 -5.30 2.41
8.81 -5.12 2.41
8.91 -4.94 2.41
9.01 -4.76 2.41
9.10 -4.58 2.41
9.20 -4.40 2.41
9.28 -4.22 2.41
9.37 -4.03 2.41
9.37 -3.81 2.39
9.40 -3.60 2.37
9.43 -3.40 2.36
9.45 -3.19 2.35
9.47 -2.99 2.34
9.49 -2.79 2.33
9.51 -2.59 2.32
9.52 -2.39 2.31
9.54 -2.19 2.31
9.57 -1.99 2.30
9.60 -1.80 2.30
9.61 -1.60 2.29
9.62 -1.41 2.29
9.62 -1.21 2.28
9.62 -1.01 2.28
9.62 -0.82 2.27
9.62 -0.62 2.27
9.60 -0.43 2.26
9.57 -0.24 2.25
9.54 -0.04 2.24
9.51 0.15 2.24
9.48 0.34 2.23
9.46 0.53 2.23
9.44 0.72 2.22
9.42 0.90 2.22
9.39 1.09 2.22
9.36 1.28 2.22
9.45 1.49 2.25
9.56 1.70 2.28
9.67 1.92 2.32
9.78 2.15 2.35
9.89 2.38 2.39
9.92 2.60 2.41
9.87 2.80 2.41
9.81 3.00 2.41
9.75 3.19 2.41
9.68 3.39 2.41
9.62 3.58 2.41
2.11 0.83 0.53
2.08 0.87 0.53
2.09 0.92 0.53
9.30 4.35 2.41
9.22 4.53 2.41
9.12 4.72 2.41
9.03 4.90 2.41
8.87 5.05 2.39
8.77 5.23 2.39
8.66 5.40 2.39
8.56 5.58 2.39
8.44 5.75 2.39
8.33 5.92 2.39
8.21 6.08 2.39
8.09 6.25 2.39
7.96 6.41 2.39
7.83 6.57 2.39
7.70 6.73 2.39
7.56 6.88 2.39
7.42 7.03 2.39
7.28 7.18 2.39
7.14 7.32 2.39
6.99 7.47 2.39
6.84 7.61 2.39
6.69 7.74 2.39
6.53 7.88 2.39
6.37 8.01 2.39
6.21 8.14 2.39
6.05 8.26 2.39
6.14 8.74 2.49
5.96 8.86 2.49
5.78 8.98 2.49
5.60 9.10 2.49
5.42 9.21 2.49
5.23 9.32 2.49
5.04 9.42 2.49
4.85 9.52 2.49
4.66 9.62 2.49
4.47 9.71 2.49
4.27 9.80 2.49
4.08 9.88 2.49
3.88 9.96 2.49
3.68 10.04 2.49
3.48 10.11 2.49
3.27 10.18 2.49
3.07 10.24 2.49
2.86 10.30 2.49
2.65 10.36 2.49
2.45 10.41 2.49
2.24 10.46 2.49
2.03 10.50 2.49
1.82 10.54 2.49
1.60 10.58 2.49
1.39 10.61 2.49
1.18 10.63 2.49
0.96 10.66 2.49
0.75 10.67 2.49
0.54 10.69 2.49
0.32 10.69 2.49
0.11 10.70 2.49
-0.11 10.70 2.49
-0.32 10.69 2.49
-0.54 10.69 2.49
-0.75 10.67 2.49
-0.97 10.66 2.49
-1.18 10.63 2.49
-1.39 10.61 2.49
-1.60 10.58 2.49
-1.82 10.54 2.49
-2.03 10.51 2.49
-2.24 10.46 2.49
-2.45 10.42 2.49
-2.66 10.36 2.49
-2.86 10.31 2.49
-3.07 10.25 2.49
-3.27 10.18 2.49
-3.48 10.12 2.49
-3.68 10.04 2.49
-3.88 9.97 2.49
-4.08 9.89 2.49
-4.28 9.80 2.49
-4.47 9.71 2.49
-4.67 9.62 2.49
-4.86 9.53 2.49
-5.05 9.43 2.49
-5.23 9.32 2.49
-5.42 9.21 2.49
-5.60 9.10 2.49
-5.78 8.99 2.49
-5.96 8.87 2.49
-6.14 8.75 2.49
-6.31 8.62 2.49
-6.48 8.49 2.49
-6.65 8.36 2.49
-6.82 8.22 2.49
-6.98 8.08 2.49
-7.14 7.94 2.49
-7.30 7.80 2.49
-7.45 7.65 2.49
-7.60 7.49 2.49
-7.75 7.34 2.49
-7.90 7.18 2.49
-8.04 7.02 2.49
-8.18 6.86 2.49
-8.31 6.69 2.49
-8.44 6.52 2.49
-8.57 6.35 2.49
-8.70 6.18 2.49
-8.82 6.00 2.49
-8.93 5.82 2.49
-9.05 5.64 2.49
-9.16 5.46 2.49
-9.26 5.27 2.49
-9.37 5.08 2.49
-9.47 4.89 2.49
-9.56 4.70 2.49
-9.65 4.51 2.49
-9.74 4.31 2.49
-9.53 3.99 2.42
-9.63 3.81 2.42
-9.56 3.56 2.39
-8.86 3.10 2.20
-9.43 3.09 2.32
-9.46 2.89 2.32
-9.04 2.57 2.20
-9.86 2.59 2.39
-9.91 2.39 2.39
-9.96 2.19 2.39
-10.00 1.99 2.39
-10.03 1.79 2.39
-10.06 1.58 2.39
-10.09 1.38 2.39
-10.12 1.18 2.39
-10.14 0.97 2.39
-10.15 0.77 2.39
-10.16 0.57 2.39
-10.17 0.36 2.39
-10.18 0.16 2.39
-10.17 -0.05 2.39
-10.11 -0.25 2.38
-9.99 -0.45 2.35
-10.00 -0.65 2.36
-10.03 -0.85 2.37
-10.11 -1.06 2.39
-10.09 -1.27 2.39
-10.06 -1.47 2.39
-10.02 -1.67 2.39
-9.99 -1.87 2.39
-9.94 -2.07 2.39
-9.86 -2.26 2.38
-9.85 -2.47 2.39
-9.80 -2.66 2.39
-9.74 -2.86 2.39
-9.68 -3.05 2.39
-9.61 -3.25 2.39
-9.54 -3.44 2.39
-9.28 -3.56 2.34
-6.35 -2.58 1.62
-9.19 -3.95 2.36
-9.21 -4.18 2.38
-9.14 -4.37 2.39
-9.05 -4.56 2.39
-8.96 -4.74 2.39
-8.86 -4.92 2.39
-8.76 -5.09 2.39
-8.65 -5.27 2.39
-8.54 -5.44 2.39
-8.43 -5.61 2.39
-8.32 -5.77 2.39
-8.20 -5.94 2.39
-8.08 -6.10 2.39
-7.95 -6.26 2.39
-7.82 -6.42 2.39
-7.69 -6.57 2.39
-7.56 -6.73 2.39
-7.42 -6.88 2.39
-7.28 -7.02 2.39
-7.14 -7.17 2.39
-6.99 -7.31 2.39
-6.84 -7.44 2.39
-6.69 -7.58 2.39
-6.53 -7.71 2.39
-6.38 -7.84 2.39
-6.22 -7.97 2.39
-6.06 -8.09 2.39
-5.89 -8.21 2.39
-5.72 -8.32 2.39
-5.56 -8.44 2.39
-5.38 -8.54 2.39
-5.21 -8.65 2.39
-3.70 -6.43 1.76
-3.45 -6.29 1.70
-3.30 -6.31 1.69
-3.18 -6.39 1.69
-3.10 -6.55 1.71
-4.31 -9.61 2.49
-4.12 -9.69 2.49
-3.92 -9.77 2.49
-3.72 -9.85 2.49
-3.52 -9.92 2.49
-3.32 -9.99 2.49
-3.12 -10.05 2.49
-2.92 -10.11 2.49
-2.72 -10.17 2.49
-2.51 -10.22 2.49
-2.31 -10.27 2.49
-2.10 -10.31 2.49
-1.89 -10.35 2.49
-1.68 -10.39 2.49
-1.47 -10.42 2.49
-1.26 -10.44 2.49
-1.05 -10.47 2.49
-0.84 -10.49 2.49
-0.63 -10.50 2.49
-0.42 -10.51 2.49
-0.21 -10.52 2.49
-0.00 -9.55 2.49
0.19 -9.55 2.49
0.38 -9.55 2.49
0.58 -9.54 2.49
0.77 -9.52 2.49
0.96 -9.51 2.49
1.15 -9.49 2.49
1.34 -9.46 2.49
1.53 -9.43 2.49
1.72 -9.40 2.49
1.91 -9.36 2.49
2.09 -9.32 2.49
2.28 -9.28 2.49
2.47 -9.23 2.49
1.62 -5.61 1.52
1.71 -5.50 1.50
1.81 -5.43 1.49
1.92 -5.42 1.50
2.06 -5.44 1.52
3.41 -8.50 2.39
3.58 -8.43 2.39
3.75 -8.36 2.39
3.92 -8.28 2.39
4.08 -8.20 2.39
4.25 -8.12 2.39
4.41 -8.03 2.39
4.57 -7.95 2.39
4.73 -7.85 2.39
4.89 -7.76 2.39
5.04 -7.66 2.39
5.20 -7.55 2.39
5.35 -7.45 2.39
5.50 -7.34 2.39
5.64 -7.23 2.39
5.79 -7.12 2.39
5.93 -7.00 2.39
6.07 -6.88 2.39
6.21 -6.76 2.39
6.34 -6.63 2.39
6.47 -6.50 2.39
6.39 -6.16 2.31
6.64 -6.16 2.36
6.86 -6.10 2.39
7.19 -6.15 2.46
7.27 -5.97 2.45
7.35 -5.79 2.43
7.42 -5.61 2.42
7.49 -5.43 2.41
7.60 -5.27 2.41
7.70 -5.12 2.41
7.80 -4.97 2.41
7.90 -4.81 2.41
8.00 -4.65 2.41
8.09 -4.49 2.41
8.18 -4.33 2.41
8.27 -4.16 2.41
8.35 -3.99 2.41
8.43 -3.83 2.41
8.51 -3.66 2.41
8.58 -3.49 2.41
8.65 -3.31 2.41
8.72 -3.14 2.41
8.78 -2.96 2.41
8.84 -2.79 2.41
8.89 -2.61 2.41
8.94 -2.43 2.41
8.98 -2.25 2.40
8.99 -2.06 2.39
9.01 -1.88 2.39
9.02 -1.69 2.38
9.03 -1.51 2.38
9.04 -1.32 2.37
9.04 -1.14 2.36
9.05 -0.95 2.36
9.05 -0.77 2.35
9.04 -0.59 2.35
9.04 -0.40 2.34
9.03 -0.22 2.34
9.01 -0.04 2.33
8.98 0.14 2.33
8.96 0.32 2.32
8.94 0.50 2.32
8.92 0.68 2.32
8.90 0.86 2.31
8.87 1.03 2.31
8.85 1.21 2.31
8.82 1.39 2.31
8.79 1.56 2.31
8.77 1.74 2.31
8.86 1.95 2.35
8.95 2.15 2.38
9.00 2.36 2.41
8.95 2.54 2.41
8.90 2.72 2.41
8.85 2.90 2.41
8.79 3.08 2.41
8.73 3.25 2.41
2.11 0.83 0.59
2.08 0.87 0.58
2.09 0.92 0.59
8.44 3.94 2.41
8.36 4.11 2.41
8.28 4.28 2.41
8.19 4.45 2.41
8.10 4.61 2.41
7.96 4.74 2.39
7.86 4.90 2.39
7.76 5.06 2.39
7.66 5.21 2.39
7.56 5.37 2.39
7.45 5.52 2.39
7.34 5.67 2.39
7.22 5.82 2.39
7.11 5.96 2.39
6.98 6.10 2.39
6.86 6.24 2.39
6.74 6.38 2.39
6.61 6.51 2.39
6.48 6.65 2.39
6.34 6.78 2.39
6.21 6.90 2.39
6.07 7.03 2.39
5.93 7.15 2.39
5.78 7.27 2.39
5.64 7.38 2.39
5.49 7.49 2.39
5.34 7.60 2.39
5.18 7.71 2.39
5.03 7.81 2.39
5.08 8.25 2.49
4.91 8.35 2.49
4.75 8.45 2.49
4.58 8.55 2.49
4.40 8.64 2.49
4.23 8.72 2.49
4.05 8.81 2.49
3.88 8.89 2.49
3.70 8.96 2.49
3.52 9.04 2.49
3.34 9.11 2.49
3.15 9.17 2.49
2.97 9.23 2.49
2.78 9.29 2.49
2.60 9.35 2.49
2.41 9.40 2.49
2.22 9.45 2.49
2.03 9.49 2.49
1.84 9.53 2.49
1.65 9.56 2.49
1.45 9.59 2.49
1.26 9.62 2.49
1.07 9.65 2.49
0.87 9.67 2.49
0.68 9.68 2.49
0.49 9.69 2.49
0.29 9.70 2.49
0.10 9.70 2.49
-0.10 9.70 2.49
-0.29 9.70 2.49
-0.49 9.69 2.49
-0.68 9.68 2.49
-0.88 9.67 2.49
-1.07 9.65 2.49
-1.26 9.62 2.49
-1.46 9.60 2.49
-1.65 9.56 2.49
-1.84 9.53 2.49
-2.03 9.49 2.49
-2.22 9.45 2.49
-2.41 9.40 2.49
-2.60 9.35 2.49
-2.78 9.30 2.49
-2.97 9.24 2.49
-3.15 9.18 2.49
-3.34 9.11 2.49
-3.52 9.04 2.49
-3.70 8.97 2.49
-3.88 8.89 2.49
-4.06 8.81 2.49
-4.23 8.73 2.49
-4.41 8.64 2.49
-4.58 8.55 2.49
-4.75 8.46 2.49
-4.92 8.36 2.49
-5.08 8.26 2.49
-5.25 8.15 2.49
-5.41 8.05 2.49
-5.57 7.93 2.49
-5.73 7.82 2.49
-5.88 7.70 2.49
-6.04 7.58 2.49
-6.19 7.46 2.49
-6.33 7.33 2.49
-6.48 7.20 2.49
-6.62 7.07 2.49
-6.76 6.94 2.49
-6.90 6.80 2.49
-7.03 6.66 2.49
-7.16 6.52 2.49
-7.29 6.37 2.49
-7.42 6.22 2.49
-7.54 6.07 2.49
-7.66 5.92 2.49
-7.78 5.76 2.49
-7.89 5.60 2.49
-8.00 5.44 2.49
-8.11 5.28 2.49
-8.21 5.12 2.49
-8.31 4.95 2.49
-8.41 4.78 2.49
-8.50 4.61 2.49
-8.59 4.44 2.49
-8.68 4.27 2.49
-8.76 4.09 2.49
-8.84 3.91 2.49
-8.91 3.74 2.49
-8.63 3.41 2.39
-8.68 3.23 2.39
-8.74 3.06 2.39
-8.80 2.88 2.39
-8.85 2.71 2.39
-8.90 2.53 2.39
-8.95 2.35 2.39
-9.00 2.17 2.39
-9.04 1.99 2.39
-9.07 1.80 2.39
-9.11 1.62 2.39
-9.13 1.44 2.39
-9.16 1.25 2.39
-9.18 1.07 2.39
-9.20 0.88 2.39
-9.21 0.70 2.39
-9.23 0.51 2.39
-9.23 0.33 2.39
-9.24 0.14 2.39
-9.24 -0.04 2.39
-9.23 -0.23 2.39
-9.22 -0.41 2.39
-9.21 -0.60 2.39
-9.20 -0.78 2.39
-9.18 -0.97 2.39
-9.15 -1.15 2.39
-9.13 -1.33 2.39
-9.10 -1.52 2.39
-9.06 -1.70 2.39
-9.03 -1.88 2.39
-8.99 -2.06 2.39
-8.94 -2.24 2.39
-8.89 -2.42 2.39
-8.84 -2.60 2.39
-8.79 -2.77 2.39
-8.73 -2.95 2.39
-8.67 -3.12 2.39
-8.60 -3.29 2.39
-6.35 -2.58 1.78
-8.46 -3.64 2.39
-8.32 -3.78 2.37
-8.24 -3.94 2.37
-8.16 -4.11 2.37
-8.08 -4.27 2.37
-7.99 -4.43 2.37
-7.90 -4.59 2.37
-7.86 -4.78 2.39
-7.76 -4.94 2.39
-7.66 -5.09 2.39
-7.55 -5.24 2.39
-7.44 -5.39 2.39
-7.33 -5.54 2.39
-7.22 -5.69 2.39
-7.10 -5.83 2.39
-6.98 -5.97 2.39
-6.86 -6.11 2.39
-6.74 -6.24 2.39
-6.61 -6.38 2.39
-6.48 -6.51 2.39
-6.35 -6.64 2.39
-6.21 -6.76 2.39
-6.07 -6.88 2.39
-5.93 -7.00 2.39
-5.79 -7.12 2.39
-5.65 -7.23 2.39
-5.50 -7.35 2.39
-5.35 -7.45 2.39
-5.20 -7.56 2.39
-5.05 -7.66 2.39
-4.96 -7.87 2.42
-4.90 -8.14 2.48
-3.70 -6.43 1.93
-3.46 -6.29 1.87
-3.30 -6.31 1.86
-3.18 -6.39 1.86
-3.10 -6.55 1.89
-3.92 -8.73 2.49
-3.74 -8.80 2.49
-3.56 -8.87 2.49
-3.38 -8.94 2.49
-3.20 -9.01 2.49
-3.02 -9.07 2.49
-2.84 -9.13 2.49
-2.65 -9.18 2.49
-2.47 -9.23 2.49
-2.28 -9.28 2.49
-2.09 -9.33 2.49
-1.91 -9.37 2.49
-1.72 -9.40 2.49
-1.53 -9.43 2.49
-1.34 -9.46 2.49
-1.15 -9.49 2.49
-0.96 -9.51 2.49
-0.77 -9.52 2.49
-0.58 -9.54 2.49
-0.38 -9.55 2.49
-0.19 -9.55 2.49
-0.00 -8.74 2.49
0.18 -8.74 2.49
0.35 -8.74 2.49
0.53 -8.73 2.49
0.70 -8.72 2.49
0.88 -8.70 2.49
1.05 -8.68 2.49
1.22 -8.66 2.49
1.40 -8.63 2.49
1.57 -8.60 2.49
1.74 -8.57 2.49
1.92 -8.53 2.49
2.09 -8.49 2.49
2.26 -8.45 2.49
1.62 -5.61 1.66
1.71 -5.50 1.64
1.79 -5.37 1.61
1.92 -5.42 1.64
2.06 -5.44 1.66
3.26 -8.12 2.49
3.28 -7.72 2.39
3.43 -7.65 2.39
3.59 -7.58 2.39
3.74 -7.51 2.39
3.89 -7.43 2.39
4.04 -7.35 2.39
4.18 -7.27 2.39
4.33 -7.19 2.39
4.47 -7.10 2.39
4.61 -7.01 2.39
4.75 -6.91 2.39
4.89 -6.82 2.39
5.03 -6.72 2.39
5.16 -6.62 2.39
5.30 -6.51 2.39
5.43 -6.40 2.39
5.55 -6.29 2.39
5.68 -6.18 2.39
5.80 -6.07 2.39
5.92 -5.95 2.39
6.04 -5.83 2.39
6.16 -5.71 2.39
6.27 -5.58 2.39
6.39 -5.46 2.39
6.49 -5.33 2.39
6.60 -5.20 2.39
6.70 -5.06 2.39
7.01 -5.08 2.46
7.07 -4.91 2.45
7.14 -4.74 2.44
7.19 -4.58 2.42
7.25 -4.41 2.41
7.32 -4.25 2.41
7.40 -4.11 2.41
7.49 -3.96 2.41
7.56 -3.81 2.41
7.64 -3.65 2.41
7.71 -3.50 2.41
7.78 -3.35 2.41
7.85 -3.19 2.41
7.91 -3.03 2.41
7.97 -2.87 2.41
8.03 -2.71 2.41
8.08 -2.55 2.41
8.13 -2.39 2.41
8.18 -2.22 2.41
8.23 -2.06 2.41
8.27 -1.89 2.41
8.30 -1.73 2.41
8.34 -1.56 2.41
8.37 -1.39 2.41
8.40 -1.23 2.41
8.42 -1.06 2.41
8.44 -0.89 2.41
8.46 -0.72 2.41
8.47 -0.55 2.41
8.48 -0.38 2.41
8.49 -0.21 2.41
8.49 -0.04 2.41
8.49 0.13 2.41
8.49 0.30 2.40
8.47 0.47 2.40
8.45 0.64 2.40
8.43 0.81 2.40
8.41 0.98 2.40
8.38 1.15 2.39
8.36 1.32 2.39
8.33 1.48 2.39
8.30 1.65 2.39
8.26 1.82 2.39
8.23 1.98 2.39
8.22 2.16 2.40
8.19 2.32 2.41
8.14 2.49 2.41
8.09 2.65 2.41
8.04 2.81 2.41
7.98 2.97 2.41
2.11 0.83 0.64
2.08 0.87 0.64
2.09 0.92 0.64
7.72 3.61 2.41
7.65 3.76 2.41
7.57 3.92 2.41
7.49 4.07 2.41
7.41 4.22 2.41
7.32 4.37 2.41
7.24 4.51 2.41
7.10 4.63 2.39
7.00 4.77 2.39
6.91 4.91 2.39
6.81 5.05 2.39
6.71 5.18 2.39
6.60 5.32 2.39
6.50 5.45 2.39
6.39 5.58 2.39
6.27 5.71 2.39
6.16 5.83 2.39
6.04 5.96 2.39
5.92 6.08 2.39
5.80 6.19 2.39
5.67 6.31 2.39
5.55 6.42 2.39
5.42 6.53 2.39
5.29 6.64 2.39
5.15 6.75 2.39
5.02 6.85 2.39
4.88 6.95 2.39
4.74 7.05 2.39
4.60 7.14 2.39
4.45 7.23 2.39
4.31 7.32 2.39
4.16 7.41 2.39
4.18 7.81 2.49
4.03 7.90 2.49
3.87 7.98 2.49
3.71 8.05 2.49
3.54 8.13 2.49
3.38 8.20 2.49
3.22 8.26 2.49
3.05 8.33 2.49
2.88 8.39 2.49
2.71 8.44 2.49
2.54 8.49 2.49
2.37 8.54 2.49
2.20 8.59 2.49
2.03 8.63 2.49
1.85 8.67 2.49
1.68 8.71 2.49
1.50 8.74 2.49
1.33 8.77 2.49
1.15 8.80 2.49
0.98 8.82 2.49
0.80 8.83 2.49
0.62 8.85 2.49
0.44 8.86 2.49
0.27 8.87 2.49
0.09 8.87 2.49
-0.09 8.87 2.49
-0.27 8.87 2.49
-0.45 8.86 2.49
-0.62 8.85 2.49
-0.80 8.84 2.49
-0.98 8.82 2.49
-1.15 8.80 2.49
-1.33 8.77 2.49
-1.51 8.74 2.49
-1.68 8.71 2.49
-1.86 8.67 2.49
-2.03 8.64 2.49
-2.20 8.59 2.49
-2.37 8.55 2.49
-2.54 8.50 2.49
-2.71 8.44 2.49
-2.88 8.39 2.49
-3.05 8.33 2.49
-3.22 8.26 2.49
-3.38 8.20 2.49
-3.55 8.13 2.49
-3.71 8.05 2.49
-3.87 7.98 2.49
-4.03 7.90 2.49
-4.18 7.82 2.49
-4.34 7.73 2.49
-4.49 7.64 2.49
-4.65 7.55 2.49
-4.80 7.45 2.49
-4.95 7.36 2.49
-5.09 7.25 2.49
-5.24 7.15 2.49
-5.38 7.04 2.49
-5.52 6.93 2.49
-5.65 6.82 2.49
-5.79 6.70 2.49
-5.92 6.59 2.49
-6.05 6.47 2.49
-6.18 6.34 2.49
-6.31 6.22 2.49
-6.43 6.09 2.49
-6.55 5.96 2.49
-6.67 5.82 2.49
-6.78 5.69 2.49
-6.89 5.55 2.49
-7.00 5.41 2.49
-7.11 5.27 2.49
-7.21 5.12 2.49
-7.31 4.98 2.49
-7.41 4.83 2.49
-7.51 4.68 2.49
-7.60 4.53 2.49
-7.69 4.37 2.49
-7.77 4.22 2.49
-7.85 4.06 2.49
-7.93 3.90 2.49
-8.01 3.74 2.49
-8.08 3.58 2.49
-8.15 3.42 2.49
-8.21 3.25 2.49
-8.27 3.08 2.49
-8.04 2.82 2.41
-8.04 2.64 2.39
-8.09 2.47 2.39
-8.14 2.31 2.39
-8.19 2.15 2.39
-8.23 1.98 2.39
-8.26 1.82 2.39
-8.30 1.65 2.39
-8.33 1.48 2.39
-8.35 1.31 2.39
-8.38 1.15 2.39
-8.40 0.98 2.39
-8.41 0.81 2.39
-8.43 0.64 2.39
-8.44 0.47 2.39
-8.44 0.30 2.39
-8.45 0.13 2.39
-8.45 -0.04 2.39
-8.44 -0.21 2.39
-8.44 -0.38 2.39
-8.43 -0.55 2.39
-8.41 -0.71 2.39
-8.39 -0.88 2.39
-8.37 -1.05 2.39
-8.35 -1.22 2.39
-8.32 -1.39 2.39
-8.29 -1.55 2.39
-8.26 -1.72 2.39
-8.22 -1.88 2.39
-8.18 -2.05 2.39
-8.14 -2.21 2.39
-8.09 -2.37 2.39
-8.04 -2.54 2.39
-7.98 -2.70 2.39
-7.93 -2.86 2.39
-7.87 -3.01 2.39
-6.35 -2.58 1.95
-7.74 -3.33 2.39
-7.67 -3.48 2.39
-7.60 -3.63 2.39
-7.52 -3.78 2.39
-7.44 -3.93 2.39
-7.36 -4.08 2.39
-7.28 -4.23 2.39
-7.19 -4.37 2.39
-7.10 -4.52 2.39
-7.01 -4.66 2.39
-6.91 -4.80 2.39
-6.81 -4.93 2.39
-6.71 -5.07 2.39
-6.61 -5.20 2.39
-6.50 -5.33 2.39
-6.39 -5.46 2.39
-6.28 -5.59 2.39
-6.16 -5.71 2.39
-6.05 -5.83 2.39
-5.93 -5.95 2.39
-5.81 -6.07 2.39
-5.68 -6.19 2.39
-5.56 -6.30 2.39
-5.44 -6.42 2.40
-5.30 -6.51 2.39
-5.19 -6.65 2.40
-5.14 -6.87 2.44
-5.10 -7.10 2.49
-4.96 -7.22 2.49
-4.82 -7.31 2.49
-4.67 -7.41 2.49
-4.52 -7.50 2.49
-3.70 -6.43 2.11
-3.46 -6.29 2.04
-3.30 -6.31 2.03
-3.18 -6.39 2.03
-3.10 -6.55 2.06
-3.58 -7.98 2.49
-3.42 -8.05 2.49
-3.26 -8.12 2.49
-3.09 -8.18 2.49
-2.93 -8.24 2.49
-2.76 -8.30 2.49
-2.60 -8.35 2.49
-2.43 -8.40 2.49
-2.26 -8.45 2.49
-2.09 -8.49 2.49
-1.92 -8.53 2.49
-1.75 -8.57 2.49
-1.57 -8.60 2.49
-1.40 -8.63 2.49
-1.23 -8.66 2.49
-1.05 -8.68 2.49
-0.88 -8.70 2.49
-0.70 -8.72 2.49
-0.53 -8.73 2.49
-0.35 -8.74 2.49
-0.18 -8.74 2.49
-0.00 -8.05 2.49
0.16 -8.05 2.49
0.32 -8.05 2.49
0.48 -8.04 2.49
0.65 -8.03 2.49
0.81 -8.01 2.49
0.97 -7.99 2.49
1.13 -7.97 2.49
1.29 -7.95 2.49
1.45 -7.92 2.49
1.61 -7.89 2.49
1.76 -7.86 2.49
1.92 -7.82 2.49
2.08 -7.78 2.49
1.62 -5.61 1.81
1.71 -5.50 1.78
1.81 -5.44 1.77
1.92 -5.42 1.78
2.06 -5.44 1.80
3.00 -7.47 2.49
3.15 -7.41 2.49
3.16 -7.05 2.39
3.30 -6.98 2.39
3.44 -6.91 2.39
3.58 -6.84 2.39
3.72 -6.77 2.39
3.85 -6.69 2.39
3.99 -6.62 2.39
4.12 -6.54 2.39
4.25 -6.45 2.39
4.38 -6.37 2.39
4.51 -6.28 2.39
4.63 -6.19 2.39
4.75 -6.09 2.39
4.88 -6.00 2.39
5.00 -5.90 2.39
5.11 -5.80 2.39
5.23 -5.69 2.39
5.34 -5.59 2.39
5.46 -5.48 2.39
5.56 -5.37 2.39
5.67 -5.26 2.39
5.78 -5.14 2.39
5.88 -5.02 2.39
5.98 -4.91 2.39
6.08 -4.79 2.39
6.17 -4.66 2.39
6.27 -4.54 2.39
6.36 -4.41 2.39
6.44 -4.28 2.39
6.53 -4.15 2.39
6.82 -4.15 2.46
6.87 -3.99 2.45
6.92 -3.84 2.44
6.97 -3.68 2.43
7.01 -3.53 2.42
7.05 -3.37 2.41
7.10 -3.22 2.41
7.16 -3.08 2.41
7.23 -2.94 2.41
7.28 -2.79 2.41
7.34 -2.64 2.41
7.39 -2.50 2.41
7.44 -2.35 2.41
7.49 -2.20 2.41
7.53 -2.05 2.41
7.57 -1.90 2.41
7.61 -1.74 2.41
7.64 -1.59 2.41
7.68 -1.44 2.41
7.70 -1.28 2.41
7.73 -1.13 2.41
7.75 -0.97 2.41
7.77 -0.82 2.41
7.79 -0.66 2.41
7.80 -0.51 2.41
7.81 -0.35 2.41
7.82 -0.19 2.41
7.82 -0.03 2.41
7.82 0.12 2.41
7.82 0.28 2.41
7.81 0.44 2.41
7.80 0.59 2.41
7.79 0.75 2.41
7.77 0.91 2.41
7.75 1.06 2.41
7.73 1.22 2.41
7.71 1.37 2.41
7.68 1.53 2.41
7.65 1.68 2.41
7.61 1.83 2.41
7.58 1.99 2.41
7.54 2.14 2.41
7.49 2.29 2.41
7.45 2.44 2.41
7.40 2.59 2.41
7.34 2.74 2.41
2.11 0.83 0.70
2.08 0.87 0.69
2.09 0.92 0.70
7.10 3.32 2.41
7.04 3.46 2.41
6.97 3.60 2.41
6.89 3.74 2.41
6.82 3.88 2.41
6.74 4.02 2.41
6.66 4.15 2.41
6.58 4.29 2.41
6.45 4.39 2.39
6.36 4.52 2.39
6.27 4.64 2.39
6.17 4.77 2.39
6.08 4.89 2.39
5.98 5.01 2.39
5.88 5.13 2.39
5.77 5.25 2.39
5.67 5.37 2.39
5.56 5.48 2.39
5.45 5.59 2.39
5.33 5.70 2.39
5.22 5.81 2.39
5.10 5.91 2.39
4.98 6.01 2.39
4.86 6.11 2.39
4.74 6.21 2.39
4.61 6.30 2.39
4.49 6.39 2.39
4.36 6.48 2.39
4.23 6.57 2.39
4.10 6.65 2.39
3.96 6.74 2.39
3.83 6.81 2.39
3.70 6.91 2.40
3.55 6.96 2.39
3.56 7.34 2.49
3.41 7.41 2.49
3.26 7.48 2.49
3.11 7.54 2.49
2.96 7.60 2.49
2.80 7.66 2.49
2.65 7.71 2.49
2.50 7.77 2.49
2.34 7.82 2.49
2.18 7.86 2.49
2.02 7.90 2.49
1.87 7.94 2.49
1.71 7.98 2.49
1.55 8.01 2.49
1.38 8.04 2.49
1.22 8.07 2.49
1.06 8.09 2.49
0.90 8.11 2.49
0.74 8.13 2.49
0.57 8.14 2.49
0.41 8.15 2.49
0.25 8.16 2.49
0.08 8.16 2.49
-0.08 8.16 2.49
-0.25 8.16 2.49
-0.41 8.15 2.49
-0.57 8.14 2.49
-0.74 8.13 2.49
-0.90 8.11 2.49
-1.06 8.09 2.49
-1.22 8.07 2.49
-1.39 8.04 2.49
-1.55 8.01 2.49
-1.71 7.98 2.49
-1.87 7.94 2.49
-2.03 7.91 2.49
-2.18 7.86 2.49
-2.34 7.82 2.49
-2.50 7.77 2.49
-2.65 7.72 2.49
-2.81 7.66 2.49
-2.96 7.60 2.49
-3.11 7.54 2.49
-3.26 7.48 2.49
-3.41 7.41 2.49
-3.56 7.34 2.49
-3.71 7.27 2.49
-3.85 7.19 2.49
-3.99 7.11 2.49
-4.13 7.03 2.49
-4.27 6.94 2.49
-4.41 6.86 2.49
-4.55 6.77 2.49
-4.68 6.67 2.49
-4.82 6.58 2.49
-4.95 6.48 2.49
-5.08 6.38 2.49
-5.20 6.27 2.49
-5.33 6.17 2.49
-5.45 6.06 2.49
-5.57 5.95 2.49
-5.69 5.84 2.49
-5.80 5.72 2.49
-5.92 5.60 2.49
-6.03 5.48 2.49
-6.13 5.36 2.49
-6.24 5.23 2.49
-6.34 5.11 2.49
-6.44 4.98 2.49
-6.54 4.85 2.49
-6.64 4.72 2.49
-6.73 4.58 2.49
-6.82 4.44 2.49
-6.91 4.31 2.49
-6.99 4.17 2.49
-7.07 4.02 2.49
-7.15 3.88 2.49
-7.23 3.74 2.49
-7.30 3.59 2.49
-7.37 3.44 2.49
-7.43 3.29 2.49
-7.50 3.14 2.49
-7.56 2.99 2.49
-7.62 2.84 2.49
-7.67 2.69 2.49
-7.72 2.53 2.49
-7.54 2.30 2.42
-7.49 2.13 2.39
-7.53 1.98 2.39
-7.57 1.82 2.39
-7.60 1.67 2.39
-7.63 1.52 2.39
-7.66 1.36 2.39
-7.69 1.21 2.39
-7.71 1.06 2.39
-7.73 0.90 2.39
-7.74 0.75 2.39
-7.76 0.59 2.39
-7.76 0.43 2.39
-7.77 0.28 2.39
-7.77 0.12 2.39
-7.77 -0.03 2.39
-7.77 -0.19 2.39
-7.76 -0.35 2.39
-7.75 -0.50 2.39
-7.74 -0.66 2.39
-7.73 -0.81 2.39
-7.71 -0.97 2.39
-7.68 -1.12 2.39
-7.66 -1.28 2.39
-7.63 -1.43 2.39
-7.60 -1.58 2.39
-7.57 -1.73 2.39
-7.53 -1.89 2.39
-7.49 -2.04 2.39
-7.45 -2.19 2.39
-7.40 -2.33 2.39
-7.35 -2.48 2.39
-7.30 -2.63 2.39
-7.24 -2.77 2.39
-6.35 -2.58 2.11
-7.12 -3.06 2.39
-7.06 -3.20 2.39
-6.99 -3.34 2.39
-6.92 -3.48 2.39
-6.85 -3.62 2.39
-6.78 -3.76 2.39
-6.70 -3.89 2.39
-6.62 -4.03 2.39
-6.54 -4.16 2.39
-6.45 -4.29 2.39
-6.36 -4.42 2.39
-6.27 -4.54 2.39
-6.18 -4.67 2.39
-6.08 -4.79 2.39
-5.98 -4.91 2.39
-5.88 -5.03 2.39
-5.78 -5.14 2.39
-5.68 -5.26 2.39
-5.57 -5.37 2.39
-5.46 -5.48 2.39
-5.39 -5.63 2.41
-5.34 -5.82 2.44
-5.31 -6.01 2.48
-5.22 -6.15 2.49
-5.09 -6.26 2.49
-4.96 -6.36 2.49
-4.83 -6.46 2.49
-4.70 -6.55 2.49
-4.57 -6.64 2.49
-4.44 -6.73 2.49
-4.30 -6.82 2.49
-4.16 -6.90 2.49
-4.02 -6.99 2.49
-3.46 -6.31 2.23
-3.31 -6.32 2.21
-3.19 -6.40 2.21
-3.11 -6.58 2.25
-3.30 -7.35 2.49
-3.15 -7.42 2.49
-3.00 -7.48 2.49
-2.85 -7.54 2.49
-2.70 -7.59 2.49
-2.54 -7.64 2.49
-2.39 -7.69 2.49
-2.24 -7.74 2.49
-2.08 -7.78 2.49
-1.92 -7.82 2.49
-1.77 -7.86 2.49
-1.61 -7.89 2.49
-1.45 -7.92 2.49
-1.29 -7.95 2.49
-1.13 -7.97 2.49
-0.97 -7.99 2.49
-0.81 -8.01 2.49
-0.65 -8.03 2.49
-0.49 -8.04 2.49
-0.32 -8.05 2.49
-0.16 -8.05 2.49
-0.00 -7.45 2.49
0.15 -7.45 2.49
0.30 -7.45 2.49
0.45 -7.44 2.49
0.60 -7.43 2.49
0.75 -7.42 2.49
0.90 -7.40 2.49
1.04 -7.38 2.49
1.19 -7.36 2.49
1.34 -7.33 2.49
1.49 -7.30 2.49
1.63 -7.27 2.49
1.78 -7.24 2.49
1.92 -7.20 2.49
1.62 -5.61 1.95
1.71 -5.50 1.92
1.81 -5.44 1.92
1.92 -5.42 1.92
2.06 -5.44 1.95
2.78 -6.92 2.49
2.92 -6.86 2.49
3.02 -6.73 2.47
3.06 -6.46 2.39
3.19 -6.40 2.39
3.31 -6.33 2.39
3.44 -6.27 2.39
3.57 -6.20 2.39
3.69 -6.12 2.39
3.81 -6.05 2.39
3.93 -5.97 2.39
4.05 -5.89 2.39
4.17 -5.81 2.39
4.29 -5.73 2.39
4.40 -5.64 2.39
4.51 -5.55 2.39
4.62 -5.46 2.39
4.73 -5.36 2.39
4.84 -5.27 2.39
4.95 -5.17 2.39
5.05 -5.07 2.39
5.15 -4.97 2.39
5.25 -4.86 2.39
5.35 -4.76 2.39
5.44 -4.65 2.39
5.53 -4.54 2.39
5.63 -4.43 2.39
5.71 -4.32 2.39
5.80 -4.20 2.39
5.88 -4.08 2.39
5.96 -3.97 2.39
6.04 -3.84 2.39
6.12 -3.72 2.39
6.19 -3.60 2.39
6.27 -3.48 2.39
6.34 -3.35 2.39
6.40 -3.22 2.39
6.66 -3.18 2.46
6.70 -3.04 2.45
6.73 -2.89 2.44
6.77 -2.75 2.43
6.80 -2.60 2.43
6.83 -2.46 2.42
6.86 -2.32 2.41
6.89 -2.17 2.41
6.93 -2.03 2.41
6.97 -1.89 2.41
7.01 -1.75 2.41
7.04 -1.61 2.41
7.07 -1.47 2.41
7.10 -1.33 2.41
7.13 -1.19 2.41
7.15 -1.04 2.41
7.17 -0.90 2.41
7.19 -0.76 2.41
7.21 -0.61 2.41
7.22 -0.47 2.41
7.23 -0.32 2.41
7.23 -0.18 2.41
7.23 -0.03 2.41
7.24 0.11 2.41
7.23 0.26 2.41
7.23 0.40 2.41
7.22 0.55 2.41
7.21 0.69 2.41
7.19 0.84 2.41
7.17 0.98 2.41
7.15 1.13 2.41
7.13 1.27 2.41
7.11 1.41 2.41
7.08 1.56 2.41
7.04 1.70 2.41
7.01 1.84 2.41
6.97 1.98 2.41
6.93 2.12 2.41
6.89 2.26 2.41
6.84 2.40 2.41
6.79 2.53 2.41
2.11 0.83 0.75
2.08 0.87 0.75
2.09 0.93 0.76
6.57 3.07 2.41
6.51 3.20 2.41
6.45 3.33 2.41
6.38 3.46 2.41
6.31 3.59 2.41
6.24 3.72 2.41
6.16 3.84 2.41
6.08 3.97 2.41
5.96 4.06 2.39
5.88 4.18 2.39
5.80 4.30 2.39
5.71 4.41 2.39
5.62 4.53 2.39
5.53 4.64 2.39
5.44 4.75 2.39
5.34 4.86 2.39
5.24 4.96 2.39
5.14 5.07 2.39
5.04 5.17 2.39
4.93 5.27 2.39
4.83 5.37 2.39
4.72 5.47 2.39
4.61 5.56 2.39
4.50 5.65 2.39
4.38 5.74 2.39
4.27 5.83 2.39
4.15 5.91 2.39
4.03 6.00 2.39
3.91 6.08 2.39
3.79 6.16 2.39
3.66 6.23 2.39
3.54 6.30 2.39
3.41 6.37 2.39
3.28 6.44 2.39
3.15 6.51 2.39
3.15 6.85 2.49
3.02 6.91 2.49
2.88 6.97 2.49
2.74 7.03 2.49
2.59 7.08 2.49
2.45 7.14 2.49
2.31 7.18 2.49
2.16 7.23 2.49
2.02 7.27 2.49
1.87 7.31 2.49
1.73 7.35 2.49
1.58 7.38 2.49
1.43 7.41 2.49
1.28 7.44 2.49
1.13 7.46 2.49
0.98 7.48 2.49
0.83 7.50 2.49
0.68 7.52 2.49
0.53 7.53 2.49
0.38 7.54 2.49
0.23 7.54 2.49
0.08 7.55 2.49
-0.08 7.55 2.49
-0.23 7.55 2.49
-0.38 7.54 2.49
-0.53 7.53 2.49
-0.68 7.52 2.49
-0.83 7.50 2.49
-0.98 7.48 2.49
-1.13 7.46 2.49
-1.28 7.44 2.49
-1.43 7.41 2.49
-1.58 7.38 2.49
-1.73 7.35 2.49
-1.87 7.31 2.49
-2.02 7.27 2.49
-2.16 7.23 2.49
-2.31 7.19 2.49
-2.45 7.14 2.49
-2.60 7.09 2.49
-2.74 7.03 2.49
-2.88 6.98 2.49
-3.02 6.92 2.49
-3.15 6.85 2.49
-3.29 6.79 2.49
-3.43 6.72 2.49
-3.56 6.65 2.49
-3.69 6.58 2.49
-3.82 6.50 2.49
-3.95 6.42 2.49
-4.08 6.34 2.49
-4.21 6.26 2.49
-4.33 6.17 2.49
-4.45 6.08 2.49
-4.58 5.99 2.49
-4.69 5.90 2.49
-4.81 5.80 2.49
-4.93 5.71 2.49
-5.04 5.61 2.49
-5.15 5.50 2.49
-5.26 5.40 2.49
-5.37 5.29 2.49
-5.47 5.18 2.49
-5.57 5.07 2.49
-5.67 4.96 2.49
-5.77 4.84 2.49
-5.87 4.72 2.49
-5.96 4.61 2.49
-6.05 4.48 2.49
-6.14 4.36 2.49
-6.22 4.24 2.49
-6.31 4.11 2.49
-6.39 3.98 2.49
-6.47 3.85 2.49
-6.54 3.72 2.49
-6.61 3.59 2.49
-6.68 3.46 2.49
-6.75 3.32 2.49
-6.82 3.19 2.49
-6.88 3.05 2.49
-6.94 2.91 2.49
-6.99 2.77 2.49
-7.05 2.63 2.49
-7.10 2.49 2.49
-7.14 2.34 2.49
-7.19 2.20 2.49
-7.23 2.05 2.49
-7.27 1.91 2.49
-7.20 1.74 2.46
-7.13 1.57 2.42
-7.06 1.40 2.39
-7.09 1.26 2.39
-7.14 1.12 2.40
-7.13 0.98 2.39
-7.15 0.83 2.39
-7.16 0.69 2.39
-7.18 0.55 2.39
-7.18 0.40 2.39
-7.19 0.26 2.39
-7.19 0.11 2.39
-7.19 -0.03 2.39
-7.19 -0.18 2.39
-7.18 -0.32 2.39
-7.18 -0.46 2.39
-7.16 -0.61 2.39
-7.15 -0.75 2.39
-7.13 -0.89 2.39
-7.11 -1.04 2.39
-7.09 -1.18 2.39
-7.06 -1.32 2.39
-7.03 -1.46 2.39
-7.00 -1.60 2.39
-6.97 -1.74 2.39
-6.93 -1.88 2.39
-6.89 -2.02 2.39
-6.85 -2.16 2.39
-6.80 -2.30 2.39
-6.75 -2.43 2.39
-6.70 -2.57 2.39
-6.35 -2.58 2.28
-6.59 -2.83 2.39
-6.53 -2.96 2.39
-6.47 -3.09 2.39
-6.41 -3.22 2.39
-6.34 -3.35 2.39
-6.27 -3.48 2.39
-6.20 -3.60 2.39
-6.13 -3.73 2.39
-6.05 -3.85 2.39
-5.97 -3.97 2.39
-5.89 -4.09 2.39
-5.80 -4.20 2.39
-5.72 -4.32 2.39
-5.63 -4.43 2.39
-5.59 -4.58 2.41
-5.55 -4.74 2.44
-5.52 -4.91 2.46
-5.48 -5.08 2.49
-5.38 -5.19 2.49
-5.27 -5.29 2.49
-5.16 -5.40 2.49
-5.05 -5.50 2.49
-4.94 -5.60 2.49
-4.83 -5.70 2.49
-4.71 -5.79 2.49
-4.59 -5.88 2.49
-4.47 -5.98 2.49
-4.35 -6.06 2.49
-4.23 -6.15 2.49
-4.11 -6.23 2.49
-3.98 -6.31 2.49
-3.85 -6.39 2.49
-3.72 -6.47 2.49
-3.59 -6.53 2.49
-3.46 -6.61 2.49
-3.33 -6.68 2.49
-3.12 -6.60 2.44
-3.05 -6.80 2.49
-2.92 -6.86 2.49
-2.78 -6.92 2.49
-2.64 -6.98 2.49
-2.50 -7.03 2.49
-2.36 -7.07 2.49
-2.21 -7.12 2.49
-2.07 -7.16 2.49
-1.93 -7.20 2.49
-1.78 -7.24 2.49
-1.63 -7.27 2.49
-1.49 -7.31 2.49
-1.34 -7.33 2.49
-1.19 -7.36 2.49
-1.05 -7.38 2.49
-0.90 -7.40 2.49
-0.75 -7.42 2.49
-0.60 -7.43 2.49
-0.45 -7.44 2.49
-0.30 -7.45 2.49
-0.15 -7.45 2.49
-0.00 -6.93 2.49
0.14 -6.93 2.49
0.28 -6.92 2.49
0.42 -6.92 2.49
0.56 -6.91 2.49
0.69 -6.90 2.49
0.83 -6.88 2.49
0.97 -6.86 2.49
1.11 -6.84 2.49
1.25 -6.82 2.49
1.38 -6.79 2.49
1.52 -6.76 2.49
1.65 -6.73 2.49
1.79 -6.70 2.49
1.62 -5.61 2.10
1.71 -5.50 2.07
1.81 -5.44 2.06
1.92 -5.42 2.07
2.06 -5.44 2.09
2.58 -6.43 2.49
2.71 -6.38 2.49
2.84 -6.33 2.49
2.91 -6.15 2.45
2.96 -5.95 2.39
3.08 -5.89 2.39
3.20 -5.83 2.39
3.32 -5.76 2.39
3.43 -5.69 2.39
3.55 -5.62 2.39
3.66 -5.55 2.39
3.77 -5.48 2.39
3.88 -5.40 2.39
3.99 -5.32 2.39
4.09 -5.24 2.39
4.20 -5.16 2.39
4.30 -5.07 2.39
4.40 -4.99 2.39
4.50 -4.90 2.39
4.60 -4.81 2.39
4.69 -4.71 2.39
4.79 -4.62 2.39
4.88 -4.52 2.39
4.97 -4.42 2.39
5.06 -4.32 2.39
5.15 -4.22 2.39
5.23 -4.12 2.39
5.31 -4.01 2.39
5.39 -3.91 2.39
5.47 -3.80 2.39
5.55 -3.69 2.39
5.62 -3.57 2.39
5.69 -3.46 2.39
5.76 -3.35 2.39
5.83 -3.23 2.39
5.89 -3.11 2.39
5.95 -2.99 2.39
6.01 -2.87 2.39
6.07 -2.75 2.39
6.12 -2.63 2.39
6.18 -2.51 2.39
6.23 -2.38 2.39
6.47 -2.33 2.46
6.57 -2.22 2.48
6.68 -2.11 2.51
6.70 -1.96 2.50
6.69 -1.82 2.48
6.69 -1.67 2.47
6.68 -1.53 2.46
6.67 -1.39 2.44
6.67 -1.25 2.43
6.66 -1.11 2.42
6.65 -0.97 2.41
6.67 -0.84 2.41
6.68 -0.70 2.41
6.70 -0.57 2.41
6.71 -0.43 2.41
6.72 -0.30 2.41
6.72 -0.16 2.41
6.73 -0.03 2.41
6.73 0.11 2.41
6.72 0.24 2.41
6.72 0.38 2.41
6.71 0.51 2.41
6.70 0.65 2.41
6.68 0.78 2.41
6.67 0.91 2.41
6.65 1.05 2.41
6.63 1.18 2.41
6.60 1.31 2.41
6.58 1.45 2.41
6.55 1.58 2.41
6.52 1.71 2.41
6.48 1.84 2.41
6.44 1.97 2.41
6.40 2.10 2.41
6.36 2.23 2.41
6.31 2.36 2.41
2.11 0.83 0.81
2.08 0.87 0.80
2.09 0.93 0.82
6.11 2.86 2.41
6.05 2.98 2.41
5.99 3.10 2.41
5.93 3.22 2.41
5.86 3.34 2.41
5.80 3.46 2.41
5.76 3.59 2.42
5.62 3.66 2.39
5.54 3.77 2.39
5.46 3.88 2.39
5.39 3.99 2.39
5.31 4.10 2.39
5.22 4.21 2.39
5.14 4.31 2.39
5.05 4.41 2.39
4.96 4.51 2.39
4.87 4.61 2.39
4.78 4.71 2.39
4.68 4.81 2.39
4.59 4.90 2.39
4.49 4.99 2.39
4.39 5.08 2.39
4.28 5.17 2.39
4.18 5.25 2.39
4.07 5.34 2.39
3.97 5.42 2.39
3.86 5.50 2.39
3.75 5.57 2.39
3.63 5.65 2.39
3.52 5.72 2.39
3.40 5.79 2.39
3.29 5.86 2.39
3.17 5.92 2.39
3.05 5.99 2.39
2.93 6.05 2.39
2.81 6.10 2.39
2.69 6.16 2.39
2.67 6.48 2.49
2.54 6.53 2.49
2.41 6.58 2.49
2.28 6.63 2.49
2.14 6.68 2.49
2.01 6.72 2.49
1.88 6.76 2.49
1.74 6.79 2.49
1.60 6.83 2.49
1.47 6.86 2.49
1.33 6.89 2.49
1.19 6.91 2.49
1.05 6.93 2.49
0.91 6.95 2.49
0.77 6.97 2.49
0.63 6.99 2.49
0.49 7.00 2.49
0.35 7.01 2.49
0.21 7.01 2.49
0.07 7.01 2.49
-0.07 7.01 2.49
-0.21 7.01 2.49
-0.35 7.01 2.49
-0.49 7.00 2.49
-0.63 6.99 2.49
-0.77 6.97 2.49
-0.91 6.95 2.49
-1.05 6.93 2.49
-1.19 6.91 2.49
-1.33 6.89 2.49
-1.47 6.86 2.49
-1.60 6.83 2.49
-1.74 6.79 2.49
-1.88 6.76 2.49
-2.01 6.72 2.49
-2.15 6.68 2.49
-2.28 6.63 2.49
-2.41 6.58 2.49
-2.54 6.53 2.49
-2.67 6.48 2.49
-2.80 6.43 2.49
-2.93 6.37 2.49
-3.06 6.31 2.49
-3.18 6.25 2.49
-3.31 6.18 2.49
-3.43 6.11 2.49
-3.55 6.04 2.49
-3.67 5.97 2.49
-3.79 5.89 2.49
-3.91 5.82 2.49
-4.03 5.74 2.49
-4.14 5.65 2.49
-4.25 5.57 2.49
-4.36 5.48 2.49
-4.47 5.39 2.49
-4.58 5.30 2.49
-4.68 5.21 2.49
-4.79 5.11 2.49
-4.89 5.02 2.49
-4.99 4.92 2.49
-5.08 4.82 2.49
-5.18 4.71 2.49
-5.27 4.61 2.49
-5.36 4.50 2.49
-5.45 4.39 2.49
-5.54 4.28 2.49
-5.62 4.17 2.49
-5.70 4.05 2.49
-5.78 3.94 2.49
-5.86 3.82 2.49
-5.94 3.70 2.49
-6.01 3.58 2.49
-6.08 3.46 2.49
-6.15 3.34 2.49
-6.21 3.21 2.49
-6.27 3.09 2.49
-6.33 2.96 2.49
-6.39 2.83 2.49
-6.45 2.70 2.49
-6.50 2.57 2.49
-6.55 2.44 2.49
-6.60 2.31 2.49
-6.64 2.18 2.49
-6.68 2.04 2.49
-6.72 1.91 2.49
-6.76 1.77 2.49
-6.79 1.64 2.49
-6.82 1.50 2.49
-6.85 1.36 2.49
-6.87 1.22 2.49
-6.85 1.08 2.48
-6.77 0.93 2.44
-6.72 0.78 2.42
-6.69 0.64 2.40
-6.67 0.51 2.39
-6.68 0.37 2.39
-6.68 0.24 2.39
-6.69 0.11 2.39
-6.70 -0.03 2.40
-6.68 -0.16 2.39
-6.68 -0.30 2.39
-6.67 -0.43 2.39
-6.66 -0.56 2.39
-6.65 -0.70 2.39
-6.63 -0.83 2.39
-6.61 -0.96 2.39
-6.59 -1.10 2.39
-6.56 -1.23 2.39
-6.54 -1.36 2.39
-6.51 -1.49 2.39
-6.48 -1.62 2.39
-6.44 -1.75 2.39
-6.40 -1.88 2.39
-6.37 -2.01 2.39
-6.32 -2.13 2.39
-6.28 -2.26 2.39
-6.23 -2.39 2.39
-6.19 -2.51 2.39
-6.13 -2.63 2.39
-6.07 -2.76 2.39
-6.02 -2.88 2.39
-5.96 -3.00 2.39
-5.89 -3.12 2.39
-5.84 -3.24 2.40
-5.81 -3.38 2.41
-5.78 -3.52 2.43
-5.75 -3.66 2.45
-5.72 -3.80 2.47
-5.70 -3.95 2.49
-5.63 -4.08 2.49
-5.55 -4.19 2.49
-5.46 -4.30 2.49
-5.37 -4.41 2.49
-5.28 -4.51 2.49
-5.19 -4.62 2.49
-5.10 -4.72 2.49
-5.00 -4.82 2.49
-4.90 -4.92 2.49
-4.80 -5.02 2.49
-4.70 -5.11 2.49
-4.59 -5.21 2.49
-4.49 -5.30 2.49
-4.38 -5.38 2.49
-4.27 -5.47 2.49
-4.16 -5.56 2.49
-4.05 -5.64 2.49
-3.93 -5.72 2.49
-3.82 -5.79 2.49
-3.70 -5.87 2.49
-3.58 -5.94 2.49
-3.46 -6.01 2.49
-3.34 -6.08 2.49
-3.22 -6.15 2.49
-3.09 -6.21 2.49
-2.97 -6.27 2.49
-2.84 -6.33 2.49
-2.71 -6.38 2.49
-2.58 -6.44 2.49
-2.45 -6.49 2.49
-2.32 -6.53 2.49
-2.19 -6.58 2.49
-2.06 -6.62 2.49
-1.92 -6.66 2.49
-1.79 -6.70 2.49
-1.66 -6.73 2.49
-1.52 -6.76 2.49
-1.38 -6.79 2.49
-1.25 -6.82 2.49
-1.11 -6.84 2.49
-0.97 -6.86 2.49
-0.83 -6.88 2.49
-0.70 -6.90 2.49
-0.56 -6.91 2.49
-0.42 -6.92 2.49
-0.28 -6.93 2.49
-0.14 -6.93 2.49
-0.00 -6.47 2.49
0.13 -6.47 2.49
0.26 -6.46 2.49
0.39 -6.46 2.49
0.52 -6.45 2.49
0.65 -6.44 2.49
0.78 -6.42 2.49
0.91 -6.41 2.49
1.03 -6.39 2.49
1.16 -6.36 2.49
1.29 -6.34 2.49
1.42 -6.31 2.49
1.54 -6.28 2.49
1.67 -6.25 2.49
1.63 -5.65 2.27
1.71 -5.51 2.22
1.81 -5.45 2.21
1.93 -5.43 2.22
2.07 -5.47 2.25
2.41 -6.01 2.49
2.53 -5.96 2.49
2.65 -5.90 2.49
2.77 -5.85 2.49
2.82 -5.66 2.43
2.88 -5.50 2.39
2.99 -5.44 2.39
3.10 -5.38 2.39
3.20 -5.32 2.39
3.31 -5.25 2.39
3.41 -5.18 2.39
3.52 -5.11 2.39
3.62 -5.04 2.39
3.72 -4.97 2.39
3.82 -4.89 2.39
3.92 -4.82 2.39
4.01 -4.74 2.39
4.11 -4.66 2.39
4.20 -4.57 2.39
4.29 -4.49 2.39
4.38 -4.40 2.39
4.47 -4.31 2.39
4.56 -4.22 2.39
4.64 -4.13 2.39
4.72 -4.04 2.39
4.80 -3.94 2.39
4.88 -3.84 2.39
4.96 -3.74 2.39
5.03 -3.64 2.39
5.11 -3.54 2.39
5.18 -3.44 2.39
5.24 -3.34 2.39
5.31 -3.23 2.39
5.38 -3.12 2.39
5.44 -3.01 2.39
5.50 -2.91 2.39
5.56 -2.79 2.39
5.61 -2.68 2.39
5.66 -2.57 2.39
5.72 -2.46 2.39
5.76 -2.34 2.39
5.81 -2.22 2.39
5.85 -2.11 2.39
5.90 -1.99 2.39
5.94 -1.87 2.39
5.97 -1.75 2.39
6.01 -1.63 2.39
6.04 -1.51 2.39
6.07 -1.39 2.39
6.51 -1.35 2.55
6.50 -1.22 2.54
6.49 -1.08 2.53
6.48 -0.95 2.51
6.47 -0.81 2.50
6.46 -0.68 2.49
6.45 -0.55 2.48
6.44 -0.42 2.48
6.43 -0.29 2.47
6.41 -0.16 2.46
6.40 -0.03 2.45
6.38 0.10 2.45
6.37 0.23 2.44
6.35 0.36 2.44
6.33 0.48 2.43
6.31 0.61 2.43
6.29 0.73 2.43
6.27 0.86 2.43
6.25 0.99 2.42
6.23 1.11 2.42
6.21 1.23 2.42
6.18 1.36 2.42
6.16 1.48 2.42
6.13 1.61 2.43
6.10 1.73 2.43
6.07 1.86 2.43
6.05 1.98 2.43
6.02 2.11 2.44
5.98 2.23 2.44
2.11 0.83 0.87
2.08 0.87 0.86
2.09 0.93 0.87
5.85 2.73 2.47
5.81 2.86 2.48
5.78 2.99 2.49
5.74 3.12 2.50
5.43 3.09 2.39
5.37 3.20 2.39
5.31 3.31 2.39
5.24 3.42 2.39
5.17 3.52 2.39
5.10 3.62 2.39
5.03 3.73 2.39
4.95 3.83 2.39
4.87 3.93 2.39
4.79 4.02 2.39
4.71 4.12 2.39
4.63 4.21 2.39
4.54 4.30 2.39
4.46 4.40 2.39
4.37 4.48 2.39
4.28 4.57 2.39
4.19 4.66 2.39
4.09 4.74 2.39
4.00 4.82 2.39
3.90 4.90 2.39
3.80 4.98 2.39
3.70 5.05 2.39
3.60 5.13 2.39
3.49 5.20 2.39
3.39 5.27 2.39
3.28 5.34 2.39
3.18 5.40 2.39
3.07 5.46 2.39
2.96 5.53 2.39
2.85 5.58 2.39
2.73 5.64 2.39
2.64 5.74 2.41
2.51 5.75 2.39
2.49 6.05 2.49
2.37 6.09 2.49
2.25 6.14 2.49
2.13 6.19 2.49
2.00 6.23 2.49
1.88 6.27 2.49
1.75 6.30 2.49
1.62 6.34 2.49
1.50 6.37 2.49
1.37 6.40 2.49
1.24 6.42 2.49
1.11 6.45 2.49
0.98 6.47 2.49
0.85 6.49 2.49
0.72 6.50 2.49
0.59 6.52 2.49
0.46 6.53 2.49
0.33 6.53 2.49
0.20 6.54 2.49
0.07 6.54 2.49
-0.07 6.54 2.49
-0.20 6.54 2.49
-0.33 6.54 2.49
-0.46 6.53 2.49
-0.59 6.52 2.49
-0.72 6.50 2.49
-0.85 6.49 2.49
-0.98 6.47 2.49
-1.11 6.45 2.49
-1.24 6.42 2.49
-1.37 6.40 2.49
-1.50 6.37 2.49
-1.62 6.34 2.49
-1.75 6.30 2.49
-1.88 6.27 2.49
-2.00 6.23 2.49
-2.13 6.19 2.49
-2.25 6.14 2.49
-2.37 6.10 2.49
-2.49 6.05 2.49
-2.62 6.00 2.49
-2.73 5.94 2.49
-2.85 5.89 2.49
-2.97 5.83 2.49
-3.09 5.77 2.49
-3.20 5.70 2.49
-3.32 5.64 2.49
-3.43 5.57 2.49
-3.54 5.50 2.49
-3.65 5.43 2.49
-3.76 5.35 2.49
-3.86 5.28 2.49
-3.97 5.20 2.49
-4.07 5.12 2.49
-4.17 5.03 2.49
-4.27 4.95 2.49
-4.37 4.86 2.49
-4.47 4.77 2.49
-4.56 4.68 2.49
-4.65 4.59 2.49
-4.74 4.49 2.49
-4.83 4.40 2.49
-4.92 4.30 2.49
-5.00 4.20 2.49
-5.09 4.10 2.49
-5.17 3.99 2.49
-5.25 3.89 2.49
-5.32 3.78 2.49
-5.40 3.67 2.49
-5.47 3.57 2.49
-5.54 3.45 2.49
-5.61 3.34 2.49
-5.67 3.23 2.49
-5.74 3.11 2.49
-5.80 3.00 2.49
-5.85 2.88 2.49
-5.91 2.76 2.49
-5.96 2.64 2.49
-6.02 2.52 2.49
-6.06 2.40 2.49
-6.11 2.28 2.49
-6.15 2.16 2.49
-6.20 2.03 2.49
-6.23 1.91 2.49
-6.27 1.78 2.49
-6.30 1.65 2.49
-6.34 1.53 2.49
-6.36 1.40 2.49
-6.39 1.27 2.49
-6.41 1.14 2.49
-6.44 1.01 2.49
-6.45 0.88 2.49
-6.47 0.75 2.49
-6.48 0.62 2.49
-6.49 0.49 2.49
-6.50 0.36 2.49
-6.51 0.23 2.49
-6.50 0.10 2.49
