ply
format ascii 1.0
element vertex 2935
property float32 x
property float32 y
property float32 z
end_header
5.48 18.26 2.39
5.11 18.36 2.39
4.74 18.45 2.39
4.37 18.53 2.39
3.99 18.60 2.39
3.61 18.66 2.39
3.24 18.72 2.39
2.40 15.74 2.00
2.07 15.67 1.99
1.74 15.61 1.98
1.42 15.55 1.97
1.10 15.50 1.96
0.79 15.44 1.95
0.48 15.38 1.95
0.17 15.32 1.94
-0.14 15.26 1.94
-0.44 15.20 1.93
-0.74 15.14 1.93
-1.04 15.08 1.92
-1.34 15.02 1.92
-1.64 14.96 1.92
-1.94 14.90 1.92
-2.23 14.84 1.92
-2.53 14.78 1.92
-2.82 14.73 1.93
-3.12 14.67 1.93
-3.41 14.61 1.93
-3.71 14.55 1.94
-4.00 14.49 1.94
-4.30 14.42 1.95
-4.59 14.36 1.96
-4.89 14.30 1.96
-5.19 14.23 1.97
-5.49 14.17 1.98
-5.79 14.10 1.99
-6.10 14.04 2.00
-6.41 13.98 2.02
-6.72 13.92 2.03
-7.04 13.86 2.05
-7.37 13.81 2.07
-8.81 15.75 2.39
-9.10 15.54 2.39
-9.39 15.32 2.39
-8.84 13.79 2.18
-9.96 14.87 2.39
-10.23 14.64 2.39
-10.50 14.40 2.39
-10.76 14.15 2.39
-11.02 13.90 2.39
-11.27 13.65 2.39
-11.52 13.39 2.39
-11.76 13.12 2.39
-11.99 12.86 2.39
-12.38 12.75 2.42
-12.80 12.67 2.46
-13.20 12.55 2.49
-13.42 12.25 2.49
-13.63 11.95 2.49
-13.83 11.65 2.49
-14.03 11.34 2.49
-14.22 11.03 2.49
-14.41 10.72 2.49
-14.58 10.40 2.49
-14.75 10.08 2.49
-14.92 9.76 2.49
-15.07 9.44 2.49
-15.22 9.11 2.49
-15.37 8.78 2.49
-15.50 8.45 2.49
-15.63 8.12 2.49
-15.76 7.79 2.49
-15.87 7.45 2.49
-15.98 7.12 2.49
-16.08 6.78 2.49
-16.18 6.44 2.49
-16.26 6.10 2.49
-16.35 5.76 2.49
-16.42 5.41 2.49
-16.49 5.07 2.49
-16.55 4.73 2.49
-16.60 4.39 2.49
-16.65 4.04 2.49
-16.00 3.55 2.39
-16.03 3.22 2.39
-16.06 2.89 2.39
-16.08 2.56 2.39
-16.09 2.23 2.39
-16.10 1.90 2.39
-16.10 1.58 2.39
-16.09 1.25 2.39
-16.08 0.92 2.39
-16.06 0.60 2.39
-13.12 0.23 1.95
-11.52 -0.03 1.72
-11.51 -0.26 1.72
-11.50 -0.50 1.72
-10.05 -0.64 1.51
-9.94 -0.83 1.50
-9.94 -1.03 1.51
-9.99 -1.24 1.52
-10.76 -1.56 1.64
-15.66 -2.58 2.40
-15.57 -2.89 2.40
-15.52 -3.21 2.41
-15.48 -3.53 2.42
-9.88 -2.46 1.55
-9.79 -2.65 1.55
-9.78 -2.86 1.56
-9.81 -3.08 1.58
-15.33 -5.16 2.48
-15.37 -5.52 2.51
-12.81 -4.89 2.11
-10.03 -4.06 1.67
-9.19 -3.94 1.54
-9.12 -4.13 1.55
-9.10 -4.34 1.56
-9.14 -4.59 1.59
-12.47 -6.58 2.19
-12.41 -6.87 2.21
-12.35 -7.16 2.22
-10.15 -6.17 1.85
-9.23 -5.86 1.71
-8.86 -5.88 1.66
-8.59 -5.95 1.63
-8.51 -6.15 1.64
-8.62 -6.51 1.69
-12.09 -9.51 2.41
-11.84 -9.71 2.40
-9.70 -8.28 2.00
-9.13 -8.11 1.92
-8.65 -8.00 1.85
-8.35 -8.05 1.83
-8.20 -8.23 1.83
-8.19 -8.56 1.87
-8.65 -9.40 2.02
-8.58 -9.72 2.05
-8.52 -10.05 2.08
-8.11 -9.97 2.03
-8.05 -10.31 2.07
-8.05 -10.75 2.12
-8.23 -11.47 2.23
-4.70 -6.83 1.31
-4.50 -6.83 1.29
-4.36 -6.91 1.29
-4.26 -7.07 1.31
-7.52 -13.07 2.39
-7.25 -13.21 2.39
-6.99 -13.36 2.39
-6.72 -13.49 2.39
-6.44 -13.63 2.39
-6.17 -13.75 2.39
-5.89 -13.88 2.39
-5.61 -14.00 2.39
-5.33 -14.11 2.39
-5.05 -14.22 2.39
-4.76 -14.32 2.39
-4.47 -14.42 2.39
-4.18 -14.51 2.39
-3.89 -14.60 2.39
-3.60 -14.68 2.39
-3.42 -15.28 2.47
-3.14 -15.47 2.49
-2.83 -15.54 2.49
-2.52 -15.60 2.49
-2.20 -15.66 2.49
-1.89 -15.71 2.49
-1.55 -15.48 2.45
-1.26 -15.80 2.49
-0.94 -15.83 2.49
-0.60 -15.22 2.39
-0.29 -15.22 2.39
0.02 -13.85 2.49
0.30 -13.86 2.49
0.58 -13.87 2.49
0.85 -13.86 2.49
1.13 -13.86 2.49
1.41 -13.85 2.49
0.73 -5.96 1.07
0.84 -5.87 1.06
0.96 -5.84 1.06
1.08 -5.85 1.06
1.21 -5.92 1.08
3.09 -13.67 2.49
3.37 -13.62 2.49
3.65 -13.56 2.49
3.93 -13.50 2.49
4.20 -13.44 2.49
4.31 -12.88 2.40
4.55 -12.75 2.39
4.82 -12.67 2.39
5.08 -12.59 2.39
5.34 -12.50 2.39
5.60 -12.41 2.39
5.85 -12.31 2.39
6.11 -12.21 2.39
6.36 -12.11 2.39
6.62 -11.99 2.39
6.87 -11.88 2.39
7.12 -11.76 2.39
7.36 -11.63 2.39
7.61 -11.50 2.39
7.85 -11.36 2.39
8.11 -11.25 2.39
7.94 -10.56 2.28
7.87 -10.04 2.19
7.76 -9.50 2.11
7.66 -9.01 2.03
7.53 -8.50 1.94
7.56 -8.19 1.90
9.77 -10.17 2.40
9.99 -9.99 2.40
10.21 -9.81 2.40
10.43 -9.62 2.40
7.25 -6.43 1.64
7.34 -6.25 1.63
7.52 -6.15 1.64
7.74 -6.07 1.65
8.00 -6.01 1.68
8.22 -5.93 1.70
8.46 -5.85 1.72
8.68 -5.74 1.74
8.99 -5.69 1.77
9.26 -5.61 1.80
9.73 -5.63 1.86
10.31 -5.69 1.95
10.44 -5.49 1.95
10.58 -5.29 1.95
10.71 -5.09 1.95
10.84 -4.89 1.95
10.98 -4.69 1.96
11.11 -4.49 1.96
11.25 -4.28 1.96
11.39 -4.08 1.97
11.53 -3.87 1.98
11.67 -3.65 1.98
11.81 -3.44 1.99
11.96 -3.22 2.00
12.10 -3.00 2.01
12.15 -2.76 2.00
12.23 -2.52 2.00
12.30 -2.28 2.00
12.37 -2.04 2.00
12.43 -1.79 2.00
12.49 -1.54 2.00
12.55 -1.30 2.00
12.59 -1.05 2.00
12.64 -0.80 2.00
12.68 -0.54 2.00
12.71 -0.29 2.00
12.22 -0.03 1.92
13.40 0.23 2.10
13.35 0.50 2.09
13.30 0.76 2.08
13.40 1.04 2.10
13.71 1.34 2.15
14.00 1.65 2.19
14.23 1.97 2.23
14.56 2.31 2.28
14.91 2.68 2.34
14.87 2.98 2.34
14.58 3.23 2.30
14.38 3.49 2.28
2.17 0.57 0.34
2.11 0.60 0.34
2.10 0.65 0.34
2.14 0.70 0.34
14.50 5.10 2.35
14.58 5.46 2.37
14.67 5.83 2.40
14.48 6.09 2.39
14.37 6.39 2.39
14.26 6.68 2.39
14.15 6.98 2.39
14.02 7.27 2.39
13.89 7.56 2.39
13.75 7.84 2.39
13.61 8.13 2.39
13.46 8.41 2.39
13.31 8.69 2.39
13.14 8.96 2.39
12.27 8.73 2.26
12.22 9.07 2.28
13.17 10.19 2.49
12.97 10.46 2.49
12.77 10.73 2.49
12.57 10.99 2.49
9.07 8.26 1.83
12.14 11.50 2.49
11.91 11.75 2.49
11.68 12.00 2.49
11.45 12.24 2.49
11.21 12.47 2.49
10.96 12.70 2.49
10.71 12.92 2.49
10.45 13.14 2.49
10.19 13.35 2.49
9.93 13.56 2.49
9.66 13.76 2.49
9.38 13.96 2.49
9.11 14.15 2.49
8.82 14.33 2.49
8.54 14.51 2.49
8.24 14.68 2.49
7.95 14.84 2.49
7.65 15.00 2.49
7.35 15.15 2.49
7.04 15.29 2.49
6.74 15.43 2.49
6.42 15.56 2.49
6.11 15.68 2.49
5.79 15.79 2.49
5.48 15.90 2.49
5.15 16.00 2.49
4.83 16.10 2.49
4.49 16.12 2.48
4.12 16.05 2.46
3.77 15.98 2.44
3.42 15.91 2.42
3.07 15.85 2.40
2.74 15.83 2.39
2.42 15.87 2.39
2.10 15.90 2.39
1.78 15.93 2.39
1.46 15.95 2.39
1.14 15.96 2.39
0.81 15.72 2.35
0.50 15.97 2.39
0.18 15.96 2.39
-0.14 15.94 2.39
-0.44 15.35 2.30
-0.78 15.89 2.39
-1.09 15.85 2.39
-1.35 15.17 2.29
-1.72 15.76 2.39
-2.04 15.70 2.39
-2.35 15.64 2.39
-2.66 15.57 2.39
-2.96 15.49 2.39
-3.27 15.41 2.39
-3.57 15.32 2.39
-3.87 15.22 2.39
-4.17 15.12 2.39
-4.47 15.01 2.39
-4.76 14.90 2.39
-5.05 14.77 2.39
-5.34 14.65 2.39
-5.62 14.51 2.39
-5.90 14.38 2.39
-6.18 14.23 2.39
-6.45 14.08 2.39
-6.72 13.92 2.39
-7.02 13.83 2.40
-7.33 13.76 2.42
-7.65 13.69 2.44
-7.98 13.63 2.46
-8.31 13.56 2.48
-8.61 13.44 2.49
-8.86 13.24 2.49
-9.11 13.03 2.49
-9.35 12.82 2.49
-9.58 12.61 2.49
-9.82 12.39 2.49
-10.04 12.17 2.49
-10.26 11.94 2.49
-10.48 11.71 2.49
-10.69 11.47 2.49
-10.90 11.23 2.49
-11.10 10.99 2.49
-11.29 10.74 2.49
-11.48 10.49 2.49
-11.67 10.24 2.49
-11.85 9.98 2.49
-12.02 9.72 2.49
-12.19 9.46 2.49
-12.35 9.20 2.49
-12.51 8.93 2.49
-12.66 8.66 2.49
-12.80 8.39 2.49
-12.94 8.11 2.49
-13.08 7.83 2.49
-13.20 7.55 2.49
-13.32 7.27 2.49
-13.44 6.99 2.49
-13.55 6.70 2.49
-13.65 6.42 2.49
-13.75 6.13 2.49
-13.84 5.84 2.49
-13.93 5.55 2.49
-14.01 5.26 2.49
-8.72 3.07 1.54
-9.43 3.11 1.66
-9.65 2.97 1.69
-9.76 2.79 1.70
-9.81 2.60 1.71
-9.81 2.39 1.70
-9.70 2.15 1.68
-8.96 1.80 1.54
-13.87 2.50 2.39
-13.89 2.22 2.39
-13.90 1.93 2.39
-13.91 1.65 2.39
-13.92 1.37 2.39
-13.92 1.09 2.39
-13.91 0.80 2.39
-11.66 0.44 2.00
-11.36 0.20 1.95
-11.34 -0.03 1.95
-11.52 -0.26 1.99
-11.51 -0.49 1.99
-10.07 -0.63 1.75
-9.95 -0.83 1.73
-9.96 -1.03 1.74
-9.99 -1.24 1.75
-13.65 -1.97 2.40
-13.59 -2.24 2.40
-13.52 -2.51 2.40
-13.44 -2.77 2.40
-13.36 -3.04 2.40
-9.90 -2.46 1.79
-9.80 -2.65 1.79
-9.79 -2.86 1.80
-9.82 -3.08 1.82
-12.90 -4.33 2.40
-12.79 -4.59 2.40
-12.68 -4.84 2.40
-9.64 -3.90 1.84
-9.22 -3.95 1.78
-9.11 -4.12 1.78
-9.11 -4.34 1.80
-9.14 -4.59 1.82
-9.69 -5.11 1.95
-9.57 -5.29 1.95
-9.45 -5.48 1.95
-9.38 -5.69 1.96
-9.33 -5.92 1.98
-8.86 -5.88 1.91
-8.65 -5.99 1.89
-8.62 -6.23 1.91
-8.61 -6.49 1.94
-9.10 -7.15 2.08
-9.04 -7.41 2.11
-8.99 -7.67 2.13
-8.94 -7.94 2.16
-8.67 -8.02 2.13
-8.26 -7.96 2.07
-8.18 -8.20 2.09
-8.11 -8.47 2.12
-8.65 -9.40 2.31
-8.58 -9.72 2.35
-8.52 -10.04 2.38
-8.23 -10.11 2.36
-8.04 -10.29 2.37
-7.90 -10.54 2.39
-7.68 -10.69 2.39
-4.70 -6.83 1.50
-4.50 -6.83 1.48
-4.36 -6.91 1.48
-4.26 -7.07 1.50
-6.56 -11.40 2.39
-6.33 -11.53 2.39
-6.09 -11.65 2.39
-5.86 -11.77 2.39
-5.62 -11.89 2.39
-5.38 -12.00 2.39
-5.14 -12.11 2.39
-4.89 -12.21 2.39
-4.65 -12.31 2.39
-4.40 -12.40 2.39
-4.15 -12.49 2.39
-3.94 -12.71 2.41
-3.80 -13.20 2.49
-3.54 -13.28 2.49
-3.27 -13.35 2.49
-3.00 -13.42 2.49
-2.73 -13.49 2.49
-2.46 -13.55 2.49
-2.19 -13.60 2.49
-1.92 -13.65 2.49
-1.64 -13.69 2.49
-1.37 -13.73 2.49
-1.09 -13.77 2.49
-0.82 -13.80 2.49
-0.54 -13.82 2.49
-0.26 -13.84 2.49
0.02 -12.26 2.49
0.26 -12.27 2.49
0.51 -12.27 2.49
0.76 -12.27 2.49
1.01 -12.26 2.49
1.25 -12.25 2.49
0.73 -5.96 1.21
0.84 -5.87 1.20
0.96 -5.84 1.19
1.08 -5.85 1.20
1.22 -5.92 1.22
2.74 -12.08 2.49
2.98 -12.04 2.49
3.23 -11.99 2.49
3.47 -11.93 2.49
3.72 -11.87 2.49
3.96 -11.81 2.49
4.03 -11.26 2.39
4.26 -11.19 2.39
4.49 -11.11 2.39
4.72 -11.04 2.39
4.94 -10.95 2.39
5.17 -10.87 2.39
5.39 -10.77 2.39
5.62 -10.68 2.39
5.84 -10.58 2.39
6.06 -10.47 2.39
6.28 -10.37 2.39
6.49 -10.25 2.39
6.71 -10.13 2.39
6.92 -10.01 2.39
7.13 -9.89 2.39
7.34 -9.76 2.39
7.55 -9.62 2.39
7.76 -9.50 2.39
7.66 -9.00 2.30
7.54 -8.50 2.21
7.56 -8.19 2.16
8.60 -8.95 2.40
8.79 -8.79 2.40
8.98 -8.62 2.40
9.17 -8.46 2.40
7.25 -6.42 1.86
7.34 -6.24 1.85
7.53 -6.14 1.86
7.74 -6.07 1.88
8.00 -6.01 1.91
8.23 -5.93 1.93
8.47 -5.85 1.96
8.69 -5.74 1.98
9.00 -5.69 2.02
9.27 -5.61 2.05
9.73 -5.62 2.13
10.31 -5.69 2.22
10.45 -5.49 2.22
10.58 -5.29 2.22
10.71 -5.09 2.23
10.85 -4.89 2.23
10.98 -4.69 2.23
11.12 -4.48 2.24
11.07 -4.21 2.21
10.93 -3.91 2.16
10.86 -3.64 2.13
10.88 -3.40 2.11
10.92 -3.18 2.10
10.97 -2.95 2.10
11.02 -2.73 2.09
11.06 -2.51 2.09
11.16 -2.30 2.09
10.94 -2.02 2.04
10.89 -1.79 2.02
11.02 -1.58 2.03
11.16 -1.38 2.05
11.30 -1.16 2.07
11.45 -0.95 2.09
11.51 -0.72 2.09
11.50 -0.49 2.09
11.49 -0.26 2.08
11.47 -0.03 2.07
11.45 0.20 2.06
11.42 0.43 2.06
11.51 0.67 2.07
11.73 0.91 2.11
11.94 1.17 2.15
12.14 1.44 2.19
12.35 1.71 2.22
12.59 2.01 2.27
12.84 2.31 2.32
13.02 2.61 2.36
13.20 2.92 2.40
13.19 3.20 2.40
2.16 0.57 0.40
2.11 0.60 0.39
2.10 0.65 0.39
2.14 0.71 0.40
12.90 4.54 2.40
12.82 4.80 2.40
12.74 5.06 2.40
12.65 5.32 2.40
12.47 5.55 2.39
12.37 5.80 2.39
12.27 6.06 2.39
12.16 6.31 2.39
12.05 6.56 2.39
11.92 6.80 2.39
11.80 7.05 2.39
11.67 7.29 2.39
11.53 7.53 2.39
11.39 7.77 2.39
11.24 8.00 2.39
11.09 8.23 2.39
10.93 8.46 2.39
10.77 8.69 2.39
10.60 8.91 2.39
10.88 9.52 2.49
9.07 8.26 2.11
10.50 9.96 2.49
10.31 10.17 2.49
10.11 10.39 2.49
9.91 10.59 2.49
9.70 10.79 2.49
9.48 10.99 2.49
9.27 11.18 2.49
9.05 11.37 2.49
8.82 11.56 2.49
8.59 11.73 2.49
8.36 11.91 2.49
8.12 12.08 2.49
7.88 12.24 2.49
7.63 12.40 2.49
7.38 12.55 2.49
7.13 12.70 2.49
6.88 12.84 2.49
6.62 12.97 2.49
6.36 13.10 2.49
6.09 13.23 2.49
5.83 13.34 2.49
5.56 13.46 2.49
5.29 13.56 2.49
5.01 13.66 2.49
4.74 13.76 2.49
4.46 13.85 2.49
4.18 13.93 2.49
3.90 14.00 2.49
3.62 14.07 2.49
3.33 14.14 2.49
3.05 14.19 2.49
2.76 14.25 2.49
2.48 14.29 2.49
2.19 14.33 2.49
1.90 14.36 2.49
1.61 14.39 2.49
1.32 14.41 2.49
1.03 14.42 2.49
0.74 14.43 2.49
0.45 14.43 2.49
0.16 14.42 2.49
-0.12 14.41 2.49
-0.41 14.39 2.49
-0.70 14.36 2.49
-0.99 14.33 2.49
-1.27 14.30 2.49
-1.56 14.25 2.49
-1.84 14.20 2.49
-2.12 14.15 2.49
-2.40 14.09 2.49
-2.68 14.02 2.49
-2.96 13.95 2.49
-3.23 13.87 2.49
-3.50 13.78 2.49
-3.77 13.69 2.49
-4.04 13.60 2.49
-4.31 13.50 2.49
-4.57 13.39 2.49
-4.83 13.28 2.49
-5.09 13.16 2.49
-5.35 13.04 2.49
-5.60 12.91 2.49
-5.85 12.77 2.49
-6.09 12.63 2.49
-6.33 12.49 2.49
-6.57 12.34 2.49
-6.81 12.19 2.49
-7.04 12.03 2.49
-7.27 11.87 2.49
-7.49 11.70 2.49
-7.71 11.53 2.49
-7.93 11.36 2.49
-8.14 11.18 2.49
-8.35 10.99 2.49
-8.55 10.80 2.49
-8.75 10.61 2.49
-8.95 10.42 2.49
-9.14 10.22 2.49
-9.33 10.01 2.49
-9.51 9.81 2.49
-9.69 9.60 2.49
-9.86 9.39 2.49
-10.03 9.17 2.49
-10.19 8.95 2.49
-10.35 8.73 2.49
-10.51 8.50 2.49
-10.66 8.28 2.49
-10.80 8.05 2.49
-10.94 7.82 2.49
-11.07 7.58 2.49
-11.20 7.34 2.49
-11.33 7.10 2.49
-11.45 6.86 2.49
-11.56 6.62 2.49
-11.67 6.37 2.49
-11.77 6.13 2.49
-11.87 5.88 2.49
-11.97 5.63 2.49
-12.06 5.38 2.49
-12.14 5.13 2.49
-12.22 4.87 2.49
-12.29 4.62 2.49
-11.85 4.18 2.39
-8.65 2.86 1.74
-8.55 2.64 1.71
-8.56 2.45 1.70
-8.59 2.28 1.70
-8.71 2.12 1.72
-8.90 1.98 1.75
-12.17 2.45 2.39
-12.19 2.20 2.39
-12.21 1.95 2.39
-12.23 1.71 2.39
-12.24 1.46 2.39
-12.25 1.21 2.39
-12.25 0.96 2.39
-12.25 0.71 2.39
-11.67 0.44 2.28
-11.25 0.20 2.20
-10.95 -0.02 2.14
-10.76 -0.24 2.11
-10.60 -0.45 2.08
-10.04 -0.63 1.98
-9.98 -0.83 1.97
-9.98 -1.03 1.98
-9.98 -1.23 1.99
-10.21 -1.47 2.04
-10.17 -1.67 2.04
-10.13 -1.88 2.04
-10.09 -2.08 2.04
-10.06 -2.28 2.05
-9.87 -2.45 2.02
-9.80 -2.64 2.02
-9.77 -2.85 2.03
-9.81 -3.08 2.05
-9.86 -3.31 2.08
-9.82 -3.52 2.09
-9.78 -3.73 2.10
-9.74 -3.94 2.11
-9.17 -3.93 2.00
-9.14 -4.13 2.02
-9.14 -4.36 2.04
-9.13 -4.58 2.06
-9.52 -5.02 2.17
-9.48 -5.24 2.19
-9.43 -5.46 2.20
-9.39 -5.69 2.22
-9.34 -5.93 2.24
-8.89 -5.90 2.16
-8.60 -5.95 2.12
-8.48 -6.13 2.12
-8.49 -6.40 2.16
-9.10 -7.15 2.35
-9.04 -7.41 2.38
-8.92 -7.61 2.39
-8.76 -7.79 2.39
-8.60 -7.96 2.39
-8.36 -8.06 2.37
-8.17 -8.19 2.36
-8.09 -8.45 2.39
-7.91 -8.60 2.39
-7.74 -8.76 2.39
-7.55 -8.91 2.39
-7.37 -9.05 2.39
-7.18 -9.20 2.39
-7.00 -9.34 2.39
-6.80 -9.47 2.39
-4.70 -6.83 1.70
-4.50 -6.83 1.67
-4.36 -6.91 1.67
-4.26 -7.07 1.69
-5.81 -10.10 2.39
-5.61 -10.21 2.39
-5.40 -10.32 2.39
-5.19 -10.43 2.39
-4.98 -10.53 2.39
-4.77 -10.63 2.39
-4.55 -10.73 2.39
-4.34 -10.82 2.39
-4.23 -11.21 2.46
-4.07 -11.46 2.49
-3.84 -11.54 2.49
-3.60 -11.62 2.49
-3.37 -11.70 2.49
-3.13 -11.76 2.49
-2.90 -11.83 2.49
-2.66 -11.89 2.49
-2.42 -11.95 2.49
-2.18 -12.00 2.49
-1.94 -12.05 2.49
-1.70 -12.09 2.49
-1.46 -12.13 2.49
-1.21 -12.16 2.49
-0.97 -12.19 2.49
-0.72 -12.21 2.49
-0.48 -12.23 2.49
-0.23 -12.25 2.49
0.02 -10.99 2.49
0.24 -10.99 2.49
0.46 -10.99 2.49
0.68 -10.99 2.49
0.90 -10.98 2.49
1.13 -10.97 2.49
0.73 -5.96 1.35
0.84 -5.87 1.34
0.96 -5.84 1.33
1.08 -5.85 1.34
1.22 -5.92 1.36
2.45 -10.81 2.49
1.54 -6.19 1.43
2.89 -10.73 2.49
3.11 -10.68 2.49
3.33 -10.62 2.49
3.54 -10.57 2.49
3.76 -10.50 2.49
3.81 -10.01 2.39
4.02 -9.94 2.39
4.22 -9.87 2.39
4.42 -9.79 2.39
4.62 -9.71 2.39
4.83 -9.63 2.39
5.02 -9.54 2.39
5.22 -9.45 2.39
5.42 -9.36 2.39
5.61 -9.26 2.39
5.81 -9.16 2.39
6.00 -9.05 2.39
6.19 -8.94 2.39
6.37 -8.83 2.39
6.56 -8.71 2.39
6.74 -8.59 2.39
6.92 -8.46 2.39
7.10 -8.33 2.39
7.28 -8.20 2.39
7.51 -8.13 2.41
6.45 -6.71 2.02
6.40 -6.39 1.96
6.59 -6.32 1.98
6.81 -6.27 2.00
7.25 -6.41 2.09
7.35 -6.24 2.08
7.53 -6.14 2.09
7.75 -6.07 2.11
8.00 -6.01 2.15
8.23 -5.93 2.17
8.47 -5.84 2.20
8.69 -5.74 2.22
9.00 -5.69 2.27
9.27 -5.60 2.31
9.74 -5.62 2.39
9.94 -5.47 2.41
10.07 -5.28 2.41
10.19 -5.09 2.41
10.31 -4.90 2.41
10.39 -4.68 2.40
10.28 -4.38 2.35
10.18 -4.10 2.30
10.10 -3.83 2.26
10.13 -3.62 2.25
10.16 -3.40 2.24
10.18 -3.18 2.23
10.21 -2.97 2.22
10.24 -2.75 2.21
10.29 -2.55 2.20
10.33 -2.34 2.20
10.36 -2.13 2.19
10.40 -1.92 2.19
10.43 -1.71 2.18
10.44 -1.50 2.17
10.44 -1.28 2.16
10.43 -1.07 2.15
10.41 -0.86 2.14
10.39 -0.65 2.13
10.37 -0.44 2.12
10.35 -0.23 2.11
10.32 -0.02 2.10
10.29 0.19 2.10
10.27 0.39 2.09
10.30 0.60 2.09
10.46 0.82 2.13
10.63 1.05 2.16
10.80 1.28 2.20
10.98 1.53 2.24
11.15 1.78 2.27
11.31 2.04 2.31
11.47 2.31 2.35
11.64 2.58 2.39
11.66 2.83 2.40
2.16 0.57 0.45
2.11 0.60 0.44
2.10 0.65 0.44
11.45 3.78 2.40
11.39 4.01 2.40
11.32 4.24 2.40
11.24 4.47 2.40
11.16 4.70 2.40
11.08 4.93 2.40
10.92 5.12 2.39
10.82 5.34 2.39
10.73 5.57 2.39
10.62 5.79 2.39
10.51 6.00 2.39
10.40 6.22 2.39
10.29 6.43 2.39
10.16 6.64 2.39
10.04 6.85 2.39
9.91 7.05 2.39
9.77 7.26 2.39
9.63 7.46 2.39
9.49 7.65 2.39
9.34 7.85 2.39
9.19 8.04 2.39
9.03 8.23 2.39
8.87 8.41 2.39
8.70 8.59 2.39
8.90 9.15 2.49
8.72 9.33 2.49
8.54 9.51 2.49
8.35 9.68 2.49
8.16 9.85 2.49
7.96 10.01 2.49
7.76 10.17 2.49
7.56 10.33 2.49
7.36 10.48 2.49
7.15 10.63 2.49
6.93 10.77 2.49
6.72 10.91 2.49
6.50 11.05 2.49
6.28 11.18 2.49
6.05 11.30 2.49
5.83 11.42 2.49
5.60 11.53 2.49
5.36 11.64 2.49
5.13 11.75 2.49
4.89 11.85 2.49
4.65 11.94 2.49
4.41 12.03 2.49
4.17 12.11 2.49
3.93 12.19 2.49
3.68 12.26 2.49
3.43 12.33 2.49
3.19 12.39 2.49
2.94 12.45 2.49
2.69 12.50 2.49
2.43 12.54 2.49
2.18 12.58 2.49
1.93 12.62 2.49
1.67 12.65 2.49
1.42 12.67 2.49
1.17 12.69 2.49
0.91 12.70 2.49
0.66 12.71 2.49
0.40 12.71 2.49
0.15 12.71 2.49
-0.11 12.70 2.49
-0.36 12.68 2.49
-0.61 12.66 2.49
-0.87 12.64 2.49
-1.12 12.61 2.49
-1.37 12.57 2.49
-1.62 12.53 2.49
-1.87 12.48 2.49
-2.12 12.43 2.49
-2.36 12.37 2.49
-2.61 12.31 2.49
-2.85 12.24 2.49
-3.09 12.17 2.49
-3.33 12.09 2.49
-3.57 12.01 2.49
-3.80 11.92 2.49
-4.03 11.82 2.49
-4.26 11.73 2.49
-4.49 11.62 2.49
-4.72 11.52 2.49
-4.94 11.41 2.49
-5.16 11.29 2.49
-5.38 11.17 2.49
-5.60 11.04 2.49
-5.81 10.92 2.49
-6.02 10.78 2.49
-6.22 10.64 2.49
-6.43 10.50 2.49
-6.63 10.36 2.49
-6.82 10.21 2.49
-7.01 10.05 2.49
-7.20 9.90 2.49
-7.39 9.74 2.49
-7.57 9.57 2.49
-7.75 9.40 2.49
-7.93 9.23 2.49
-8.10 9.06 2.49
-8.26 8.88 2.49
-8.43 8.70 2.49
-8.59 8.51 2.49
-8.74 8.33 2.49
-8.89 8.14 2.49
-9.04 7.94 2.49
-9.18 7.75 2.49
-9.32 7.55 2.49
-9.45 7.35 2.49
-9.58 7.15 2.49
-9.71 6.94 2.49
-9.83 6.74 2.49
-9.95 6.53 2.49
-10.06 6.32 2.49
-10.17 6.10 2.49
-10.27 5.89 2.49
-10.37 5.67 2.49
-10.47 5.45 2.49
-10.56 5.23 2.49
-10.64 5.01 2.49
-10.72 4.79 2.49
-10.80 4.57 2.49
-10.87 4.34 2.49
-10.49 3.94 2.39
-10.55 3.73 2.39
-10.60 3.51 2.39
-8.70 2.69 1.95
-8.68 2.49 1.94
-8.72 2.31 1.94
-8.84 2.16 1.96
-10.82 2.41 2.39
-10.84 2.19 2.39
-10.87 1.97 2.39
-10.89 1.75 2.39
-10.91 1.52 2.39
-10.92 1.30 2.39
-10.93 1.08 2.39
-10.93 0.86 2.39
-10.93 0.64 2.39
-10.92 0.42 2.39
-10.91 0.20 2.39
-10.90 -0.02 2.39
-10.76 -0.24 2.36
-10.60 -0.45 2.33
-10.06 -0.63 2.22
-9.96 -0.82 2.20
-9.95 -1.02 2.21
-9.99 -1.23 2.22
-9.99 -1.43 2.23
-10.17 -1.67 2.28
-10.13 -1.87 2.28
-10.09 -2.08 2.29
-10.06 -2.28 2.29
-9.89 -2.45 2.27
-9.80 -2.64 2.26
-9.79 -2.85 2.27
-9.81 -3.07 2.30
-9.86 -3.31 2.33
-9.82 -3.52 2.33
-9.78 -3.72 2.34
-9.74 -3.93 2.35
-9.20 -3.93 2.25
-9.12 -4.12 2.25
-9.11 -4.34 2.27
-9.14 -4.58 2.30
-9.14 -4.81 2.33
-9.27 -5.12 2.39
-9.16 -5.30 2.39
-9.04 -5.48 2.39
-8.92 -5.66 2.39
-8.80 -5.83 2.39
-8.61 -5.96 2.37
-8.51 -6.15 2.38
-8.41 -6.34 2.39
-8.28 -6.50 2.39
-8.14 -6.66 2.39
-8.00 -6.82 2.39
-7.85 -6.98 2.39
-7.71 -7.13 2.39
-7.56 -7.28 2.39
-7.41 -7.43 2.39
-7.25 -7.57 2.39
-7.10 -7.71 2.39
-6.94 -7.85 2.39
-6.77 -7.99 2.39
-6.61 -8.12 2.39
-6.44 -8.25 2.39
-6.27 -8.37 2.39
-6.10 -8.49 2.39
-4.70 -6.83 1.89
-4.50 -6.83 1.87
-4.36 -6.91 1.87
-4.26 -7.07 1.89
-5.21 -9.06 2.39
-5.03 -9.16 2.39
-4.85 -9.27 2.39
-4.66 -9.35 2.39
-4.56 -9.64 2.44
-4.46 -9.95 2.49
-4.26 -10.04 2.49
-4.06 -10.12 2.49
-3.85 -10.20 2.49
-3.65 -10.28 2.49
-3.44 -10.35 2.49
-3.23 -10.42 2.49
-3.02 -10.49 2.49
-2.81 -10.55 2.49
-2.60 -10.61 2.49
-2.38 -10.66 2.49
-2.17 -10.71 2.49
-1.95 -10.76 2.49
-1.74 -10.80 2.49
-1.52 -10.84 2.49
-1.30 -10.87 2.49
-1.08 -10.90 2.49
-0.87 -10.93 2.49
-0.65 -10.95 2.49
-0.42 -10.96 2.49
-0.20 -10.98 2.49
0.02 -9.94 2.49
0.22 -9.95 2.49
0.42 -9.95 2.49
0.62 -9.94 2.49
0.82 -9.94 2.49
1.02 -9.93 2.49
0.73 -5.96 1.50
0.84 -5.87 1.48
0.96 -5.84 1.47
1.08 -5.85 1.48
1.22 -5.92 1.50
2.22 -9.78 2.49
2.42 -9.74 2.49
2.62 -9.70 2.49
2.81 -9.65 2.49
3.01 -9.60 2.49
3.21 -9.55 2.49
3.40 -9.49 2.49
3.60 -9.43 2.49
3.63 -8.98 2.39
3.82 -8.92 2.39
4.00 -8.85 2.39
4.18 -8.77 2.39
4.36 -8.70 2.39
4.54 -8.62 2.39
4.72 -8.53 2.39
4.89 -8.45 2.39
5.07 -8.36 2.39
5.24 -8.26 2.39
5.41 -8.17 2.39
5.58 -8.07 2.39
5.75 -7.96 2.39
5.92 -7.85 2.39
6.08 -7.74 2.39
6.25 -7.63 2.39
6.41 -7.51 2.39
6.57 -7.39 2.39
6.72 -7.27 2.39
6.46 -6.71 2.24
6.40 -6.39 2.17
6.59 -6.32 2.19
6.81 -6.27 2.22
7.25 -6.41 2.32
7.35 -6.24 2.31
7.54 -6.14 2.32
7.75 -6.06 2.35
8.01 -6.01 2.38
8.21 -5.90 2.40
8.33 -5.74 2.40
8.46 -5.58 2.40
8.58 -5.42 2.40
8.70 -5.25 2.40
8.82 -5.09 2.40
8.93 -4.92 2.40
9.04 -4.74 2.40
9.15 -4.57 2.40
9.25 -4.39 2.40
9.35 -4.21 2.40
9.40 -4.00 2.39
9.44 -3.80 2.38
9.47 -3.59 2.36
9.51 -3.39 2.35
9.54 -3.19 2.34
9.56 -2.98 2.33
9.59 -2.78 2.32
9.61 -2.58 2.31
9.64 -2.38 2.30
9.68 -2.19 2.29
9.72 -1.99 2.29
9.74 -1.79 2.28
9.76 -1.59 2.27
9.77 -1.40 2.27
9.78 -1.20 2.26
9.79 -1.00 2.25
9.78 -0.80 2.24
9.77 -0.60 2.23
9.75 -0.41 2.22
9.73 -0.21 2.22
9.70 -0.02 2.21
9.68 0.18 2.20
9.67 0.37 2.19
9.65 0.56 2.19
9.63 0.76 2.19
9.61 0.95 2.18
9.73 1.16 2.21
9.86 1.38 2.24
9.99 1.60 2.28
10.13 1.83 2.31
10.26 2.07 2.35
10.40 2.31 2.39
10.43 2.54 2.40
2.16 0.57 0.50
2.11 0.60 0.49
2.10 0.65 0.49
10.24 3.38 2.40
10.18 3.59 2.40
10.12 3.80 2.40
10.05 4.00 2.40
9.98 4.21 2.40
9.90 4.41 2.40
9.82 4.61 2.40
9.74 4.81 2.40
9.58 4.98 2.39
9.49 5.17 2.39
9.39 5.37 2.39
9.29 5.56 2.39
9.19 5.75 2.39
9.08 5.93 2.39
8.96 6.12 2.39
8.85 6.30 2.39
8.73 6.48 2.39
8.60 6.66 2.39
8.47 6.84 2.39
8.34 7.01 2.39
8.20 7.18 2.39
8.06 7.35 2.39
7.92 7.51 2.39
7.77 7.67 2.39
7.62 7.83 2.39
7.46 7.98 2.39
7.30 8.13 2.39
7.14 8.28 2.39
7.28 8.79 2.49
7.11 8.94 2.49
6.93 9.08 2.49
6.75 9.22 2.49
6.56 9.35 2.49
6.38 9.49 2.49
6.19 9.61 2.49
5.99 9.74 2.49
5.80 9.86 2.49
5.60 9.97 2.49
5.40 10.08 2.49
5.20 10.19 2.49
4.99 10.29 2.49
4.79 10.39 2.49
4.58 10.48 2.49
4.37 10.57 2.49
4.15 10.65 2.49
3.94 10.73 2.49
3.72 10.81 2.49
3.50 10.88 2.49
3.29 10.94 2.49
3.07 11.00 2.49
2.84 11.06 2.49
2.62 11.11 2.49
2.40 11.15 2.49
2.17 11.20 2.49
1.95 11.23 2.49
1.72 11.26 2.49
1.50 11.29 2.49
1.27 11.31 2.49
1.04 11.33 2.49
0.81 11.34 2.49
0.59 11.35 2.49
0.36 11.35 2.49
0.13 11.35 2.49
-0.09 11.34 2.49
-0.32 11.33 2.49
-0.55 11.31 2.49
-0.77 11.29 2.49
-1.00 11.26 2.49
-1.22 11.23 2.49
-1.44 11.19 2.49
-1.67 11.15 2.49
-1.89 11.11 2.49
-2.11 11.06 2.49
-2.33 11.00 2.49
-2.54 10.94 2.49
-2.76 10.88 2.49
-2.97 10.81 2.49
-3.19 10.74 2.49
-3.40 10.66 2.49
-3.61 10.58 2.49
-3.81 10.49 2.49
-4.02 10.40 2.49
-4.22 10.31 2.49
-4.42 10.21 2.49
-4.62 10.11 2.49
-4.81 10.00 2.49
-5.01 9.89 2.49
-5.20 9.78 2.49
-5.39 9.66 2.49
-5.57 9.53 2.49
-5.75 9.41 2.49
-5.93 9.28 2.49
-6.11 9.15 2.49
-6.28 9.01 2.49
-6.45 8.87 2.49
-6.62 8.73 2.49
-6.79 8.58 2.49
-6.95 8.43 2.49
-7.10 8.28 2.49
-7.26 8.13 2.49
-7.41 7.97 2.49
-7.56 7.81 2.49
-7.70 7.64 2.49
-7.84 7.48 2.49
-7.98 7.31 2.49
-8.11 7.13 2.49
-8.24 6.96 2.49
-8.37 6.78 2.49
-8.49 6.60 2.49
-8.61 6.42 2.49
-8.72 6.24 2.49
-8.83 6.06 2.49
-8.94 5.87 2.49
-9.04 5.68 2.49
-9.14 5.49 2.49
-9.23 5.30 2.49
-9.32 5.10 2.49
-9.41 4.91 2.49
-9.49 4.71 2.49
-9.57 4.51 2.49
-9.65 4.31 2.49
-9.72 4.11 2.49
-9.78 3.91 2.49
-9.44 3.55 2.39
-9.49 3.36 2.39
-9.54 3.16 2.39
-8.85 2.74 2.20
-9.42 2.71 2.34
-9.68 2.57 2.39
-9.02 2.21 2.22
-9.74 2.17 2.39
-9.77 1.98 2.39
-9.80 1.78 2.39
-9.82 1.58 2.39
-9.83 1.38 2.39
-9.84 1.18 2.39
-9.85 0.98 2.39
-9.86 0.78 2.39
-9.86 0.58 2.39
-9.85 0.38 2.39
-9.85 0.18 2.39
-9.84 -0.01 2.39
-9.82 -0.21 2.39
-9.80 -0.41 2.39
-9.78 -0.61 2.39
-9.75 -0.80 2.39
-9.72 -1.00 2.39
-9.69 -1.19 2.39
-9.65 -1.38 2.39
-9.61 -1.57 2.39
-9.57 -1.77 2.39
-9.52 -1.96 2.39
-9.47 -2.14 2.39
-9.41 -2.33 2.39
-9.35 -2.52 2.39
-9.29 -2.70 2.39
-9.23 -2.89 2.39
-9.16 -3.07 2.39
-9.08 -3.25 2.39
-9.01 -3.43 2.39
-8.93 -3.61 2.39
-8.85 -3.78 2.39
-8.76 -3.95 2.39
-8.67 -4.13 2.39
-8.58 -4.30 2.39
-8.42 -4.43 2.37
-8.33 -4.60 2.37
-8.23 -4.76 2.37
-8.12 -4.92 2.37
-8.07 -5.12 2.39
-7.96 -5.27 2.39
-7.85 -5.43 2.39
-7.73 -5.58 2.39
-7.61 -5.73 2.39
-7.49 -5.88 2.39
-7.37 -6.03 2.39
-7.24 -6.17 2.39
-7.11 -6.31 2.39
-6.98 -6.45 2.39
-6.84 -6.59 2.39
-6.71 -6.72 2.39
-6.57 -6.85 2.39
-6.43 -6.98 2.39
-6.28 -7.11 2.39
-6.13 -7.23 2.39
-5.99 -7.35 2.39
-5.83 -7.47 2.39
-5.68 -7.58 2.39
-5.53 -7.69 2.39
-4.70 -6.83 2.09
-4.50 -6.83 2.06
-4.36 -6.91 2.06
-4.26 -7.07 2.08
-4.81 -8.36 2.43
-4.75 -8.65 2.49
-4.58 -8.75 2.49
-4.40 -8.84 2.49
-4.22 -8.92 2.49
-4.04 -9.01 2.49
-3.86 -9.09 2.49
-3.67 -9.17 2.49
-3.49 -9.24 2.49
-3.30 -9.31 2.49
-3.11 -9.37 2.49
-2.92 -9.44 2.49
-2.73 -9.50 2.49
-2.54 -9.55 2.49
-2.35 -9.60 2.49
-2.16 -9.65 2.49
-1.96 -9.70 2.49
-1.77 -9.74 2.49
-1.57 -9.78 2.49
-1.38 -9.81 2.49
-1.18 -9.84 2.49
-0.98 -9.87 2.49
-0.78 -9.89 2.49
-0.58 -9.91 2.49
-0.38 -9.92 2.49
-0.18 -9.94 2.49
0.02 -9.07 2.49
0.20 -9.07 2.49
0.38 -9.07 2.49
0.57 -9.07 2.49
0.75 -9.06 2.49
0.93 -9.05 2.49
0.73 -5.95 1.64
0.84 -5.83 1.61
0.96 -5.84 1.62
1.08 -5.85 1.62
1.22 -5.92 1.65
2.03 -8.91 2.49
2.21 -8.88 2.49
2.39 -8.84 2.49
2.57 -8.80 2.49
2.75 -8.75 2.49
2.92 -8.70 2.49
3.10 -8.65 2.49
3.28 -8.59 2.49
3.40 -8.40 2.45
3.48 -8.12 2.39
3.65 -8.06 2.39
3.81 -7.99 2.39
3.97 -7.92 2.39
4.14 -7.85 2.39
4.30 -7.77 2.39
4.46 -7.69 2.39
4.62 -7.61 2.39
4.78 -7.52 2.39
4.93 -7.43 2.39
5.09 -7.34 2.39
5.24 -7.25 2.39
5.39 -7.15 2.39
5.54 -7.05 2.39
5.69 -6.94 2.39
5.83 -6.83 2.39
5.98 -6.72 2.39
6.12 -6.61 2.39
6.26 -6.49 2.39
6.39 -6.37 2.39
6.53 -6.25 2.39
6.66 -6.13 2.39
6.79 -6.00 2.39
6.92 -5.87 2.39
7.24 -5.90 2.46
7.33 -5.72 2.44
7.40 -5.55 2.43
7.48 -5.37 2.41
7.57 -5.22 2.40
7.69 -5.07 2.40
7.80 -4.92 2.40
7.91 -4.77 2.40
8.01 -4.62 2.40
8.11 -4.46 2.40
8.21 -4.30 2.40
8.31 -4.14 2.40
8.40 -3.98 2.40
8.49 -3.82 2.40
8.58 -3.65 2.40
8.66 -3.48 2.40
8.74 -3.31 2.40
8.82 -3.14 2.40
8.89 -2.97 2.40
8.96 -2.79 2.40
9.03 -2.61 2.40
9.06 -2.43 2.40
9.08 -2.24 2.39
9.10 -2.05 2.38
9.13 -1.87 2.37
9.15 -1.68 2.36
9.16 -1.49 2.36
9.17 -1.31 2.35
9.18 -1.12 2.34
9.19 -0.94 2.34
9.20 -0.75 2.33
9.20 -0.57 2.32
9.19 -0.38 2.32
9.17 -0.20 2.31
9.15 -0.01 2.30
9.14 0.17 2.29
9.12 0.35 2.29
9.11 0.54 2.28
9.09 0.72 2.28
9.08 0.90 2.28
9.06 1.08 2.27
9.03 1.26 2.27
9.07 1.45 2.28
9.17 1.66 2.32
9.28 1.87 2.35
9.38 2.09 2.38
9.43 2.30 2.40
2.16 0.57 0.55
2.11 0.60 0.54
2.10 0.65 0.54
9.25 3.06 2.40
9.20 3.24 2.40
9.14 3.43 2.40
9.08 3.62 2.40
9.01 3.80 2.40
8.94 3.98 2.40
8.87 4.17 2.40
8.79 4.35 2.40
8.71 4.53 2.40
8.57 4.67 2.39
8.48 4.85 2.39
8.39 5.02 2.39
8.29 5.19 2.39
8.19 5.36 2.39
8.09 5.53 2.39
7.98 5.69 2.39
7.87 5.85 2.39
7.76 6.01 2.39
7.64 6.17 2.39
7.52 6.33 2.39
7.40 6.48 2.39
7.27 6.63 2.39
7.14 6.78 2.39
7.01 6.92 2.39
6.87 7.06 2.39
6.73 7.20 2.39
6.59 7.34 2.39
6.44 7.47 2.39
6.29 7.60 2.39
6.14 7.73 2.39
5.99 7.85 2.39
5.83 7.97 2.39
5.92 8.44 2.49
5.75 8.56 2.49
5.58 8.67 2.49
5.40 8.78 2.49
5.23 8.89 2.49
5.05 8.99 2.49
4.87 9.09 2.49
4.69 9.19 2.49
4.50 9.28 2.49
4.32 9.37 2.49
4.13 9.45 2.49
3.94 9.53 2.49
3.75 9.61 2.49
3.55 9.68 2.49
3.36 9.75 2.49
3.16 9.81 2.49
2.96 9.87 2.49
2.77 9.92 2.49
2.57 9.97 2.49
2.37 10.02 2.49
2.16 10.06 2.49
1.96 10.10 2.49
1.76 10.13 2.49
1.56 10.16 2.49
1.35 10.19 2.49
1.15 10.21 2.49
0.94 10.22 2.49
0.74 10.23 2.49
0.53 10.24 2.49
0.33 10.24 2.49
0.12 10.24 2.49
-0.08 10.23 2.49
-0.29 10.22 2.49
-0.49 10.21 2.49
-0.70 10.19 2.49
-0.90 10.17 2.49
-1.10 10.14 2.49
-1.30 10.11 2.49
-1.50 10.07 2.49
-1.70 10.03 2.49
-1.90 9.99 2.49
-2.10 9.94 2.49
-2.30 9.88 2.49
-2.49 9.83 2.49
-2.68 9.77 2.49
-2.88 9.70 2.49
-3.07 9.63 2.49
-3.26 9.56 2.49
-3.44 9.48 2.49
-3.63 9.40 2.49
-3.81 9.32 2.49
-3.99 9.23 2.49
-4.17 9.14 2.49
-4.35 9.04 2.49
-4.53 8.94 2.49
-4.70 8.84 2.49
-4.87 8.74 2.49
-5.04 8.63 2.49
-5.20 8.51 2.49
-5.37 8.40 2.49
-5.53 8.28 2.49
-5.68 8.16 2.49
-5.84 8.03 2.49
-5.99 7.90 2.49
-6.14 7.77 2.49
-6.29 7.64 2.49
-6.43 7.50 2.49
-6.57 7.36 2.49
-6.71 7.22 2.49
-6.84 7.07 2.49
-6.97 6.93 2.49
-7.10 6.78 2.49
-7.23 6.62 2.49
-7.35 6.47 2.49
-7.47 6.31 2.49
-7.58 6.15 2.49
-7.69 5.99 2.49
-7.80 5.83 2.49
-7.91 5.66 2.49
-8.01 5.50 2.49
-8.11 5.33 2.49
-8.20 5.16 2.49
-8.29 4.98 2.49
-8.38 4.81 2.49
-8.46 4.63 2.49
-8.54 4.46 2.49
-8.62 4.28 2.49
-8.69 4.10 2.49
-8.76 3.92 2.49
-8.82 3.74 2.49
-8.88 3.56 2.49
-8.94 3.37 2.49
-8.63 3.06 2.39
-8.67 2.88 2.39
-8.71 2.70 2.39
-8.76 2.52 2.39
-8.79 2.34 2.39
-8.83 2.16 2.39
-8.86 1.98 2.39
-8.88 1.80 2.39
-8.91 1.62 2.39
-8.93 1.44 2.39
-8.94 1.26 2.39
-8.95 1.08 2.39
-8.96 0.89 2.39
-8.97 0.71 2.39
-8.97 0.53 2.39
-8.97 0.35 2.39
-8.96 0.17 2.39
-8.95 -0.01 2.39
-8.94 -0.19 2.39
-8.92 -0.37 2.39
-8.90 -0.55 2.39
-8.88 -0.73 2.39
-8.85 -0.90 2.39
-8.83 -1.08 2.39
-8.79 -1.26 2.39
-8.76 -1.43 2.39
-8.72 -1.61 2.39
-8.67 -1.78 2.39
-8.63 -1.95 2.39
-8.58 -2.12 2.39
-8.52 -2.29 2.39
-8.47 -2.46 2.39
-8.41 -2.63 2.39
-8.35 -2.79 2.39
-8.28 -2.96 2.39
-8.21 -3.12 2.39
-8.14 -3.28 2.39
-8.07 -3.44 2.39
-7.99 -3.60 2.39
-7.91 -3.76 2.39
-7.82 -3.92 2.39
-7.72 -4.06 2.38
-7.59 -4.19 2.37
-7.50 -4.34 2.37
-7.44 -4.51 2.38
-7.36 -4.67 2.39
-7.26 -4.81 2.39
-7.16 -4.95 2.39
-7.06 -5.09 2.39
-6.95 -5.23 2.39
-6.84 -5.37 2.39
-6.72 -5.50 2.39
-6.61 -5.63 2.39
-6.49 -5.76 2.39
-6.37 -5.89 2.39
-6.25 -6.01 2.39
-6.12 -6.13 2.39
-5.99 -6.25 2.39
-5.86 -6.37 2.39
-5.73 -6.49 2.39
-5.60 -6.60 2.39
-5.46 -6.71 2.39
-5.34 -6.83 2.39
-5.19 -6.92 2.39
-5.08 -7.07 2.40
-5.02 -7.30 2.45
-4.52 -6.85 2.27
-4.37 -6.93 2.27
-4.30 -7.14 2.30
-4.50 -7.81 2.49
-4.34 -7.90 2.49
-4.18 -7.98 2.49
-4.01 -8.07 2.49
-3.85 -8.15 2.49
-3.69 -8.22 2.49
-3.52 -8.30 2.49
-3.35 -8.37 2.49
-3.18 -8.43 2.49
-3.01 -8.50 2.49
-2.84 -8.56 2.49
-2.67 -8.61 2.49
-2.50 -8.67 2.49
-2.32 -8.72 2.49
-2.15 -8.77 2.49
-1.97 -8.81 2.49
-1.79 -8.85 2.49
-1.61 -8.89 2.49
-1.43 -8.92 2.49
-1.25 -8.95 2.49
-1.07 -8.98 2.49
-0.89 -9.00 2.49
-0.71 -9.02 2.49
-0.53 -9.04 2.49
-0.35 -9.06 2.49
-0.17 -9.07 2.49
0.02 -8.33 2.49
0.19 -8.33 2.49
0.35 -8.33 2.49
0.52 -8.33 2.49
0.69 -8.32 2.49
0.86 -8.31 2.49
0.74 -5.95 1.79
0.85 -5.87 1.77
0.96 -5.84 1.76
1.08 -5.84 1.77
1.22 -5.93 1.80
1.86 -8.18 2.49
2.03 -8.15 2.49
2.19 -8.11 2.49
2.36 -8.07 2.49
2.52 -8.03 2.49
2.69 -7.99 2.49
2.85 -7.94 2.49
3.01 -7.89 2.49
3.17 -7.83 2.49
3.23 -7.55 2.42
3.35 -7.39 2.39
3.50 -7.33 2.39
3.65 -7.26 2.39
3.80 -7.20 2.39
3.95 -7.13 2.39
4.09 -7.05 2.39
4.24 -6.98 2.39
4.38 -6.90 2.39
4.52 -6.81 2.39
4.67 -6.73 2.39
4.80 -6.64 2.39
4.94 -6.55 2.39
5.08 -6.46 2.39
5.21 -6.36 2.39
5.35 -6.26 2.39
5.48 -6.16 2.39
5.61 -6.05 2.39
5.73 -5.95 2.39
5.86 -5.84 2.39
5.98 -5.72 2.39
6.10 -5.61 2.39
6.22 -5.49 2.39
6.34 -5.37 2.39
6.45 -5.25 2.39
6.57 -5.13 2.39
6.68 -5.00 2.39
6.78 -4.87 2.39
7.07 -4.86 2.45
7.14 -4.70 2.44
7.20 -4.54 2.43
7.26 -4.38 2.41
7.33 -4.22 2.40
7.42 -4.08 2.40
7.51 -3.93 2.40
7.60 -3.79 2.40
7.68 -3.64 2.40
7.76 -3.49 2.40
7.84 -3.33 2.40
7.92 -3.18 2.40
7.99 -3.02 2.40
8.06 -2.87 2.40
8.13 -2.71 2.40
8.19 -2.55 2.40
8.25 -2.39 2.40
8.30 -2.22 2.40
8.36 -2.06 2.40
8.41 -1.89 2.40
8.45 -1.73 2.40
8.50 -1.56 2.40
8.54 -1.39 2.40
8.57 -1.22 2.40
8.61 -1.05 2.40
8.64 -0.88 2.40
8.66 -0.70 2.40
8.67 -0.53 2.40
8.67 -0.36 2.39
8.67 -0.18 2.39
8.65 -0.01 2.38
8.65 0.16 2.38
8.63 0.34 2.37
8.62 0.51 2.37
8.61 0.68 2.37
8.59 0.85 2.36
8.57 1.03 2.36
8.55 1.20 2.36
8.53 1.37 2.36
8.50 1.54 2.35
8.47 1.71 2.35
8.54 1.90 2.38
8.59 2.10 2.40
2.16 0.57 0.61
2.11 0.60 0.59
2.10 0.65 0.60
8.43 2.79 2.40
8.38 2.96 2.40
8.33 3.13 2.40
8.27 3.30 2.40
8.21 3.47 2.40
8.15 3.63 2.40
8.08 3.80 2.40
8.01 3.96 2.40
7.93 4.12 2.40
7.86 4.28 2.40
7.77 4.44 2.40
7.64 4.57 2.39
7.55 4.73 2.39
7.46 4.88 2.39
7.36 5.03 2.39
7.27 5.18 2.39
7.17 5.33 2.39
7.06 5.47 2.39
6.96 5.62 2.39
6.85 5.76 2.39
6.73 5.90 2.39
6.62 6.03 2.39
6.50 6.17 2.39
6.38 6.30 2.39
6.25 6.43 2.39
6.12 6.55 2.39
5.99 6.68 2.39
5.86 6.80 2.39
5.73 6.92 2.39
5.59 7.03 2.39
5.45 7.14 2.39
5.31 7.25 2.39
5.16 7.36 2.39
5.01 7.46 2.39
4.86 7.56 2.39
4.92 7.99 2.49
4.76 8.09 2.49
4.59 8.18 2.49
4.43 8.27 2.49
4.26 8.36 2.49
4.10 8.44 2.49
3.93 8.52 2.49
3.76 8.60 2.49
3.58 8.67 2.49
3.41 8.74 2.49
3.23 8.80 2.49
3.06 8.87 2.49
2.88 8.92 2.49
2.70 8.98 2.49
2.52 9.03 2.49
2.34 9.07 2.49
2.15 9.12 2.49
1.97 9.15 2.49
1.79 9.19 2.49
1.60 9.22 2.49
1.42 9.25 2.49
1.23 9.27 2.49
1.04 9.29 2.49
0.86 9.30 2.49
0.67 9.31 2.49
0.49 9.32 2.49
0.30 9.32 2.49
0.11 9.32 2.49
-0.07 9.32 2.49
-0.26 9.31 2.49
-0.45 9.29 2.49
-0.63 9.28 2.49
-0.82 9.26 2.49
-1.00 9.23 2.49
-1.18 9.20 2.49
-1.37 9.17 2.49
-1.55 9.14 2.49
-1.73 9.10 2.49
-1.91 9.05 2.49
-2.09 9.00 2.49
-2.27 8.95 2.49
-2.44 8.90 2.49
-2.62 8.84 2.49
-2.79 8.78 2.49
-2.96 8.71 2.49
-3.13 8.64 2.49
-3.30 8.57 2.49
-3.47 8.49 2.49
-3.64 8.42 2.49
-3.80 8.33 2.49
-3.96 8.25 2.49
-4.12 8.16 2.49
-4.28 8.06 2.49
-4.44 7.97 2.49
-4.59 7.87 2.49
-4.74 7.77 2.49
-4.89 7.66 2.49
-5.04 7.55 2.49
-5.18 7.44 2.49
-5.32 7.33 2.49
-5.46 7.21 2.49
-5.60 7.09 2.49
-5.74 6.97 2.49
-5.87 6.85 2.49
-6.00 6.72 2.49
-6.12 6.59 2.49
-6.25 6.46 2.49
-6.37 6.33 2.49
-6.48 6.19 2.49
-6.60 6.05 2.49
-6.71 5.91 2.49
-6.82 5.77 2.49
-6.92 5.62 2.49
-7.03 5.48 2.49
-7.13 5.33 2.49
-7.22 5.18 2.49
-7.32 5.03 2.49
-7.41 4.87 2.49
-7.49 4.72 2.49
-7.58 4.56 2.49
-7.66 4.40 2.49
-7.73 4.24 2.49
-7.81 4.08 2.49
-7.88 3.92 2.49
-7.95 3.75 2.49
-8.01 3.59 2.49
-8.07 3.42 2.49
-8.13 3.26 2.49
-8.18 3.09 2.49
-8.23 2.92 2.49
-8.28 2.75 2.49
-8.06 2.50 2.41
-8.01 2.31 2.39
-8.05 2.15 2.39
-8.08 1.98 2.39
-8.11 1.82 2.39
-8.13 1.65 2.39
-8.16 1.49 2.39
-8.17 1.32 2.39
-8.19 1.15 2.39
-8.20 0.99 2.39
-8.21 0.82 2.39
-8.22 0.66 2.39
-8.22 0.49 2.39
-8.22 0.32 2.39
-8.21 0.16 2.39
-8.21 -0.01 2.39
-8.19 -0.17 2.39
-8.18 -0.34 2.39
-8.16 -0.50 2.39
-8.14 -0.66 2.39
-8.12 -0.83 2.39
-8.09 -0.99 2.39
-8.06 -1.15 2.39
-8.03 -1.31 2.39
-8.00 -1.47 2.39
-7.96 -1.63 2.39
-7.91 -1.79 2.39
-7.87 -1.94 2.39
-7.82 -2.10 2.39
-7.77 -2.26 2.39
-7.72 -2.41 2.39
-7.66 -2.56 2.39
-7.60 -2.71 2.39
-7.54 -2.86 2.39
-7.47 -3.01 2.39
-7.40 -3.16 2.39
-7.33 -3.31 2.39
-7.26 -3.45 2.39
-7.18 -3.59 2.39
-7.11 -3.73 2.39
-7.02 -3.87 2.39
-6.94 -4.01 2.39
-6.85 -4.15 2.39
-6.76 -4.28 2.39
-6.67 -4.42 2.39
-6.58 -4.55 2.39
-6.48 -4.68 2.39
-6.38 -4.80 2.39
-6.28 -4.93 2.39
-6.18 -5.05 2.39
-6.07 -5.17 2.39
-5.96 -5.29 2.39
-5.85 -5.41 2.39
-5.74 -5.52 2.39
-5.62 -5.63 2.39
-5.51 -5.75 2.39
-5.39 -5.85 2.39
-5.30 -5.99 2.40
-5.25 -6.18 2.44
-5.20 -6.39 2.48
-5.11 -6.53 2.49
-4.97 -6.63 2.49
-4.84 -6.73 2.49
-4.70 -6.82 2.49
-4.56 -6.92 2.49
-4.42 -7.01 2.49
-4.28 -7.09 2.49
-4.13 -7.18 2.49
-3.99 -7.26 2.49
-3.84 -7.34 2.49
-3.69 -7.41 2.49
-3.54 -7.49 2.49
-3.39 -7.56 2.49
-3.23 -7.62 2.49
-3.08 -7.69 2.49
-2.92 -7.75 2.49
-2.77 -7.81 2.49
-2.61 -7.86 2.49
-2.45 -7.92 2.49
-2.29 -7.97 2.49
-2.13 -8.01 2.49
-1.97 -8.05 2.49
-1.81 -8.10 2.49
-1.64 -8.13 2.49
-1.48 -8.17 2.49
-1.32 -8.20 2.49
-1.15 -8.23 2.49
-0.99 -8.25 2.49
-0.82 -8.27 2.49
-0.65 -8.29 2.49
-0.49 -8.31 2.49
-0.32 -8.32 2.49
-0.15 -8.33 2.49
0.02 -7.70 2.49
0.17 -7.70 2.49
0.33 -7.70 2.49
0.48 -7.69 2.49
0.64 -7.69 2.49
0.79 -7.68 2.49
0.74 -5.95 1.93
0.85 -5.87 1.91
0.96 -5.84 1.91
1.09 -5.85 1.92
1.23 -5.93 1.95
1.72 -7.55 2.49
1.87 -7.52 2.49
2.03 -7.49 2.49
2.18 -7.45 2.49
2.33 -7.41 2.49
2.48 -7.37 2.49
2.63 -7.33 2.49
2.78 -7.28 2.49
2.93 -7.23 2.49
3.08 -7.17 2.49
3.10 -6.84 2.40
3.23 -6.76 2.39
3.37 -6.70 2.39
3.51 -6.64 2.39
3.64 -6.57 2.39
3.78 -6.50 2.39
3.91 -6.43 2.39
4.04 -6.36 2.39
4.17 -6.28 2.39
4.30 -6.20 2.39
4.43 -6.12 2.39
4.56 -6.04 2.39
4.69 -5.95 2.39
4.81 -5.86 2.39
4.93 -5.77 2.39
5.05 -5.68 2.39
5.17 -5.58 2.39
5.29 -5.48 2.39
5.40 -5.38 2.39
5.51 -5.27 2.39
5.63 -5.17 2.39
5.74 -5.06 2.39
5.84 -4.95 2.39
5.95 -4.84 2.39
6.05 -4.72 2.39
6.15 -4.60 2.39
6.25 -4.48 2.39
6.34 -4.36 2.39
6.44 -4.24 2.39
6.53 -4.11 2.39
6.62 -3.99 2.39
6.88 -3.96 2.45
6.94 -3.81 2.44
6.99 -3.66 2.43
7.04 -3.50 2.42
7.09 -3.35 2.41
7.15 -3.21 2.40
7.22 -3.06 2.40
7.29 -2.92 2.40
7.35 -2.78 2.40
7.42 -2.63 2.40
7.48 -2.49 2.40
7.53 -2.34 2.40
7.59 -2.19 2.40
7.64 -2.04 2.40
7.69 -1.89 2.40
7.73 -1.74 2.40
7.77 -1.58 2.40
7.81 -1.43 2.40
7.85 -1.27 2.40
7.88 -1.12 2.40
7.91 -0.96 2.40
7.94 -0.80 2.40
7.96 -0.64 2.40
7.98 -0.49 2.40
8.00 -0.33 2.40
8.01 -0.17 2.40
8.02 -0.00 2.40
8.03 0.16 2.40
8.03 0.32 2.40
8.03 0.48 2.40
8.03 0.64 2.40
8.02 0.80 2.40
8.01 0.96 2.40
8.00 1.12 2.40
7.99 1.29 2.40
7.97 1.45 2.40
7.94 1.61 2.40
7.92 1.77 2.40
7.89 1.93 2.40
2.15 0.57 0.66
2.11 0.60 0.65
2.10 0.65 0.65
7.74 2.56 2.40
7.69 2.72 2.40
7.64 2.87 2.40
7.59 3.03 2.40
7.53 3.18 2.40
7.47 3.33 2.40
7.41 3.48 2.40
7.34 3.63 2.40
7.27 3.78 2.40
7.20 3.93 2.40
7.13 4.08 2.40
7.05 4.22 2.40
6.92 4.34 2.39
6.84 4.48 2.39
6.75 4.61 2.39
6.66 4.75 2.39
6.57 4.89 2.39
6.47 5.02 2.39
6.38 5.15 2.39
6.27 5.28 2.39
6.17 5.41 2.39
6.06 5.53 2.39
5.95 5.65 2.39
5.84 5.77 2.39
5.73 5.89 2.39
5.61 6.01 2.39
5.49 6.12 2.39
5.37 6.23 2.39
5.25 6.34 2.39
5.12 6.44 2.39
4.99 6.55 2.39
4.86 6.65 2.39
4.73 6.74 2.39
4.59 6.84 2.39
4.46 6.93 2.39
4.32 7.02 2.39
4.19 7.12 2.39
4.04 7.19 2.39
4.06 7.58 2.49
3.91 7.66 2.49
3.75 7.74 2.49
3.60 7.81 2.49
3.44 7.88 2.49
3.28 7.94 2.49
3.12 8.01 2.49
2.96 8.07 2.49
2.80 8.12 2.49
2.64 8.18 2.49
2.47 8.23 2.49
2.31 8.27 2.49
2.14 8.31 2.49
1.97 8.35 2.49
1.81 8.39 2.49
1.64 8.42 2.49
1.47 8.45 2.49
1.30 8.47 2.49
1.13 8.49 2.49
0.96 8.51 2.49
0.79 8.53 2.49
0.62 8.54 2.49
0.45 8.54 2.49
0.28 8.55 2.49
0.10 8.54 2.49
-0.07 8.54 2.49
-0.24 8.53 2.49
-0.41 8.52 2.49
-0.58 8.51 2.49
-0.75 8.49 2.49
-0.92 8.47 2.49
-1.08 8.44 2.49
-1.25 8.41 2.49
-1.42 8.38 2.49
-1.58 8.34 2.49
-1.75 8.30 2.49
-1.91 8.26 2.49
-2.08 8.21 2.49
-2.24 8.16 2.49
-2.40 8.11 2.49
-2.56 8.05 2.49
-2.72 7.99 2.49
-2.87 7.93 2.49
-3.03 7.87 2.49
-3.18 7.80 2.49
-3.34 7.72 2.49
-3.49 7.65 2.49
-3.64 7.57 2.49
-3.78 7.49 2.49
-3.93 7.40 2.49
-4.07 7.32 2.49
-4.21 7.23 2.49
-4.35 7.13 2.49
-4.49 7.04 2.49
-4.62 6.94 2.49
-4.76 6.84 2.49
-4.89 6.74 2.49
-5.02 6.63 2.49
-5.14 6.52 2.49
-5.27 6.41 2.49
-5.39 6.30 2.49
-5.51 6.18 2.49
-5.62 6.06 2.49
-5.74 5.94 2.49
-5.85 5.82 2.49
-5.96 5.69 2.49
-6.06 5.57 2.49
-6.17 5.44 2.49
-6.27 5.31 2.49
-6.37 5.17 2.49
-6.46 5.04 2.49
-6.55 4.90 2.49
-6.64 4.76 2.49
-6.73 4.63 2.49
-6.81 4.48 2.49
-6.89 4.34 2.49
-6.97 4.20 2.49
-7.04 4.05 2.49
-7.12 3.91 2.49
-7.18 3.76 2.49
-7.25 3.61 2.49
-7.31 3.46 2.49
-7.37 3.31 2.49
-7.43 3.15 2.49
-7.48 3.00 2.49
-7.53 2.85 2.49
-7.58 2.69 2.49
-7.62 2.54 2.49
-7.66 2.38 2.49
-7.70 2.22 2.49
-7.57 2.02 2.44
-7.46 1.83 2.39
-7.47 1.68 2.39
-7.52 1.53 2.40
-7.51 1.37 2.39
-7.53 1.22 2.39
-7.55 1.07 2.39
-7.56 0.91 2.39
-7.57 0.76 2.39
-7.57 0.61 2.39
-7.58 0.45 2.39
-7.58 0.30 2.39
-7.57 0.15 2.39
-7.57 -0.00 2.39
-7.56 -0.16 2.39
-7.54 -0.31 2.39
-7.53 -0.46 2.39
-7.51 -0.61 2.39
-7.49 -0.76 2.39
-7.47 -0.91 2.39
-7.44 -1.06 2.39
-7.41 -1.21 2.39
-7.38 -1.35 2.39
-7.34 -1.50 2.39
-7.30 -1.65 2.39
-7.26 -1.79 2.39
-7.22 -1.94 2.39
-7.17 -2.08 2.39
-7.12 -2.22 2.39
-7.07 -2.36 2.39
-7.02 -2.50 2.39
-6.96 -2.64 2.39
-6.90 -2.78 2.39
-6.84 -2.92 2.39
-6.77 -3.05 2.39
-6.70 -3.18 2.39
-6.63 -3.32 2.39
-6.56 -3.45 2.39
-6.49 -3.58 2.39
-6.41 -3.70 2.39
-6.33 -3.83 2.39
-6.25 -3.95 2.39
-6.16 -4.08 2.39
-6.08 -4.20 2.39
-5.99 -4.32 2.39
-5.90 -4.44 2.39
-5.80 -4.55 2.39
-5.71 -4.67 2.39
-5.61 -4.78 2.39
-5.52 -4.89 2.39
-5.48 -5.06 2.42
-5.44 -5.23 2.45
-5.40 -5.41 2.48
-5.31 -5.54 2.49
-5.19 -5.64 2.49
-5.08 -5.74 2.49
-4.96 -5.84 2.49
-4.84 -5.94 2.49
-4.72 -6.03 2.49
-4.59 -6.13 2.49
-4.47 -6.22 2.49
-4.34 -6.31 2.49
-4.21 -6.39 2.49
-4.08 -6.47 2.49
-3.95 -6.55 2.49
-3.82 -6.63 2.49
-3.68 -6.71 2.49
-3.55 -6.78 2.49
-3.41 -6.85 2.49
-3.27 -6.92 2.49
-3.13 -6.98 2.49
-2.99 -7.04 2.49
-2.85 -7.10 2.49
-2.70 -7.16 2.49
-2.56 -7.21 2.49
-2.41 -7.27 2.49
-2.27 -7.31 2.49
-2.12 -7.36 2.49
-1.97 -7.40 2.49
-1.82 -7.44 2.49
-1.67 -7.48 2.49
-1.52 -7.51 2.49
-1.37 -7.55 2.49
-1.22 -7.57 2.49
-1.06 -7.60 2.49
-0.91 -7.62 2.49
-0.76 -7.64 2.49
-0.60 -7.66 2.49
-0.45 -7.67 2.49
-0.29 -7.68 2.49
-0.14 -7.69 2.49
0.02 -7.14 2.49
0.16 -7.14 2.49
0.31 -7.14 2.49
0.45 -7.14 2.49
0.59 -7.13 2.49
0.74 -7.12 2.49
0.74 -5.95 2.08
0.85 -5.87 2.06
0.96 -5.84 2.05
1.09 -5.85 2.06
1.23 -5.93 2.10
1.60 -7.01 2.49
1.74 -6.98 2.49
1.88 -6.95 2.49
2.02 -6.91 2.49
2.16 -6.88 2.49
2.30 -6.84 2.49
2.44 -6.79 2.49
2.58 -6.75 2.49
2.72 -6.70 2.49
2.86 -6.65 2.49
2.99 -6.60 2.49
3.00 -6.27 2.39
3.13 -6.21 2.39
3.25 -6.15 2.39
3.38 -6.09 2.39
3.50 -6.03 2.39
3.63 -5.96 2.39
3.75 -5.89 2.39
3.87 -5.82 2.39
3.99 -5.75 2.39
4.11 -5.67 2.39
4.23 -5.59 2.39
4.34 -5.51 2.39
4.46 -5.43 2.39
4.57 -5.34 2.39
4.68 -5.26 2.39
4.79 -5.17 2.39
4.90 -5.07 2.39
5.01 -4.98 2.39
5.11 -4.88 2.39
5.21 -4.78 2.39
5.31 -4.68 2.39
5.41 -4.58 2.39
5.51 -4.48 2.39
5.60 -4.37 2.39
5.70 -4.26 2.39
5.79 -4.15 2.39
5.88 -4.04 2.39
5.96 -3.92 2.39
6.05 -3.81 2.39
6.13 -3.69 2.39
6.21 -3.57 2.39
6.28 -3.45 2.39
6.36 -3.32 2.39
6.43 -3.20 2.39
6.69 -3.16 2.46
6.73 -3.02 2.45
6.77 -2.87 2.44
6.81 -2.73 2.43
6.85 -2.59 2.42
6.88 -2.44 2.41
6.91 -2.30 2.40
6.97 -2.16 2.40
7.02 -2.02 2.40
7.06 -1.88 2.40
7.11 -1.74 2.40
7.15 -1.60 2.40
7.19 -1.46 2.40
7.22 -1.32 2.40
7.26 -1.17 2.40
7.29 -1.03 2.40
7.31 -0.88 2.40
7.34 -0.74 2.40
7.36 -0.59 2.40
7.38 -0.45 2.40
7.39 -0.30 2.40
7.40 -0.15 2.40
7.41 -0.00 2.40
7.42 0.15 2.40
7.42 0.30 2.40
7.42 0.44 2.40
7.42 0.59 2.40
7.41 0.74 2.40
7.40 0.89 2.40
7.39 1.04 2.40
7.37 1.19 2.40
7.35 1.34 2.40
7.33 1.49 2.40
7.31 1.63 2.40
7.28 1.78 2.40
2.15 0.57 0.71
2.10 0.61 0.70
2.10 0.65 0.70
7.14 2.36 2.40
7.10 2.51 2.40
7.05 2.65 2.40
7.00 2.80 2.40
6.95 2.94 2.40
6.89 3.08 2.40
6.84 3.22 2.40
6.77 3.36 2.40
6.71 3.49 2.40
6.64 3.63 2.40
6.57 3.76 2.40
6.50 3.90 2.40
6.43 4.03 2.40
6.31 4.13 2.39
6.23 4.26 2.39
6.14 4.38 2.39
6.06 4.51 2.39
5.97 4.63 2.39
5.88 4.75 2.39
5.78 4.87 2.39
5.69 4.99 2.39
5.59 5.10 2.39
5.49 5.21 2.39
5.39 5.32 2.39
5.28 5.43 2.39
5.17 5.54 2.39
5.06 5.64 2.39
4.95 5.74 2.39
4.84 5.84 2.39
4.72 5.94 2.39
4.60 6.04 2.39
4.48 6.13 2.39
4.36 6.22 2.39
4.23 6.30 2.39
4.11 6.39 2.39
3.98 6.47 2.39
3.85 6.55 2.39
3.72 6.62 2.39
3.59 6.70 2.39
3.60 7.06 2.49
3.46 7.13 2.49
3.32 7.20 2.49
3.17 7.26 2.49
3.03 7.32 2.49
2.88 7.38 2.49
2.73 7.44 2.49
2.58 7.49 2.49
2.43 7.54 2.49
2.28 7.58 2.49
2.13 7.63 2.49
1.97 7.67 2.49
1.82 7.70 2.49
1.67 7.73 2.49
1.51 7.76 2.49
1.35 7.79 2.49
1.20 7.81 2.49
1.04 7.83 2.49
0.88 7.85 2.49
0.73 7.86 2.49
0.57 7.87 2.49
0.41 7.88 2.49
0.26 7.88 2.49
0.10 7.88 2.49
-0.06 7.88 2.49
-0.22 7.87 2.49
-0.37 7.86 2.49
-0.53 7.85 2.49
-0.69 7.83 2.49
-0.84 7.81 2.49
-1.00 7.79 2.49
-1.15 7.76 2.49
-1.31 7.73 2.49
-1.46 7.70 2.49
-1.61 7.66 2.49
-1.76 7.62 2.49
-1.91 7.58 2.49
-2.06 7.53 2.49
-2.21 7.49 2.49
-2.36 7.43 2.49
-2.51 7.38 2.49
-2.65 7.32 2.49
-2.79 7.26 2.49
-2.94 7.20 2.49
-3.08 7.13 2.49
-3.22 7.06 2.49
-3.35 6.99 2.49
-3.49 6.92 2.49
-3.62 6.84 2.49
-3.76 6.76 2.49
-3.89 6.68 2.49
-4.02 6.59 2.49
-4.14 6.50 2.49
-4.27 6.41 2.49
-4.39 6.32 2.49
-4.51 6.22 2.49
-4.63 6.13 2.49
-4.75 6.03 2.49
-4.86 5.92 2.49
-4.98 5.82 2.49
-5.09 5.71 2.49
-5.20 5.60 2.49
-5.30 5.49 2.49
-5.40 5.38 2.49
-5.51 5.26 2.49
-5.60 5.15 2.49
-5.70 5.03 2.49
-5.79 4.91 2.49
-5.88 4.79 2.49
-5.97 4.66 2.49
-6.06 4.54 2.49
-6.14 4.41 2.49
-6.22 4.28 2.49
-6.30 4.15 2.49
-6.37 4.02 2.49
-6.45 3.89 2.49
-6.52 3.75 2.49
-6.58 3.62 2.49
-6.65 3.48 2.49
-6.71 3.34 2.49
-6.77 3.20 2.49
-6.82 3.06 2.49
-6.87 2.92 2.49
-6.92 2.78 2.49
-6.97 2.64 2.49
-7.01 2.49 2.49
-7.06 2.35 2.49
-7.09 2.21 2.49
-7.13 2.06 2.49
-7.16 1.92 2.49
-7.19 1.77 2.49
-7.22 1.62 2.49
-7.23 1.47 2.49
-7.14 1.31 2.45
-7.07 1.15 2.42
-7.00 0.99 2.39
-7.00 0.85 2.39
-7.01 0.71 2.39
-7.02 0.57 2.39
-7.02 0.42 2.39
-7.02 0.28 2.39
-7.02 0.14 2.39
-7.01 -0.00 2.39
-7.00 -0.14 2.39
-6.99 -0.28 2.39
-6.98 -0.42 2.39
-6.96 -0.56 2.39
-6.94 -0.70 2.39
-6.92 -0.84 2.39
-6.90 -0.98 2.39
-6.87 -1.12 2.39
-6.84 -1.25 2.39
-6.81 -1.39 2.39
-6.77 -1.53 2.39
-6.74 -1.66 2.39
-6.70 -1.79 2.39
-6.65 -1.93 2.39
-6.61 -2.06 2.39
-6.56 -2.19 2.39
-6.51 -2.32 2.39
-6.46 -2.45 2.39
-6.40 -2.58 2.39
-6.34 -2.70 2.39
-6.28 -2.83 2.39
-6.22 -2.95 2.39
-6.16 -3.08 2.39
-6.09 -3.20 2.39
-6.03 -3.33 2.39
-5.95 -3.44 2.39
-5.87 -3.55 2.39
-5.80 -3.67 2.39
-5.74 -3.79 2.39
-5.70 -3.94 2.41
-5.67 -4.09 2.44
-5.63 -4.24 2.46
-5.60 -4.39 2.48
-5.53 -4.52 2.49
-5.43 -4.62 2.49
-5.33 -4.73 2.49
-5.24 -4.84 2.49
-5.14 -4.94 2.49
-5.03 -5.04 2.49
-4.93 -5.14 2.49
-4.82 -5.24 2.49
-4.71 -5.33 2.49
-4.61 -5.42 2.49
-4.49 -5.51 2.49
-4.38 -5.60 2.49
-4.27 -5.69 2.49
-4.15 -5.77 2.49
-4.03 -5.85 2.49
-3.91 -5.93 2.49
-3.79 -6.01 2.49
-3.67 -6.08 2.49
-3.54 -6.16 2.49
-3.42 -6.23 2.49
-3.29 -6.29 2.49
-3.16 -6.36 2.49
-3.04 -6.42 2.49
-2.91 -6.48 2.49
-2.77 -6.54 2.49
-2.64 -6.60 2.49
-2.51 -6.65 2.49
-2.37 -6.70 2.49
-2.24 -6.75 2.49
-2.10 -6.79 2.49
-1.97 -6.83 2.49
-1.83 -6.87 2.49
-1.69 -6.91 2.49
-1.55 -6.94 2.49
-1.41 -6.98 2.49
-1.27 -7.00 2.49
-1.13 -7.03 2.49
-0.99 -7.05 2.49
-0.84 -7.08 2.49
-0.70 -7.09 2.49
-0.56 -7.11 2.49
-0.41 -7.12 2.49
-0.27 -7.13 2.49
-0.13 -7.14 2.49
0.02 -6.66 2.49
0.15 -6.66 2.49
0.29 -6.66 2.49
0.42 -6.65 2.49
0.56 -6.65 2.49
0.69 -6.64 2.49
0.74 -5.98 2.25
0.85 -5.88 2.21
0.97 -5.85 2.21
1.09 -5.86 2.22
1.24 -6.01 2.28
1.49 -6.53 2.49
1.62 -6.50 2.49
1.76 -6.47 2.49
1.89 -6.44 2.49
2.02 -6.40 2.49
2.15 -6.37 2.49
2.28 -6.33 2.49
2.41 -6.28 2.49
2.53 -6.24 2.49
2.66 -6.19 2.49
2.79 -6.14 2.49
2.91 -6.09 2.49
2.91 -5.78 2.39
3.03 -5.73 2.39
3.15 -5.67 2.39
3.26 -5.61 2.39
3.38 -5.55 2.39
3.49 -5.49 2.39
3.61 -5.42 2.39
3.72 -5.35 2.39
3.83 -5.28 2.39
3.94 -5.21 2.39
4.05 -5.13 2.39
4.15 -5.05 2.39
4.26 -4.97 2.39
4.36 -4.89 2.39
4.46 -4.81 2.39
4.56 -4.72 2.39
4.66 -4.63 2.39
4.76 -4.54 2.39
4.85 -4.45 2.39
4.94 -4.35 2.39
5.04 -4.26 2.39
5.13 -4.16 2.39
5.21 -4.06 2.39
5.30 -3.96 2.39
5.38 -3.86 2.39
5.47 -3.75 2.39
5.55 -3.64 2.39
5.62 -3.54 2.39
5.70 -3.43 2.39
5.77 -3.31 2.39
5.84 -3.20 2.39
5.91 -3.09 2.39
5.98 -2.97 2.39
6.04 -2.85 2.39
6.11 -2.73 2.39
6.17 -2.61 2.39
6.22 -2.49 2.39
6.28 -2.37 2.39
6.65 -2.36 2.51
6.73 -2.23 2.52
6.73 -2.08 2.50
6.73 -1.94 2.48
6.72 -1.79 2.46
6.72 -1.65 2.45
6.71 -1.50 2.43
6.71 -1.36 2.42
6.71 -1.22 2.40
6.74 -1.09 2.40
6.77 -0.95 2.40
6.79 -0.82 2.40
6.81 -0.68 2.40
6.83 -0.55 2.40
6.85 -0.41 2.40
6.86 -0.27 2.40
6.87 -0.14 2.40
6.88 0.00 2.40
6.88 0.14 2.40
6.89 0.28 2.40
6.89 0.41 2.40
6.88 0.55 2.40
6.88 0.69 2.40
6.87 0.83 2.40
6.86 0.97 2.40
6.84 1.11 2.40
6.82 1.24 2.40
6.80 1.38 2.40
6.78 1.52 2.40
6.75 1.65 2.40
2.15 0.57 0.77
2.10 0.61 0.76
2.10 0.65 0.76
6.62 2.20 2.40
6.58 2.33 2.40
6.54 2.46 2.40
6.49 2.59 2.40
6.44 2.72 2.40
6.39 2.86 2.40
6.34 2.98 2.40
6.28 3.11 2.40
6.22 3.24 2.40
6.16 3.36 2.40
6.09 3.49 2.40
6.03 3.61 2.40
5.92 3.71 2.39
5.84 3.83 2.39
5.77 3.95 2.39
5.69 4.06 2.39
5.61 4.18 2.39
5.53 4.29 2.39
5.45 4.40 2.39
5.36 4.51 2.39
5.27 4.62 2.39
5.18 4.73 2.39
5.09 4.83 2.39
4.99 4.93 2.39
4.89 5.03 2.39
4.79 5.13 2.39
4.69 5.23 2.39
4.59 5.32 2.39
4.48 5.42 2.39
4.37 5.50 2.39
4.26 5.59 2.39
4.15 5.68 2.39
4.04 5.76 2.39
3.92 5.84 2.39
3.81 5.92 2.39
3.69 5.99 2.39
3.57 6.07 2.39
3.45 6.14 2.39
3.32 6.20 2.39
3.20 6.27 2.39
3.07 6.33 2.39
3.07 6.67 2.49
2.94 6.73 2.49
2.80 6.79 2.49
2.67 6.84 2.49
2.53 6.89 2.49
2.39 6.94 2.49
2.25 6.98 2.49
2.11 7.03 2.49
1.97 7.07 2.49
1.83 7.10 2.49
1.69 7.14 2.49
1.54 7.17 2.49
1.40 7.19 2.49
1.26 7.22 2.49
1.11 7.24 2.49
0.97 7.26 2.49
0.82 7.27 2.49
0.68 7.29 2.49
0.53 7.29 2.49
0.38 7.30 2.49
0.24 7.30 2.49
0.09 7.30 2.49
-0.05 7.30 2.49
-0.20 7.29 2.49
-0.35 7.29 2.49
-0.49 7.27 2.49
-0.64 7.26 2.49
-0.78 7.24 2.49
-0.92 7.22 2.49
-1.07 7.19 2.49
-1.21 7.17 2.49
-1.35 7.14 2.49
-1.49 7.10 2.49
-1.63 7.07 2.49
-1.77 7.03 2.49
-1.91 6.99 2.49
-2.05 6.94 2.49
-2.19 6.89 2.49
-2.32 6.84 2.49
-2.46 6.79 2.49
-2.59 6.74 2.49
-2.72 6.68 2.49
-2.85 6.62 2.49
-2.98 6.55 2.49
-3.11 6.49 2.49
-3.24 6.42 2.49
-3.36 6.35 2.49
-3.48 6.27 2.49
-3.61 6.20 2.49
-3.73 6.12 2.49
-3.84 6.04 2.49
-3.96 5.95 2.49
-4.07 5.87 2.49
-4.19 5.78 2.49
-4.30 5.69 2.49
-4.41 5.60 2.49
-4.51 5.50 2.49
-4.62 5.40 2.49
-4.72 5.31 2.49
-4.82 5.20 2.49
-4.92 5.10 2.49
-5.02 5.00 2.49
-5.11 4.89 2.49
-5.20 4.78 2.49
-5.29 4.67 2.49
-5.38 4.56 2.49
-5.46 4.45 2.49
-5.55 4.33 2.49
-5.63 4.22 2.49
-5.70 4.10 2.49
-5.78 3.98 2.49
-5.85 3.86 2.49
-5.92 3.74 2.49
-5.99 3.61 2.49
-6.05 3.49 2.49
-6.12 3.36 2.49
-6.18 3.24 2.49
-6.23 3.11 2.49
-6.29 2.98 2.49
-6.34 2.85 2.49
-6.39 2.72 2.49
-6.44 2.59 2.49
-6.48 2.46 2.49
-6.52 2.32 2.49
-6.56 2.19 2.49
-6.60 2.05 2.49
-6.63 1.92 2.49
-6.66 1.78 2.49
-6.69 1.65 2.49
-6.71 1.51 2.49
-6.73 1.38 2.49
-6.75 1.24 2.49
-6.77 1.10 2.49
-6.79 0.96 2.49
-6.80 0.83 2.49
-6.80 0.69 2.49
-6.72 0.54 2.46
-6.67 0.41 2.44
-6.64 0.27 2.43
-6.60 0.14 2.41
-6.57 0.00 2.40
-6.53 -0.13 2.39
-6.51 -0.26 2.39
-6.50 -0.39 2.39
-6.48 -0.52 2.39
-6.46 -0.65 2.39
-6.45 -0.78 2.39
-6.42 -0.91 2.39
-6.40 -1.04 2.39
-6.37 -1.17 2.39
-6.34 -1.29 2.39
-6.31 -1.42 2.39
-6.27 -1.54 2.39
-6.24 -1.67 2.39
-6.20 -1.79 2.39
-6.15 -1.92 2.39
-6.11 -2.04 2.39
-6.07 -2.16 2.39
-6.04 -2.29 2.40
-6.01 -2.42 2.41
-5.98 -2.55 2.42
-5.95 -2.68 2.43
-5.92 -2.81 2.44
-5.89 -2.94 2.45
-5.87 -3.08 2.47
