ply
format ascii 1.0
element vertex 2835
property float32 x
property float32 y
property float32 z
end_header
14.89 20.33 0.03
14.28 20.34 0.04
13.68 20.35 0.04
13.10 20.36 0.05
12.54 20.36 0.06
11.99 20.37 0.07
11.45 20.38 0.07
11.34 21.18 0.08
11.36 22.27 0.09
11.37 23.45 0.10
11.32 24.60 0.11
11.37 26.06 0.13
9.98 24.18 0.12
11.46 29.43 0.16
13.96 38.11 0.21
13.09 38.07 0.22
12.25 38.10 0.22
11.41 38.12 0.23
10.64 38.32 0.24
10.69 41.73 0.27
10.75 45.74 0.30
-6.23 32.26 0.26
-9.25 43.24 0.34
-9.28 39.50 0.31
-9.35 36.47 0.29
-9.39 33.78 0.27
-9.42 31.44 0.25
-9.45 29.37 0.23
-9.46 27.50 0.21
-9.50 25.91 0.20
-9.52 24.43 0.19
-9.53 23.10 0.17
-9.55 21.89 0.16
-9.57 20.77 0.15
-9.52 19.63 0.14
-9.59 18.81 0.13
-9.61 17.93 0.13
-9.62 17.12 0.12
-9.63 16.36 0.11
-9.58 15.55 0.10
-9.65 14.98 0.10
-9.66 14.36 0.09
-9.67 13.76 0.08
-9.67 13.20 0.08
-9.68 12.67 0.07
-9.69 12.17 0.06
-9.63 11.60 0.06
-9.70 11.23 0.05
-9.71 10.79 0.05
-9.71 10.37 0.04
-9.72 9.97 0.04
-9.72 9.58 0.03
-9.73 9.21 0.03
-9.73 8.85 0.02
-9.74 8.50 0.02
-9.74 8.17 0.01
-9.75 7.84 0.01
-9.72 7.51 0.01
-9.76 7.23 0.00
-9.76 6.93 -0.00
-9.76 6.64 -0.01
-9.77 6.36 -0.01
-9.77 6.09 -0.02
-9.78 5.82 -0.02
-9.78 5.56 -0.02
-9.78 5.31 -0.03
-9.79 5.06 -0.03
-9.79 4.81 -0.04
-9.79 4.57 -0.04
-9.80 4.34 -0.05
-9.80 4.10 -0.05
-9.80 3.88 -0.05
-9.75 3.63 -0.06
-9.81 3.43 -0.06
-9.81 3.21 -0.07
-9.82 3.00 -0.07
-9.82 2.78 -0.07
-9.82 2.57 -0.08
-9.82 2.36 -0.08
-9.83 2.16 -0.09
-9.83 1.95 -0.09
-9.83 1.75 -0.10
-9.84 1.55 -0.10
-9.84 1.34 -0.11
-9.84 1.14 -0.11
-9.84 0.94 -0.11
-9.85 0.75 -0.12
-9.85 0.55 -0.12
-9.85 0.35 -0.13
-9.86 0.15 -0.13
-9.86 -0.05 -0.14
-9.86 -0.24 -0.14
-9.80 -0.44 -0.15
-9.87 -0.64 -0.15
-9.87 -0.84 -0.16
-9.87 -1.04 -0.16
-9.88 -1.24 -0.17
-9.88 -1.44 -0.17
-9.88 -1.65 -0.18
-9.88 -1.85 -0.19
-9.89 -2.06 -0.19
-9.89 -2.27 -0.20
-9.89 -2.48 -0.20
-9.90 -2.69 -0.21
-9.90 -2.91 -0.22
-9.90 -3.12 -0.22
-9.90 -3.35 -0.23
-9.91 -3.57 -0.24
-9.91 -3.80 -0.24
-9.91 -4.03 -0.25
-9.92 -4.26 -0.26
-9.88 -4.48 -0.26
-9.92 -4.75 -0.27
-9.93 -5.00 -0.28
-9.93 -5.25 -0.29
-9.93 -5.51 -0.30
-9.94 -5.78 -0.31
-9.94 -6.05 -0.32
-9.95 -6.33 -0.33
-9.95 -6.61 -0.33
-9.95 -6.91 -0.34
-9.96 -7.21 -0.36
-9.96 -7.53 -0.37
-9.97 -7.85 -0.38
-9.97 -8.18 -0.39
-9.98 -8.53 -0.40
-9.98 -8.88 -0.41
-9.99 -9.25 -0.43
-9.99 -9.64 -0.44
-10.00 -10.04 -0.46
-10.00 -10.46 -0.47
-10.01 -10.89 -0.49
-10.02 -11.35 -0.50
-10.02 -11.83 -0.52
-10.02 -12.32 -0.54
-10.04 -12.86 -0.56
-10.05 -13.41 -0.58
-10.05 -14.00 -0.61
-10.04 -14.59 -0.63
-10.01 -15.20 -0.65
-10.02 -15.90 -0.68
-10.05 -16.68 -0.71
-10.12 -20.32 -0.85
2.29 -11.26 -0.22
2.51 -11.18 -0.22
10.45 -42.54 -0.83
11.35 -42.49 -0.83
11.39 -39.45 -0.77
11.43 -36.79 -0.72
11.91 -35.78 -0.70
10.30 -28.99 -0.57
13.53 -35.80 -0.70
14.37 -35.81 -0.71
8.47 -19.95 -0.39
16.07 -35.84 -0.71
16.95 -35.85 -0.71
17.85 -35.86 -0.71
10.85 -10.48 -0.20
10.88 -10.09 -0.20
11.36 -10.12 -0.20
11.87 -10.15 -0.20
12.40 -10.18 -0.20
13.05 -10.28 -0.20
12.60 -9.52 -0.18
11.31 -8.20 -0.16
10.29 -7.15 -0.14
9.79 -6.52 -0.12
9.97 -6.35 -0.12
10.15 -6.18 -0.12
10.33 -6.01 -0.11
10.51 -5.83 -0.11
10.69 -5.66 -0.10
10.87 -5.48 -0.10
11.06 -5.30 -0.09
11.25 -5.11 -0.09
11.44 -4.93 -0.08
11.64 -4.73 -0.08
11.84 -4.54 -0.08
12.04 -4.34 -0.07
12.25 -4.14 -0.07
12.46 -3.94 -0.06
12.67 -3.73 -0.05
12.90 -3.51 -0.05
13.12 -3.29 -0.04
13.35 -3.07 -0.04
13.59 -2.84 -0.03
13.84 -2.60 -0.03
14.09 -2.35 -0.02
14.35 -2.10 -0.01
33.27 -4.20 -0.01
33.28 -3.52 0.00
33.29 -2.85 0.02
32.80 -2.14 0.03
26.47 -1.20 0.04
27.10 -0.68 0.06
27.40 -0.14 0.07
27.51 0.41 0.08
23.73 0.83 0.08
27.18 1.50 0.11
26.76 2.02 0.12
32.51 3.11 0.16
32.52 3.77 0.18
32.53 4.43 0.20
32.54 5.10 0.21
32.55 5.77 0.23
33.45 6.63 0.26
33.46 7.33 0.27
15.11 3.63 0.13
14.10 3.69 0.13
13.08 3.70 0.13
12.34 3.76 0.13
11.42 3.73 0.13
12.42 4.34 0.14
12.43 4.62 0.15
12.43 4.91 0.16
12.43 5.20 0.17
12.44 5.50 0.17
12.40 5.79 0.18
12.44 6.11 0.19
12.42 6.41 0.20
12.45 6.75 0.21
12.46 7.08 0.22
11.45 6.81 0.21
12.43 7.74 0.24
12.47 8.12 0.25
12.48 8.48 0.26
12.45 8.83 0.27
12.49 9.24 0.28
12.49 9.64 0.29
12.50 10.05 0.30
12.50 10.48 0.31
14.71 12.83 0.38
11.51 10.46 0.31
12.50 11.82 0.35
12.02 11.83 0.35
11.52 11.81 0.35
32.22 34.38 1.01
30.97 34.40 1.01
17.54 20.29 0.60
16.85 20.30 0.60
16.18 20.31 0.60
15.53 20.32 0.60
14.90 20.33 0.60
14.29 20.34 0.60
13.69 20.35 0.60
13.11 20.36 0.60
12.55 20.36 0.60
12.00 20.37 0.60
11.45 20.38 0.60
11.34 21.16 0.62
11.36 22.25 0.65
11.37 23.44 0.69
11.33 24.58 0.72
11.36 26.02 0.77
9.98 24.18 0.71
11.46 29.41 0.87
13.12 35.77 1.05
12.31 35.79 1.06
11.52 35.80 1.06
10.73 35.81 1.06
9.96 35.82 1.06
9.19 35.83 1.06
8.43 35.84 1.06
7.67 35.85 1.06
-6.23 32.26 1.00
-9.25 43.23 1.34
-9.29 39.50 1.23
-9.35 36.45 1.14
-9.39 33.77 1.05
-9.42 31.43 0.98
-9.45 29.36 0.92
-9.46 27.50 0.87
-9.50 25.90 0.82
-9.52 24.43 0.78
-9.53 23.09 0.74
-9.55 21.88 0.70
-9.57 20.76 0.67
-9.52 19.61 0.63
-9.59 18.80 0.61
-9.61 17.92 0.58
-9.62 17.11 0.56
-9.63 16.35 0.54
-9.58 15.54 0.51
-9.65 14.98 0.50
-9.66 14.35 0.48
-9.67 13.76 0.46
-9.67 13.20 0.45
-9.68 12.66 0.43
-9.69 12.16 0.42
-9.62 11.59 0.40
-9.70 11.22 0.39
-9.71 10.78 0.38
-9.71 10.36 0.36
-9.72 9.96 0.35
-9.72 9.57 0.34
-9.73 9.20 0.33
-9.73 8.84 0.32
-9.74 8.50 0.31
-9.74 8.16 0.30
-9.75 7.84 0.29
-9.73 7.50 0.28
-9.76 7.22 0.27
-9.76 6.92 0.27
-9.76 6.64 0.26
-9.77 6.36 0.25
-9.77 6.08 0.24
-9.78 5.82 0.24
-9.78 5.56 0.23
-9.78 5.30 0.22
-9.79 5.05 0.22
-9.79 4.81 0.21
-9.79 4.57 0.20
-9.80 4.33 0.20
-9.80 4.10 0.19
-9.80 3.87 0.18
-9.74 3.62 0.18
-9.81 3.43 0.17
-9.81 3.21 0.17
-9.82 2.99 0.16
-9.82 2.78 0.15
-9.82 2.57 0.15
-9.82 2.36 0.14
-9.83 2.15 0.14
-9.83 1.95 0.13
-9.83 1.74 0.13
-9.84 1.54 0.12
-9.84 1.34 0.12
-9.84 1.14 0.11
-9.84 0.94 0.11
-9.85 0.74 0.10
-9.85 0.54 0.10
-9.85 0.34 0.09
-9.86 0.15 0.09
-9.86 -0.05 0.08
-9.86 -0.25 0.08
-9.80 -0.44 0.07
-9.87 -0.65 0.07
-9.87 -0.85 0.06
-9.87 -1.05 0.06
-9.88 -1.25 0.05
-9.88 -1.45 0.05
-9.88 -1.65 0.05
-9.88 -1.86 0.04
-9.89 -2.07 0.04
-9.89 -2.27 0.03
-9.89 -2.48 0.03
-9.90 -2.70 0.02
-9.90 -2.91 0.02
-9.90 -3.13 0.01
-9.90 -3.35 0.01
-9.91 -3.58 0.00
-9.91 -3.80 -0.00
-9.91 -4.03 -0.01
-9.92 -4.27 -0.01
-9.92 -4.51 -0.02
-9.92 -4.75 -0.03
-9.93 -5.00 -0.03
-9.93 -5.26 -0.04
-9.93 -5.52 -0.04
-9.94 -5.78 -0.05
-9.94 -6.06 -0.05
-9.95 -6.34 -0.06
-9.95 -6.62 -0.07
-9.95 -6.92 -0.07
-9.96 -7.22 -0.08
-6.71 -5.07 -0.06
-9.97 -7.86 -0.09
-9.97 -8.19 -0.10
-9.98 -8.53 -0.11
-9.98 -8.89 -0.11
-9.99 -9.26 -0.12
-9.99 -9.65 -0.13
-10.00 -10.05 -0.14
-10.00 -10.47 -0.15
-10.01 -10.90 -0.15
-10.02 -11.36 -0.16
-10.02 -11.84 -0.17
-10.02 -12.32 -0.18
-10.04 -12.87 -0.19
-10.05 -13.42 -0.21
-10.05 -14.01 -0.22
-10.06 -14.64 -0.23
-10.07 -15.30 -0.24
-10.08 -16.01 -0.26
-10.09 -16.76 -0.27
-10.10 -17.57 -0.29
-10.12 -18.43 -0.30
-10.13 -19.37 -0.32
-10.12 -20.33 -0.34
-10.16 -21.48 -0.36
-10.17 -22.69 -0.39
-10.19 -24.01 -0.41
-10.21 -25.47 -0.44
-10.24 -27.08 -0.47
-10.26 -28.89 -0.51
-10.29 -30.93 -0.55
-10.32 -33.24 -0.59
-10.32 -35.73 -0.64
-10.34 -38.73 -0.69
2.29 -11.26 0.04
2.48 -11.06 0.04
11.35 -42.50 0.16
11.39 -39.47 0.15
11.70 -37.69 0.15
11.90 -35.78 0.15
10.26 -28.91 0.12
13.53 -35.80 0.16
14.36 -35.81 0.16
8.46 -19.93 0.09
16.07 -35.84 0.18
16.94 -35.85 0.19
17.84 -35.86 0.19
19.55 -37.40 0.21
27.93 -37.34 0.31
28.02 -35.93 0.32
28.26 -34.79 0.32
14.32 -11.29 0.19
12.36 -9.35 0.17
11.33 -8.22 0.16
10.31 -7.17 0.15
9.79 -6.52 0.14
9.97 -6.35 0.15
10.15 -6.18 0.15
10.32 -6.01 0.16
10.50 -5.84 0.16
10.69 -5.66 0.17
10.87 -5.48 0.18
11.06 -5.30 0.18
11.25 -5.12 0.19
11.44 -4.93 0.20
11.63 -4.74 0.20
11.83 -4.55 0.21
12.04 -4.35 0.22
12.24 -4.15 0.23
12.45 -3.94 0.23
12.67 -3.73 0.24
12.89 -3.52 0.25
13.12 -3.30 0.26
13.35 -3.07 0.27
13.58 -2.84 0.28
13.83 -2.61 0.29
14.08 -2.36 0.30
14.34 -2.11 0.31
33.30 -4.22 0.74
33.31 -3.54 0.76
33.32 -2.87 0.77
32.80 -2.16 0.77
26.45 -1.21 0.64
27.09 -0.70 0.67
27.39 -0.15 0.69
27.51 0.40 0.70
27.44 0.95 0.71
27.19 1.49 0.72
26.79 2.00 0.73
32.51 3.09 0.90
32.52 3.75 0.92
32.53 4.41 0.94
32.54 5.08 0.96
32.55 5.75 0.98
33.45 6.61 1.02
33.78 7.38 1.05
15.11 3.62 0.48
14.13 3.69 0.46
13.10 3.70 0.44
12.34 3.76 0.42
11.44 3.73 0.40
12.43 4.33 0.44
12.43 4.62 0.45
12.44 4.90 0.46
12.43 5.19 0.47
12.44 5.49 0.48
12.42 5.79 0.49
12.44 6.10 0.50
12.43 6.41 0.51
12.45 6.74 0.53
12.46 7.07 0.54
11.45 6.80 0.51
12.43 7.73 0.57
12.47 8.11 0.58
12.48 8.47 0.60
12.46 8.83 0.61
12.49 9.23 0.63
12.49 9.63 0.64
12.50 10.04 0.66
12.50 10.47 0.68
15.08 13.14 0.84
11.52 10.46 0.66
12.51 11.82 0.74
13.76 13.53 0.84
11.53 11.81 0.72
16.12 17.19 1.04
15.49 17.19 1.03
14.88 17.20 1.02
14.30 17.21 1.01
13.73 17.22 1.00
13.18 17.23 1.00
12.64 17.23 0.99
12.12 17.24 0.98
11.64 17.29 0.98
11.22 17.40 0.98
10.79 17.50 0.98
10.37 17.60 0.98
11.46 20.38 1.13
11.34 21.15 1.16
11.36 22.23 1.22
11.37 23.42 1.28
11.33 24.57 1.33
11.35 25.98 1.40
9.99 24.18 1.30
11.46 29.38 1.58
13.15 35.83 1.92
12.34 35.84 1.91
11.53 35.82 1.91
10.75 35.83 1.90
9.98 35.88 1.90
9.21 35.89 1.90
8.45 35.90 1.90
7.69 35.88 1.89
8.84 45.72 2.41
7.90 45.76 2.41
6.96 45.79 2.41
5.98 45.50 2.39
5.05 45.51 2.39
4.13 45.51 2.39
3.03 42.98 2.26
2.39 47.43 2.50
1.43 47.40 2.50
0.48 47.35 2.50
-0.47 47.30 2.50
-1.42 47.24 2.50
-2.37 47.16 2.50
-3.31 47.08 2.50
-4.26 46.98 2.50
-5.20 46.88 2.50
-5.89 44.83 2.39
-6.79 44.71 2.39
-7.69 44.58 2.39
-6.22 32.23 1.74
-9.27 39.41 2.14
-9.35 36.44 1.98
-9.39 33.76 1.85
-9.42 31.42 1.72
-9.45 29.35 1.62
-9.46 27.49 1.52
-9.50 25.89 1.44
-9.52 24.42 1.37
-9.54 23.08 1.30
-9.55 21.87 1.24
-9.57 20.76 1.18
-9.51 19.59 1.12
-9.60 18.79 1.08
-9.61 17.92 1.04
-9.62 17.10 1.00
-9.63 16.34 0.96
-9.58 15.54 0.92
-9.65 14.97 0.90
-9.66 14.34 0.87
-9.67 13.75 0.84
-9.67 13.19 0.81
-9.68 12.66 0.79
-9.69 12.15 0.77
-9.62 11.58 0.74
-9.70 11.21 0.72
-9.71 10.78 0.70
-9.71 10.36 0.68
-9.72 9.95 0.67
-9.72 9.57 0.65
-9.73 9.19 0.63
-9.73 8.84 0.62
-9.74 8.49 0.60
-9.74 8.16 0.59
-9.75 7.83 0.57
-9.73 7.50 0.56
-9.76 7.21 0.55
-9.76 6.92 0.54
-9.77 6.63 0.52
-9.77 6.35 0.51
-9.77 6.08 0.50
-9.78 5.81 0.49
-9.78 5.55 0.48
-9.78 5.30 0.47
-9.79 5.05 0.46
-9.79 4.80 0.45
-9.79 4.56 0.45
-9.80 4.33 0.44
-9.80 4.09 0.43
-9.80 3.87 0.42
-9.74 3.62 0.41
-9.81 3.42 0.41
-9.81 3.20 0.40
-9.82 2.99 0.39
-9.82 2.77 0.38
-9.82 2.56 0.38
-9.82 2.35 0.37
-9.83 2.15 0.37
-9.83 1.94 0.36
-9.83 1.74 0.35
-9.84 1.53 0.35
-9.84 1.33 0.34
-9.84 1.13 0.34
-9.84 0.93 0.33
-9.85 0.73 0.33
-9.85 0.54 0.32
-9.85 0.34 0.32
-9.86 0.14 0.31
-9.86 -0.06 0.31
-9.86 -0.25 0.30
-9.80 -0.45 0.29
-9.87 -0.65 0.29
-9.87 -0.85 0.29
-9.87 -1.05 0.28
-9.88 -1.25 0.28
-9.88 -1.46 0.27
-9.88 -1.66 0.27
-9.88 -1.86 0.27
-9.89 -2.07 0.26
-9.89 -2.28 0.26
-9.89 -2.49 0.26
-9.90 -2.70 0.25
-9.90 -2.92 0.25
-9.90 -3.14 0.24
-9.90 -3.36 0.24
-9.91 -3.58 0.24
-9.91 -3.81 0.23
-9.91 -4.04 0.23
-9.92 -4.28 0.23
-9.92 -4.52 0.23
-9.92 -4.76 0.22
-9.93 -5.01 0.22
-9.93 -5.26 0.22
-9.93 -5.52 0.21
-9.94 -5.79 0.21
-9.94 -6.06 0.21
-9.95 -6.34 0.21
-9.95 -6.63 0.20
-9.95 -6.92 0.20
-9.96 -7.23 0.20
-6.69 -5.06 0.13
-9.97 -7.86 0.19
-9.97 -8.20 0.19
-9.98 -8.54 0.19
-9.98 -8.90 0.19
-9.99 -9.27 0.19
-9.99 -9.66 0.18
-10.00 -10.06 0.18
-10.00 -10.48 0.18
-10.01 -10.91 0.18
-10.02 -11.37 0.18
-10.02 -11.85 0.18
-10.01 -12.32 0.17
-10.04 -12.88 0.17
-10.05 -13.44 0.17
-10.05 -14.03 0.17
-10.06 -14.65 0.17
-10.07 -15.31 0.17
-10.08 -16.02 0.17
-10.09 -16.77 0.17
-10.10 -17.58 0.17
-10.12 -18.45 0.17
-10.13 -19.39 0.17
-10.11 -20.33 0.17
-10.16 -21.50 0.17
-10.18 -22.71 0.17
-10.19 -24.03 0.18
-10.21 -25.49 0.18
-10.24 -27.11 0.18
-10.26 -28.92 0.18
-10.29 -30.95 0.19
-10.32 -33.26 0.19
-10.36 -35.91 0.20
-10.40 -38.98 0.21
-10.45 -42.58 0.22
-10.51 -46.87 0.23
-6.64 -36.39 0.17
5.96 -42.12 1.10
5.87 -36.23 0.95
6.15 -33.67 0.89
2.30 -11.33 0.30
2.52 -11.23 0.30
10.47 -42.64 1.15
8.74 -32.73 0.89
9.37 -32.47 0.89
9.33 -30.05 0.83
10.69 -32.15 0.90
12.70 -35.79 1.01
12.41 -32.84 0.94
12.78 -31.88 0.92
8.45 -19.92 0.58
14.52 -32.41 0.96
15.12 -32.00 0.96
17.83 -35.86 1.10
14.30 -27.37 0.85
18.53 -32.24 1.04
24.95 -41.47 1.36
20.44 -32.48 1.09
24.72 -37.58 1.28
22.34 -32.53 1.13
24.93 -34.79 1.24
24.30 -32.51 1.19
25.95 -33.31 1.24
27.93 -34.40 1.32
29.04 -34.33 1.35
14.35 -11.33 0.61
12.36 -9.36 0.52
11.36 -8.25 0.48
10.32 -7.18 0.43
9.79 -6.53 0.41
9.97 -6.36 0.41
10.14 -6.19 0.42
10.32 -6.02 0.43
10.50 -5.84 0.43
10.68 -5.67 0.44
10.87 -5.49 0.45
11.05 -5.31 0.46
11.24 -5.12 0.47
11.43 -4.93 0.48
11.63 -4.74 0.49
11.83 -4.55 0.50
12.03 -4.35 0.51
12.24 -4.15 0.52
12.45 -3.95 0.53
12.66 -3.74 0.54
12.88 -3.52 0.55
13.11 -3.30 0.57
13.34 -3.08 0.58
13.58 -2.85 0.59
13.82 -2.61 0.61
14.07 -2.37 0.62
14.33 -2.12 0.64
21.71 -2.76 0.98
21.53 -2.30 0.98
21.38 -1.85 0.98
21.38 -1.42 0.99
21.39 -0.99 1.00
21.39 -0.56 1.01
21.40 -0.13 1.02
21.41 0.30 1.03
21.41 0.73 1.04
21.42 1.16 1.05
21.42 1.59 1.07
21.49 2.03 1.08
21.50 2.47 1.09
21.47 2.90 1.11
18.73 2.91 0.98
18.49 3.26 0.98
21.52 4.24 1.15
21.49 4.68 1.17
15.36 3.67 0.85
14.16 3.69 0.79
13.13 3.70 0.74
12.28 3.73 0.71
11.46 3.73 0.67
11.41 3.97 0.68
11.42 4.23 0.69
11.42 4.50 0.70
11.42 4.77 0.71
11.43 5.04 0.72
11.43 5.32 0.74
12.44 6.09 0.82
12.45 6.41 0.83
12.45 6.73 0.85
11.46 6.50 0.79
11.45 6.80 0.81
11.47 7.12 0.83
12.47 8.10 0.92
12.48 8.46 0.94
12.48 8.84 0.96
12.49 9.22 0.98
12.49 9.62 1.00
11.50 9.23 0.94
12.50 10.46 1.05
12.46 10.85 1.07
11.53 10.46 1.01
11.51 10.87 1.04
13.73 13.50 1.27
11.54 11.81 1.09
16.16 17.21 1.57
15.56 17.25 1.56
14.95 17.26 1.54
14.33 17.24 1.52
13.79 17.28 1.51
13.21 17.25 1.49
12.70 17.29 1.48
12.15 17.27 1.46
11.67 17.31 1.45
11.15 17.28 1.44
10.69 17.32 1.43
10.20 17.29 1.41
9.76 17.33 1.41
9.29 17.31 1.40
8.87 17.35 1.39
8.43 17.35 1.38
8.01 17.36 1.37
11.35 25.95 2.04
11.43 27.64 2.16
11.03 28.26 2.20
10.58 28.81 2.24
10.22 29.66 2.29
9.71 30.15 2.32
9.04 30.12 2.31
8.50 30.54 2.34
7.92 30.83 2.35
7.32 31.07 2.36
6.71 31.30 2.37
6.12 31.61 2.39
5.47 31.66 2.39
4.82 31.71 2.39
4.18 31.74 2.39
3.53 31.77 2.39
2.89 31.79 2.39
2.34 33.16 2.50
1.67 33.17 2.50
1.01 33.16 2.50
0.34 33.14 2.50
-0.33 33.11 2.50
-0.99 33.08 2.50
-1.66 33.03 2.50
-2.32 32.98 2.50
-2.98 32.92 2.50
-3.64 32.85 2.50
-4.30 32.77 2.50
-4.96 32.68 2.50
-5.61 32.54 2.49
-6.01 31.13 2.39
-6.64 31.02 2.39
-7.27 30.90 2.39
-7.90 30.77 2.39
-8.52 30.64 2.39
-8.41 28.04 2.20
-8.13 25.26 1.99
-8.56 24.87 1.97
-9.50 25.88 2.06
-9.52 24.41 1.96
-9.54 23.07 1.86
-9.55 21.86 1.78
-9.57 20.75 1.70
-9.51 19.58 1.62
-9.60 18.78 1.56
-9.61 17.91 1.50
-9.62 17.10 1.45
-9.63 16.34 1.39
-9.58 15.53 1.34
-9.65 14.96 1.30
-9.66 14.33 1.26
-9.67 13.74 1.22
-9.67 13.18 1.18
-9.68 12.65 1.15
-9.69 12.15 1.12
-9.62 11.58 1.08
-9.70 11.21 1.06
-9.71 10.77 1.03
-9.71 10.35 1.00
-9.72 9.95 0.98
-9.72 9.56 0.96
-9.73 9.19 0.93
-9.73 8.83 0.91
-9.74 8.48 0.89
-9.74 8.15 0.87
-9.75 7.83 0.86
-9.74 7.50 0.84
-9.76 7.21 0.82
-9.76 6.91 0.81
-9.77 6.62 0.79
-9.77 6.34 0.78
-9.77 6.07 0.76
-9.78 5.80 0.75
-9.78 5.54 0.74
-9.78 5.29 0.72
-9.79 5.04 0.71
-9.79 4.80 0.70
-9.79 4.56 0.69
-9.80 4.32 0.68
-9.80 4.09 0.67
-9.80 3.86 0.66
-9.74 3.61 0.65
-9.81 3.41 0.64
-9.81 3.20 0.63
-9.82 2.98 0.62
-9.82 2.77 0.62
-9.82 2.56 0.61
-9.82 2.35 0.60
-9.83 2.14 0.59
-9.83 1.94 0.59
-9.83 1.73 0.58
-9.84 1.53 0.57
-9.84 1.33 0.57
-9.84 1.13 0.56
-9.84 0.93 0.55
-9.85 0.73 0.55
-9.85 0.53 0.54
-9.85 0.33 0.54
-9.86 0.14 0.53
-9.86 -0.06 0.53
-9.86 -0.26 0.52
-9.80 -0.46 0.52
-9.87 -0.66 0.51
-9.87 -0.86 0.51
-9.87 -1.06 0.51
-9.88 -1.26 0.50
-9.88 -1.46 0.50
-9.88 -1.66 0.50
-9.88 -1.87 0.49
-9.89 -2.08 0.49
-9.89 -2.29 0.49
-9.89 -2.50 0.49
-9.90 -2.71 0.48
-9.90 -2.92 0.48
-9.90 -3.14 0.48
-9.90 -3.36 0.48
-9.91 -3.59 0.48
-9.91 -3.82 0.47
-9.91 -4.05 0.47
-9.92 -4.28 0.47
-9.92 -4.52 0.47
-9.92 -4.77 0.47
-9.93 -5.02 0.47
-9.93 -5.27 0.47
-9.94 -5.53 0.47
-9.94 -5.80 0.47
-9.94 -6.07 0.47
-9.95 -6.35 0.47
-9.95 -6.64 0.47
-9.95 -6.93 0.47
-9.96 -7.24 0.48
-6.67 -5.06 0.32
-9.97 -7.87 0.48
-9.97 -8.21 0.48
-9.98 -8.55 0.49
-9.98 -8.91 0.49
-9.99 -9.28 0.49
-9.99 -9.67 0.50
-10.00 -10.07 0.50
-10.00 -10.48 0.51
-10.01 -10.92 0.51
-10.02 -11.38 0.52
-10.02 -11.86 0.53
-10.00 -12.33 0.53
-10.04 -12.89 0.54
-10.05 -13.45 0.55
-10.05 -14.04 0.56
-10.06 -14.66 0.57
-10.07 -15.32 0.58
-10.08 -16.03 0.60
-10.09 -16.79 0.61
-10.10 -17.59 0.63
-10.12 -18.46 0.64
-10.13 -19.40 0.66
-10.10 -20.34 0.68
-10.16 -21.52 0.71
-10.18 -22.72 0.73
-10.19 -24.05 0.76
-10.21 -25.51 0.80
-10.24 -27.13 0.83
-10.26 -28.94 0.88
-10.29 -30.98 0.92
-10.32 -33.29 0.98
-10.36 -35.95 1.04
-10.40 -39.02 1.12
-10.45 -42.62 1.21
-10.51 -46.92 1.32
1.99 -49.24 2.39
2.97 -49.23 2.39
3.96 -49.19 2.39
4.95 -49.11 2.39
5.24 -43.31 2.12
5.96 -42.12 2.06
5.88 -36.29 1.78
6.13 -33.55 1.66
6.85 -33.67 1.67
7.21 -32.13 1.60
10.16 -41.37 2.07
8.73 -32.73 1.65
9.34 -32.37 1.64
9.30 -29.96 1.53
10.63 -31.98 1.65
12.70 -35.79 1.86
12.44 -32.95 1.73
12.76 -31.85 1.69
8.44 -19.91 1.07
14.58 -32.54 1.77
15.10 -31.97 1.76
17.82 -35.86 2.00
14.25 -27.28 1.54
19.80 -36.14 2.07
18.50 -32.21 1.87
21.62 -35.95 2.13
20.41 -32.44 1.95
21.22 -32.29 1.97
22.35 -32.55 2.03
23.17 -32.35 2.05
24.27 -32.48 2.10
25.82 -33.16 2.19
27.94 -34.43 2.32
28.74 -34.00 2.34
29.54 -33.55 2.36
30.33 -33.09 2.38
30.93 -32.42 2.39
16.21 -16.32 1.24
16.11 -15.59 1.21
16.00 -14.87 1.19
16.00 -14.28 1.17
16.12 -13.82 1.17
16.39 -13.49 1.18
14.39 -11.37 1.02
12.35 -9.36 0.87
11.38 -8.27 0.79
10.34 -7.20 0.72
9.79 -6.53 0.67
9.96 -6.36 0.68
10.14 -6.19 0.69
10.32 -6.02 0.70
10.50 -5.85 0.71
10.68 -5.67 0.71
10.86 -5.49 0.72
11.05 -5.31 0.73
11.24 -5.13 0.75
11.43 -4.94 0.76
11.62 -4.75 0.77
11.82 -4.56 0.78
12.03 -4.36 0.79
12.23 -4.16 0.81
12.44 -3.95 0.82
12.66 -3.74 0.84
12.88 -3.53 0.85
13.10 -3.31 0.87
13.33 -3.09 0.89
13.57 -2.86 0.91
13.82 -2.62 0.93
14.07 -2.37 0.95
14.33 -2.12 0.97
21.42 -2.74 1.45
21.40 -2.30 1.46
21.43 -1.87 1.47
21.44 -1.44 1.48
21.45 -1.01 1.49
21.45 -0.58 1.50
21.43 -0.14 1.50
21.47 0.29 1.52
21.44 0.72 1.53
21.48 1.15 1.54
21.45 1.58 1.55
21.49 2.02 1.57
21.50 2.45 1.58
21.47 2.89 1.60
18.90 2.93 1.42
16.90 2.97 1.28
15.14 2.97 1.16
13.66 2.97 1.06
12.52 2.98 0.98
12.34 3.21 0.98
13.16 3.70 1.05
12.34 3.74 1.00
11.61 3.78 0.95
12.43 4.32 1.03
12.43 4.60 1.05
11.43 4.50 0.98
11.44 4.76 0.99
12.43 5.47 1.09
11.45 5.32 1.02
12.44 6.09 1.13
12.45 6.40 1.15
12.45 6.72 1.17
11.47 6.49 1.09
11.45 6.79 1.11
11.47 7.12 1.13
12.47 8.09 1.25
12.48 8.45 1.28
12.48 8.83 1.30
11.47 8.47 1.22
11.48 8.83 1.25
11.49 9.21 1.27
11.60 9.69 1.31
11.48 9.99 1.33
11.48 10.41 1.36
13.96 13.16 1.69
11.52 11.31 1.43
11.55 11.81 1.47
16.17 17.21 2.11
15.57 17.25 2.08
14.96 17.26 2.06
14.34 17.24 2.03
13.80 17.28 2.01
13.22 17.25 1.98
12.71 17.29 1.96
12.16 17.27 1.94
11.68 17.31 1.92
11.16 17.28 1.90
10.70 17.32 1.89
10.21 17.29 1.87
9.77 17.33 1.86
9.30 17.31 1.84
8.87 17.35 1.83
8.44 17.35 1.82
8.02 17.36 1.81
9.80 22.39 2.32
9.47 22.87 2.35
9.12 23.36 2.39
8.70 23.68 2.41
8.21 23.80 2.41
7.71 23.90 2.41
7.21 24.00 2.41
6.71 24.09 2.41
6.17 24.02 2.39
5.68 24.09 2.39
5.19 24.16 2.39
4.69 24.22 2.39
4.20 24.27 2.39
3.44 22.57 2.22
3.09 23.44 2.30
2.71 24.38 2.39
2.32 25.45 2.50
1.80 25.47 2.50
1.29 25.48 2.50
0.77 25.48 2.50
0.26 25.47 2.50
-0.25 25.45 2.50
-0.76 25.43 2.50
-1.27 25.40 2.50
-1.78 25.36 2.50
-2.29 25.31 2.50
-2.80 25.26 2.50
-3.31 25.20 2.50
-3.81 25.13 2.50
-4.32 25.05 2.50
-4.83 24.97 2.50
-5.33 24.88 2.50
-5.73 24.33 2.45
-6.07 23.65 2.39
-6.55 23.54 2.39
-7.03 23.42 2.39
-7.50 23.30 2.39
-7.98 23.17 2.39
-8.45 23.03 2.39
-8.93 22.88 2.39
-8.44 20.41 2.15
-8.39 19.19 2.04
-8.24 17.86 1.91
-8.50 17.49 1.88
-9.60 18.77 2.04
-9.61 17.90 1.96
-9.62 17.09 1.89
-9.63 16.33 1.82
-9.58 15.53 1.75
-9.65 14.95 1.70
-9.66 14.33 1.65
-9.67 13.73 1.60
-9.67 13.17 1.55
-9.68 12.64 1.51
-9.69 12.14 1.47
-9.63 11.57 1.42
-9.70 11.20 1.39
-9.71 10.76 1.36
-9.71 10.34 1.33
-9.72 9.94 1.29
-9.72 9.55 1.27
-9.73 9.18 1.24
-9.73 8.82 1.21
-9.74 8.48 1.19
-9.74 8.14 1.16
-9.75 7.82 1.14
-9.74 7.50 1.12
-9.76 7.20 1.10
-9.76 6.91 1.08
-9.77 6.62 1.06
-9.77 6.34 1.04
-9.77 6.07 1.02
-9.78 5.80 1.01
-9.78 5.54 0.99
-9.78 5.28 0.98
-9.79 5.03 0.96
-9.79 4.79 0.95
-9.79 4.55 0.93
-9.80 4.31 0.92
-9.80 4.08 0.91
-9.80 3.85 0.90
-9.74 3.60 0.88
-9.81 3.41 0.88
-9.81 3.19 0.87
-9.82 2.98 0.86
-9.82 2.76 0.85
-9.82 2.55 0.84
-9.83 2.34 0.83
-9.83 2.14 0.82
-9.83 1.93 0.81
-9.83 1.73 0.80
-9.84 1.52 0.80
-9.84 1.32 0.79
-9.84 1.12 0.78
-9.84 0.92 0.78
-9.85 0.72 0.77
-9.85 0.53 0.77
-9.85 0.33 0.76
-9.86 0.13 0.76
-9.86 -0.07 0.75
-9.86 -0.27 0.75
-9.80 -0.46 0.74
-9.87 -0.66 0.74
-9.87 -0.86 0.73
-9.87 -1.06 0.73
-9.88 -1.26 0.73
-9.88 -1.47 0.73
-9.88 -1.67 0.72
-9.88 -1.88 0.72
-9.89 -2.08 0.72
-9.89 -2.29 0.72
-9.89 -2.50 0.72
-9.90 -2.71 0.72
-9.90 -2.93 0.71
-9.90 -3.15 0.71
-9.90 -3.37 0.71
-9.91 -3.59 0.71
-9.91 -3.82 0.71
-9.91 -4.05 0.72
-9.92 -4.29 0.72
-9.92 -4.53 0.72
-9.92 -4.77 0.72
-9.93 -5.02 0.72
-9.93 -5.28 0.72
-9.94 -5.54 0.73
-9.94 -5.80 0.73
-9.94 -6.08 0.73
-9.95 -6.36 0.74
-9.95 -6.64 0.74
-9.95 -6.94 0.75
-9.96 -7.24 0.75
-6.67 -5.06 0.51
-9.97 -7.88 0.77
-9.97 -8.21 0.77
-9.98 -8.56 0.78
-9.98 -8.92 0.79
-9.99 -9.29 0.80
-9.99 -9.67 0.81
-10.00 -10.08 0.82
-10.00 -10.49 0.83
-10.01 -10.93 0.85
-10.02 -11.39 0.86
-10.02 -11.87 0.88
-10.00 -12.33 0.89
-10.04 -12.90 0.91
-10.05 -13.46 0.93
-10.05 -14.05 0.95
-10.06 -14.67 0.97
-10.07 -15.34 1.00
-10.08 -16.04 1.02
-10.09 -16.80 1.05
-10.10 -17.61 1.08
-10.12 -18.48 1.12
-10.13 -19.42 1.16
-10.10 -20.34 1.19
-10.16 -21.54 1.25
-10.18 -22.74 1.30
-10.19 -24.07 1.35
-10.21 -25.53 1.42
-10.24 -27.15 1.49
-10.26 -28.96 1.57
-10.29 -31.00 1.66
-10.32 -33.32 1.77
-10.36 -35.98 1.89
-10.40 -39.05 2.03
-10.39 -42.42 2.19
-10.48 -46.79 2.39
-9.57 -47.14 2.39
-8.65 -47.47 2.39
-7.72 -47.77 2.39
-6.78 -48.05 2.39
0.01 -35.03 2.50
0.71 -35.05 2.50
1.42 -35.05 2.50
2.03 -33.59 2.39
2.70 -33.55 2.39
3.38 -33.50 2.39
4.05 -33.43 2.39
4.72 -33.33 2.39
5.38 -33.23 2.39
6.04 -33.10 2.39
6.66 -32.73 2.38
7.20 -32.12 2.34
7.98 -32.51 2.39
8.65 -32.42 2.39
9.29 -32.21 2.39
9.35 -30.13 2.26
10.54 -31.73 2.39
11.08 -31.24 2.38
11.69 -30.97 2.38
12.37 -30.89 2.39
8.42 -19.87 1.56
13.55 -30.25 2.39
14.12 -29.91 2.39
14.68 -29.56 2.39
14.26 -27.31 2.24
15.78 -28.81 2.39
16.47 -28.69 2.42
17.25 -28.69 2.45
18.04 -28.70 2.49
18.60 -28.32 2.50
19.11 -27.86 2.50
19.60 -27.38 2.50
20.08 -26.89 2.50
20.54 -26.40 2.50
21.00 -25.89 2.50
21.43 -25.37 2.50
21.86 -24.84 2.50
22.27 -24.31 2.50
22.66 -23.77 2.50
16.21 -16.34 1.76
16.12 -15.60 1.72
16.00 -14.88 1.68
16.00 -14.29 1.66
16.12 -13.83 1.65
16.39 -13.50 1.66
14.43 -11.41 1.44
12.38 -9.39 1.22
11.40 -8.29 1.11
10.36 -7.22 1.00
9.79 -6.54 0.94
9.96 -6.37 0.95
10.14 -6.20 0.96
10.31 -6.02 0.97
10.49 -5.85 0.98
10.67 -5.67 0.99
10.86 -5.49 1.00
11.04 -5.31 1.01
11.23 -5.13 1.03
11.42 -4.94 1.04
11.62 -4.75 1.05
11.82 -4.56 1.07
12.02 -4.36 1.08
12.23 -4.16 1.10
12.44 -3.96 1.12
12.65 -3.75 1.14
12.87 -3.54 1.16
13.10 -3.32 1.18
13.33 -3.09 1.20
13.57 -2.86 1.22
13.81 -2.62 1.24
14.06 -2.38 1.27
14.32 -2.13 1.29
21.42 -2.75 1.94
21.40 -2.31 1.95
21.43 -1.88 1.96
21.44 -1.45 1.96
21.45 -1.02 1.97
21.45 -0.59 1.98
21.43 -0.16 1.99
21.46 0.27 2.00
21.44 0.70 2.01
21.48 1.14 2.03
21.45 1.57 2.04
21.49 2.00 2.06
21.50 2.44 2.07
21.47 2.88 2.09
18.91 2.92 1.85
16.90 2.96 1.67
15.18 2.97 1.51
13.85 3.00 1.39
12.78 3.04 1.30
11.78 3.05 1.21
10.90 3.06 1.13
9.98 3.02 1.05
9.33 3.03 0.99
9.11 3.16 0.98
9.01 3.33 0.98
11.42 4.48 1.25
11.42 4.75 1.27
11.43 5.02 1.29
11.48 5.32 1.31
11.42 5.58 1.32
11.42 5.87 1.34
11.43 6.16 1.37
11.43 6.46 1.39
11.43 6.77 1.41
11.44 7.09 1.43
11.44 7.41 1.46
11.45 7.75 1.49
11.45 8.09 1.51
11.46 8.45 1.54
11.46 8.81 1.57
11.47 9.19 1.60
11.47 9.58 1.64
11.48 9.98 1.67
11.48 10.40 1.71
11.49 10.83 1.75
13.15 12.91 2.05
11.56 11.81 1.84
12.59 13.39 2.06
12.31 13.63 2.07
12.07 13.92 2.08
11.82 14.20 2.09
11.57 14.48 2.10
11.32 14.76 2.12
11.07 15.06 2.14
10.83 15.37 2.15
10.58 15.67 2.17
10.33 15.98 2.19
10.25 16.58 2.25
10.03 16.99 2.29
9.77 17.33 2.31
9.30 17.31 2.29
8.88 17.35 2.28
8.45 17.35 2.26
8.02 17.36 2.24
8.22 18.78 2.41
7.83 18.90 2.41
7.43 19.01 2.41
7.03 19.12 2.41
6.63 19.22 2.41
6.19 19.19 2.39
5.80 19.27 2.39
5.40 19.36 2.39
5.00 19.43 2.39
4.60 19.50 2.39
2.60 12.10 1.48
3.80 19.61 2.39
3.27 18.91 2.30
2.79 18.29 2.22
2.60 19.74 2.39
2.27 20.33 2.46
1.88 20.64 2.50
1.46 20.66 2.50
1.05 20.67 2.50
0.63 20.67 2.50
0.21 20.66 2.50
-0.20 20.65 2.50
-0.62 20.64 2.50
-1.03 20.61 2.50
-1.45 20.58 2.50
-1.86 20.55 2.50
-2.27 20.50 2.50
-2.69 20.45 2.50
-3.10 20.40 2.50
-3.51 20.33 2.50
-3.92 20.26 2.50
-4.33 20.19 2.50
-4.73 20.11 2.50
-5.14 20.02 2.50
-5.54 19.92 2.50
-5.80 19.32 2.43
-6.09 18.89 2.39
-6.47 18.78 2.39
-6.86 18.67 2.39
-7.24 18.54 2.39
-7.62 18.41 2.39
-7.99 18.28 2.39
-8.37 18.14 2.39
-8.57 17.63 2.35
-8.51 16.65 2.23
-9.49 17.67 2.39
-11.34 20.13 2.75
-11.78 19.97 2.76
-9.58 15.52 2.17
-9.65 14.94 2.11
-9.66 14.32 2.04
-9.67 13.73 1.98
-9.67 13.17 1.92
-9.68 12.64 1.87
-9.69 12.13 1.82
-9.63 11.57 1.76
-9.70 11.19 1.73
-9.71 10.75 1.69
-9.71 10.34 1.65
-9.72 9.93 1.61
-9.72 9.55 1.57
-9.73 9.18 1.54
-9.73 8.82 1.51
-9.74 8.47 1.48
-9.74 8.14 1.45
-9.75 7.81 1.42
-9.75 7.50 1.40
-9.76 7.20 1.37
-9.76 6.90 1.35
-9.77 6.61 1.33
-9.77 6.33 1.30
-9.77 6.06 1.28
-9.78 5.79 1.26
-9.78 5.53 1.25
-9.78 5.28 1.23
-9.79 5.03 1.21
-9.79 4.78 1.19
-9.79 4.54 1.18
-9.80 4.31 1.16
-9.80 4.08 1.15
-9.80 3.85 1.14
-9.74 3.60 1.12
-9.81 3.40 1.11
-9.81 3.19 1.10
-9.82 2.97 1.09
-9.82 2.76 1.08
-9.82 2.55 1.07
-9.83 2.34 1.06
-9.83 2.13 1.05
-9.83 1.92 1.04
-9.83 1.72 1.03
-9.84 1.52 1.02
-9.84 1.32 1.02
-9.84 1.12 1.01
-9.84 0.92 1.00
-9.85 0.72 1.00
-9.85 0.52 0.99
-9.85 0.32 0.98
-9.86 0.12 0.98
-9.86 -0.07 0.97
-9.86 -0.27 0.97
-9.81 -0.47 0.96
-9.87 -0.67 0.96
-9.87 -0.87 0.96
-9.87 -1.07 0.96
-9.88 -1.27 0.95
-9.88 -1.47 0.95
-9.88 -1.68 0.95
-9.88 -1.88 0.95
-9.89 -2.09 0.95
-9.89 -2.30 0.95
-9.89 -2.51 0.95
-9.90 -2.72 0.95
-9.90 -2.94 0.95
-9.90 -3.15 0.95
-9.90 -3.38 0.95
-9.91 -3.60 0.95
-9.91 -3.83 0.96
-9.91 -4.06 0.96
-9.92 -4.30 0.96
-9.92 -4.54 0.97
-9.92 -4.78 0.97
-9.93 -5.03 0.97
-9.93 -5.28 0.98
-9.94 -5.54 0.99
-9.94 -5.81 0.99
-9.94 -6.08 1.00
-9.95 -6.36 1.01
-9.95 -6.65 1.01
-9.95 -6.95 1.02
-9.96 -7.25 1.03
-6.66 -5.06 0.70
-9.97 -7.89 1.06
-9.97 -8.22 1.07
-9.98 -8.57 1.08
-9.98 -8.93 1.09
-9.99 -9.30 1.11
-9.99 -9.68 1.13
-10.00 -10.08 1.14
-10.00 -10.50 1.16
-10.01 -10.94 1.18
-10.02 -11.40 1.20
-10.02 -11.88 1.23
-9.99 -12.33 1.25
-10.04 -12.91 1.28
-10.05 -13.47 1.31
-10.05 -14.06 1.34
-10.06 -14.68 1.38
-10.07 -15.35 1.41
-10.08 -16.06 1.45
-10.09 -16.81 1.50
-10.10 -17.62 1.54
-10.12 -18.49 1.60
-10.13 -19.43 1.65
-10.09 -20.34 1.71
-10.16 -21.55 1.78
-10.18 -22.76 1.86
-10.19 -24.09 1.95
-10.21 -25.55 2.04
-10.20 -27.06 2.14
-10.26 -30.92 2.39
-9.66 -31.21 2.39
-9.06 -31.48 2.39
-6.42 -24.13 1.82
-6.47 -26.41 1.98
-6.71 -30.00 2.23
-6.57 -32.42 2.39
-6.19 -34.02 2.50
-5.52 -34.20 2.50
-4.84 -34.37 2.50
-4.16 -34.52 2.50
-3.47 -34.65 2.50
-2.78 -34.77 2.50
-2.09 -34.86 2.50
-1.39 -34.94 2.50
-0.69 -34.99 2.50
0.01 -26.58 2.50
0.54 -26.59 2.50
1.07 -26.58 2.50
1.61 -26.57 2.50
2.14 -26.54 2.50
2.67 -26.49 2.50
3.20 -26.44 2.50
3.73 -26.36 2.50
4.26 -26.28 2.50
4.78 -26.18 2.50
5.30 -26.07 2.50
5.82 -25.95 2.50
6.33 -25.81 2.50
6.84 -25.66 2.50
7.35 -25.50 2.50
7.85 -25.32 2.50
8.35 -25.14 2.50
8.84 -24.94 2.50
9.33 -24.73 2.50
9.81 -24.50 2.50
8.42 -19.87 2.04
10.75 -24.02 2.50
11.21 -23.76 2.50
11.66 -23.49 2.50
12.11 -23.21 2.50
12.55 -22.92 2.50
12.98 -22.62 2.50
13.40 -22.31 2.50
13.82 -21.99 2.50
14.22 -21.66 2.50
14.01 -20.44 2.39
14.38 -20.10 2.39
14.75 -19.76 2.39
15.10 -19.41 2.39
15.44 -19.05 2.39
15.78 -18.69 2.39
16.10 -18.32 2.39
16.42 -17.94 2.39
16.16 -16.96 2.31
16.21 -16.35 2.28
16.12 -15.61 2.23
16.00 -14.89 2.18
16.00 -14.30 2.15
16.12 -13.84 2.13
16.38 -13.50 2.14
14.47 -11.45 1.86
12.40 -9.42 1.58
11.43 -8.32 1.44
10.77 -7.51 1.34
9.78 -6.54 1.21
9.96 -6.37 1.22
10.13 -6.20 1.23
10.31 -6.03 1.24
10.49 -5.85 1.25
10.67 -5.68 1.26
10.85 -5.50 1.28
11.04 -5.32 1.29
11.23 -5.13 1.31
11.42 -4.95 1.32
11.61 -4.76 1.34
11.81 -4.57 1.36
12.02 -4.37 1.37
12.22 -4.17 1.39
12.43 -3.96 1.41
12.65 -3.75 1.44
12.87 -3.54 1.46
13.09 -3.32 1.48
13.32 -3.10 1.51
13.56 -2.87 1.53
13.80 -2.63 1.56
14.05 -2.39 1.59
14.31 -2.14 1.62
18.16 -2.34 2.06
18.12 -1.97 2.06
18.08 -1.60 2.06
18.03 -1.23 2.06
17.97 -0.86 2.06
17.91 -0.50 2.06
17.84 -0.14 2.06
17.76 0.22 2.06
17.68 0.57 2.06
17.59 0.92 2.06
17.49 1.27 2.06
17.39 1.61 2.06
17.28 1.95 2.06
17.16 2.29 2.06
17.04 2.62 2.06
16.90 2.95 2.06
15.22 2.97 1.87
13.85 2.99 1.72
12.81 3.04 1.60
11.81 3.05 1.49
10.90 3.05 1.39
10.08 3.04 1.30
9.53 3.09 1.24
8.90 3.08 1.17
8.41 3.10 1.12
7.78 3.05 1.05
7.36 3.06 1.00
7.10 3.12 0.98
7.01 3.25 0.98
6.92 3.37 0.98
11.42 5.86 1.64
11.43 6.15 1.66
11.43 6.46 1.69
11.43 6.76 1.71
11.44 7.08 1.74
11.44 7.41 1.77
11.45 7.74 1.80
11.45 8.08 1.83
11.46 8.44 1.87
11.46 8.80 1.90
11.47 9.18 1.94
11.47 9.57 1.98
11.48 9.97 2.02
11.48 10.39 2.06
11.49 10.82 2.11
11.50 11.27 2.16
11.50 11.73 2.21
11.02 11.71 2.17
10.72 11.86 2.16
10.53 12.13 2.18
10.33 12.39 2.19
10.12 12.65 2.21
9.92 12.92 2.23
9.71 13.19 2.25
9.49 13.46 2.26
9.27 13.73 2.28
9.04 13.98 2.30
8.81 14.24 2.32
8.56 14.49 2.33
8.31 14.73 2.35
8.04 14.94 2.36
7.76 15.14 2.38
7.45 15.30 2.38
7.14 15.43 2.38
6.81 15.53 2.38
6.48 15.64 2.38
6.19 15.82 2.39
5.86 15.91 2.39
5.53 16.00 2.39
5.20 16.08 2.39
4.86 16.16 2.39
4.53 16.23 2.39
4.20 16.30 2.39
3.86 16.36 2.39
2.60 12.10 1.77
3.19 16.46 2.39
2.86 16.51 2.39
2.52 16.55 2.39
2.22 16.82 2.43
1.93 17.32 2.50
1.58 17.34 2.50
1.23 17.36 2.50
0.88 17.37 2.50
0.53 17.37 2.50
0.18 17.37 2.50
-0.17 17.36 2.50
-0.52 17.35 2.50
-0.87 17.33 2.50
-1.22 17.31 2.50
-1.56 17.28 2.50
-1.91 17.24 2.50
-2.26 17.20 2.50
-2.60 17.15 2.50
-2.95 17.10 2.50
-3.29 17.04 2.50
-3.64 16.97 2.50
-3.98 16.90 2.50
-4.32 16.83 2.50
-4.66 16.74 2.50
-5.00 16.66 2.50
-5.34 16.56 2.50
-5.67 16.46 2.50
-5.85 15.91 2.43
-6.08 15.58 2.39
-6.40 15.46 2.39
-6.72 15.35 2.39
-7.03 15.22 2.39
-7.34 15.10 2.39
-7.66 14.96 2.39
-7.97 14.83 2.39
-8.27 14.68 2.39
-8.58 14.53 2.39
-8.88 14.38 2.39
-9.18 14.22 2.39
-9.48 14.05 2.39
-9.78 13.88 2.39
-14.16 19.26 3.36
-9.63 12.05 2.16
-9.63 11.56 2.11
-9.70 11.19 2.07
-9.71 10.75 2.02
-9.71 10.33 1.97
-9.72 9.93 1.93
-9.72 9.54 1.89
-9.73 9.17 1.85
-9.73 8.81 1.81
-9.74 8.46 1.77
-9.74 8.13 1.74
-9.75 7.81 1.71
-9.75 7.49 1.68
-9.76 7.19 1.65
-9.76 6.89 1.62
-9.77 6.61 1.60
-9.77 6.33 1.57
-9.77 6.05 1.55
-9.78 5.79 1.52
-9.78 5.53 1.50
-9.78 5.27 1.48
-9.79 5.02 1.46
-9.79 4.78 1.44
-9.79 4.54 1.43
-9.80 4.30 1.41
-9.80 4.07 1.39
-9.80 3.84 1.38
-9.73 3.59 1.35
-9.81 3.40 1.35
-9.81 3.18 1.33
-9.82 2.96 1.32
-9.82 2.75 1.31
-9.82 2.54 1.30
-9.83 2.33 1.29
-9.83 2.12 1.28
-9.83 1.92 1.27
-9.83 1.72 1.26
-9.84 1.51 1.25
-9.84 1.31 1.24
-9.84 1.11 1.23
-9.85 0.91 1.23
-9.85 0.71 1.22
-9.85 0.51 1.21
-9.85 0.32 1.21
-9.86 0.12 1.20
-9.86 -0.08 1.20
-9.86 -0.28 1.20
-9.81 -0.47 1.18
-9.87 -0.67 1.19
-9.87 -0.87 1.19
-9.87 -1.07 1.18
-9.88 -1.28 1.18
-9.88 -1.48 1.18
-9.88 -1.68 1.18
-9.88 -1.89 1.18
-9.89 -2.09 1.18
-9.89 -2.30 1.18
-9.89 -2.51 1.18
-9.90 -2.73 1.18
-9.90 -2.94 1.18
-9.90 -3.16 1.19
-9.91 -3.38 1.19
-9.91 -3.61 1.19
-9.91 -3.83 1.20
-9.91 -4.07 1.20
-9.92 -4.30 1.21
-9.92 -4.54 1.21
-9.92 -4.79 1.22
-9.93 -5.04 1.23
-9.93 -5.29 1.24
-9.94 -5.55 1.24
-9.94 -5.82 1.25
-9.94 -6.09 1.26
-9.95 -6.37 1.27
-9.95 -6.66 1.29
-9.95 -6.95 1.30
-9.96 -7.26 1.31
-6.66 -5.06 0.89
-9.97 -7.90 1.34
-9.97 -8.23 1.36
-9.98 -8.58 1.38
-9.98 -8.93 1.40
-9.99 -9.31 1.42
-9.99 -9.69 1.44
-10.00 -10.09 1.47
-10.00 -10.51 1.49
-10.01 -10.95 1.52
-10.02 -11.41 1.55
-10.02 -11.89 1.58
-9.99 -12.34 1.61
-10.04 -12.92 1.65
-10.05 -13.48 1.69
-10.05 -14.07 1.74
-10.06 -14.70 1.78
-10.07 -15.36 1.83
-10.08 -16.07 1.88
-10.09 -16.83 1.94
-10.10 -17.64 2.01
-10.12 -18.51 2.08
-10.08 -19.36 2.14
-10.09 -20.35 2.22
-10.03 -22.45 2.39
-9.60 -22.71 2.39
-9.17 -22.96 2.39
-6.37 -16.93 1.75
-6.34 -17.91 1.83
-6.38 -19.25 1.95
-6.68 -21.60 2.17
-6.91 -24.03 2.39
-6.44 -24.21 2.39
-6.22 -25.43 2.50
-5.72 -25.60 2.50
-5.22 -25.75 2.50
-4.71 -25.89 2.50
-4.19 -26.02 2.50
-3.68 -26.13 2.50
-3.16 -26.24 2.50
-2.63 -26.33 2.50
-2.11 -26.40 2.50
-1.58 -26.47 2.50
-1.05 -26.52 2.50
-0.52 -26.55 2.50
0.01 -21.39 2.50
0.44 -21.40 2.50
0.87 -21.39 2.50
1.29 -21.38 2.50
1.72 -21.35 2.50
2.15 -21.32 2.50
2.58 -21.27 2.50
3.00 -21.21 2.50
3.42 -21.15 2.50
3.85 -21.07 2.50
4.26 -20.98 2.50
4.68 -20.88 2.50
5.10 -20.78 2.50
5.28 -19.81 2.39
5.67 -19.68 2.39
6.06 -19.55 2.39
6.45 -19.41 2.39
6.83 -19.26 2.39
7.20 -19.10 2.39
7.58 -18.93 2.39
7.94 -18.76 2.39
8.31 -18.57 2.39
8.67 -18.38 2.39
9.02 -18.17 2.39
9.37 -17.96 2.39
9.71 -17.75 2.39
10.05 -17.52 2.39
10.38 -17.29 2.39
10.70 -17.04 2.39
11.02 -16.80 2.39
17.99 -26.26 3.80
18.38 -25.71 3.78
13.14 -17.61 2.63
12.31 -15.84 2.41
12.60 -15.55 2.41
12.88 -15.26 2.41
13.15 -14.97 2.41
13.42 -14.67 2.41
13.67 -14.36 2.41
13.92 -14.05 2.41
12.83 -12.44 2.18
12.01 -11.18 2.01
11.33 -10.14 1.87
12.38 -10.64 2.01
12.55 -10.36 2.01
12.72 -10.07 2.01
12.50 -9.49 1.95
11.45 -8.34 1.76
10.79 -7.53 1.64
9.78 -6.54 1.47
9.95 -6.37 1.48
10.13 -6.20 1.50
10.31 -6.03 1.51
10.48 -5.86 1.52
10.67 -5.68 1.54
10.85 -5.50 1.55
11.03 -5.32 1.57
11.22 -5.14 1.59
11.41 -4.95 1.60
6.99 -2.87 0.98
7.02 -2.72 0.98
7.05 -2.57 0.98
7.07 -2.42 0.98
12.43 -3.97 1.71
12.64 -3.76 1.74
12.86 -3.55 1.76
13.09 -3.33 1.79
13.32 -3.10 1.82
13.55 -2.87 1.85
13.80 -2.64 1.88
14.05 -2.39 1.92
14.31 -2.14 1.95
15.77 -2.04 2.15
15.63 -1.71 2.14
15.05 -1.34 2.06
15.02 -1.03 2.06
14.98 -0.73 2.06
14.94 -0.43 2.06
14.89 -0.13 2.06
14.83 0.17 2.06
14.76 0.47 2.06
14.68 0.76 2.06
14.59 1.05 2.06
14.51 1.34 2.05
14.43 1.62 2.05
14.34 1.90 2.05
14.25 2.18 2.05
14.15 2.46 2.05
6.68 1.30 0.98
6.63 1.43 0.98
6.58 1.56 0.98
6.52 1.68 0.98
6.47 1.81 0.98
6.41 1.93 0.98
6.35 2.05 0.98
6.35 2.19 0.99
6.35 2.34 1.00
6.35 2.49 1.01
6.35 2.63 1.02
6.36 2.79 1.03
6.36 2.94 1.05
6.36 3.10 1.06
6.56 3.36 1.11
11.43 6.15 1.96
11.43 6.45 1.99
11.43 6.76 2.02
11.44 7.07 2.05
11.44 7.40 2.08
11.45 7.73 2.12
11.45 8.07 2.15
11.19 8.23 2.14
10.87 8.34 2.12
10.65 8.52 2.11
10.56 8.79 2.14
10.45 9.07 2.16
10.35 9.35 2.18
10.24 9.63 2.20
10.13 9.92 2.23
9.99 10.18 2.25
9.84 10.44 2.27
9.75 10.77 2.30
9.68 11.14 2.34
9.57 11.48 2.38
9.31 11.63 2.37
8.92 11.61 2.34
8.63 11.72 2.33
8.43 11.93 2.34
8.21 12.14 2.36
7.98 12.32 2.37
7.74 12.51 2.37
7.49 12.66 2.38
7.23 12.80 2.38
6.96 12.92 2.38
6.68 13.03 2.38
6.41 13.14 2.38
6.16 13.31 2.39
5.88 13.41 2.39
5.60 13.50 2.39
5.32 13.59 2.39
5.04 13.68 2.39
4.76 13.76 2.39
4.47 13.83 2.39
4.19 13.90 2.39
3.90 13.97 2.39
3.62 14.03 2.39
3.33 14.08 2.39
2.61 12.11 2.05
2.75 14.17 2.39
2.46 14.21 2.39
2.19 14.34 2.41
1.97 14.89 2.50
1.67 14.92 2.50
1.36 14.94 2.50
1.06 14.95 2.50
0.76 14.96 2.50
0.46 14.97 2.50
0.16 14.97 2.50
-0.14 14.96 2.50
-0.45 14.95 2.50
-0.75 14.94 2.50
-1.05 14.92 2.50
-1.35 14.89 2.50
-1.65 14.86 2.50
-1.95 14.82 2.50
-2.24 14.78 2.50
-2.54 14.73 2.50
-2.84 14.68 2.50
-3.14 14.63 2.50
-3.43 14.57 2.50
-3.72 14.50 2.50
-4.02 14.43 2.50
-4.31 14.35 2.50
-4.60 14.27 2.50
-4.89 14.18 2.50
-5.18 14.09 2.50
-5.46 13.99 2.50
-5.75 13.89 2.50
-5.88 13.43 2.43
-6.06 13.11 2.39
-6.32 12.99 2.39
-6.59 12.88 2.39
-6.86 12.76 2.39
-7.12 12.63 2.39
-7.38 12.50 2.39
-7.64 12.36 2.39
-7.90 12.22 2.39
-8.16 12.08 2.39
-8.41 11.93 2.39
-8.66 11.77 2.39
-8.91 11.62 2.39
-9.16 11.45 2.39
-9.40 11.28 2.39
-9.64 11.11 2.39
-9.88 10.94 2.39
-9.67 9.48 2.19
-9.68 9.12 2.14
-9.73 8.80 2.11
-9.74 8.46 2.07
-9.74 8.12 2.03
-9.75 7.80 1.99
-9.75 7.49 1.96
-9.76 7.18 1.93
-9.76 6.89 1.90
-9.77 6.60 1.87
-9.77 6.32 1.84
-9.77 6.05 1.81
-9.78 5.78 1.78
-9.78 5.52 1.76
-9.78 5.27 1.74
-9.79 5.02 1.71
-9.79 4.77 1.69
-9.79 4.53 1.67
-9.80 4.30 1.65
-9.80 4.07 1.64
-9.80 3.84 1.62
-9.73 3.59 1.59
-9.81 3.39 1.59
-9.81 3.17 1.57
-9.82 2.96 1.56
-9.82 2.75 1.54
-9.82 2.53 1.53
-9.83 2.33 1.52
-9.83 2.12 1.51
-9.83 1.91 1.50
-9.83 1.71 1.49
-9.84 1.51 1.48
-9.84 1.31 1.47
-9.84 1.11 1.46
-9.85 0.91 1.45
-9.85 0.71 1.45
-9.85 0.51 1.44
-9.85 0.31 1.43
-9.86 0.11 1.43
-9.86 -0.08 1.43
-9.86 -0.28 1.42
-9.81 -0.48 1.41
-9.87 -0.68 1.41
-9.87 -0.88 1.41
-9.87 -1.08 1.41
-9.88 -1.28 1.41
-9.88 -1.48 1.41
-9.88 -1.69 1.41
-9.88 -1.89 1.41
-9.89 -2.10 1.41
-9.89 -2.31 1.41
-9.89 -2.52 1.41
-9.90 -2.73 1.42
-9.90 -2.95 1.42
-9.90 -3.17 1.42
-9.91 -3.39 1.43
-9.91 -3.61 1.43
-9.91 -3.84 1.44
-9.91 -4.07 1.45
-9.92 -4.55 1.46
-9.92 -4.79 1.47
-9.93 -5.04 1.48
-9.93 -5.30 1.49
-9.94 -5.56 1.50
-9.94 -5.82 1.52
-9.94 -6.10 1.53
-9.95 -6.38 1.55
-9.95 -6.67 1.56
-9.96 -6.96 1.58
-9.96 -7.27 1.60
-6.66 -5.06 1.08
-9.97 -7.90 1.64
-9.97 -8.24 1.66
-9.98 -8.58 1.68
-9.98 -8.94 1.71
-9.99 -9.31 1.73
-9.99 -9.70 1.76
-10.00 -10.10 1.79
-10.00 -10.52 1.82
-10.01 -10.96 1.86
-10.02 -11.42 1.90
-10.02 -11.90 1.94
-9.98 -12.34 1.97
-10.04 -12.93 2.03
-10.05 -13.49 2.08
-10.03 -14.05 2.13
-10.00 -14.62 2.18
-10.10 -16.85 2.39
-9.79 -17.09 2.39
-9.47 -17.33 2.39
-9.14 -17.56 2.39
-8.81 -17.78 2.39
-8.47 -17.99 2.39
-8.12 -18.20 2.39
-7.77 -18.40 2.39
-7.42 -18.59 2.39
-7.06 -18.77 2.39
-6.70 -18.94 2.39
-6.33 -19.12 2.40
-6.21 -20.09 2.50
-5.82 -20.25 2.50
-5.42 -20.39 2.50
-5.02 -20.53 2.50
-4.61 -20.65 2.50
-4.20 -20.77 2.50
-3.79 -20.88 2.50
-3.38 -20.98 2.50
-2.96 -21.06 2.50
-2.54 -21.14 2.50
-2.12 -21.21 2.50
-1.70 -21.27 2.50
-1.27 -21.31 2.50
-0.85 -21.35 2.50
-0.42 -21.38 2.50
0.01 -17.88 2.50
0.37 -17.89 2.50
0.72 -17.88 2.50
1.08 -17.87 2.50
1.44 -17.85 2.50
1.80 -17.82 2.50
2.15 -17.78 2.50
2.51 -17.73 2.50
2.74 -16.95 2.39
3.08 -16.88 2.39
3.42 -16.81 2.39
3.75 -16.74 2.39
4.08 -16.65 2.39
4.41 -16.56 2.39
4.74 -16.46 2.39
5.07 -16.35 2.39
5.39 -16.24 2.39
5.71 -16.11 2.39
6.02 -15.98 2.39
6.34 -15.84 2.39
6.69 -15.80 2.41
7.00 -15.65 2.41
7.30 -15.49 2.41
7.60 -15.32 2.41
7.90 -15.15 2.41
8.19 -14.97 2.41
8.47 -14.78 2.41
8.75 -14.59 2.41
9.03 -14.39 2.41
9.30 -14.18 2.41
9.57 -13.97 2.41
9.22 -12.90 2.26
9.36 -12.56 2.24
9.49 -12.22 2.21
9.62 -11.89 2.19
9.75 -11.56 2.17
9.87 -11.25 2.15
9.99 -10.93 2.14
10.11 -10.62 2.12
10.22 -10.32 2.10
10.32 -10.01 2.09
10.43 -9.72 2.07
10.63 -9.52 2.08
10.86 -9.34 2.09
11.09 -9.16 2.11
11.31 -8.97 2.12
11.53 -8.77 2.13
11.48 -8.37 2.09
10.58 -7.40 1.91
9.77 -6.54 1.74
9.94 -6.37 1.76
10.12 -6.21 1.77
10.30 -6.04 1.78
10.48 -5.86 1.80
10.66 -5.69 1.82
10.84 -5.51 1.83
11.03 -5.33 1.85
11.22 -5.14 1.87
11.41 -4.96 1.89
6.85 -2.82 1.13
6.77 -2.63 1.11
6.73 -2.46 1.10
6.69 -2.29 1.09
6.69 -2.14 1.08
6.59 -1.96 1.06
6.56 -1.81 1.06
6.52 -1.66 1.05
6.49 -1.52 1.04
6.45 -1.37 1.03
6.42 -1.23 1.03
6.39 -1.09 1.02
6.35 -0.96 1.02
6.32 -0.82 1.01
6.31 -0.69 1.01
6.31 -0.56 1.01
6.31 -0.44 1.01
6.32 -0.31 1.01
6.32 -0.18 1.02
6.32 -0.06 1.02
6.32 0.07 1.02
6.32 0.20 1.03
6.32 0.32 1.03
6.33 0.45 1.04
6.33 0.58 1.04
6.33 0.71 1.05
6.33 0.84 1.05
6.33 0.97 1.06
6.39 1.11 1.08
6.40 1.24 1.09
6.39 1.37 1.09
6.40 1.51 1.10
6.36 1.64 1.10
6.37 1.78 1.11
6.40 1.93 1.13
6.41 2.07 1.14
6.41 2.21 1.15
6.41 2.36 1.17
6.41 2.50 1.18
6.38 2.64 1.19
6.38 2.79 1.20
6.39 2.95 1.21
6.42 3.12 1.24
6.56 3.35 1.28
10.78 5.79 2.13
10.63 5.99 2.13
10.55 6.23 2.14
10.46 6.46 2.16
10.36 6.69 2.17
10.26 6.92 2.18
10.15 7.15 2.19
10.04 7.38 2.21
9.92 7.60 2.22
9.81 7.84 2.24
9.70 8.07 2.25
9.59 8.31 2.27
9.48 8.55 2.29
9.37 8.81 2.31
9.26 9.06 2.34
9.13 9.30 2.35
8.99 9.53 2.37
8.84 9.76 2.39
8.70 10.00 2.41
8.47 10.15 2.41
8.25 10.30 2.41
8.03 10.44 2.41
7.80 10.58 2.41
7.57 10.72 2.41
7.34 10.85 2.41
7.11 10.97 2.41
6.87 11.09 2.41
6.64 11.21 2.41
6.40 11.32 2.41
6.12 11.35 2.39
5.88 11.46 2.39
5.64 11.56 2.39
5.40 11.65 2.39
5.15 11.74 2.39
4.91 11.83 2.39
4.66 11.91 2.39
4.42 11.98 2.39
4.17 12.05 2.39
3.92 12.12 2.39
3.67 12.18 2.39
3.42 12.24 2.39
3.17 12.30 2.39
2.92 12.35 2.39
2.61 12.11 2.34
2.42 12.43 2.39
2.17 12.48 2.40
1.99 13.04 2.50
1.73 13.07 2.50
1.46 13.09 2.50
1.20 13.11 2.50
0.93 13.12 2.50
0.67 13.13 2.50
0.40 13.14 2.50
0.14 13.14 2.50
-0.13 13.13 2.50
-0.39 13.13 2.50
-0.65 13.11 2.50
-0.92 13.09 2.50
-1.18 13.07 2.50
-1.45 13.04 2.50
-1.71 13.01 2.50
-1.97 12.98 2.50
-2.23 12.93 2.50
-2.49 12.89 2.50
-2.75 12.84 2.50
-3.01 12.78 2.50
-3.27 12.73 2.50
-3.53 12.66 2.50
-3.78 12.59 2.50
-4.04 12.52 2.50
-4.29 12.44 2.50
-4.55 12.36 2.50
-4.80 12.28 2.50
-5.05 12.18 2.50
-5.30 12.09 2.50
-5.54 11.99 2.50
-5.79 11.89 2.50
-5.90 11.53 2.44
-6.01 11.18 2.39
-6.25 11.07 2.39
-6.47 10.95 2.39
-6.70 10.83 2.39
-6.93 10.71 2.39
-7.15 10.58 2.39
-7.37 10.45 2.39
-7.59 10.31 2.39
-7.81 10.17 2.39
-8.02 10.02 2.39
-8.23 9.88 2.39
-8.44 9.72 2.39
-8.65 9.57 2.39
-8.86 9.40 2.39
-9.06 9.24 2.39
-9.26 9.07 2.39
-9.46 8.90 2.39
-9.65 8.72 2.39
-9.84 8.54 2.39
-9.70 7.14 2.19
-9.71 6.84 2.16
-9.74 6.57 2.13
-9.77 6.31 2.11
-9.77 6.04 2.08
-9.78 5.78 2.05
-9.78 5.52 2.02
-9.78 5.26 1.99
-9.79 5.01 1.97
-9.79 4.77 1.94
-9.79 4.53 1.92
-9.80 4.29 1.90
-9.80 4.06 1.88
-9.80 3.83 1.86
-9.74 3.58 1.83
-9.81 3.39 1.83
-9.81 3.17 1.81
-9.82 2.95 1.79
-9.82 2.74 1.78
-9.82 2.53 1.77
-9.83 2.32 1.75
-9.83 2.11 1.74
-9.83 1.91 1.73
-9.83 1.70 1.72
-9.84 1.50 1.71
-9.84 1.30 1.70
-9.84 1.10 1.69
-9.85 0.90 1.68
-9.85 0.70 1.67
-9.85 0.50 1.67
-9.85 0.31 1.66
-9.86 0.11 1.66
-9.86 -0.09 1.65
-9.86 -0.29 1.65
-9.82 -0.48 1.64
-9.87 -0.69 1.64
-9.87 -0.89 1.64
-9.87 -1.09 1.64
-9.88 -1.29 1.64
-9.88 -1.49 1.64
-9.88 -1.69 1.64
-9.88 -1.90 1.64
-9.89 -2.11 1.64
-9.89 -2.31 1.65
-9.89 -2.53 1.65
-9.90 -2.74 1.65
-9.90 -2.95 1.66
-9.90 -3.17 1.66
-9.91 -3.39 1.67
-9.91 -3.62 1.68
-9.91 -3.85 1.69
-9.91 -4.08 1.69
-9.92 -4.56 1.71
-9.92 -4.80 1.73
-9.93 -5.05 1.74
-9.93 -5.30 1.75
-9.94 -5.56 1.77
-9.94 -5.83 1.78
-9.94 -6.10 1.80
-9.95 -6.39 1.82
-9.95 -6.67 1.84
-9.96 -6.97 1.86
-9.96 -7.27 1.88
-6.65 -5.07 1.27
-9.97 -7.91 1.93
-9.97 -8.25 1.96
-9.98 -8.59 1.98
-9.98 -8.95 2.01
-9.99 -9.32 2.05
-9.99 -9.71 2.08
-10.00 -10.11 2.12
-9.95 -10.47 2.15
-9.95 -10.91 2.19
-9.98 -12.34 2.34
-10.00 -12.89 2.39
-9.76 -13.12 2.39
-9.52 -13.34 2.39
-9.27 -13.56 2.39
-9.02 -13.78 2.39
-8.76 -13.98 2.39
-8.50 -14.19 2.39
-8.23 -14.39 2.39
-7.96 -14.58 2.39
-7.68 -14.76 2.39
-7.40 -14.94 2.39
-7.11 -15.12 2.39
-6.82 -15.28 2.39
-6.52 -15.45 2.39
-6.27 -15.73 2.41
-6.17 -16.43 2.50
-5.85 -16.57 2.50
-5.53 -16.71 2.50
-5.20 -16.84 2.50
-4.87 -16.97 2.50
-4.54 -17.09 2.50
-4.20 -17.20 2.50
-3.86 -17.30 2.50
-3.52 -17.39 2.50
-3.17 -17.48 2.50
-2.82 -17.56 2.50
-2.48 -17.63 2.50
-2.12 -17.69 2.50
-1.77 -17.74 2.50
-1.42 -17.79 2.50
-1.06 -17.82 2.50
-0.71 -17.85 2.50
-0.35 -17.87 2.50
0.01 -15.35 2.50
0.32 -15.35 2.50
0.62 -15.35 2.50
0.93 -15.34 2.50
1.24 -15.32 2.50
1.54 -15.29 2.50
1.85 -15.26 2.50
2.06 -14.59 2.39
2.35 -14.54 2.39
2.64 -14.49 2.39
2.93 -14.43 2.39
3.22 -14.37 2.39
3.50 -14.29 2.39
3.79 -14.22 2.39
4.07 -14.13 2.39
4.35 -14.04 2.39
4.63 -13.94 2.39
4.90 -13.84 2.39
5.17 -13.73 2.39
5.44 -13.61 2.39
5.71 -13.49 2.39
6.01 -13.45 2.41
6.27 -13.31 2.41
6.53 -13.17 2.41
6.78 -13.02 2.41
7.04 -12.87 2.41
7.28 -12.71 2.41
7.53 -12.55 2.41
7.77 -12.38 2.41
8.00 -12.21 2.41
8.23 -12.03 2.41
8.43 -11.81 2.40
8.57 -11.51 2.38
8.71 -11.21 2.36
8.83 -10.92 2.34
8.96 -10.63 2.32
9.08 -10.34 2.30
9.19 -10.06 2.28
9.30 -9.78 2.26
9.42 -9.52 2.25
9.54 -9.26 2.23
9.65 -9.00 2.22
9.75 -8.74 2.21
9.86 -8.48 2.20
9.95 -8.22 2.19
10.04 -7.96 2.18
10.13 -7.71 2.17
10.24 -7.48 2.16
10.35 -7.24 2.16
9.76 -6.54 2.01
9.94 -6.38 2.03
10.12 -6.21 2.04
10.30 -6.04 2.06
10.48 -5.87 2.08
10.66 -5.69 2.09
10.84 -5.51 2.11
11.03 -5.33 2.13
11.21 -5.15 2.15
11.41 -4.96 2.18
6.85 -2.82 1.30
6.77 -2.63 1.28
6.73 -2.46 1.26
6.70 -2.30 1.25
6.70 -2.15 1.25
6.66 -1.99 1.24
6.62 -1.83 1.22
6.59 -1.68 1.22
6.55 -1.53 1.21
6.48 -1.38 1.19
6.45 -1.24 1.18
6.43 -1.10 1.18
6.42 -0.97 1.18
6.39 -0.83 1.17
6.37 -0.70 1.17
6.37 -0.57 1.17
6.37 -0.45 1.17
6.34 -0.32 1.17
6.34 -0.19 1.17
6.38 -0.06 1.18
6.38 0.07 1.18
6.38 0.20 1.19
6.38 0.32 1.19
6.39 0.45 1.20
6.39 0.58 1.20
6.36 0.71 1.20
6.36 0.84 1.21
6.39 0.97 1.22
6.39 1.10 1.23
6.40 1.24 1.24
6.39 1.37 1.24
6.40 1.51 1.25
6.36 1.63 1.26
6.37 1.77 1.27
6.40 1.92 1.29
6.40 2.06 1.30
6.41 2.21 1.31
6.41 2.35 1.32
6.41 2.50 1.34
6.38 2.64 1.35
6.38 2.79 1.36
6.39 2.95 1.38
6.42 3.12 1.40
6.56 3.35 1.45
9.94 5.33 2.23
9.86 5.55 2.24
9.78 5.77 2.25
9.69 5.98 2.26
9.60 6.19 2.28
9.51 6.41 2.29
9.41 6.62 2.30
9.30 6.83 2.32
9.20 7.04 2.33
9.09 7.26 2.34
8.99 7.47 2.36
8.88 7.69 2.38
8.77 7.91 2.39
8.64 8.12 2.41
8.46 8.27 2.41
8.28 8.42 2.41
8.09 8.57 2.41
7.90 8.72 2.41
7.71 8.86 2.41
7.52 8.99 2.41
7.32 9.13 2.41
7.12 9.26 2.41
6.92 9.38 2.41
6.72 9.50 2.41
6.52 9.62 2.41
6.31 9.73 2.41
6.06 9.78 2.39
5.86 9.88 2.39
5.65 9.98 2.39
5.44 10.08 2.39
5.23 10.17 2.39
5.01 10.26 2.39
4.80 10.35 2.39
4.58 10.43 2.39
4.37 10.51 2.39
4.15 10.58 2.39
3.93 10.65 2.39
3.71 10.72 2.39
3.49 10.78 2.39
3.14 10.42 2.30
3.00 10.71 2.35
2.68 10.38 2.27
2.56 10.82 2.36
2.38 11.02 2.39
2.15 11.06 2.39
2.01 11.57 2.50
1.78 11.60 2.50
1.54 11.63 2.50
1.30 11.65 2.50
1.07 11.67 2.50
0.83 11.68 2.50
0.60 11.69 2.50
0.36 11.69 2.50
0.12 11.70 2.50
-0.11 11.69 2.50
-0.35 11.68 2.50
-0.58 11.67 2.50
-0.82 11.66 2.50
-1.05 11.64 2.50
-1.29 11.61 2.50
-1.52 11.58 2.50
-1.75 11.55 2.50
-1.99 11.52 2.50
-2.22 11.47 2.50
-2.45 11.43 2.50
-2.68 11.38 2.50
-2.91 11.33 2.50
-3.14 11.27 2.50
-3.37 11.21 2.50
-3.60 11.14 2.50
-3.82 11.07 2.50
-4.05 11.00 2.50
-4.27 10.92 2.50
-4.49 10.84 2.50
-4.71 10.76 2.50
-4.93 10.67 2.50
-5.15 10.57 2.50
-5.37 10.48 2.50
-5.58 10.38 2.50
-5.80 10.27 2.50
-5.93 10.02 2.46
-5.96 9.63 2.39
-6.16 9.52 2.39
-6.36 9.40 2.39
-6.55 9.28 2.39
-6.75 9.16 2.39
-6.94 9.03 2.39
-7.13 8.90 2.39
-7.32 8.77 2.39
-7.50 8.63 2.39
-7.69 8.49 2.39
-7.87 8.35 2.39
-8.05 8.20 2.39
-8.22 8.05 2.39
-8.39 7.89 2.39
-8.57 7.74 2.39
-8.73 7.57 2.39
-8.90 7.41 2.39
-9.06 7.24 2.39
-9.22 7.07 2.39
-9.38 6.89 2.39
-9.54 6.72 2.39
-9.69 6.54 2.39
-9.84 6.35 2.39
-9.98 6.16 2.39
-9.76 4.99 2.22
-9.73 4.73 2.19
-9.74 4.50 2.16
-9.75 4.27 2.14
-9.78 4.05 2.12
-9.80 3.83 2.11
-9.74 3.58 2.07
-9.81 3.38 2.07
-9.81 3.16 2.05
-9.82 2.95 2.03
-9.82 2.73 2.02
-9.82 2.52 2.00
-9.83 2.31 1.99
-9.83 2.11 1.97
-9.83 1.90 1.96
-9.83 1.70 1.95
-9.84 1.50 1.94
-9.84 1.30 1.93
-9.84 1.09 1.92
-9.85 0.90 1.91
-9.85 0.70 1.90
-9.85 0.50 1.90
-9.85 0.30 1.89
-9.86 0.10 1.89
-9.86 -0.10 1.88
-9.86 -0.29 1.88
-9.83 -0.49 1.87
-9.87 -0.69 1.87
-9.87 -0.89 1.87
-9.87 -1.09 1.87
-9.88 -1.29 1.87
-9.88 -1.50 1.87
-9.88 -1.70 1.87
-9.88 -1.90 1.87
-9.89 -2.11 1.88
-9.89 -2.32 1.88
-9.89 -2.53 1.89
-9.90 -2.74 1.89
-9.90 -2.96 1.90
-9.90 -3.18 1.91
-9.91 -3.40 1.91
-9.91 -3.63 1.92
-9.91 -3.85 1.93
-9.91 -4.09 1.94
-9.92 -4.56 1.97
-9.92 -4.81 1.98
-9.93 -5.06 2.00
-9.93 -5.31 2.01
-9.94 -5.57 2.03
-9.94 -5.84 2.05
-9.94 -6.11 2.07
-9.95 -6.39 2.09
-9.95 -6.68 2.11
-9.92 -6.95 2.13
-9.90 -7.24 2.15
-6.62 -5.05 1.46
-9.93 -7.89 2.22
-10.12 -9.45 2.39
-9.95 -9.67 2.39
-9.77 -9.89 2.39
-9.60 -10.11 2.39
-9.41 -10.32 2.39
-9.23 -10.53 2.39
-9.03 -10.74 2.39
-8.84 -10.94 2.39
-8.63 -11.14 2.39
-8.43 -11.34 2.39
-8.22 -11.53 2.39
-8.00 -11.71 2.39
-7.78 -11.89 2.39
-7.55 -12.07 2.39
-7.32 -12.24 2.39
-7.09 -12.41 2.39
-6.85 -12.57 2.39
-6.61 -12.73 2.39
-6.37 -12.88 2.39
-6.24 -13.28 2.44
-6.12 -13.73 2.50
-5.85 -13.87 2.50
-5.58 -14.01 2.50
-5.31 -14.14 2.50
-5.03 -14.26 2.50
-4.75 -14.38 2.50
-4.47 -14.49 2.50
-4.19 -14.59 2.50
-3.90 -14.69 2.50
-3.61 -14.78 2.50
-3.31 -14.87 2.50
-3.02 -14.95 2.50
-2.72 -15.02 2.50
-2.42 -15.08 2.50
-2.12 -15.14 2.50
-1.82 -15.19 2.50
-1.52 -15.24 2.50
-1.22 -15.27 2.50
-0.91 -15.30 2.50
-0.60 -15.33 2.50
-0.30 -15.34 2.50
0.01 -13.43 2.50
0.28 -13.44 2.50
0.55 -13.43 2.50
0.81 -13.42 2.50
1.08 -13.40 2.50
1.35 -13.38 2.50
1.62 -13.35 2.50
1.82 -12.84 2.41
2.06 -12.73 2.39
2.31 -12.68 2.39
2.57 -12.63 2.39
2.82 -12.57 2.39
3.07 -12.51 2.39
3.31 -12.44 2.39
3.56 -12.37 2.39
3.80 -12.29 2.39
4.05 -12.20 2.39
4.29 -12.11 2.39
4.53 -12.02 2.39
4.76 -11.92 2.39
5.00 -11.81 2.39
5.23 -11.70 2.39
5.45 -11.58 2.39
5.68 -11.46 2.39
5.94 -11.41 2.41
6.16 -11.28 2.41
