ply
format ascii 1.0
element vertex 2988
property float32 x
property float32 y
property float32 z
end_header
10.33 -1.76 2.03
10.50 -1.57 2.06
10.68 -1.38 2.09
10.81 -1.18 2.12
10.69 -0.95 2.09
10.62 -0.73 2.08
10.62 -0.52 2.08
10.63 -0.30 2.09
10.64 -0.09 2.09
10.64 0.12 2.10
10.64 0.34 2.10
10.64 0.55 2.11
3.10 0.22 0.62
3.08 0.28 0.61
3.11 0.35 0.62
10.58 1.40 2.13
10.54 1.61 2.13
10.48 1.82 2.13
10.43 2.02 2.13
10.38 2.23 2.13
10.32 2.43 2.14
10.26 2.64 2.14
10.20 2.84 2.14
10.13 3.04 2.15
10.07 3.25 2.15
10.02 3.45 2.16
9.96 3.66 2.17
9.90 3.86 2.17
9.95 4.11 2.21
10.06 4.40 2.26
10.17 4.69 2.31
10.29 5.00 2.36
10.37 5.30 2.41
10.24 5.49 2.41
10.10 5.68 2.41
9.97 5.87 2.41
9.82 6.06 2.41
9.68 6.24 2.41
9.53 6.42 2.41
4.73 3.33 1.22
4.59 3.36 1.20
4.49 3.43 1.19
4.43 3.53 1.20
4.40 3.65 1.21
4.45 3.84 1.25
8.40 7.57 2.41
8.23 7.71 2.41
8.00 7.81 2.39
7.83 7.95 2.39
7.65 8.09 2.39
7.47 8.22 2.39
7.29 8.35 2.39
7.10 8.48 2.39
6.91 8.60 2.39
6.72 8.72 2.39
6.53 8.83 2.39
6.34 8.94 2.39
6.15 9.05 2.39
5.95 9.15 2.39
5.76 9.25 2.39
5.56 9.35 2.39
5.36 9.44 2.39
5.16 9.52 2.39
2.47 4.79 1.19
2.36 4.81 1.19
4.55 9.76 2.39
4.34 9.83 2.39
4.13 9.90 2.39
3.93 9.96 2.39
3.88 10.45 2.50
3.66 10.51 2.50
3.44 10.56 2.50
3.22 10.61 2.50
3.00 10.65 2.50
2.78 10.69 2.50
2.56 10.73 2.50
2.34 10.76 2.50
2.12 10.79 2.50
1.90 10.81 2.50
1.68 10.83 2.50
1.46 10.84 2.50
1.24 10.85 2.50
1.02 10.86 2.50
0.80 10.86 2.50
0.58 10.86 2.50
0.36 10.86 2.50
0.14 10.85 2.50
-0.08 10.83 2.50
-0.29 10.82 2.50
-0.51 10.80 2.50
-0.73 10.77 2.50
-0.94 10.74 2.50
-1.16 10.71 2.50
-1.37 10.67 2.50
-1.59 10.63 2.50
-1.80 10.58 2.50
-2.01 10.54 2.50
-2.22 10.48 2.50
-2.43 10.43 2.50
-2.64 10.37 2.50
-2.84 10.30 2.50
-3.05 10.24 2.50
-3.25 10.16 2.50
-3.45 10.09 2.50
-3.65 10.01 2.50
-3.85 9.93 2.50
-4.05 9.84 2.50
-4.24 9.76 2.50
-4.44 9.66 2.50
-4.63 9.57 2.50
-4.82 9.47 2.50
-5.01 9.37 2.50
-5.19 9.26 2.50
-5.38 9.15 2.50
-5.56 9.04 2.50
-5.74 8.92 2.50
-5.92 8.80 2.50
-6.09 8.68 2.50
-6.27 8.55 2.50
-6.44 8.43 2.50
-6.61 8.29 2.50
-6.77 8.16 2.50
-6.94 8.02 2.50
-7.06 7.84 2.48
-6.96 7.42 2.39
-7.11 7.28 2.39
-7.25 7.13 2.39
-7.40 6.99 2.39
-7.54 6.84 2.39
-7.68 6.69 2.39
-7.82 6.54 2.39
-7.95 6.38 2.39
-8.08 6.22 2.39
-8.21 6.06 2.39
-8.33 5.90 2.39
-8.46 5.73 2.39
-8.58 5.56 2.39
-8.69 5.39 2.39
-8.81 5.22 2.39
-8.92 5.04 2.39
-9.02 4.87 2.39
-9.13 4.69 2.39
-9.23 4.51 2.39
-9.33 4.32 2.39
-9.42 4.14 2.39
-9.51 3.95 2.39
-9.60 3.76 2.39
-9.68 3.57 2.39
-9.77 3.38 2.39
-9.84 3.19 2.39
-9.92 2.99 2.39
-9.99 2.80 2.39
-10.05 2.60 2.39
-10.06 2.38 2.38
-9.53 2.06 2.24
-9.43 1.84 2.20
-9.47 1.65 2.20
-9.57 1.47 2.21
-9.60 1.27 2.21
-10.01 1.12 2.30
-10.01 0.92 2.29
-10.00 0.72 2.28
-9.99 0.51 2.27
-9.98 0.31 2.26
-9.31 0.10 2.11
-9.23 -0.08 2.09
-9.30 -0.27 2.10
-9.32 -0.46 2.10
-9.38 -0.65 2.12
-9.93 -0.89 2.24
-9.92 -1.09 2.24
-9.92 -1.30 2.24
-9.91 -1.50 2.24
-9.90 -1.70 2.24
-9.89 -1.90 2.24
-9.43 -2.01 2.14
-9.17 -2.15 2.09
-9.08 -2.32 2.07
-9.17 -2.54 2.10
-9.30 -2.78 2.14
-9.84 -3.16 2.27
-9.83 -3.38 2.28
-9.83 -3.60 2.29
-9.82 -3.82 2.30
-9.81 -4.05 2.31
-9.42 -4.11 2.24
-9.38 -4.32 2.24
-9.41 -4.56 2.26
-9.46 -4.83 2.29
-9.76 -5.23 2.39
-9.70 -5.45 2.39
-9.61 -5.66 2.39
-9.51 -5.86 2.39
-9.18 -5.91 2.33
-9.10 -6.12 2.34
-9.15 -6.42 2.38
-9.10 -6.66 2.39
-8.98 -6.86 2.39
-8.86 -7.06 2.39
-8.74 -7.25 2.39
-8.61 -7.44 2.39
-8.48 -7.63 2.39
-8.34 -7.81 2.39
-8.20 -8.00 2.39
-8.06 -8.18 2.39
-7.91 -8.36 2.39
-7.76 -8.54 2.39
-7.61 -8.71 2.39
-7.45 -8.88 2.39
-7.28 -9.05 2.39
-7.12 -9.21 2.39
-6.95 -9.38 2.39
-6.77 -9.53 2.39
-6.59 -9.69 2.39
-6.41 -9.84 2.39
-6.23 -9.99 2.39
-3.83 -6.43 1.52
-3.66 -6.43 1.50
-3.49 -6.42 1.48
-3.32 -6.41 1.46
-3.15 -6.41 1.44
-2.99 -6.40 1.42
-2.96 -6.68 1.46
-2.95 -7.03 1.52
-2.93 -7.40 1.59
-2.88 -7.72 1.64
-2.74 -7.81 1.64
-2.70 -8.23 1.72
-3.70 -12.07 2.50
-3.46 -12.16 2.50
-3.22 -12.26 2.50
-2.98 -12.34 2.50
-2.74 -12.42 2.50
-2.50 -12.50 2.50
-2.25 -12.57 2.50
-2.00 -12.63 2.50
-1.75 -12.69 2.50
-1.50 -12.75 2.50
-1.25 -12.80 2.50
-0.99 -12.84 2.50
-0.74 -12.88 2.50
-0.48 -12.91 2.50
-0.22 -12.94 2.50
0.04 -11.55 2.50
0.27 -11.57 2.50
0.50 -11.57 2.50
0.73 -11.58 2.50
0.97 -11.57 2.50
1.20 -11.57 2.50
1.43 -11.55 2.50
1.66 -11.54 2.50
1.90 -11.51 2.50
2.13 -11.48 2.50
2.36 -11.45 2.50
2.50 -11.04 2.41
2.70 -10.90 2.39
2.92 -10.85 2.39
3.14 -10.80 2.39
3.36 -10.75 2.39
3.58 -10.69 2.39
3.79 -10.62 2.39
4.01 -10.55 2.39
4.22 -10.47 2.39
4.43 -10.39 2.39
4.64 -10.31 2.39
4.85 -10.22 2.39
5.05 -10.13 2.39
5.26 -10.03 2.39
5.46 -9.92 2.39
5.66 -9.82 2.39
5.85 -9.70 2.39
6.05 -9.59 2.39
6.24 -9.47 2.39
6.43 -9.34 2.39
6.47 -9.02 2.34
6.46 -8.63 2.27
6.41 -8.21 2.20
6.43 -7.91 2.15
6.42 -7.58 2.10
6.37 -7.23 2.03
6.39 -6.97 2.00
6.38 -6.68 1.95
6.34 -6.37 1.90
6.33 -6.11 1.86
6.35 -5.90 1.83
6.34 -5.66 1.80
6.33 -5.43 1.76
6.29 -5.17 1.72
6.31 -4.99 1.70
6.31 -4.78 1.68
6.49 -4.72 1.70
9.23 -6.44 2.39
9.32 -6.22 2.38
9.41 -6.01 2.37
9.49 -5.80 2.36
9.56 -5.59 2.36
9.62 -5.36 2.34
9.71 -5.17 2.34
9.81 -4.97 2.34
9.89 -4.76 2.34
6.33 -2.89 1.49
6.42 -2.78 1.50
6.62 -2.71 1.53
6.88 -2.66 1.58
7.23 -2.63 1.65
7.54 -2.57 1.71
7.82 -2.49 1.77
8.34 -2.48 1.87
9.53 -2.63 2.13
9.68 -2.46 2.16
9.84 -2.29 2.19
10.00 -2.12 2.21
10.16 -1.94 2.24
10.43 -1.78 2.30
10.32 -1.55 2.27
10.22 -1.33 2.25
10.12 -1.11 2.22
10.01 -0.89 2.20
9.99 -0.69 2.19
9.98 -0.49 2.19
9.97 -0.29 2.19
9.96 -0.09 2.19
9.96 0.11 2.20
3.03 0.09 0.67
2.98 0.15 0.66
2.96 0.21 0.66
2.95 0.27 0.66
2.96 0.33 0.66
2.99 0.39 0.67
3.05 0.46 0.69
9.85 1.70 2.24
9.81 1.90 2.24
9.77 2.10 2.24
9.72 2.29 2.25
9.66 2.48 2.25
9.61 2.67 2.25
9.55 2.86 2.26
9.48 3.05 2.26
9.42 3.24 2.26
9.37 3.43 2.27
9.31 3.63 2.28
9.26 3.82 2.29
9.20 4.01 2.30
9.13 4.21 2.31
9.07 4.40 2.32
9.00 4.59 2.33
8.93 4.78 2.34
8.95 5.03 2.38
8.95 5.27 2.41
8.83 5.44 2.41
8.70 5.60 2.41
8.57 5.76 2.41
4.74 3.33 1.35
4.59 3.36 1.33
4.49 3.43 1.33
4.43 3.52 1.33
4.40 3.65 1.35
4.44 3.83 1.39
7.57 6.81 2.41
7.41 6.94 2.41
7.26 7.07 2.41
7.10 7.20 2.41
6.94 7.33 2.41
6.73 7.40 2.39
6.57 7.52 2.39
6.40 7.64 2.39
6.24 7.75 2.39
6.07 7.86 2.39
5.90 7.96 2.39
5.72 8.06 2.39
5.55 8.16 2.39
5.38 8.26 2.39
5.20 8.35 2.39
5.02 8.43 2.39
4.84 8.52 2.39
4.66 8.60 2.39
2.48 4.79 1.32
2.36 4.80 1.31
4.11 8.81 2.39
3.93 8.88 2.39
3.74 8.94 2.39
3.55 9.00 2.39
3.37 9.05 2.39
3.18 9.11 2.39
3.12 9.55 2.50
2.92 9.59 2.50
2.72 9.63 2.50
2.52 9.67 2.50
2.32 9.71 2.50
2.13 9.74 2.50
1.93 9.76 2.50
1.73 9.78 2.50
1.53 9.80 2.50
1.33 9.82 2.50
1.13 9.83 2.50
0.93 9.84 2.50
0.73 9.84 2.50
0.53 9.84 2.50
0.33 9.84 2.50
0.13 9.83 2.50
-0.07 9.82 2.50
-0.26 9.80 2.50
-0.46 9.79 2.50
-0.66 9.76 2.50
-0.85 9.74 2.50
-1.05 9.71 2.50
-1.24 9.68 2.50
-1.44 9.64 2.50
-1.63 9.60 2.50
-1.82 9.56 2.50
-2.01 9.51 2.50
-2.20 9.46 2.50
-2.39 9.41 2.50
-2.58 9.35 2.50
-2.76 9.29 2.50
-2.95 9.22 2.50
-3.13 9.16 2.50
-3.31 9.09 2.50
-3.49 9.01 2.50
-3.67 8.94 2.50
-3.85 8.85 2.50
-4.03 8.77 2.50
-4.20 8.68 2.50
-4.37 8.59 2.50
-4.55 8.50 2.50
-4.71 8.41 2.50
-4.88 8.31 2.50
-5.05 8.20 2.50
-5.21 8.10 2.50
-5.37 7.99 2.50
-5.53 7.88 2.50
-5.69 7.77 2.50
-5.84 7.65 2.50
-6.00 7.53 2.50
-6.15 7.41 2.50
-6.30 7.28 2.50
-6.44 7.15 2.50
-6.59 7.02 2.50
-6.60 6.75 2.45
-6.59 6.48 2.39
-6.72 6.34 2.39
-6.85 6.21 2.39
-6.97 6.07 2.39
-7.10 5.93 2.39
-7.22 5.79 2.39
-7.34 5.64 2.39
-7.45 5.50 2.39
-7.56 5.35 2.39
-7.68 5.20 2.39
-7.78 5.05 2.39
-7.89 4.89 2.39
-7.99 4.73 2.39
-8.09 4.57 2.39
-8.19 4.41 2.39
-8.28 4.25 2.39
-8.37 4.09 2.39
-8.46 3.92 2.39
-8.55 3.75 2.39
-8.63 3.58 2.39
-8.71 3.41 2.39
-8.78 3.24 2.39
-8.85 3.06 2.39
-8.92 2.89 2.39
-8.99 2.71 2.39
-9.05 2.53 2.39
-9.11 2.35 2.39
-9.17 2.17 2.39
-9.22 1.99 2.39
-9.27 1.80 2.39
-9.32 1.62 2.39
-9.36 1.43 2.39
-9.40 1.24 2.39
-9.44 1.05 2.39
-9.47 0.87 2.39
-9.50 0.68 2.39
-9.52 0.49 2.39
-9.55 0.29 2.39
-9.34 0.10 2.34
-9.25 -0.09 2.31
-9.29 -0.28 2.32
-9.32 -0.46 2.32
-9.40 -0.66 2.34
-9.60 -0.87 2.39
-9.60 -1.06 2.39
-9.59 -1.26 2.39
-9.58 -1.45 2.39
-9.57 -1.65 2.39
-9.55 -1.84 2.39
-9.52 -2.04 2.39
-9.16 -2.15 2.31
-9.13 -2.34 2.31
-9.22 -2.56 2.34
-9.32 -2.80 2.37
-9.36 -3.01 2.39
-9.31 -3.21 2.39
-9.26 -3.40 2.39
-9.21 -3.59 2.39
-9.15 -3.78 2.39
-9.09 -3.97 2.39
-9.03 -4.16 2.39
-8.96 -4.35 2.39
-8.89 -4.54 2.39
-8.82 -4.73 2.39
-8.74 -4.91 2.39
-8.65 -5.10 2.39
-8.57 -5.28 2.39
-8.48 -5.46 2.39
-8.38 -5.64 2.39
-8.28 -5.82 2.39
-8.18 -6.00 2.39
-8.08 -6.18 2.39
-7.97 -6.35 2.39
-7.85 -6.52 2.39
-7.74 -6.69 2.39
-7.62 -6.86 2.39
-7.49 -7.03 2.39
-7.37 -7.19 2.39
-7.24 -7.35 2.39
-7.10 -7.51 2.39
-6.96 -7.67 2.39
-6.82 -7.82 2.39
-6.68 -7.97 2.39
-6.53 -8.12 2.39
-6.38 -8.27 2.39
-6.23 -8.41 2.39
-6.07 -8.55 2.39
-5.91 -8.69 2.39
-4.00 -6.15 1.67
-3.82 -6.14 1.64
-3.65 -6.13 1.61
-3.48 -6.12 1.59
-3.35 -6.19 1.59
-3.24 -6.28 1.59
-3.13 -6.37 1.59
-2.99 -6.40 1.58
-2.90 -6.54 1.60
-2.78 -6.64 1.61
-2.76 -6.99 1.68
-2.75 -7.37 1.75
-2.72 -7.78 1.83
-2.70 -8.24 1.92
-3.30 -10.79 2.50
-3.09 -10.87 2.50
-2.87 -10.95 2.50
-2.66 -11.02 2.50
-2.44 -11.09 2.50
-2.22 -11.16 2.50
-2.00 -11.22 2.50
-1.78 -11.28 2.50
-1.56 -11.33 2.50
-1.33 -11.37 2.50
-1.11 -11.42 2.50
-0.88 -11.45 2.50
-0.65 -11.49 2.50
-0.42 -11.51 2.50
-0.19 -11.54 2.50
0.04 -10.41 2.50
0.25 -10.42 2.50
0.45 -10.43 2.50
0.66 -10.43 2.50
0.87 -10.42 2.50
1.08 -10.42 2.50
1.29 -10.40 2.50
1.50 -10.39 2.50
1.71 -10.37 2.50
1.92 -10.34 2.50
2.13 -10.31 2.50
2.33 -10.27 2.50
2.46 -9.90 2.42
2.64 -9.79 2.40
2.83 -9.72 2.39
3.03 -9.67 2.39
3.22 -9.61 2.39
3.41 -9.55 2.39
3.61 -9.49 2.39
3.80 -9.42 2.39
3.99 -9.35 2.39
4.17 -9.27 2.39
4.36 -9.19 2.39
4.55 -9.11 2.39
4.73 -9.02 2.39
4.91 -8.92 2.39
5.09 -8.83 2.39
5.26 -8.73 2.39
5.44 -8.62 2.39
5.61 -8.51 2.39
5.78 -8.40 2.39
5.95 -8.28 2.39
6.11 -8.16 2.39
6.27 -8.04 2.39
6.43 -7.91 2.39
6.42 -7.58 2.33
6.37 -7.23 2.26
6.39 -6.97 2.22
6.38 -6.68 2.17
6.34 -6.37 2.11
6.33 -6.11 2.07
6.35 -5.90 2.04
6.34 -5.66 2.00
6.33 -5.43 1.96
6.29 -5.17 1.92
6.31 -4.99 1.89
6.31 -4.78 1.86
6.49 -4.72 1.89
8.38 -5.84 2.41
8.49 -5.67 2.41
8.60 -5.50 2.41
8.70 -5.32 2.41
8.62 -5.04 2.36
8.71 -4.86 2.36
8.80 -4.68 2.36
8.88 -4.50 2.36
8.96 -4.32 2.36
6.33 -2.89 1.65
6.41 -2.78 1.66
6.61 -2.71 1.70
6.88 -2.66 1.76
7.22 -2.63 1.83
7.53 -2.57 1.90
7.81 -2.49 1.96
8.33 -2.48 2.08
9.73 -2.68 2.42
9.77 -2.49 2.42
9.81 -2.29 2.42
9.84 -2.09 2.42
9.86 -1.89 2.41
9.77 -1.67 2.39
9.68 -1.46 2.36
9.59 -1.25 2.34
9.50 -1.04 2.31
9.42 -0.84 2.29
9.42 -0.65 2.29
9.41 -0.47 2.29
9.41 -0.28 2.29
9.40 -0.09 2.29
3.00 0.03 0.73
2.94 0.09 0.72
2.91 0.15 0.71
2.89 0.20 0.71
2.88 0.26 0.71
2.89 0.32 0.72
2.90 0.38 0.72
2.94 0.45 0.73
3.02 0.52 0.76
9.22 1.78 2.33
9.18 1.96 2.33
9.14 2.15 2.34
9.10 2.33 2.34
9.06 2.51 2.35
9.01 2.70 2.35
8.96 2.88 2.36
8.90 3.06 2.36
8.84 3.24 2.37
8.79 3.42 2.37
8.73 3.60 2.38
8.67 3.78 2.39
8.61 3.96 2.40
8.54 4.14 2.41
8.44 4.30 2.41
8.34 4.46 2.41
8.23 4.62 2.41
8.12 4.77 2.41
8.01 4.92 2.41
7.89 5.07 2.41
7.78 5.22 2.41
4.75 3.33 1.49
4.59 3.36 1.47
4.49 3.43 1.46
4.43 3.52 1.47
4.40 3.64 1.48
4.44 3.83 1.52
6.88 6.18 2.41
6.74 6.30 2.41
6.60 6.42 2.41
6.46 6.54 2.41
6.38 6.74 2.44
6.12 6.73 2.39
5.98 6.84 2.39
5.83 6.94 2.39
5.68 7.04 2.39
5.52 7.14 2.39
5.37 7.24 2.39
5.21 7.33 2.39
5.06 7.42 2.39
4.90 7.51 2.39
4.74 7.60 2.39
4.57 7.68 2.39
4.41 7.75 2.39
4.25 7.83 2.39
2.45 4.74 1.44
2.35 4.78 1.43
3.75 8.03 2.39
3.58 8.09 2.39
3.41 8.15 2.39
3.24 8.20 2.39
3.07 8.25 2.39
2.90 8.30 2.39
2.73 8.34 2.39
2.56 8.38 2.39
2.49 8.78 2.50
2.31 8.82 2.50
2.12 8.85 2.50
1.94 8.88 2.50
1.76 8.91 2.50
1.58 8.93 2.50
1.40 8.95 2.50
1.21 8.96 2.50
1.03 8.97 2.50
0.85 8.98 2.50
0.67 8.98 2.50
0.49 8.99 2.50
0.30 8.98 2.50
0.12 8.98 2.50
-0.06 8.97 2.50
-0.24 8.96 2.50
-0.42 8.94 2.50
-0.60 8.92 2.50
-0.78 8.90 2.50
-0.96 8.87 2.50
-1.13 8.84 2.50
-1.31 8.81 2.50
-1.49 8.77 2.50
-1.66 8.73 2.50
-1.84 8.69 2.50
-2.01 8.65 2.50
-2.18 8.60 2.50
-2.35 8.55 2.50
-2.52 8.49 2.50
-2.69 8.43 2.50
-2.86 8.37 2.50
-3.03 8.31 2.50
-3.19 8.24 2.50
-3.36 8.17 2.50
-3.52 8.10 2.50
-3.68 8.02 2.50
-3.84 7.94 2.50
-4.00 7.86 2.50
-4.16 7.78 2.50
-4.31 7.69 2.50
-4.46 7.60 2.50
-4.62 7.50 2.50
-4.77 7.41 2.50
-4.91 7.31 2.50
-5.06 7.21 2.50
-5.20 7.10 2.50
-5.35 7.00 2.50
-5.49 6.89 2.50
-5.62 6.78 2.50
-5.76 6.66 2.50
-5.89 6.54 2.50
-6.03 6.42 2.50
-6.16 6.30 2.50
-6.28 6.18 2.50
-6.34 5.99 2.47
-6.32 5.73 2.42
-6.38 5.55 2.39
-6.49 5.43 2.39
-6.60 5.29 2.39
-6.71 5.16 2.39
-6.81 5.03 2.39
-6.92 4.89 2.39
-7.02 4.75 2.39
-7.12 4.61 2.39
-7.21 4.47 2.39
-7.31 4.33 2.39
-7.40 4.18 2.39
-7.49 4.03 2.39
-7.57 3.88 2.39
-7.65 3.73 2.39
-7.73 3.58 2.39
-7.81 3.43 2.39
-7.88 3.27 2.39
-7.96 3.11 2.39
-8.02 2.96 2.39
-8.09 2.80 2.39
-8.15 2.64 2.39
-8.21 2.47 2.39
-8.27 2.31 2.39
-8.32 2.14 2.39
-8.37 1.98 2.39
-8.36 1.80 2.38
-8.41 1.63 2.38
-8.45 1.46 2.38
-8.49 1.29 2.38
-8.52 1.12 2.38
-8.55 0.95 2.38
-8.64 0.79 2.39
-8.67 0.61 2.39
-8.69 0.44 2.39
-8.71 0.26 2.39
-8.72 0.09 2.39
-8.74 -0.09 2.39
-8.75 -0.26 2.39
-8.75 -0.44 2.39
-8.75 -0.62 2.39
-8.75 -0.79 2.39
-8.75 -0.97 2.39
-8.74 -1.15 2.39
-8.73 -1.33 2.39
-8.72 -1.51 2.39
-8.70 -1.68 2.39
-8.68 -1.86 2.39
-8.65 -2.04 2.39
-8.62 -2.22 2.39
-8.59 -2.39 2.39
-8.56 -2.57 2.39
-8.52 -2.75 2.39
-8.47 -2.92 2.39
-8.43 -3.10 2.39
-8.38 -3.27 2.39
-8.33 -3.45 2.39
-8.27 -3.62 2.39
-8.21 -3.79 2.39
-8.15 -3.96 2.39
-8.08 -4.13 2.39
-8.01 -4.30 2.39
-7.94 -4.47 2.39
-7.86 -4.64 2.39
-7.78 -4.80 2.39
-7.70 -4.97 2.39
-7.61 -5.13 2.39
-7.52 -5.29 2.39
-7.43 -5.45 2.39
-7.33 -5.61 2.39
-7.23 -5.77 2.39
-7.12 -5.92 2.39
-7.02 -6.08 2.39
-6.91 -6.23 2.39
-6.79 -6.38 2.39
-6.68 -6.52 2.39
-6.56 -6.67 2.39
-6.43 -6.81 2.39
-6.31 -6.95 2.39
-6.18 -7.09 2.39
-6.05 -7.23 2.39
-5.91 -7.36 2.39
-5.78 -7.49 2.39
-5.69 -7.70 2.42
-5.68 -8.01 2.47
-5.57 -8.21 2.50
-3.99 -6.14 1.84
-3.81 -6.13 1.81
-3.64 -6.12 1.78
-3.47 -6.12 1.76
-3.31 -6.11 1.73
-3.15 -6.10 1.71
-2.99 -6.09 1.69
-2.84 -6.09 1.67
-2.80 -6.33 1.71
-2.78 -6.65 1.78
-2.76 -7.00 1.86
-2.75 -7.38 1.94
-2.72 -7.79 2.03
-2.70 -8.25 2.13
-2.97 -9.74 2.50
-2.78 -9.82 2.50
-2.59 -9.89 2.50
-2.40 -9.95 2.50
-2.20 -10.01 2.50
-2.00 -10.07 2.50
-1.80 -10.12 2.50
-1.60 -10.17 2.50
-1.40 -10.22 2.50
-1.20 -10.26 2.50
-0.99 -10.30 2.50
-0.79 -10.33 2.50
-0.58 -10.36 2.50
-0.38 -10.38 2.50
-0.17 -10.40 2.50
0.04 -9.47 2.50
0.23 -9.47 2.50
0.42 -9.48 2.50
0.61 -9.48 2.50
0.80 -9.47 2.50
0.99 -9.47 2.50
1.18 -9.45 2.50
1.37 -9.44 2.50
1.56 -9.42 2.50
1.74 -9.39 2.50
1.93 -9.36 2.50
2.12 -9.33 2.50
2.31 -9.29 2.50
2.42 -8.97 2.42
2.57 -8.83 2.39
2.75 -8.78 2.39
2.93 -8.73 2.39
3.10 -8.67 2.39
3.28 -8.62 2.39
3.45 -8.55 2.39
3.62 -8.49 2.39
3.79 -8.42 2.39
3.96 -8.34 2.39
4.13 -8.27 2.39
4.29 -8.19 2.39
4.46 -8.10 2.39
4.62 -8.01 2.39
4.78 -7.92 2.39
4.94 -7.83 2.39
5.09 -7.73 2.39
5.25 -7.62 2.39
5.40 -7.52 2.39
5.55 -7.41 2.39
5.69 -7.30 2.39
5.84 -7.18 2.39
5.98 -7.06 2.39
6.12 -6.94 2.39
6.26 -6.82 2.39
6.38 -6.68 2.39
6.34 -6.38 2.33
6.33 -6.12 2.28
6.35 -5.90 2.24
6.34 -5.66 2.20
6.33 -5.43 2.16
6.29 -5.18 2.11
6.31 -4.99 2.09
6.31 -4.78 2.05
6.49 -4.72 2.08
7.61 -5.31 2.41
7.71 -5.15 2.41
7.81 -4.99 2.41
7.90 -4.83 2.41
7.87 -4.60 2.37
7.95 -4.44 2.37
8.03 -4.28 2.37
8.10 -4.11 2.37
8.18 -3.94 2.37
6.33 -2.90 1.82
6.41 -2.78 1.83
6.61 -2.71 1.87
6.87 -2.66 1.93
7.22 -2.63 2.01
7.53 -2.57 2.09
7.80 -2.50 2.15
8.32 -2.48 2.28
8.82 -2.44 2.41
8.86 -2.26 2.41
8.89 -2.08 2.41
8.92 -1.90 2.41
8.95 -1.72 2.41
8.97 -1.54 2.41
8.99 -1.36 2.41
9.00 -1.17 2.41
8.95 -0.99 2.40
8.91 -0.80 2.38
8.91 -0.62 2.38
8.91 -0.44 2.38
8.90 -0.27 2.38
3.02 -0.03 0.81
2.94 0.03 0.79
2.89 0.09 0.78
2.86 0.14 0.77
2.84 0.20 0.77
2.84 0.26 0.77
2.84 0.31 0.77
2.85 0.37 0.78
2.88 0.44 0.79
2.93 0.50 0.81
8.69 1.67 2.41
8.65 1.85 2.41
8.60 2.02 2.41
8.54 2.18 2.41
8.48 2.35 2.41
8.42 2.52 2.41
8.35 2.68 2.41
8.28 2.84 2.41
8.21 3.00 2.41
8.14 3.16 2.41
8.06 3.32 2.41
7.98 3.47 2.41
7.89 3.62 2.41
7.80 3.77 2.41
7.71 3.92 2.41
7.62 4.07 2.41
7.52 4.21 2.41
7.42 4.36 2.41
7.32 4.50 2.41
7.22 4.63 2.41
7.11 4.77 2.41
4.75 3.33 1.63
4.60 3.36 1.61
4.50 3.43 1.60
4.43 3.52 1.60
4.40 3.64 1.62
4.43 3.82 1.66
6.40 5.75 2.45
6.35 5.94 2.48
6.30 6.13 2.51
5.87 5.95 2.39
5.74 6.05 2.39
5.61 6.16 2.39
5.48 6.26 2.39
5.34 6.36 2.39
5.20 6.45 2.39
5.06 6.54 2.39
4.92 6.63 2.39
4.78 6.72 2.39
4.64 6.80 2.39
4.49 6.88 2.39
4.35 6.96 2.39
4.20 7.04 2.39
4.05 7.11 2.39
3.90 7.18 2.39
2.46 4.74 1.57
2.35 4.77 1.56
3.44 7.36 2.39
3.29 7.42 2.39
3.13 7.47 2.39
2.98 7.53 2.39
2.82 7.57 2.39
2.67 7.62 2.39
2.51 7.66 2.39
2.35 7.70 2.39
2.29 8.07 2.50
2.12 8.10 2.50
1.95 8.13 2.50
1.79 8.16 2.50
1.62 8.18 2.50
1.45 8.20 2.50
1.29 8.22 2.50
1.12 8.23 2.50
0.95 8.24 2.50
0.78 8.25 2.50
0.62 8.26 2.50
0.45 8.26 2.50
0.28 8.26 2.50
0.12 8.25 2.50
-0.05 8.24 2.50
-0.22 8.23 2.50
-0.38 8.22 2.50
-0.55 8.20 2.50
-0.71 8.18 2.50
-0.88 8.16 2.50
-1.04 8.13 2.50
-1.20 8.10 2.50
-1.37 8.07 2.50
-1.53 8.04 2.50
-1.69 8.00 2.50
-1.85 7.96 2.50
-2.01 7.91 2.50
-2.16 7.86 2.50
-2.32 7.81 2.50
-2.48 7.76 2.50
-2.63 7.71 2.50
-2.79 7.65 2.50
-2.94 7.58 2.50
-3.09 7.52 2.50
-3.24 7.45 2.50
-3.39 7.38 2.50
-3.53 7.31 2.50
-3.68 7.24 2.50
-3.82 7.16 2.50
-3.97 7.08 2.50
-4.11 6.99 2.50
-4.25 6.91 2.50
-4.39 6.82 2.50
-4.52 6.73 2.50
-4.66 6.63 2.50
-4.79 6.54 2.50
-4.92 6.44 2.50
-5.05 6.34 2.50
-5.18 6.24 2.50
-5.30 6.13 2.50
-5.43 6.02 2.50
-5.55 5.91 2.50
-5.67 5.80 2.50
-5.78 5.69 2.50
-5.90 5.57 2.50
-6.01 5.45 2.50
-6.12 5.33 2.50
-6.23 5.20 2.49
-6.21 4.98 2.45
-6.22 4.78 2.41
-6.27 4.63 2.39
-6.37 4.50 2.39
-6.46 4.37 2.39
-6.55 4.24 2.39
-6.64 4.11 2.39
-6.72 3.98 2.39
-6.81 3.85 2.39
-6.89 3.71 2.39
-6.97 3.57 2.39
-7.04 3.43 2.39
-7.11 3.29 2.39
-7.19 3.15 2.39
-7.25 3.01 2.39
-7.32 2.86 2.39
-7.38 2.72 2.39
-7.44 2.57 2.39
-7.50 2.42 2.39
-7.55 2.27 2.39
-7.60 2.12 2.39
-7.65 1.97 2.39
-7.70 1.82 2.39
-7.74 1.66 2.39
-7.78 1.51 2.39
-7.82 1.35 2.39
-7.85 1.19 2.39
-7.89 1.04 2.39
-7.91 0.88 2.39
-7.94 0.72 2.39
-7.96 0.56 2.39
-7.98 0.40 2.39
-8.00 0.24 2.39
-8.01 0.08 2.39
-8.02 -0.08 2.39
-8.03 -0.25 2.39
-8.04 -0.41 2.39
-8.04 -0.57 2.39
-8.03 -0.73 2.39
-8.03 -0.90 2.39
-8.02 -1.06 2.39
-8.01 -1.22 2.39
-8.00 -1.39 2.39
-7.98 -1.55 2.39
-7.96 -1.71 2.39
-7.93 -1.87 2.39
-7.91 -2.04 2.39
-7.88 -2.20 2.39
-7.84 -2.36 2.39
-7.81 -2.52 2.39
-7.77 -2.68 2.39
-7.72 -2.84 2.39
-7.68 -3.00 2.39
-7.63 -3.16 2.39
-7.58 -3.32 2.39
-7.52 -3.48 2.39
-7.46 -3.63 2.39
-7.40 -3.79 2.39
-7.33 -3.94 2.39
-7.27 -4.10 2.39
-7.19 -4.25 2.39
-7.12 -4.40 2.39
-7.04 -4.55 2.39
-6.96 -4.70 2.39
-6.88 -4.85 2.39
-6.79 -4.99 2.39
-6.70 -5.14 2.39
-6.61 -5.28 2.39
-6.51 -5.42 2.39
-6.41 -5.56 2.39
-6.31 -5.70 2.39
-6.21 -5.83 2.39
-6.10 -5.97 2.39
-5.99 -6.10 2.39
-5.88 -6.23 2.39
-5.76 -6.36 2.39
-5.73 -6.59 2.43
-5.72 -6.85 2.48
-5.63 -7.02 2.50
-5.50 -7.14 2.50
-5.36 -7.26 2.50
-5.22 -7.38 2.50
-5.08 -7.50 2.50
-3.98 -6.13 2.01
-3.81 -6.13 1.98
-3.63 -6.12 1.95
-3.47 -6.11 1.92
-3.30 -6.10 1.90
-3.14 -6.10 1.87
-2.98 -6.09 1.85
-2.83 -6.08 1.82
-2.80 -6.34 1.88
-2.78 -6.66 1.96
-2.76 -7.01 2.04
-2.74 -7.39 2.13
-2.72 -7.80 2.23
-2.88 -8.81 2.50
-2.70 -8.88 2.50
-2.53 -8.94 2.50
-2.35 -9.00 2.50
-2.18 -9.06 2.50
-2.00 -9.12 2.50
-1.82 -9.17 2.50
-1.64 -9.22 2.50
-1.45 -9.26 2.50
-1.27 -9.30 2.50
-1.09 -9.33 2.50
-0.90 -9.37 2.50
-0.71 -9.39 2.50
-0.53 -9.42 2.50
-0.34 -9.44 2.50
-0.15 -9.45 2.50
0.04 -8.67 2.50
0.21 -8.68 2.50
0.38 -8.68 2.50
0.56 -8.68 2.50
0.73 -8.67 2.50
0.91 -8.67 2.50
1.08 -8.65 2.50
1.25 -8.64 2.50
1.43 -8.62 2.50
1.60 -8.60 2.50
1.77 -8.57 2.50
1.94 -8.54 2.50
2.12 -8.50 2.50
2.29 -8.47 2.50
2.39 -8.19 2.43
2.52 -8.03 2.39
2.68 -7.99 2.39
2.84 -7.94 2.39
3.00 -7.88 2.39
3.16 -7.82 2.39
3.31 -7.76 2.39
3.47 -7.70 2.39
3.62 -7.63 2.39
3.78 -7.56 2.39
3.93 -7.49 2.39
4.08 -7.41 2.39
4.22 -7.33 2.39
4.37 -7.24 2.39
4.52 -7.16 2.39
4.66 -7.07 2.39
4.80 -6.97 2.39
4.94 -6.88 2.39
5.07 -6.78 2.39
5.21 -6.67 2.39
5.34 -6.57 2.39
5.47 -6.46 2.39
5.60 -6.35 2.39
5.72 -6.24 2.39
5.84 -6.12 2.39
5.96 -6.00 2.39
6.08 -5.88 2.39
6.19 -5.76 2.39
6.34 -5.66 2.41
6.33 -5.43 2.36
6.29 -5.18 2.31
6.31 -4.99 2.28
6.31 -4.78 2.24
6.49 -4.72 2.28
6.96 -4.86 2.41
6.98 -4.67 2.38
7.06 -4.52 2.38
7.15 -4.37 2.38
7.22 -4.23 2.38
7.30 -4.08 2.38
5.98 -3.19 1.93
5.99 -3.04 1.91
7.51 -3.62 2.38
6.33 -2.90 1.99
6.41 -2.78 2.00
6.61 -2.71 2.04
6.87 -2.66 2.11
7.21 -2.63 2.20
7.52 -2.58 2.28
7.80 -2.50 2.35
8.04 -2.40 2.41
8.07 -2.23 2.41
8.11 -2.07 2.41
8.14 -1.91 2.41
8.17 -1.74 2.41
8.19 -1.58 2.41
8.21 -1.41 2.41
8.23 -1.24 2.41
8.24 -1.08 2.41
8.25 -0.91 2.41
8.26 -0.75 2.41
8.26 -0.58 2.41
8.26 -0.42 2.41
8.26 -0.25 2.41
2.97 -0.03 0.87
2.90 0.03 0.85
2.86 0.08 0.84
2.83 0.14 0.83
2.81 0.20 0.83
2.81 0.25 0.83
2.81 0.31 0.83
2.82 0.37 0.84
2.85 0.43 0.85
2.89 0.50 0.87
3.01 0.58 0.91
7.94 1.69 2.41
7.89 1.85 2.41
7.84 2.00 2.41
7.79 2.15 2.41
7.73 2.31 2.41
7.67 2.46 2.41
7.61 2.61 2.41
7.55 2.75 2.41
7.48 2.90 2.41
7.41 3.04 2.41
7.33 3.19 2.41
7.25 3.33 2.41
7.17 3.47 2.41
7.09 3.60 2.41
7.01 3.74 2.41
6.92 3.87 2.41
6.83 4.00 2.41
6.74 4.13 2.41
6.64 4.26 2.41
6.54 4.38 2.41
4.76 3.33 1.78
4.60 3.36 1.75
4.50 3.42 1.74
4.43 3.52 1.74
4.40 3.63 1.76
4.43 3.81 1.80
5.76 5.16 2.39
5.65 5.27 2.39
5.53 5.37 2.39
5.41 5.47 2.39
5.29 5.57 2.39
5.17 5.67 2.39
5.05 5.76 2.39
4.92 5.85 2.39
4.80 5.94 2.39
4.67 6.03 2.39
4.54 6.11 2.39
4.41 6.19 2.39
4.28 6.27 2.39
4.15 6.35 2.39
4.01 6.42 2.39
3.88 6.49 2.39
3.74 6.55 2.39
3.60 6.62 2.39
2.46 4.75 1.70
2.35 4.77 1.69
3.18 6.79 2.39
3.04 6.85 2.39
2.90 6.90 2.39
2.75 6.95 2.39
2.61 6.99 2.39
2.46 7.03 2.39
2.32 7.07 2.39
2.17 7.11 2.39
2.11 7.45 2.50
1.96 7.48 2.50
1.81 7.51 2.50
1.65 7.53 2.50
1.50 7.56 2.50
1.35 7.58 2.50
1.19 7.59 2.50
1.04 7.61 2.50
0.88 7.62 2.50
0.73 7.63 2.50
0.57 7.63 2.50
0.42 7.63 2.50
0.26 7.63 2.50
0.11 7.63 2.50
-0.04 7.62 2.50
-0.20 7.61 2.50
-0.35 7.60 2.50
-0.50 7.58 2.50
-0.66 7.57 2.50
-0.81 7.54 2.50
-0.96 7.52 2.50
-1.11 7.49 2.50
-1.26 7.46 2.50
-1.41 7.43 2.50
-1.56 7.40 2.50
-1.71 7.36 2.50
-1.85 7.32 2.50
-2.00 7.27 2.50
-2.15 7.23 2.50
-2.29 7.18 2.50
-2.43 7.13 2.50
-2.58 7.07 2.50
-2.72 7.02 2.50
-2.86 6.96 2.50
-3.00 6.90 2.50
-3.13 6.83 2.50
-3.27 6.76 2.50
-3.40 6.70 2.50
-3.54 6.62 2.50
-3.67 6.55 2.50
-3.80 6.47 2.50
-3.93 6.39 2.50
-4.06 6.31 2.50
-4.19 6.23 2.50
-4.31 6.14 2.50
-4.43 6.05 2.50
-4.55 5.96 2.50
-4.67 5.87 2.50
-4.79 5.77 2.50
-4.91 5.67 2.50
-5.02 5.57 2.50
-5.13 5.47 2.50
-5.24 5.37 2.50
-5.35 5.26 2.50
-5.46 5.15 2.50
-5.56 5.04 2.50
-5.67 4.93 2.50
-5.77 4.82 2.50
-5.86 4.70 2.50
-5.96 4.58 2.50
-6.05 4.46 2.50
-6.15 4.34 2.50
-6.17 4.18 2.47
-6.17 3.99 2.44
-6.17 3.82 2.41
-6.22 3.68 2.39
-6.30 3.56 2.39
-6.37 3.43 2.39
-6.44 3.30 2.39
-6.51 3.17 2.39
-6.58 3.04 2.39
-6.65 2.91 2.39
-6.71 2.78 2.39
-6.77 2.65 2.39
-6.83 2.51 2.39
-6.88 2.37 2.39
-6.93 2.24 2.39
-6.98 2.10 2.39
-7.03 1.96 2.39
-7.08 1.82 2.39
-7.12 1.68 2.39
-7.16 1.53 2.39
-7.19 1.39 2.39
-7.23 1.25 2.39
-7.26 1.10 2.39
-7.29 0.96 2.39
-7.31 0.81 2.39
-7.34 0.66 2.39
-7.36 0.51 2.39
-7.37 0.37 2.39
-7.39 0.22 2.39
-7.40 0.07 2.39
-7.41 -0.08 2.39
-7.42 -0.23 2.39
-7.42 -0.38 2.39
-7.42 -0.53 2.39
-7.42 -0.68 2.39
-7.41 -0.83 2.39
-7.40 -0.98 2.39
-7.39 -1.13 2.39
-7.38 -1.28 2.39
-7.36 -1.43 2.39
-7.34 -1.58 2.39
-7.32 -1.73 2.39
-7.29 -1.88 2.39
-7.26 -2.03 2.39
-7.23 -2.18 2.39
-7.20 -2.33 2.39
-7.16 -2.48 2.39
-7.12 -2.62 2.39
-7.08 -2.77 2.39
-7.03 -2.92 2.39
-6.98 -3.06 2.39
-6.93 -3.21 2.39
-6.87 -3.35 2.39
-6.82 -3.50 2.39
-6.76 -3.64 2.39
-6.69 -3.78 2.39
-6.62 -3.92 2.39
-6.56 -4.06 2.39
-6.48 -4.19 2.39
-6.41 -4.33 2.39
-6.33 -4.47 2.39
-6.25 -4.60 2.39
-6.17 -4.73 2.39
-6.08 -4.86 2.39
-5.99 -4.99 2.39
-5.90 -5.12 2.39
-5.81 -5.25 2.39
-5.78 -5.44 2.42
-5.77 -5.65 2.46
-5.74 -5.85 2.50
-5.63 -5.98 2.50
-5.52 -6.10 2.50
-5.41 -6.22 2.50
-5.29 -6.34 2.50
-5.17 -6.45 2.50
-5.05 -6.56 2.50
-4.92 -6.67 2.50
-4.80 -6.78 2.50
-4.67 -6.89 2.50
-3.97 -6.13 2.19
-3.80 -6.12 2.15
-3.63 -6.11 2.12
-3.46 -6.10 2.09
-3.29 -6.10 2.06
-3.13 -6.09 2.04
-2.98 -6.08 2.01
-2.83 -6.07 1.99
-2.80 -6.35 2.05
-2.71 -6.48 2.08
-2.61 -6.62 2.10
-2.95 -7.95 2.50
-2.79 -8.01 2.50
-2.64 -8.08 2.50
-2.48 -8.14 2.50
-2.32 -8.20 2.50
-2.16 -8.26 2.50
-1.99 -8.31 2.50
-1.83 -8.36 2.50
-1.66 -8.40 2.50
-1.50 -8.45 2.50
-1.33 -8.49 2.50
-1.16 -8.52 2.50
-0.99 -8.55 2.50
-0.82 -8.58 2.50
-0.65 -8.61 2.50
-0.48 -8.63 2.50
-0.31 -8.65 2.50
-0.14 -8.66 2.50
0.04 -7.99 2.50
0.20 -7.99 2.50
0.36 -8.00 2.50
0.52 -7.99 2.50
0.68 -7.99 2.50
0.84 -7.98 2.50
1.00 -7.97 2.50
1.16 -7.96 2.50
1.32 -7.94 2.50
1.47 -7.92 2.50
1.63 -7.89 2.50
1.79 -7.86 2.50
1.95 -7.83 2.50
2.11 -7.79 2.50
2.26 -7.76 2.50
2.36 -7.53 2.44
2.47 -7.35 2.39
2.61 -7.30 2.39
2.76 -7.25 2.39
2.91 -7.20 2.39
3.05 -7.15 2.39
3.19 -7.09 2.39
3.34 -7.02 2.39
3.48 -6.96 2.39
3.62 -6.89 2.39
3.75 -6.82 2.39
3.89 -6.74 2.39
4.02 -6.67 2.39
4.16 -6.59 2.39
4.29 -6.50 2.39
4.42 -6.42 2.39
4.54 -6.33 2.39
4.67 -6.24 2.39
4.79 -6.14 2.39
4.91 -6.05 2.39
5.03 -5.95 2.39
5.15 -5.84 2.39
5.27 -5.74 2.39
5.38 -5.63 2.39
5.49 -5.52 2.39
5.60 -5.41 2.39
5.70 -5.30 2.39
5.80 -5.18 2.39
5.90 -5.06 2.39
6.00 -4.94 2.39
6.10 -4.82 2.39
6.19 -4.70 2.39
6.32 -4.60 2.41
6.36 -4.44 2.39
6.44 -4.31 2.39
6.52 -4.17 2.39
6.60 -4.04 2.39
5.52 -3.23 1.98
5.50 -3.07 1.95
5.50 -2.93 1.93
5.50 -2.79 1.91
5.65 -2.73 1.94
5.93 -2.72 2.02
6.40 -2.78 2.17
6.60 -2.71 2.22
6.87 -2.66 2.29
7.21 -2.63 2.39
7.32 -2.51 2.41
7.36 -2.36 2.41
7.40 -2.21 2.41
7.44 -2.06 2.41
7.47 -1.91 2.41
7.50 -1.76 2.41
7.53 -1.61 2.41
7.55 -1.46 2.41
7.57 -1.30 2.41
7.58 -1.15 2.41
7.60 -1.00 2.41
7.61 -0.84 2.41
7.61 -0.69 2.41
7.62 -0.54 2.41
7.62 -0.39 2.41
7.61 -0.23 2.41
2.95 -0.03 0.93
2.88 0.03 0.91
2.84 0.08 0.90
2.81 0.14 0.89
2.80 0.19 0.89
2.79 0.25 0.89
2.79 0.31 0.90
2.80 0.36 0.90
2.83 0.43 0.92
2.87 0.49 0.93
2.99 0.57 0.98
7.33 1.56 2.41
7.29 1.70 2.41
7.24 1.84 2.41
7.20 1.99 2.41
7.14 2.13 2.41
7.09 2.27 2.41
7.03 2.40 2.41
6.97 2.54 2.41
6.91 2.67 2.41
6.85 2.81 2.41
6.78 2.94 2.41
6.71 3.07 2.41
6.63 3.20 2.41
6.56 3.33 2.41
6.53 3.48 2.43
6.50 3.63 2.45
6.46 3.78 2.46
6.43 3.94 2.48
6.39 4.09 2.51
6.35 4.25 2.53
4.76 3.33 1.92
4.60 3.35 1.89
4.50 3.42 1.88
4.43 3.51 1.88
4.40 3.63 1.90
4.42 3.80 1.95
5.34 4.78 2.39
5.23 4.88 2.39
5.12 4.97 2.39
5.01 5.07 2.39
4.90 5.16 2.39
4.79 5.25 2.39
4.68 5.34 2.39
4.56 5.42 2.39
4.45 5.50 2.39
4.33 5.58 2.39
4.21 5.66 2.39
4.09 5.74 2.39
3.97 5.81 2.39
3.85 5.88 2.39
3.72 5.95 2.39
3.60 6.01 2.39
3.47 6.07 2.39
3.34 6.13 2.39
2.46 4.75 1.84
2.35 4.77 1.83
2.95 6.30 2.39
2.82 6.35 2.39
2.69 6.40 2.39
2.56 6.44 2.39
2.42 6.48 2.39
2.29 6.52 2.39
2.16 6.56 2.39
2.02 6.59 2.39
1.97 6.91 2.50
1.82 6.94 2.50
1.68 6.97 2.50
1.54 6.99 2.50
1.40 7.01 2.50
1.25 7.03 2.50
1.11 7.05 2.50
0.97 7.06 2.50
0.82 7.07 2.50
0.68 7.08 2.50
0.54 7.09 2.50
0.39 7.09 2.50
0.25 7.09 2.50
0.10 7.08 2.50
-0.04 7.08 2.50
-0.18 7.07 2.50
-0.32 7.06 2.50
-0.47 7.04 2.50
-0.61 7.03 2.50
-0.75 7.01 2.50
-0.89 6.99 2.50
-1.03 6.96 2.50
-1.17 6.94 2.50
-1.31 6.91 2.50
-1.45 6.87 2.50
-1.58 6.84 2.50
-1.72 6.80 2.50
-1.86 6.76 2.50
-1.99 6.72 2.50
-2.13 6.67 2.50
-2.26 6.63 2.50
-2.39 6.58 2.50
-2.52 6.52 2.50
-2.65 6.47 2.50
-2.78 6.41 2.50
-2.91 6.35 2.50
-3.04 6.29 2.50
-3.16 6.22 2.50
-3.29 6.16 2.50
-3.41 6.09 2.50
-3.53 6.02 2.50
-3.65 5.94 2.50
-3.77 5.87 2.50
-3.89 5.79 2.50
-4.01 5.71 2.50
-4.12 5.63 2.50
-4.23 5.54 2.50
-4.34 5.45 2.50
-4.45 5.36 2.50
-4.56 5.27 2.50
-4.67 5.18 2.50
-4.77 5.09 2.50
-4.88 4.99 2.50
-4.98 4.89 2.50
-5.07 4.79 2.50
-5.17 4.69 2.50
-5.27 4.58 2.50
-5.36 4.48 2.50
-5.45 4.37 2.50
-5.54 4.26 2.50
-5.63 4.15 2.50
-5.71 4.03 2.50
-5.80 3.92 2.50
-5.88 3.80 2.50
-5.95 3.69 2.50
-6.03 3.57 2.50
-6.11 3.45 2.50
-6.13 3.30 2.48
-6.13 3.14 2.45
-6.13 2.98 2.42
-6.13 2.83 2.40
-6.18 2.70 2.39
-6.23 2.58 2.39
-6.31 2.46 2.40
-6.34 2.33 2.39
-6.39 2.20 2.39
-6.44 2.08 2.39
-6.49 1.95 2.39
-6.53 1.82 2.39
-6.57 1.69 2.39
-6.61 1.55 2.39
-6.65 1.42 2.39
-6.68 1.29 2.39
-6.71 1.15 2.39
-6.74 1.02 2.39
-6.77 0.88 2.39
-6.79 0.75 2.39
-6.81 0.61 2.39
-6.83 0.47 2.39
-6.85 0.34 2.39
-6.86 0.20 2.39
-6.87 0.06 2.39
-6.88 -0.08 2.39
-6.88 -0.22 2.39
-6.88 -0.36 2.39
-6.88 -0.50 2.39
-6.88 -0.63 2.39
-6.88 -0.77 2.39
-6.87 -0.91 2.39
-6.86 -1.05 2.39
-6.84 -1.19 2.39
-6.83 -1.33 2.39
-6.81 -1.47 2.39
-6.79 -1.61 2.39
-6.76 -1.75 2.39
-6.73 -1.89 2.39
-6.70 -2.03 2.39
-6.67 -2.16 2.39
-6.64 -2.30 2.39
-6.60 -2.44 2.39
-6.56 -2.57 2.39
-6.51 -2.71 2.39
-6.47 -2.84 2.39
-6.42 -2.98 2.39
-6.37 -3.11 2.39
-6.31 -3.24 2.39
-6.25 -3.37 2.39
-6.19 -3.50 2.39
-6.13 -3.63 2.39
-6.07 -3.76 2.39
-6.00 -3.89 2.39
-5.93 -4.01 2.39
-5.86 -4.14 2.39
-5.84 -4.30 2.42
-5.82 -4.47 2.44
-5.82 -4.66 2.48
-5.78 -4.82 2.50
-5.69 -4.94 2.50
-5.60 -5.06 2.50
-5.50 -5.18 2.50
-5.41 -5.30 2.50
-5.31 -5.42 2.50
-5.21 -5.53 2.50
-5.10 -5.64 2.50
-5.00 -5.75 2.50
-4.89 -5.86 2.50
-4.78 -5.97 2.50
-4.66 -6.07 2.50
-4.55 -6.17 2.50
-4.43 -6.27 2.50
-4.31 -6.37 2.50
-4.19 -6.46 2.50
-4.06 -6.55 2.50
-3.94 -6.64 2.50
-3.81 -6.73 2.50
-3.29 -6.09 2.23
-3.13 -6.08 2.20
-2.97 -6.08 2.17
-2.82 -6.07 2.15
-2.80 -6.35 2.23
-2.68 -6.42 2.23
-2.58 -6.55 2.25
-2.72 -7.33 2.50
-2.57 -7.40 2.50
-2.43 -7.46 2.50
-2.28 -7.51 2.50
-2.13 -7.57 2.50
-1.98 -7.62 2.50
-1.83 -7.67 2.50
-1.68 -7.71 2.50
-1.53 -7.75 2.50
-1.38 -7.79 2.50
-1.22 -7.82 2.50
-1.07 -7.86 2.50
-0.91 -7.89 2.50
-0.75 -7.91 2.50
-0.60 -7.93 2.50
-0.44 -7.95 2.50
-0.28 -7.97 2.50
-0.12 -7.98 2.50
0.04 -7.40 2.50
0.18 -7.40 2.50
0.33 -7.41 2.50
0.48 -7.40 2.50
0.63 -7.40 2.50
0.78 -7.39 2.50
0.92 -7.38 2.50
1.07 -7.37 2.50
1.22 -7.35 2.50
1.37 -7.33 2.50
1.51 -7.30 2.50
1.66 -7.28 2.50
1.81 -7.25 2.50
1.95 -7.21 2.50
2.10 -7.18 2.50
2.24 -7.14 2.50
2.33 -6.95 2.45
2.42 -6.76 2.39
2.56 -6.71 2.39
2.69 -6.66 2.39
2.82 -6.61 2.39
2.96 -6.56 2.39
3.09 -6.50 2.39
3.22 -6.44 2.39
3.35 -6.37 2.39
3.47 -6.31 2.39
3.60 -6.24 2.39
3.72 -6.17 2.39
3.85 -6.09 2.39
3.97 -6.02 2.39
4.09 -5.94 2.39
4.20 -5.85 2.39
4.32 -5.77 2.39
4.43 -5.68 2.39
4.55 -5.59 2.39
4.66 -5.50 2.39
4.77 -5.41 2.39
4.87 -5.31 2.39
4.98 -5.21 2.39
5.08 -5.11 2.39
5.18 -5.01 2.39
5.27 -4.90 2.39
5.37 -4.80 2.39
5.46 -4.69 2.39
5.55 -4.57 2.39
5.64 -4.46 2.39
5.73 -4.35 2.39
5.81 -4.23 2.39
5.89 -4.11 2.39
5.97 -3.99 2.39
6.04 -3.87 2.39
6.12 -3.75 2.39
5.52 -3.23 2.14
5.50 -3.08 2.11
5.50 -2.93 2.08
5.49 -2.79 2.06
5.65 -2.73 2.10
5.92 -2.72 2.18
6.40 -2.78 2.34
6.60 -2.71 2.39
6.72 -2.61 2.42
6.75 -2.47 2.41
6.78 -2.33 2.41
6.82 -2.19 2.41
6.85 -2.05 2.41
6.89 -1.91 2.41
6.92 -1.77 2.41
6.95 -1.63 2.41
6.97 -1.49 2.41
6.99 -1.35 2.41
7.01 -1.21 2.41
7.03 -1.07 2.41
7.04 -0.93 2.41
7.05 -0.79 2.41
7.05 -0.64 2.41
7.06 -0.50 2.41
7.06 -0.36 2.41
7.06 -0.22 2.41
2.95 -0.03 1.01
2.88 0.03 0.98
2.84 0.08 0.97
2.81 0.14 0.96
2.79 0.19 0.96
2.78 0.25 0.96
2.79 0.30 0.96
2.80 0.36 0.97
2.83 0.42 0.99
2.87 0.49 1.01
2.98 0.57 1.05
6.80 1.44 2.41
6.77 1.57 2.41
6.72 1.71 2.41
6.68 1.84 2.41
6.63 1.97 2.41
6.60 2.10 2.42
6.58 2.24 2.43
6.55 2.38 2.44
6.53 2.52 2.45
6.51 2.66 2.47
6.48 2.81 2.48
6.45 2.95 2.49
6.42 3.09 2.51
6.39 3.24 2.53
6.36 3.38 2.54
5.91 3.30 2.39
5.83 3.41 2.39
5.75 3.52 2.39
5.67 3.63 2.39
5.59 3.74 2.39
4.78 3.33 2.07
4.61 3.35 2.03
4.50 3.42 2.02
4.43 3.51 2.02
4.40 3.63 2.04
4.43 3.81 2.10
4.96 4.44 2.39
4.87 4.53 2.39
4.77 4.62 2.39
4.67 4.71 2.39
4.56 4.80 2.39
4.46 4.88 2.39
4.36 4.96 2.39
4.25 5.04 2.39
4.14 5.12 2.39
4.03 5.19 2.39
3.92 5.27 2.39
3.81 5.34 2.39
3.70 5.40 2.39
3.58 5.47 2.39
3.47 5.53 2.39
3.35 5.59 2.39
3.23 5.65 2.39
3.11 5.71 2.39
2.47 4.75 1.97
2.35 4.76 1.96
2.75 5.87 2.39
2.63 5.91 2.39
2.51 5.96 2.39
2.38 6.00 2.39
2.26 6.04 2.39
2.14 6.07 2.39
2.01 6.11 2.39
1.91 6.24 2.43
1.83 6.44 2.50
1.70 6.47 2.50
1.57 6.49 2.50
1.44 6.51 2.50
1.30 6.54 2.50
1.17 6.55 2.50
1.04 6.57 2.50
0.90 6.58 2.50
0.77 6.59 2.50
0.64 6.60 2.50
0.50 6.61 2.50
0.37 6.61 2.50
0.23 6.61 2.50
0.10 6.61 2.50
-0.03 6.60 2.50
-0.17 6.59 2.50
-0.30 6.58 2.50
-0.43 6.57 2.50
-0.56 6.56 2.50
-0.70 6.54 2.50
-0.83 6.52 2.50
-0.96 6.49 2.50
-1.09 6.47 2.50
-1.22 6.44 2.50
-1.35 6.41 2.50
-1.48 6.38 2.50
-1.60 6.35 2.50
-1.73 6.31 2.50
-1.86 6.27 2.50
-1.98 6.23 2.50
-2.11 6.18 2.50
-2.23 6.14 2.50
-2.35 6.09 2.50
-2.48 6.04 2.50
-2.60 5.98 2.50
-2.72 5.93 2.50
-2.83 5.87 2.50
-2.95 5.81 2.50
-3.07 5.75 2.50
-3.18 5.68 2.50
-3.30 5.61 2.50
-3.41 5.55 2.50
-3.52 5.47 2.50
-3.63 5.40 2.50
-3.74 5.33 2.50
-3.85 5.25 2.50
-3.95 5.17 2.50
-4.05 5.09 2.50
-4.16 5.01 2.50
-4.26 4.92 2.50
-4.36 4.83 2.50
-4.45 4.75 2.50
-4.55 4.66 2.50
-4.64 4.56 2.50
-4.74 4.47 2.50
-4.83 4.37 2.50
-4.92 4.28 2.50
-5.00 4.18 2.50
-5.09 4.08 2.50
-5.17 3.97 2.50
-5.25 3.87 2.50
-5.33 3.76 2.50
-5.41 3.66 2.50
-5.48 3.55 2.50
-5.56 3.44 2.50
-5.63 3.33 2.50
-5.70 3.21 2.50
-5.76 3.10 2.50
-5.83 2.98 2.50
-5.89 2.87 2.50
-5.95 2.75 2.50
-6.01 2.63 2.50
-6.07 2.51 2.50
-6.10 2.38 2.49
-6.09 2.24 2.46
-6.09 2.10 2.44
-6.09 1.96 2.42
-6.08 1.82 2.41
-6.09 1.69 2.39
-6.13 1.57 2.39
-6.16 1.45 2.39
-6.20 1.32 2.39
-6.23 1.20 2.39
-6.26 1.07 2.39
-6.28 0.95 2.39
-6.31 0.82 2.39
-6.33 0.69 2.39
-6.35 0.57 2.39
-6.37 0.44 2.39
-6.38 0.31 2.39
-6.39 0.18 2.39
-6.40 0.05 2.39
-6.41 -0.08 2.39
-6.41 -0.20 2.39
-6.41 -0.33 2.39
-6.41 -0.46 2.39
-6.41 -0.59 2.39
-6.40 -0.72 2.39
-6.40 -0.85 2.39
-6.39 -0.98 2.39
-6.37 -1.11 2.39
-6.36 -1.24 2.39
-6.34 -1.37 2.39
-6.32 -1.50 2.39
-6.29 -1.63 2.39
-6.27 -1.76 2.39
-6.24 -1.89 2.39
-6.21 -2.02 2.39
-6.18 -2.14 2.39
-6.14 -2.27 2.39
-6.12 -2.40 2.40
-6.06 -2.52 2.39
-6.02 -2.65 2.39
-5.97 -2.77 2.39
-5.92 -2.90 2.39
-5.89 -3.03 2.40
-5.88 -3.18 2.42
-5.87 -3.32 2.44
-5.86 -3.48 2.46
-5.86 -3.63 2.48
-5.82 -3.77 2.50
-5.75 -3.89 2.50
-5.68 -4.02 2.50
-5.60 -4.13 2.50
-5.53 -4.25 2.50
-5.45 -4.37 2.50
-5.37 -4.48 2.50
-5.28 -4.60 2.50
-5.20 -4.71 2.50
-5.11 -4.82 2.50
-5.02 -4.93 2.50
-4.93 -5.03 2.50
-4.83 -5.14 2.50
-4.74 -5.24 2.50
-4.64 -5.34 2.50
-4.54 -5.44 2.50
-4.43 -5.54 2.50
-4.33 -5.64 2.50
-4.22 -5.73 2.50
-4.11 -5.82 2.50
-4.00 -5.91 2.50
-3.88 -6.00 2.50
-3.77 -6.08 2.50
-3.65 -6.17 2.50
-3.53 -6.25 2.50
-3.41 -6.33 2.50
-3.29 -6.40 2.50
-3.16 -6.47 2.50
-3.04 -6.55 2.50
-2.85 -6.48 2.44
-2.71 -6.50 2.43
-2.65 -6.74 2.50
-2.52 -6.80 2.50
-2.38 -6.86 2.50
-2.25 -6.91 2.50
-2.11 -6.97 2.50
-1.98 -7.02 2.50
-1.84 -7.06 2.50
-1.70 -7.11 2.50
-1.56 -7.15 2.50
-1.42 -7.18 2.50
-1.27 -7.22 2.50
-1.13 -7.25 2.50
-0.99 -7.28 2.50
-0.84 -7.31 2.50
-0.70 -7.33 2.50
-0.55 -7.35 2.50
-0.40 -7.37 2.50
-0.26 -7.38 2.50
-0.11 -7.39 2.50
0.04 -6.88 2.50
0.17 -6.89 2.50
0.31 -6.89 2.50
0.45 -6.89 2.50
0.59 -6.88 2.50
0.72 -6.87 2.50
0.86 -6.86 2.50
1.00 -6.85 2.50
1.14 -6.83 2.50
1.27 -6.81 2.50
1.41 -6.79 2.50
1.55 -6.77 2.50
1.68 -6.74 2.50
1.82 -6.71 2.50
1.95 -6.67 2.50
2.08 -6.64 2.50
2.22 -6.60 2.50
2.32 -6.46 2.46
2.38 -6.24 2.39
2.50 -6.19 2.39
2.63 -6.15 2.39
2.75 -6.09 2.39
2.87 -6.04 2.39
2.99 -5.98 2.39
3.11 -5.93 2.39
3.23 -5.86 2.39
3.35 -5.80 2.39
3.46 -5.73 2.39
3.57 -5.66 2.39
3.69 -5.59 2.39
3.80 -5.52 2.39
3.91 -5.44 2.39
4.02 -5.36 2.39
4.12 -5.28 2.39
4.23 -5.20 2.39
4.33 -5.11 2.39
4.43 -5.03 2.39
4.53 -4.94 2.39
4.62 -4.84 2.39
4.72 -4.75 2.39
4.81 -4.66 2.39
4.90 -4.56 2.39
4.99 -4.46 2.39
5.08 -4.36 2.39
5.16 -4.25 2.39
5.24 -4.15 2.39
5.32 -4.04 2.39
5.40 -3.93 2.39
5.48 -3.82 2.39
5.55 -3.71 2.39
5.62 -3.60 2.39
5.69 -3.49 2.39
5.75 -3.37 2.39
5.52 -3.09 2.27
5.50 -2.93 2.24
5.49 -2.79 2.21
5.67 -2.74 2.27
6.04 -2.77 2.39
6.09 -2.65 2.39
6.14 -2.53 2.39
6.37 -2.47 2.47
6.40 -2.34 2.46
6.43 -2.21 2.46
6.46 -2.07 2.45
6.48 -1.94 2.45
6.50 -1.81 2.44
6.52 -1.67 2.44
6.54 -1.54 2.44
6.56 -1.40 2.44
6.57 -1.27 2.43
6.58 -1.14 2.43
6.59 -1.00 2.43
6.60 -0.87 2.43
6.60 -0.74 2.43
6.61 -0.61 2.42
6.61 -0.47 2.42
6.61 -0.34 2.42
6.60 -0.21 2.42
2.96 -0.03 1.08
2.88 0.02 1.06
2.84 0.08 1.04
2.81 0.14 1.04
2.79 0.19 1.03
2.78 0.25 1.03
2.79 0.30 1.04
2.80 0.36 1.04
2.82 0.42 1.06
2.87 0.49 1.08
2.97 0.57 1.12
3.46 0.73 1.31
6.52 1.51 2.49
6.50 1.65 2.50
6.48 1.78 2.51
6.46 1.91 2.52
6.44 2.05 2.53
6.42 2.18 2.54
6.39 2.32 2.55
5.94 2.29 2.39
5.89 2.41 2.39
5.83 2.52 2.39
5.77 2.63 2.39
5.71 2.75 2.39
5.65 2.86 2.39
5.58 2.96 2.39
5.51 3.07 2.39
5.44 3.18 2.39
5.37 3.28 2.39
5.30 3.38 2.39
5.22 3.48 2.39
5.14 3.58 2.39
4.65 3.38 2.20
4.53 3.44 2.18
4.46 3.53 2.18
4.45 3.66 2.21
4.72 4.05 2.39
4.64 4.14 2.39
4.55 4.23 2.39
4.45 4.31 2.39
4.36 4.39 2.39
4.26 4.47 2.39
4.17 4.55 2.39
4.07 4.63 2.39
3.97 4.70 2.39
3.87 4.78 2.39
3.77 4.85 2.39
3.67 4.92 2.39
3.56 4.98 2.39
3.46 5.05 2.39
3.35 5.11 2.39
3.24 5.17 2.39
3.13 5.23 2.39
3.02 5.28 2.39
2.91 5.33 2.39
2.47 4.76 2.11
2.36 4.76 2.10
2.58 5.48 2.39
2.46 5.52 2.39
2.35 5.57 2.39
2.23 5.61 2.39
2.12 5.64 2.39
2.00 5.68 2.39
1.88 5.71 2.39
1.84 5.99 2.50
1.72 6.02 2.50
1.59 6.05 2.50
1.47 6.07 2.50
1.35 6.09 2.50
1.22 6.11 2.50
1.10 6.13 2.50
0.97 6.14 2.50
0.85 6.16 2.50
0.72 6.17 2.50
0.60 6.17 2.50
0.47 6.18 2.50
0.35 6.18 2.50
0.22 6.18 2.50
0.10 6.18 2.50
-0.03 6.18 2.50
-0.15 6.17 2.50
-0.28 6.16 2.50
-0.40 6.15 2.50
-0.53 6.14 2.50
-0.65 6.12 2.50
-0.77 6.10 2.50
-0.90 6.08 2.50
-1.02 6.06 2.50
-1.14 6.03 2.50
-1.26 6.00 2.50
-1.38 5.97 2.50
-1.50 5.94 2.50
-1.62 5.91 2.50
-1.74 5.87 2.50
-1.86 5.83 2.50
-1.97 5.79 2.50
-2.09 5.74 2.50
-2.20 5.70 2.50
-2.32 5.65 2.50
-2.43 5.60 2.50
-2.54 5.55 2.50
-2.65 5.49 2.50
-2.76 5.44 2.50
-2.87 5.38 2.50
-2.98 5.32 2.50
-3.09 5.26 2.50
-3.19 5.19 2.50
-3.30 5.13 2.50
-3.40 5.06 2.50
-3.50 4.99 2.50
-3.60 4.92 2.50
-3.70 4.84 2.50
-3.80 4.77 2.50
-3.89 4.69 2.50
-3.99 4.61 2.50
-4.08 4.53 2.50
-4.17 4.44 2.50
-4.26 4.36 2.50
-4.35 4.27 2.50
-4.44 4.18 2.50
-4.52 4.09 2.50
-4.60 4.00 2.50
-4.68 3.91 2.50
-4.76 3.82 2.50
-4.84 3.72 2.50
-4.92 3.62 2.50
-4.99 3.52 2.50
-5.06 3.42 2.50
-5.13 3.32 2.50
-5.20 3.22 2.50
-5.27 3.11 2.50
-5.33 3.01 2.50
-5.40 2.90 2.50
-5.46 2.79 2.50
-5.52 2.68 2.50
-5.57 2.57 2.50
-5.63 2.46 2.50
-5.68 2.35 2.50
-5.73 2.23 2.50
-5.78 2.12 2.50
-5.82 2.00 2.50
-5.87 1.89 2.50
-5.91 1.77 2.50
-5.95 1.65 2.50
-5.98 1.53 2.50
-6.02 1.41 2.50
-6.05 1.29 2.50
-6.05 1.16 2.48
-6.04 1.03 2.47
-6.04 0.91 2.46
-6.03 0.78 2.45
-6.03 0.66 2.44
-6.03 0.54 2.43
-6.02 0.41 2.42
-6.02 0.29 2.41
-6.02 0.17 2.41
-6.01 0.05 2.40
-6.01 -0.07 2.40
-6.01 -0.19 2.40
-6.00 -0.32 2.39
-6.00 -0.44 2.39
-5.99 -0.56 2.39
-5.99 -0.68 2.39
-5.98 -0.80 2.39
-5.98 -0.92 2.40
-5.97 -1.05 2.40
-5.97 -1.17 2.40
-5.96 -1.29 2.41
-5.95 -1.42 2.41
-5.95 -1.54 2.42
-5.94 -1.67 2.43
-5.93 -1.80 2.44
-5.93 -1.93 2.44
-5.92 -2.06 2.46
-5.91 -2.19 2.47
-5.91 -2.33 2.48
-5.90 -2.46 2.50
-5.86 -2.58 2.50
-5.81 -2.70 2.50
-5.77 -2.82 2.50
-5.72 -2.94 2.50
-5.66 -3.06 2.50
-5.61 -3.18 2.50
-5.55 -3.30 2.50
-5.49 -3.41 2.50
-5.43 -3.53 2.50
-5.36 -3.64 2.50
-5.30 -3.75 2.50
-5.23 -3.86 2.50
-5.16 -3.97 2.50
-5.08 -4.08 2.50
-5.01 -4.19 2.50
-4.93 -4.29 2.50
-4.85 -4.40 2.50
-4.77 -4.50 2.50
-4.68 -4.60 2.50
-4.59 -4.70 2.50
-4.51 -4.80 2.50
-4.41 -4.89 2.50
-4.32 -4.99 2.50
-4.23 -5.08 2.50
-4.13 -5.17 2.50
-4.03 -5.26 2.50
-3.93 -5.35 2.50
-3.83 -5.43 2.50
-3.72 -5.51 2.50
-3.62 -5.59 2.50
-3.51 -5.67 2.50
-3.40 -5.75 2.50
-3.29 -5.82 2.50
-3.17 -5.90 2.50
-3.06 -5.97 2.50
-2.94 -6.03 2.50
-2.83 -6.10 2.50
-2.71 -6.16 2.50
-2.59 -6.22 2.50
-2.46 -6.28 2.50
-2.34 -6.34 2.50
-2.22 -6.39 2.50
-2.09 -6.44 2.50
-1.96 -6.49 2.50
-1.84 -6.53 2.50
-1.71 -6.58 2.50
-1.58 -6.62 2.50
-1.45 -6.65 2.50
-1.31 -6.69 2.50
-1.18 -6.72 2.50
-1.05 -6.75 2.50
-0.92 -6.78 2.50
-0.78 -6.80 2.50
-0.65 -6.82 2.50
-0.51 -6.84 2.50
-0.37 -6.85 2.50
-0.24 -6.87 2.50
-0.10 -6.88 2.50
0.04 -6.43 2.50
0.17 -6.43 2.50
0.29 -6.43 2.50
0.42 -6.43 2.50
0.55 -6.42 2.50
0.68 -6.42 2.50
0.81 -6.41 2.50
0.93 -6.39 2.50
1.06 -6.38 2.50
1.19 -6.36 2.50
1.32 -6.34 2.50
1.44 -6.32 2.50
1.57 -6.29 2.50
1.70 -6.26 2.50
1.82 -6.23 2.50
1.95 -6.19 2.50
2.07 -6.16 2.50
2.19 -6.12 2.50
2.30 -6.03 2.48
2.34 -5.78 2.39
2.45 -5.74 2.39
2.57 -5.69 2.39
2.68 -5.64 2.39
2.79 -5.58 2.39
2.90 -5.53 2.39
3.01 -5.47 2.39
3.12 -5.41 2.39
3.23 -5.35 2.39
3.34 -5.28 2.39
3.44 -5.22 2.39
3.54 -5.15 2.39
3.65 -5.08 2.39
3.75 -5.00 2.39
3.85 -4.93 2.39
3.94 -4.85 2.39
4.04 -4.77 2.39
4.13 -4.69 2.39
4.22 -4.61 2.39
4.31 -4.52 2.39
4.40 -4.43 2.39
4.49 -4.34 2.39
4.57 -4.25 2.39
4.66 -4.16 2.39
4.74 -4.07 2.39
4.82 -3.97 2.39
4.89 -3.87 2.39
4.97 -3.77 2.39
5.04 -3.67 2.39
5.11 -3.57 2.39
5.18 -3.47 2.39
5.24 -3.36 2.39
5.31 -3.25 2.39
5.37 -3.15 2.39
5.43 -3.04 2.39
5.48 -2.93 2.39
5.54 -2.82 2.39
5.59 -2.70 2.39
5.64 -2.59 2.39
5.68 -2.48 2.39
5.73 -2.36 2.39
5.77 -2.24 2.39
5.81 -2.13 2.39
5.85 -2.01 2.39
5.88 -1.89 2.39
5.91 -1.77 2.39
5.94 -1.65 2.39
5.97 -1.53 2.39
5.99 -1.41 2.39
6.02 -1.29 2.39
6.03 -1.17 2.39
6.05 -1.05 2.39
6.07 -0.93 2.39
6.08 -0.81 2.39
6.09 -0.68 2.39
6.09 -0.56 2.39
6.28 -0.45 2.47
6.28 -0.33 2.47
6.28 -0.20 2.47
2.96 -0.04 1.16
2.88 0.02 1.13
2.84 0.08 1.12
2.81 0.13 1.11
2.79 0.19 1.10
2.78 0.24 1.10
2.79 0.30 1.11
2.80 0.36 1.12
2.82 0.42 1.13
2.87 0.49 1.15
2.97 0.56 1.20
5.89 1.24 2.39
5.86 1.36 2.39
5.82 1.47 2.39
5.78 1.59 2.39
5.74 1.70 2.39
5.70 1.81 2.39
5.66 1.92 2.39
5.61 2.03 2.39
5.56 2.14 2.39
5.51 2.25 2.39
5.46 2.36 2.39
5.40 2.46 2.39
5.34 2.57 2.39
5.28 2.67 2.39
5.22 2.77 2.39
5.16 2.87 2.39
5.09 2.97 2.39
5.03 3.07 2.39
4.96 3.16 2.39
4.89 3.26 2.39
4.82 3.35 2.39
4.74 3.44 2.39
4.60 3.48 2.36
4.59 3.62 2.39
4.51 3.71 2.39
4.43 3.79 2.39
4.34 3.88 2.39
4.26 3.96 2.39
4.17 4.04 2.39
4.09 4.11 2.39
4.00 4.19 2.39
3.91 4.26 2.39
3.82 4.34 2.39
3.72 4.41 2.39
3.63 4.47 2.39
3.53 4.54 2.39
3.44 4.61 2.39
3.34 4.67 2.39
3.24 4.73 2.39
3.14 4.79 2.39
3.04 4.84 2.39
2.94 4.90 2.39
2.84 4.95 2.39
2.73 5.00 2.39
2.48 4.76 2.26
2.36 4.76 2.23
2.42 5.14 2.39
2.31 5.18 2.39
2.20 5.22 2.39
2.10 5.26 2.39
1.99 5.29 2.39
1.89 5.35 2.40
1.84 5.59 2.50
1.73 5.62 2.50
1.61 5.65 2.50
1.50 5.67 2.50
1.38 5.69 2.50
1.27 5.72 2.50
1.15 5.73 2.50
1.03 5.75 2.50
0.92 5.76 2.50
0.80 5.78 2.50
0.68 5.79 2.50
0.56 5.79 2.50
0.44 5.80 2.50
0.33 5.80 2.50
0.21 5.80 2.50
0.09 5.80 2.50
-0.02 5.80 2.50
-0.14 5.79 2.50
-0.26 5.78 2.50
-0.38 5.77 2.50
-0.49 5.76 2.50
-0.61 5.74 2.50
-0.72 5.73 2.50
-0.84 5.71 2.50
-0.95 5.69 2.50
-1.07 5.66 2.50
-1.18 5.64 2.50
-1.29 5.61 2.50
-1.41 5.58 2.50
-1.52 5.55 2.50
-1.63 5.51 2.50
-1.74 5.47 2.50
-1.85 5.44 2.50
-1.96 5.39 2.50
-2.07 5.35 2.50
-2.18 5.31 2.50
-2.28 5.26 2.50
-2.39 5.21 2.50
-2.49 5.16 2.50
-2.59 5.11 2.50
-2.70 5.05 2.50
-2.80 5.00 2.50
-2.90 4.94 2.50
-3.00 4.88 2.50
-3.10 4.81 2.50
-3.19 4.75 2.50
-3.29 4.68 2.50
-3.38 4.62 2.50
-3.47 4.55 2.50
-3.57 4.48 2.50
-3.66 4.40 2.50
-3.74 4.33 2.50
-3.83 4.25 2.50
-3.92 4.17 2.50
-4.00 4.09 2.50
-4.08 4.01 2.50
-4.17 3.93 2.50
-4.24 3.84 2.50
-4.32 3.76 2.50
-4.40 3.67 2.50
-4.47 3.58 2.50
-4.55 3.49 2.50
-4.62 3.40 2.50
-4.69 3.31 2.50
-4.76 3.21 2.50
-4.82 3.12 2.50
-4.89 3.02 2.50
-4.95 2.92 2.50
-5.01 2.82 2.50
-5.07 2.72 2.50
-5.12 2.62 2.50
-5.18 2.52 2.50
-5.23 2.41 2.50
-5.28 2.31 2.50
-5.33 2.20 2.50
-5.38 2.09 2.50
-5.42 1.99 2.50
-5.47 1.88 2.50
-5.51 1.77 2.50
-5.55 1.66 2.50
-5.58 1.55 2.50
-5.62 1.43 2.50
-5.65 1.32 2.50
-5.68 1.21 2.50
-5.71 1.09 2.50
-5.73 0.98 2.50
-5.76 0.86 2.50
-5.78 0.75 2.50
-5.80 0.63 2.50
-5.81 0.51 2.50
-5.83 0.40 2.50
-5.84 0.28 2.50
-5.85 0.16 2.50
-5.86 0.04 2.50
-5.86 -0.07 2.50
-5.87 -0.19 2.50
-5.87 -0.31 2.50
-5.87 -0.43 2.50
-5.86 -0.55 2.50
-5.86 -0.67 2.50
-5.85 -0.79 2.50
-5.84 -0.91 2.50
-5.83 -1.02 2.50
-5.81 -1.14 2.50
-5.79 -1.26 2.50
-5.77 -1.38 2.50
-5.75 -1.50 2.50
-5.73 -1.61 2.50
-5.70 -1.73 2.50
-5.67 -1.85 2.50
-5.64 -1.96 2.50
-5.61 -2.08 2.50
-5.57 -2.20 2.50
-5.53 -2.31 2.50
-5.49 -2.42 2.50
-5.45 -2.54 2.50
-5.40 -2.65 2.50
-5.35 -2.76 2.50
-5.30 -2.87 2.50
-5.25 -2.98 2.50
-5.20 -3.09 2.50
-5.14 -3.20 2.50
-5.08 -3.31 2.50
-5.02 -3.41 2.50
-4.96 -3.52 2.50
-4.89 -3.62 2.50
-4.83 -3.72 2.50
-4.76 -3.82 2.50
-4.69 -3.92 2.50
-4.61 -4.02 2.50
-4.54 -4.12 2.50
-4.46 -4.21 2.50
-4.38 -4.31 2.50
-4.30 -4.40 2.50
-4.21 -4.49 2.50
-4.13 -4.58 2.50
-4.04 -4.67 2.50
-3.95 -4.76 2.50
-3.86 -4.84 2.50
-3.77 -4.92 2.50
-3.67 -5.00 2.50
-3.58 -5.08 2.50
-3.48 -5.16 2.50
-3.38 -5.23 2.50
-3.28 -5.31 2.50
-3.17 -5.38 2.50
-3.07 -5.45 2.50
-2.96 -5.51 2.50
-2.86 -5.58 2.50
-2.75 -5.64 2.50
-2.64 -5.70 2.50
-2.53 -5.76 2.50
-2.41 -5.82 2.50
-2.30 -5.87 2.50
-2.18 -5.92 2.50
-2.07 -5.97 2.50
-1.95 -6.02 2.50
-1.83 -6.06 2.50
-1.71 -6.11 2.50
-1.59 -6.15 2.50
-1.47 -6.18 2.50
-1.35 -6.22 2.50
-1.23 -6.25 2.50
-1.10 -6.28 2.50
-0.98 -6.31 2.50
-0.85 -6.33 2.50
-0.73 -6.35 2.50
-0.60 -6.37 2.50
-0.47 -6.39 2.50
-0.35 -6.40 2.50
-0.22 -6.41 2.50
-0.09 -6.42 2.50
0.04 -6.02 2.50
0.16 -6.03 2.50
0.28 -6.03 2.50
0.40 -6.02 2.50
0.52 -6.02 2.50
0.64 -6.01 2.50
0.76 -6.00 2.50
0.88 -5.99 2.50
1.00 -5.97 2.50
1.12 -5.96 2.50
1.24 -5.94 2.50
1.35 -5.91 2.50
1.47 -5.89 2.50
1.59 -5.86 2.50
1.71 -5.83 2.50
1.82 -5.80 2.50
1.94 -5.77 2.50
2.05 -5.73 2.50
2.17 -5.69 2.50
2.28 -5.65 2.50
2.30 -5.37 2.39
2.40 -5.33 2.39
2.51 -5.28 2.39
2.61 -5.23 2.39
2.72 -5.18 2.39
2.82 -5.12 2.39
2.92 -5.07 2.39
3.02 -5.01 2.39
3.12 -4.95 2.39
3.22 -4.89 2.39
3.32 -4.82 2.39
3.41 -4.75 2.39
3.51 -4.69 2.39
3.60 -4.61 2.39
3.69 -4.54 2.39
3.78 -4.47 2.39
3.87 -4.39 2.39
3.96 -4.31 2.39
4.04 -4.23 2.39
4.12 -4.15 2.39
4.20 -4.07 2.39
4.28 -3.98 2.39
4.36 -3.90 2.39
4.44 -3.81 2.39
4.51 -3.72 2.39
4.58 -3.63 2.39
4.65 -3.53 2.39
4.72 -3.44 2.39
4.78 -3.34 2.39
4.85 -3.25 2.39
4.91 -3.15 2.39
4.97 -3.05 2.39
5.03 -2.95 2.39
5.08 -2.85 2.39
5.13 -2.74 2.39
5.18 -2.64 2.39
5.23 -2.53 2.39
5.28 -2.43 2.39
5.32 -2.32 2.39
5.37 -2.21 2.39
5.40 -2.10 2.39
5.44 -1.99 2.39
5.48 -1.88 2.39
5.51 -1.77 2.39
5.54 -1.66 2.39
5.57 -1.55 2.39
5.59 -1.44 2.39
5.62 -1.33 2.39
5.64 -1.21 2.39
5.65 -1.10 2.39
5.67 -0.99 2.39
5.68 -0.87 2.39
5.69 -0.76 2.39
5.70 -0.64 2.39
5.71 -0.53 2.39
5.71 -0.41 2.39
5.72 -0.30 2.39
5.71 -0.19 2.39
2.96 -0.04 1.24
2.88 0.02 1.21
2.84 0.08 1.19
2.81 0.13 1.18
2.79 0.19 1.18
2.78 0.24 1.18
2.79 0.30 1.18
2.80 0.36 1.19
2.82 0.42 1.21
2.87 0.48 1.23
2.96 0.56 1.28
5.52 1.16 2.39
5.49 1.27 2.39
5.46 1.38 2.39
5.43 1.48 2.39
5.39 1.59 2.39
5.35 1.70 2.39
5.31 1.80 2.39
5.26 1.90 2.39
5.22 2.01 2.39
5.17 2.11 2.39
5.12 2.21 2.39
5.07 2.31 2.39
5.02 2.41 2.39
4.96 2.50 2.39
4.90 2.60 2.39
4.85 2.69 2.39
4.78 2.79 2.39
4.72 2.88 2.39
4.66 2.97 2.39
4.59 3.06 2.39
4.52 3.14 2.39
4.45 3.23 2.39
4.38 3.31 2.39
4.31 3.40 2.39
4.24 3.48 2.39
4.16 3.56 2.39
4.08 3.64 2.39
4.00 3.71 2.39
3.92 3.79 2.39
3.84 3.86 2.39
3.76 3.93 2.39
3.67 4.00 2.39
3.59 4.07 2.39
3.50 4.14 2.39
3.41 4.20 2.39
3.32 4.27 2.39
3.23 4.33 2.39
3.14 4.39 2.39
3.05 4.44 2.39
2.96 4.50 2.39
2.86 4.55 2.39
2.77 4.60 2.39
2.67 4.65 2.39
2.57 4.70 2.39
2.47 4.74 2.39
2.36 4.75 2.38
2.28 4.83 2.39
2.18 4.87 2.39
2.08 4.91 2.39
1.97 4.94 2.39
1.89 5.02 2.42
1.85 5.22 2.50
1.74 5.25 2.50
1.63 5.28 2.50
1.52 5.31 2.50
1.41 5.33 2.50
1.30 5.36 2.50
1.19 5.38 2.50
1.08 5.39 2.50
0.97 5.41 2.50
0.86 5.42 2.50
0.75 5.43 2.50
0.64 5.44 2.50
0.53 5.45 2.50
0.42 5.46 2.50
0.31 5.46 2.50
0.20 5.46 2.50
0.09 5.46 2.50
-0.02 5.46 2.50
-0.13 5.45 2.50
-0.24 5.44 2.50
-0.35 5.43 2.50
-0.46 5.42 2.50
-0.57 5.41 2.50
-0.68 5.39 2.50
-0.79 5.37 2.50
-0.90 5.35 2.50
-1.00 5.33 2.50
-1.11 5.31 2.50
-1.22 5.28 2.50
-1.32 5.25 2.50
-1.43 5.22 2.50
-1.53 5.19 2.50
-1.64 5.15 2.50
-1.74 5.12 2.50
-1.84 5.08 2.50
-1.95 5.04 2.50
-2.05 5.00 2.50
-2.15 4.95 2.50
-2.25 4.91 2.50
-2.34 4.86 2.50
-2.44 4.81 2.50
-2.54 4.76 2.50
-2.63 4.70 2.50
-2.73 4.65 2.50
-2.82 4.59 2.50
-2.91 4.53 2.50
-3.01 4.47 2.50
-3.09 4.41 2.50
-3.18 4.35 2.50
-3.27 4.28 2.50
-3.36 4.21 2.50
-3.44 4.15 2.50
-3.53 4.07 2.50
-3.61 4.00 2.50
-3.69 3.93 2.50
-3.77 3.85 2.50
-3.85 3.78 2.50
-3.92 3.70 2.50
-4.00 3.62 2.50
-4.07 3.54 2.50
-4.14 3.46 2.50
-4.21 3.37 2.50
-4.28 3.29 2.50
-4.35 3.20 2.50
-4.41 3.11 2.50
-4.48 3.02 2.50
-4.54 2.93 2.50
-4.60 2.84 2.50
-4.66 2.75 2.50
-4.72 2.66 2.50
-4.77 2.56 2.50
-4.82 2.46 2.50
-4.88 2.37 2.50
-4.93 2.27 2.50
-4.97 2.17 2.50
-5.02 2.07 2.50
-5.06 1.97 2.50
-5.11 1.87 2.50
-5.15 1.77 2.50
-5.18 1.66 2.50
-5.22 1.56 2.50
-5.25 1.45 2.50
-5.29 1.35 2.50
-5.32 1.24 2.50
-5.34 1.13 2.50
-5.37 1.03 2.50
-5.39 0.92 2.50
-5.42 0.81 2.50
-5.44 0.70 2.50
-5.45 0.59 2.50
-5.47 0.48 2.50
-5.48 0.37 2.50
-5.49 0.26 2.50
-5.50 0.15 2.50
-5.51 0.04 2.50
-5.52 -0.07 2.50
-5.52 -0.18 2.50
-5.52 -0.30 2.50
-5.52 -0.41 2.50
-5.51 -0.52 2.50
-5.51 -0.63 2.50
