ply
format ascii 1.0
element vertex 2970
property float32 x
property float32 y
property float32 z
end_header
-12.69 -0.52 2.40
-12.66 -0.77 2.40
-12.62 -1.02 2.40
-12.57 -1.27 2.41
-12.51 -1.52 2.40
-12.44 -1.77 2.40
-12.37 -2.01 2.40
-12.30 -2.25 2.40
-11.91 -2.43 2.34
-11.83 -2.66 2.34
-11.75 -2.89 2.35
-11.66 -3.12 2.35
-11.58 -3.35 2.35
-11.49 -3.57 2.35
-11.39 -3.80 2.35
-11.29 -4.02 2.35
-11.19 -4.24 2.35
-11.09 -4.46 2.36
-11.19 -4.76 2.40
-11.06 -4.97 2.40
-10.94 -5.18 2.40
-10.80 -5.39 2.40
-10.67 -5.59 2.40
-10.53 -5.79 2.40
-10.39 -5.99 2.40
-10.25 -6.18 2.40
-10.03 -6.33 2.39
-9.88 -6.52 2.39
-9.73 -6.70 2.39
-9.57 -6.88 2.39
-9.41 -7.06 2.39
-9.25 -7.23 2.39
-9.08 -7.40 2.39
-8.85 -7.52 2.37
-8.68 -7.68 2.37
-8.51 -7.84 2.37
-8.34 -7.99 2.37
-8.16 -8.15 2.37
-8.04 -8.35 2.39
-7.85 -8.50 2.39
-7.67 -8.64 2.39
-7.48 -8.78 2.39
-7.29 -8.91 2.39
-7.10 -9.05 2.39
-6.91 -9.17 2.39
-6.71 -9.30 2.39
-6.51 -9.42 2.39
-6.32 -9.54 2.39
-6.12 -9.66 2.39
-6.11 -10.09 2.47
-5.95 -10.29 2.49
-5.73 -10.39 2.49
-5.52 -10.49 2.49
-5.30 -10.59 2.49
-5.08 -10.68 2.49
-4.86 -10.77 2.49
-4.63 -10.86 2.49
-4.41 -10.94 2.49
-4.18 -11.02 2.49
-3.96 -11.09 2.49
-3.73 -11.16 2.49
-3.50 -11.22 2.49
-3.27 -11.28 2.49
-3.04 -11.34 2.49
-2.81 -11.39 2.49
-2.58 -11.44 2.49
-2.35 -11.48 2.49
-2.12 -11.52 2.49
-1.88 -11.56 2.49
-1.65 -11.59 2.49
-1.41 -11.62 2.49
-1.18 -11.64 2.49
-0.94 -11.66 2.49
-0.71 -11.67 2.49
-0.47 -11.68 2.49
-0.24 -11.69 2.49
-0.00 -10.52 2.49
0.21 -10.52 2.49
0.42 -10.51 2.49
0.64 -10.50 2.49
0.85 -10.49 2.49
1.06 -10.47 2.49
1.27 -10.45 2.49
1.48 -10.43 2.49
1.69 -10.40 2.49
1.90 -10.37 2.49
2.03 -9.90 2.39
2.23 -9.86 2.39
2.43 -9.82 2.39
2.62 -9.77 2.39
2.82 -9.73 2.39
3.02 -9.67 2.39
2.45 -7.32 1.82
3.41 -9.56 2.39
3.61 -9.49 2.39
3.80 -9.42 2.39
3.99 -9.35 2.39
4.19 -9.28 2.39
4.38 -9.20 2.39
4.56 -9.12 2.39
4.75 -9.03 2.39
4.94 -8.95 2.39
5.12 -8.85 2.39
5.31 -8.76 2.39
5.49 -8.66 2.39
5.67 -8.56 2.39
5.44 -7.87 2.22
5.44 -7.53 2.16
5.44 -7.22 2.09
5.44 -6.92 2.04
5.44 -6.64 1.98
5.44 -6.38 1.93
5.83 -6.56 2.02
5.63 -6.09 1.91
5.86 -6.08 1.94
7.42 -7.40 2.40
7.58 -7.26 2.40
7.73 -7.12 2.40
7.89 -6.97 2.40
8.04 -6.82 2.40
8.19 -6.67 2.40
8.34 -6.51 2.40
8.48 -6.36 2.40
8.61 -6.19 2.40
8.71 -6.00 2.39
8.81 -5.81 2.38
8.91 -5.62 2.37
9.01 -5.43 2.36
9.12 -5.25 2.36
9.23 -5.07 2.35
9.32 -4.88 2.35
9.41 -4.68 2.34
9.49 -4.49 2.33
9.58 -4.30 2.33
9.65 -4.10 2.32
9.73 -3.90 2.32
9.80 -3.71 2.31
9.87 -3.51 2.30
9.93 -3.31 2.30
9.99 -3.10 2.29
10.06 -2.90 2.29
10.11 -2.70 2.28
10.15 -2.49 2.28
10.15 -2.28 2.26
10.15 -2.07 2.24
10.15 -1.85 2.23
10.15 -1.64 2.22
10.15 -1.44 2.20
10.15 -1.23 2.19
10.15 -1.02 2.18
10.15 -0.82 2.17
10.14 -0.61 2.17
10.14 -0.41 2.16
10.14 -0.20 2.15
10.14 0.00 2.15
10.14 0.20 2.14
9.42 0.38 1.99
6.37 0.38 1.34
6.07 0.49 1.28
5.94 0.60 1.25
5.91 0.71 1.24
5.91 0.84 1.24
5.94 0.96 1.25
5.94 1.08 1.25
5.91 1.20 1.25
5.91 1.32 1.25
5.94 1.46 1.26
5.94 1.58 1.26
5.94 1.71 1.26
5.90 1.83 1.26
5.90 1.96 1.27
5.90 2.09 1.27
5.93 2.24 1.29
5.93 2.38 1.29
5.93 2.52 1.30
5.93 2.66 1.31
5.93 2.80 1.32
5.90 2.93 1.32
5.90 3.08 1.33
5.93 3.25 1.35
5.93 3.40 1.36
5.93 3.56 1.37
5.93 3.73 1.39
5.89 3.87 1.40
5.89 4.04 1.41
5.93 4.24 1.44
5.93 4.42 1.45
5.92 4.61 1.47
5.92 4.80 1.49
5.89 4.97 1.51
5.89 5.18 1.53
5.92 5.42 1.56
5.92 5.64 1.59
5.89 5.84 1.61
5.88 6.08 1.64
5.92 6.36 1.68
5.92 6.62 1.71
5.89 6.86 1.74
5.88 7.13 1.78
5.91 7.47 1.83
5.91 7.78 1.87
5.88 8.07 1.91
5.91 8.46 1.97
5.91 8.83 2.03
5.87 9.17 2.07
5.90 9.64 2.15
5.87 10.03 2.21
5.90 10.56 2.29
5.86 11.01 2.36
5.71 11.25 2.39
5.49 11.37 2.39
5.26 11.49 2.39
5.04 11.61 2.39
4.81 11.72 2.39
4.58 11.82 2.39
4.35 11.92 2.39
4.11 12.02 2.39
3.87 12.11 2.39
3.63 12.19 2.39
3.39 12.27 2.39
3.15 12.35 2.39
2.90 12.42 2.39
2.66 12.48 2.39
2.41 12.54 2.39
2.16 12.59 2.39
1.91 12.64 2.39
1.73 13.22 2.49
1.46 13.26 2.49
1.20 13.29 2.49
0.93 13.31 2.49
0.67 13.33 2.49
0.40 13.35 2.49
0.13 13.35 2.49
-0.13 13.35 2.49
-0.40 13.35 2.49
-0.67 13.33 2.49
-0.93 13.32 2.49
-1.20 13.29 2.49
-1.46 13.26 2.49
-1.73 13.23 2.49
-1.99 13.18 2.49
-2.25 13.14 2.49
-2.51 13.08 2.49
-2.77 13.02 2.49
-3.03 12.96 2.49
-3.29 12.89 2.49
-3.54 12.81 2.49
-3.79 12.73 2.49
-4.05 12.64 2.49
-4.29 12.55 2.49
-4.54 12.45 2.49
-4.78 12.34 2.49
-5.02 12.23 2.49
-5.26 12.12 2.49
-5.50 12.00 2.49
-5.73 11.87 2.49
-5.96 11.74 2.49
-6.18 11.61 2.49
-6.21 11.11 2.41
-6.35 10.85 2.39
-6.56 10.71 2.39
-6.76 10.56 2.39
-6.96 10.41 2.39
-7.16 10.25 2.39
-7.35 10.09 2.39
-6.41 8.45 2.03
-7.72 9.76 2.39
-7.90 9.59 2.39
-8.08 9.41 2.39
-8.25 9.23 2.39
-8.42 9.05 2.39
-8.59 8.86 2.39
-8.75 8.67 2.39
-8.90 8.48 2.39
-9.05 8.29 2.39
-9.20 8.09 2.39
-9.34 7.89 2.39
-9.48 7.68 2.39
-9.61 7.48 2.39
-9.74 7.27 2.39
-9.86 7.06 2.39
-9.98 6.85 2.39
-10.09 6.63 2.39
-10.27 6.46 2.40
-10.28 6.18 2.38
-10.37 5.95 2.38
-10.45 5.72 2.37
-10.52 5.49 2.37
-10.59 5.26 2.37
-10.66 5.03 2.36
-10.72 4.80 2.36
-10.78 4.57 2.36
-10.83 4.34 2.36
-10.88 4.11 2.35
-10.92 3.88 2.35
-10.97 3.64 2.35
-11.00 3.41 2.35
-11.04 3.18 2.35
-11.07 2.95 2.35
-11.09 2.72 2.34
-11.11 2.49 2.34
-11.13 2.26 2.34
-11.14 2.03 2.34
-11.15 1.81 2.34
-11.45 1.62 2.40
-11.45 1.39 2.40
-11.45 1.15 2.40
-11.44 0.92 2.40
-11.43 0.69 2.40
-11.41 0.46 2.40
-11.39 0.23 2.40
-11.37 0.00 2.40
-11.34 -0.23 2.40
-11.31 -0.45 2.40
-11.27 -0.68 2.40
-11.23 -0.90 2.40
-11.18 -1.13 2.40
-11.13 -1.35 2.40
-11.07 -1.57 2.40
-11.01 -1.78 2.40
-10.95 -2.00 2.40
-10.88 -2.21 2.40
-10.64 -2.39 2.36
-10.57 -2.60 2.37
-10.50 -2.80 2.37
-10.43 -3.01 2.37
-10.35 -3.21 2.37
-10.26 -3.42 2.37
-10.18 -3.62 2.37
-10.09 -3.81 2.37
-10.04 -4.03 2.39
-9.93 -4.22 2.39
-9.82 -4.41 2.39
-9.71 -4.60 2.39
-9.60 -4.78 2.39
-9.48 -4.96 2.39
-9.36 -5.14 2.39
-9.24 -5.32 2.39
-9.11 -5.49 2.39
-8.98 -5.66 2.39
-8.85 -5.83 2.39
-8.71 -6.00 2.39
-8.58 -6.16 2.39
-8.43 -6.32 2.39
-8.29 -6.48 2.39
-8.14 -6.63 2.39
-8.00 -6.78 2.39
-7.84 -6.93 2.39
-7.69 -7.08 2.39
-7.53 -7.22 2.39
-7.37 -7.36 2.39
-7.21 -7.49 2.39
-7.05 -7.62 2.39
-6.89 -7.75 2.39
-6.72 -7.88 2.39
-6.55 -8.00 2.39
-6.38 -8.12 2.39
-6.20 -8.24 2.39
-6.11 -8.46 2.42
-6.10 -8.82 2.49
-5.92 -8.93 2.49
-5.73 -9.04 2.49
-5.54 -9.14 2.49
-5.35 -9.24 2.49
-5.16 -9.34 2.49
-4.96 -9.43 2.49
-4.77 -9.52 2.49
-4.57 -9.60 2.49
-4.37 -9.69 2.49
-4.17 -9.76 2.49
-3.97 -9.84 2.49
-3.77 -9.91 2.49
-3.56 -9.97 2.49
-3.36 -10.04 2.49
-3.15 -10.09 2.49
-2.95 -10.15 2.49
-2.74 -10.20 2.49
-2.53 -10.25 2.49
-2.32 -10.29 2.49
-2.11 -10.33 2.49
-1.90 -10.37 2.49
-1.69 -10.40 2.49
-1.48 -10.43 2.49
-1.27 -10.45 2.49
-1.06 -10.47 2.49
-0.85 -10.49 2.49
-0.64 -10.50 2.49
-0.43 -10.51 2.49
-0.21 -10.52 2.49
-0.00 -9.56 2.49
0.19 -9.55 2.49
0.39 -9.55 2.49
0.58 -9.54 2.49
0.77 -9.53 2.49
0.96 -9.51 2.49
1.16 -9.49 2.49
1.35 -9.47 2.49
1.54 -9.44 2.49
1.73 -9.41 2.49
1.92 -9.37 2.49
2.02 -8.96 2.39
2.20 -8.92 2.39
2.38 -8.87 2.39
2.56 -8.83 2.39
2.74 -8.78 2.39
2.45 -7.31 2.00
3.10 -8.67 2.39
3.28 -8.61 2.39
3.45 -8.55 2.39
3.63 -8.49 2.39
3.80 -8.42 2.39
3.97 -8.35 2.39
4.11 -8.21 2.37
4.28 -8.14 2.37
4.45 -8.06 2.37
4.62 -7.98 2.37
4.82 -7.94 2.39
4.98 -7.85 2.39
5.14 -7.76 2.39
5.30 -7.66 2.39
5.46 -7.56 2.39
5.46 -7.25 2.32
5.44 -6.92 2.25
5.44 -6.64 2.19
5.44 -6.37 2.13
5.43 -6.12 2.08
5.63 -6.08 2.10
5.86 -6.08 2.14
6.72 -6.70 2.40
5.44 -5.21 1.90
5.73 -5.27 1.97
5.82 -5.14 1.96
5.82 -4.93 1.92
7.42 -6.03 2.40
7.55 -5.89 2.40
7.68 -5.75 2.40
7.80 -5.60 2.40
7.93 -5.45 2.40
8.05 -5.30 2.40
8.17 -5.15 2.40
8.29 -4.99 2.40
8.40 -4.83 2.40
8.51 -4.67 2.40
8.61 -4.50 2.40
8.69 -4.32 2.39
8.77 -4.15 2.39
8.85 -3.97 2.38
8.92 -3.79 2.38
8.99 -3.60 2.37
9.06 -3.42 2.37
9.12 -3.24 2.36
9.19 -3.05 2.35
9.25 -2.87 2.35
9.30 -2.68 2.35
9.36 -2.49 2.34
9.41 -2.31 2.34
9.46 -2.12 2.33
9.50 -1.93 2.33
9.54 -1.74 2.33
9.58 -1.55 2.32
9.62 -1.36 2.32
9.66 -1.16 2.32
9.68 -0.97 2.31
9.70 -0.77 2.31
9.72 -0.58 2.31
9.73 -0.38 2.30
9.74 -0.19 2.30
9.76 0.01 2.30
9.78 0.20 2.30
9.42 0.38 2.21
6.33 0.39 1.48
6.07 0.49 1.42
5.94 0.60 1.39
5.91 0.72 1.38
5.94 0.84 1.39
5.94 0.97 1.39
5.94 1.09 1.39
5.91 1.20 1.39
5.91 1.33 1.39
5.94 1.46 1.40
5.94 1.59 1.41
5.94 1.72 1.41
5.90 1.84 1.41
5.90 1.97 1.41
5.90 2.10 1.42
5.93 2.24 1.44
5.93 2.38 1.44
5.93 2.52 1.45
5.93 2.66 1.46
5.93 2.80 1.47
5.90 2.93 1.48
5.90 3.08 1.49
5.93 3.25 1.51
5.93 3.41 1.52
5.93 3.57 1.54
5.93 3.73 1.55
5.89 3.88 1.56
5.89 4.05 1.58
5.93 4.25 1.61
5.93 4.43 1.63
5.92 4.61 1.65
5.92 4.81 1.67
5.89 4.98 1.69
5.89 5.18 1.71
5.92 5.43 1.75
5.92 5.65 1.78
5.89 5.84 1.80
5.88 6.08 1.84
5.92 6.36 1.88
5.92 6.62 1.92
5.89 6.86 1.95
5.88 7.14 1.99
5.91 7.48 2.05
5.91 7.79 2.10
5.88 8.07 2.14
5.91 8.47 2.21
5.91 8.84 2.28
5.87 9.18 2.33
5.83 9.53 2.39
5.65 9.65 2.39
5.46 9.78 2.39
5.27 9.89 2.39
5.07 10.01 2.39
4.88 10.12 2.39
4.68 10.22 2.39
4.48 10.33 2.39
4.28 10.42 2.39
4.07 10.52 2.39
3.86 10.60 2.39
3.65 10.69 2.39
3.44 10.77 2.39
3.23 10.84 2.39
3.01 10.91 2.39
2.80 10.98 2.39
2.58 11.04 2.39
2.36 11.09 2.39
2.14 11.14 2.39
1.92 11.19 2.39
1.77 11.71 2.49
1.53 11.75 2.49
1.30 11.78 2.49
1.06 11.81 2.49
0.83 11.83 2.49
0.59 11.85 2.49
0.35 11.86 2.49
0.12 11.86 2.49
-0.12 11.86 2.49
-0.36 11.86 2.49
-0.59 11.85 2.49
-0.83 11.83 2.49
-1.06 11.81 2.49
-1.30 11.78 2.49
-1.53 11.75 2.49
-1.77 11.72 2.49
-2.00 11.67 2.49
-2.23 11.63 2.49
-2.46 11.57 2.49
-2.69 11.52 2.49
-2.92 11.45 2.49
-3.15 11.39 2.49
-3.37 11.32 2.49
-3.59 11.24 2.49
-3.82 11.16 2.49
-4.03 11.07 2.49
-4.25 10.98 2.49
-4.47 10.88 2.49
-4.68 10.78 2.49
-4.89 10.67 2.49
-5.09 10.56 2.49
-5.30 10.45 2.49
-5.50 10.33 2.49
-5.70 10.21 2.49
-5.90 10.08 2.49
-6.09 9.95 2.49
-6.20 9.69 2.46
-6.21 9.29 2.39
-6.37 9.13 2.39
-6.54 8.99 2.39
-6.41 8.45 2.28
-6.88 8.70 2.39
-7.04 8.55 2.39
-7.20 8.39 2.39
-7.35 8.23 2.39
-7.51 8.07 2.39
-7.65 7.91 2.39
-7.80 7.74 2.39
-7.94 7.57 2.39
-8.07 7.40 2.39
-8.21 7.22 2.39
-8.33 7.04 2.39
-8.46 6.86 2.39
-8.58 6.68 2.39
-8.70 6.50 2.39
-8.81 6.31 2.39
-8.91 6.12 2.39
-9.02 5.93 2.39
-9.12 5.74 2.39
-9.21 5.54 2.39
-9.30 5.35 2.39
-9.39 5.15 2.39
-9.47 4.95 2.39
-9.55 4.75 2.39
-9.62 4.55 2.39
-9.69 4.35 2.39
-9.76 4.14 2.39
-9.82 3.94 2.39
-9.88 3.73 2.39
-9.93 3.53 2.39
-9.98 3.32 2.39
-10.02 3.11 2.39
-10.06 2.91 2.39
-10.09 2.70 2.39
-10.12 2.49 2.39
-10.15 2.28 2.39
-10.17 2.07 2.39
-10.19 1.87 2.39
-10.27 1.67 2.40
-10.28 1.46 2.40
-10.28 1.25 2.40
-10.28 1.04 2.40
-10.28 0.83 2.40
-10.27 0.63 2.40
-10.26 0.42 2.40
-10.25 0.21 2.40
-10.16 0.01 2.39
-10.13 -0.20 2.39
-10.11 -0.40 2.39
-10.07 -0.60 2.39
-10.04 -0.80 2.39
-10.00 -1.00 2.39
-9.96 -1.20 2.39
-9.91 -1.40 2.39
-9.86 -1.59 2.39
-9.80 -1.78 2.39
-9.74 -1.98 2.39
-9.68 -2.17 2.39
-9.62 -2.36 2.39
-9.55 -2.54 2.39
-9.48 -2.73 2.39
-9.40 -2.91 2.39
-9.32 -3.10 2.39
-9.24 -3.28 2.39
-9.15 -3.46 2.39
-9.06 -3.63 2.39
-8.97 -3.81 2.39
-8.88 -3.98 2.39
-8.78 -4.15 2.39
-8.68 -4.32 2.39
-8.57 -4.48 2.39
-8.46 -4.64 2.39
-8.35 -4.80 2.39
-8.24 -4.96 2.39
-8.12 -5.12 2.39
-8.01 -5.27 2.39
-7.89 -5.42 2.39
-7.76 -5.57 2.39
-7.63 -5.72 2.39
-7.51 -5.86 2.39
-7.37 -6.00 2.39
-7.24 -6.14 2.39
-7.10 -6.27 2.39
-6.97 -6.40 2.39
-6.83 -6.53 2.39
-6.68 -6.66 2.39
-6.54 -6.78 2.39
-6.39 -6.90 2.39
-6.24 -7.02 2.39
-6.12 -7.17 2.40
-6.11 -7.46 2.46
-6.03 -7.68 2.49
-5.87 -7.79 2.49
-5.70 -7.89 2.49
-5.54 -8.00 2.49
-5.37 -8.10 2.49
-5.20 -8.20 2.49
-5.03 -8.29 2.49
-4.85 -8.38 2.49
-4.68 -8.47 2.49
-4.50 -8.55 2.49
-4.33 -8.64 2.49
-4.15 -8.71 2.49
-3.97 -8.79 2.49
-3.79 -8.86 2.49
-3.60 -8.93 2.49
-3.42 -8.99 2.49
-3.24 -9.05 2.49
-3.05 -9.11 2.49
-2.86 -9.16 2.49
-2.68 -9.21 2.49
-2.49 -9.26 2.49
-2.30 -9.30 2.49
-2.11 -9.34 2.49
-1.92 -9.38 2.49
-1.73 -9.41 2.49
-1.54 -9.44 2.49
-1.35 -9.47 2.49
-1.16 -9.49 2.49
-0.96 -9.51 2.49
-0.77 -9.53 2.49
-0.58 -9.54 2.49
-0.39 -9.55 2.49
-0.19 -9.55 2.49
-0.00 -8.74 2.49
0.18 -8.74 2.49
0.35 -8.74 2.49
0.53 -8.73 2.49
0.71 -8.72 2.49
0.88 -8.70 2.49
1.06 -8.68 2.49
1.23 -8.66 2.49
1.41 -8.64 2.49
1.58 -8.61 2.49
1.76 -8.58 2.49
1.91 -8.46 2.46
2.02 -8.16 2.39
2.18 -8.12 2.39
2.35 -8.08 2.39
2.51 -8.03 2.39
2.45 -7.31 2.19
2.84 -7.93 2.39
3.00 -7.88 2.39
3.16 -7.82 2.39
3.32 -7.76 2.39
3.48 -7.70 2.39
3.63 -7.63 2.39
3.76 -7.51 2.37
3.92 -7.44 2.37
4.07 -7.36 2.37
4.22 -7.29 2.37
4.40 -7.26 2.39
4.55 -7.18 2.39
4.70 -7.09 2.39
4.85 -7.00 2.39
5.00 -6.91 2.39
5.14 -6.81 2.39
5.28 -6.72 2.39
5.42 -6.62 2.39
5.46 -6.39 2.34
5.46 -6.14 2.29
5.66 -6.11 2.31
6.01 -6.23 2.40
6.14 -6.11 2.40
5.43 -5.19 2.08
5.43 -4.99 2.04
5.43 -4.79 2.00
5.43 -4.60 1.96
5.43 -4.41 1.93
5.47 -4.27 1.91
5.63 -4.21 1.93
5.82 -4.17 1.96
5.82 -4.00 1.93
5.82 -3.83 1.90
7.45 -4.69 2.40
7.56 -4.55 2.40
7.66 -4.40 2.40
7.76 -4.25 2.40
7.86 -4.10 2.40
7.95 -3.95 2.40
8.04 -3.80 2.40
8.13 -3.64 2.40
8.22 -3.48 2.40
8.30 -3.32 2.40
8.38 -3.16 2.40
8.45 -2.99 2.40
8.53 -2.83 2.40
8.59 -2.66 2.40
8.65 -2.49 2.40
8.70 -2.31 2.39
8.75 -2.14 2.39
8.79 -1.96 2.38
8.83 -1.79 2.38
8.87 -1.61 2.38
8.91 -1.43 2.38
8.94 -1.25 2.37
8.97 -1.08 2.37
9.00 -0.90 2.37
9.01 -0.71 2.36
9.03 -0.53 2.36
9.04 -0.35 2.35
9.05 -0.17 2.35
9.06 0.01 2.35
9.06 0.19 2.34
9.06 0.37 2.34
6.27 0.39 1.62
6.07 0.50 1.57
5.94 0.61 1.53
5.91 0.72 1.52
5.94 0.85 1.53
5.94 0.97 1.54
5.94 1.09 1.54
5.91 1.21 1.53
5.91 1.33 1.53
5.94 1.46 1.55
5.94 1.59 1.55
5.94 1.72 1.56
5.90 1.84 1.56
5.90 1.97 1.56
5.90 2.10 1.57
5.93 2.25 1.59
5.93 2.38 1.60
5.93 2.52 1.61
5.93 2.66 1.62
5.93 2.81 1.63
5.90 2.94 1.63
5.90 3.09 1.65
5.93 3.26 1.67
5.93 3.41 1.69
5.93 3.57 1.70
5.93 3.74 1.72
5.89 3.88 1.73
5.89 4.05 1.75
5.93 4.25 1.78
5.93 4.43 1.80
5.92 4.62 1.83
5.92 4.81 1.85
5.89 4.98 1.87
5.89 5.19 1.90
5.92 5.43 1.94
5.92 5.65 1.98
5.89 5.85 2.00
5.88 6.09 2.04
5.92 6.37 2.09
5.92 6.63 2.13
5.88 6.86 2.17
5.88 7.14 2.21
5.91 7.48 2.28
5.91 7.80 2.34
5.88 8.08 2.38
5.73 8.22 2.39
5.57 8.34 2.39
5.41 8.46 2.39
5.25 8.58 2.39
5.08 8.69 2.39
4.91 8.80 2.39
4.74 8.91 2.39
4.56 9.01 2.39
4.39 9.11 2.39
4.21 9.20 2.39
4.03 9.29 2.39
3.85 9.38 2.39
3.66 9.46 2.39
3.47 9.54 2.39
3.28 9.61 2.39
3.09 9.68 2.39
2.90 9.75 2.39
2.71 9.81 2.39
2.51 9.87 2.39
2.32 9.92 2.39
2.12 9.97 2.39
1.92 10.02 2.39
1.80 10.49 2.49
1.59 10.53 2.49
1.38 10.56 2.49
1.17 10.59 2.49
0.96 10.61 2.49
0.74 10.63 2.49
0.53 10.65 2.49
0.32 10.66 2.49
0.11 10.66 2.49
-0.11 10.66 2.49
-0.32 10.66 2.49
-0.53 10.65 2.49
-0.74 10.63 2.49
-0.96 10.62 2.49
-1.17 10.59 2.49
-1.38 10.56 2.49
-1.59 10.53 2.49
-1.80 10.49 2.49
-2.01 10.45 2.49
-2.21 10.41 2.49
-2.42 10.35 2.49
-2.62 10.30 2.49
-2.83 10.24 2.49
-3.03 10.17 2.49
-3.23 10.11 2.49
-3.43 10.03 2.49
-3.63 9.96 2.49
-3.82 9.87 2.49
-4.01 9.79 2.49
-4.21 9.70 2.49
-4.39 9.60 2.49
-4.58 9.51 2.49
-4.77 9.40 2.49
-4.95 9.30 2.49
-5.13 9.19 2.49
-5.30 9.07 2.49
-5.48 8.96 2.49
-5.65 8.83 2.49
-5.82 8.71 2.49
-5.98 8.58 2.49
-6.15 8.45 2.49
-6.19 8.16 2.44
-6.20 7.85 2.39
-6.34 7.70 2.39
-6.48 7.56 2.39
-6.63 7.42 2.39
-6.76 7.28 2.39
-6.90 7.13 2.39
-7.03 6.98 2.39
-7.16 6.83 2.39
-7.28 6.67 2.39
-7.40 6.52 2.39
-7.52 6.36 2.39
-7.63 6.20 2.39
-7.74 6.03 2.39
-7.85 5.87 2.39
-7.95 5.70 2.39
-8.05 5.53 2.39
-8.14 5.36 2.39
-8.23 5.19 2.39
-8.32 5.01 2.39
-8.40 4.84 2.39
-8.48 4.66 2.39
-8.56 4.48 2.39
-8.63 4.30 2.39
-8.70 4.12 2.39
-8.76 3.94 2.39
-8.82 3.75 2.39
-8.88 3.57 2.39
-8.93 3.38 2.39
-8.98 3.20 2.39
-9.03 3.01 2.39
-9.07 2.82 2.39
-9.11 2.64 2.39
-9.14 2.45 2.39
-9.17 2.26 2.39
-9.19 2.07 2.39
-9.21 1.88 2.39
-9.23 1.70 2.39
-9.25 1.51 2.39
-9.26 1.32 2.39
-9.26 1.13 2.39
-9.26 0.94 2.39
-9.26 0.76 2.39
-9.26 0.57 2.39
-9.25 0.38 2.39
-9.24 0.20 2.39
-9.22 0.01 2.39
-9.20 -0.17 2.39
-9.18 -0.36 2.39
-9.15 -0.54 2.39
-9.12 -0.72 2.39
-9.08 -0.90 2.39
-9.05 -1.08 2.39
-9.01 -1.26 2.39
-8.96 -1.44 2.39
-8.91 -1.62 2.39
-8.86 -1.79 2.39
-8.81 -1.97 2.39
-8.75 -2.14 2.39
-8.69 -2.31 2.39
-8.62 -2.48 2.39
-8.56 -2.65 2.39
-8.49 -2.81 2.39
-8.41 -2.98 2.39
-8.33 -3.14 2.39
-8.26 -3.30 2.39
-8.17 -3.46 2.39
-8.09 -3.62 2.39
-8.00 -3.77 2.39
-7.91 -3.93 2.39
-7.81 -4.08 2.39
-7.72 -4.23 2.39
-7.62 -4.38 2.39
-7.51 -4.52 2.39
-7.41 -4.66 2.39
-7.30 -4.80 2.39
-7.19 -4.94 2.39
-7.08 -5.08 2.39
-6.97 -5.21 2.39
-6.85 -5.34 2.39
-6.73 -5.47 2.39
-6.61 -5.60 2.39
-6.49 -5.72 2.39
-6.36 -5.84 2.39
-6.23 -5.96 2.39
-6.12 -6.10 2.39
-6.12 -6.34 2.44
-6.09 -6.58 2.49
-5.95 -6.69 2.49
-5.81 -6.80 2.49
-5.66 -6.91 2.49
-5.51 -7.01 2.49
-5.37 -7.11 2.49
-5.22 -7.21 2.49
-5.06 -7.31 2.49
-4.91 -7.40 2.49
-4.75 -7.49 2.49
-4.60 -7.58 2.49
-4.44 -7.66 2.49
-4.28 -7.74 2.49
-4.12 -7.82 2.49
-3.96 -7.89 2.49
-3.79 -7.97 2.49
-3.63 -8.04 2.49
-3.46 -8.10 2.49
-3.30 -8.16 2.49
-3.13 -8.22 2.49
-2.96 -8.28 2.49
-2.79 -8.33 2.49
-2.62 -8.38 2.49
-2.45 -8.43 2.49
-2.28 -8.47 2.49
-2.11 -8.51 2.49
-1.93 -8.55 2.49
-1.76 -8.58 2.49
-1.58 -8.61 2.49
-1.41 -8.64 2.49
-1.23 -8.66 2.49
-1.06 -8.69 2.49
-0.88 -8.70 2.49
-0.71 -8.72 2.49
-0.53 -8.73 2.49
-0.35 -8.74 2.49
-0.18 -8.74 2.49
-0.00 -8.05 2.49
0.16 -8.05 2.49
0.33 -8.04 2.49
0.49 -8.04 2.49
0.65 -8.03 2.49
0.81 -8.01 2.49
0.97 -8.00 2.49
1.14 -7.98 2.49
1.30 -7.95 2.49
1.46 -7.93 2.49
1.62 -7.90 2.49
1.78 -7.87 2.49
1.91 -7.71 2.45
2.01 -7.47 2.39
2.16 -7.43 2.39
2.31 -7.39 2.39
2.45 -7.31 2.37
2.61 -7.30 2.39
2.76 -7.25 2.39
2.91 -7.20 2.39
3.06 -7.14 2.39
3.20 -7.08 2.39
3.35 -7.02 2.39
3.49 -6.96 2.39
3.63 -6.89 2.39
3.77 -6.82 2.39
3.91 -6.75 2.39
4.05 -6.68 2.39
4.19 -6.60 2.39
4.33 -6.52 2.39
4.46 -6.44 2.39
4.60 -6.35 2.39
4.73 -6.26 2.39
4.86 -6.17 2.39
4.99 -6.08 2.39
5.12 -5.99 2.39
5.24 -5.89 2.39
5.36 -5.79 2.39
5.49 -5.69 2.39
5.61 -5.58 2.39
5.45 -5.21 2.27
5.43 -4.98 2.22
5.43 -4.79 2.17
5.43 -4.59 2.13
5.43 -4.41 2.10
5.43 -4.23 2.06
5.43 -4.06 2.02
5.42 -3.89 1.99
5.42 -3.72 1.96
5.42 -3.56 1.93
5.43 -3.41 1.91
5.81 -3.49 2.01
5.59 -3.21 1.91
5.85 -3.20 1.97
7.21 -3.76 2.40
7.30 -3.62 2.40
7.38 -3.48 2.40
7.46 -3.33 2.40
7.54 -3.19 2.40
7.61 -3.04 2.40
7.68 -2.89 2.40
7.75 -2.74 2.40
7.81 -2.59 2.40
7.87 -2.43 2.40
7.93 -2.28 2.40
7.99 -2.12 2.40
8.05 -1.96 2.40
8.10 -1.80 2.40
8.15 -1.64 2.40
8.20 -1.48 2.40
8.24 -1.32 2.40
8.28 -1.16 2.40
8.32 -0.99 2.40
8.35 -0.83 2.40
8.37 -0.66 2.40
8.38 -0.49 2.39
8.40 -0.32 2.39
8.41 -0.15 2.39
8.42 0.01 2.38
8.42 0.18 2.38
8.42 0.35 2.38
6.20 0.38 1.75
6.07 0.50 1.71
5.94 0.61 1.68
5.91 0.73 1.67
5.94 0.85 1.68
5.94 0.97 1.68
5.94 1.09 1.68
5.91 1.21 1.68
5.91 1.34 1.68
5.94 1.47 1.70
5.94 1.60 1.70
5.94 1.72 1.71
5.90 1.84 1.70
5.90 1.97 1.71
5.90 2.10 1.72
5.93 2.25 1.74
5.93 2.39 1.75
5.93 2.53 1.76
5.93 2.67 1.77
5.93 2.81 1.79
5.90 2.94 1.79
5.90 3.09 1.81
5.93 3.26 1.83
5.93 3.42 1.85
5.93 3.58 1.87
5.93 3.74 1.89
5.89 3.88 1.90
5.89 4.06 1.92
5.93 4.25 1.96
5.93 4.44 1.98
5.92 4.62 2.01
5.92 4.82 2.04
5.89 4.99 2.06
5.89 5.19 2.09
5.92 5.44 2.14
5.92 5.66 2.17
5.89 5.85 2.20
5.88 6.09 2.24
5.92 6.37 2.30
5.92 6.63 2.35
5.88 6.87 2.38
5.76 7.00 2.39
5.62 7.12 2.39
5.49 7.24 2.39
5.35 7.36 2.39
5.20 7.47 2.39
5.06 7.58 2.39
4.91 7.69 2.39
4.76 7.79 2.39
4.61 7.90 2.39
4.46 7.99 2.39
4.30 8.09 2.39
4.14 8.18 2.39
3.98 8.27 2.39
3.82 8.35 2.39
3.66 8.44 2.39
3.49 8.51 2.39
3.32 8.59 2.39
3.15 8.66 2.39
2.98 8.73 2.39
2.81 8.79 2.39
2.63 8.85 2.39
2.46 8.90 2.39
2.28 8.96 2.39
2.10 9.00 2.39
1.92 9.05 2.39
1.82 9.48 2.49
1.63 9.52 2.49
1.44 9.55 2.49
1.25 9.58 2.49
1.06 9.61 2.49
0.87 9.63 2.49
0.67 9.65 2.49
0.48 9.66 2.49
0.29 9.67 2.49
0.10 9.67 2.49
-0.10 9.67 2.49
-0.29 9.67 2.49
-0.48 9.66 2.49
-0.67 9.65 2.49
-0.87 9.63 2.49
-1.06 9.61 2.49
-1.25 9.58 2.49
-1.44 9.56 2.49
-1.63 9.52 2.49
-1.82 9.48 2.49
-2.01 9.44 2.49
-2.19 9.40 2.49
-2.38 9.35 2.49
-2.56 9.29 2.49
-2.75 9.23 2.49
-2.93 9.17 2.49
-3.11 9.11 2.49
-3.29 9.04 2.49
-3.47 8.96 2.49
-3.64 8.89 2.49
-3.82 8.81 2.49
-3.99 8.72 2.49
-4.16 8.63 2.49
-4.33 8.54 2.49
-4.49 8.44 2.49
-4.65 8.34 2.49
-4.82 8.24 2.49
-4.97 8.14 2.49
-5.13 8.03 2.49
-5.28 7.91 2.49
-5.43 7.80 2.49
-5.58 7.68 2.49
-5.73 7.56 2.49
-5.87 7.43 2.49
-6.01 7.31 2.49
-6.15 7.18 2.49
-6.19 6.93 2.45
-6.19 6.67 2.40
-6.27 6.49 2.39
-6.40 6.36 2.39
-6.51 6.22 2.39
-6.62 6.08 2.39
-6.73 5.93 2.39
-6.84 5.79 2.39
-6.94 5.64 2.39
-7.04 5.49 2.39
-7.14 5.34 2.39
-7.23 5.19 2.39
-7.32 5.04 2.39
-7.41 4.88 2.39
-7.50 4.73 2.39
-7.58 4.57 2.39
-7.65 4.41 2.39
-7.73 4.25 2.39
-7.80 4.09 2.39
-7.87 3.92 2.39
-7.93 3.76 2.39
-7.99 3.59 2.39
-8.04 3.43 2.39
-8.10 3.26 2.39
-8.15 3.09 2.39
-8.19 2.92 2.39
-8.23 2.75 2.39
-8.27 2.58 2.39
-8.31 2.41 2.39
-8.34 2.24 2.39
-8.37 2.07 2.39
-8.39 1.90 2.39
-8.41 1.73 2.39
-8.43 1.55 2.39
-8.45 1.38 2.39
-8.46 1.21 2.39
-8.46 1.04 2.39
-8.47 0.87 2.39
-8.47 0.70 2.39
-8.46 0.53 2.39
-8.46 0.35 2.39
-8.45 0.18 2.39
-8.43 0.01 2.39
-8.42 -0.15 2.39
-8.40 -0.32 2.39
-8.37 -0.49 2.39
-8.35 -0.66 2.39
-8.32 -0.82 2.39
-8.28 -0.99 2.39
-8.25 -1.15 2.39
-8.21 -1.31 2.39
-8.16 -1.48 2.39
-8.12 -1.64 2.39
-8.07 -1.80 2.39
-8.02 -1.96 2.39
-7.96 -2.11 2.39
-7.90 -2.27 2.39
-7.84 -2.42 2.39
-7.78 -2.58 2.39
-7.71 -2.73 2.39
-7.64 -2.88 2.39
-7.57 -3.02 2.39
-7.50 -3.17 2.39
-7.42 -3.32 2.39
-7.34 -3.46 2.39
-7.26 -3.60 2.39
-7.17 -3.74 2.39
-7.08 -3.88 2.39
-6.99 -4.01 2.39
-6.90 -4.15 2.39
-6.80 -4.28 2.39
-6.71 -4.41 2.39
-6.61 -4.53 2.39
-6.51 -4.66 2.39
-6.40 -4.78 2.39
-6.29 -4.90 2.39
-6.19 -5.02 2.39
-6.12 -5.18 2.40
-6.12 -5.39 2.45
-6.10 -5.60 2.49
-5.98 -5.71 2.49
-5.85 -5.83 2.49
-5.73 -5.94 2.49
-5.60 -6.04 2.49
-5.47 -6.15 2.49
-5.34 -6.25 2.49
-5.21 -6.35 2.49
-5.07 -6.44 2.49
-4.94 -6.54 2.49
-4.80 -6.63 2.49
-4.66 -6.72 2.49
-4.52 -6.81 2.49
-4.38 -6.89 2.49
-4.23 -6.97 2.49
-4.09 -7.05 2.49
-3.94 -7.12 2.49
-3.79 -7.19 2.49
-3.64 -7.26 2.49
-3.49 -7.33 2.49
-3.34 -7.39 2.49
-3.19 -7.45 2.49
-3.04 -7.51 2.49
-2.88 -7.57 2.49
-2.73 -7.62 2.49
-2.57 -7.67 2.49
-2.41 -7.71 2.49
-2.26 -7.76 2.49
-2.10 -7.80 2.49
-1.94 -7.84 2.49
-1.78 -7.87 2.49
-1.62 -7.90 2.49
-1.46 -7.93 2.49
-1.30 -7.96 2.49
-1.14 -7.98 2.49
-0.98 -8.00 2.49
-0.81 -8.01 2.49
-0.65 -8.03 2.49
-0.49 -8.04 2.49
-0.33 -8.04 2.49
-0.16 -8.05 2.49
-0.00 -7.45 2.49
0.15 -7.45 2.49
0.30 -7.45 2.49
0.45 -7.44 2.49
0.60 -7.43 2.49
0.75 -7.42 2.49
0.90 -7.40 2.49
1.05 -7.38 2.49
1.20 -7.36 2.49
1.35 -7.34 2.49
1.50 -7.31 2.49
1.65 -7.28 2.49
1.79 -7.25 2.49
1.90 -7.08 2.44
2.00 -6.88 2.39
2.14 -6.84 2.39
2.28 -6.80 2.39
2.42 -6.76 2.39
2.56 -6.71 2.39
2.69 -6.66 2.39
2.83 -6.61 2.39
2.96 -6.55 2.39
3.10 -6.50 2.39
3.23 -6.44 2.39
3.36 -6.38 2.39
3.49 -6.31 2.39
3.62 -6.24 2.39
3.75 -6.17 2.39
3.88 -6.10 2.39
4.00 -6.03 2.39
4.13 -5.95 2.39
4.25 -5.87 2.39
4.37 -5.79 2.39
4.49 -5.71 2.39
4.61 -5.62 2.39
4.73 -5.53 2.39
4.85 -5.44 2.39
4.96 -5.35 2.39
5.07 -5.25 2.39
5.18 -5.15 2.39
5.29 -5.06 2.39
5.40 -4.95 2.39
5.45 -4.80 2.36
5.45 -4.61 2.32
5.45 -4.42 2.28
5.43 -4.22 2.23
5.43 -4.05 2.19
5.42 -3.88 2.16
5.42 -3.72 2.12
5.42 -3.56 2.09
5.42 -3.41 2.06
5.42 -3.25 2.03
5.59 -3.20 2.07
6.58 -3.60 2.40
6.66 -3.47 2.40
6.74 -3.34 2.40
6.81 -3.21 2.40
6.89 -3.07 2.40
5.66 -2.39 1.95
5.81 -2.32 1.99
5.81 -2.18 1.97
5.81 -2.05 1.95
5.81 -1.92 1.93
5.81 -1.79 1.92
5.81 -1.66 1.90
5.82 -1.54 1.89
7.40 -1.80 2.39
7.45 -1.66 2.39
7.50 -1.51 2.39
7.54 -1.36 2.39
7.58 -1.21 2.39
7.62 -1.06 2.39
7.64 -0.91 2.39
7.67 -0.75 2.39
7.69 -0.60 2.39
7.71 -0.45 2.39
7.72 -0.29 2.39
7.73 -0.14 2.38
7.74 0.02 2.38
7.74 0.17 2.38
7.74 0.33 2.38
6.14 0.38 1.88
6.07 0.50 1.86
5.94 0.61 1.82
5.91 0.73 1.81
5.94 0.85 1.83
5.94 0.98 1.83
5.94 1.10 1.83
5.91 1.22 1.82
5.91 1.34 1.83
5.94 1.47 1.84
5.94 1.60 1.85
5.94 1.73 1.86
5.90 1.85 1.86
5.90 1.98 1.86
5.90 2.11 1.87
5.93 2.26 1.90
5.93 2.39 1.91
5.93 2.53 1.92
5.93 2.67 1.93
5.93 2.82 1.95
5.90 2.95 1.95
5.90 3.09 1.97
5.93 3.26 2.00
5.93 3.42 2.02
5.93 3.58 2.04
5.93 3.74 2.06
5.89 3.89 2.07
5.89 4.06 2.10
5.93 4.26 2.13
5.93 4.44 2.16
5.92 4.63 2.19
5.92 4.82 2.22
5.89 4.99 2.25
5.89 5.20 2.28
5.92 5.44 2.33
5.92 5.66 2.37
5.85 5.82 2.39
5.74 5.94 2.39
5.62 6.06 2.39
5.51 6.18 2.39
5.39 6.30 2.39
5.27 6.41 2.39
5.15 6.52 2.39
5.02 6.63 2.39
4.89 6.74 2.39
4.76 6.84 2.39
4.63 6.94 2.39
4.49 7.04 2.39
4.36 7.13 2.39
4.22 7.23 2.39
4.08 7.32 2.39
3.93 7.40 2.39
3.79 7.49 2.39
3.64 7.57 2.39
3.49 7.64 2.39
3.34 7.72 2.39
3.19 7.79 2.39
3.04 7.86 2.39
2.88 7.92 2.39
2.72 7.98 2.39
2.57 8.04 2.39
2.41 8.09 2.39
2.25 8.14 2.39
2.08 8.19 2.39
1.92 8.23 2.39
1.83 8.63 2.49
1.66 8.67 2.49
1.49 8.70 2.49
1.32 8.73 2.49
1.14 8.76 2.49
0.97 8.78 2.49
0.79 8.80 2.49
0.62 8.82 2.49
0.44 8.83 2.49
0.26 8.84 2.49
0.09 8.84 2.49
-0.09 8.84 2.49
-0.26 8.84 2.49
-0.44 8.83 2.49
-0.62 8.82 2.49
-0.79 8.80 2.49
-0.97 8.79 2.49
-1.14 8.76 2.49
-1.32 8.74 2.49
-1.49 8.71 2.49
-1.66 8.67 2.49
-1.83 8.63 2.49
-2.01 8.59 2.49
-2.18 8.55 2.49
-2.34 8.50 2.49
-2.51 8.45 2.49
-2.68 8.39 2.49
-2.84 8.33 2.49
-3.01 8.27 2.49
-3.17 8.20 2.49
-3.33 8.13 2.49
-3.49 8.06 2.49
-3.65 7.98 2.49
-3.80 7.90 2.49
-3.96 7.81 2.49
-4.11 7.73 2.49
-4.26 7.64 2.49
-4.40 7.54 2.49
-4.55 7.45 2.49
-4.69 7.35 2.49
-4.83 7.25 2.49
-4.97 7.14 2.49
-5.11 7.03 2.49
-5.24 6.92 2.49
-5.37 6.81 2.49
-5.50 6.69 2.49
-5.63 6.57 2.49
-5.75 6.45 2.49
-5.87 6.33 2.49
-5.99 6.20 2.49
-6.10 6.07 2.49
-6.18 5.91 2.48
-6.18 5.68 2.43
-6.19 5.46 2.40
-6.26 5.31 2.39
-6.36 5.18 2.39
-6.45 5.04 2.39
-6.54 4.90 2.39
-6.63 4.76 2.39
-6.71 4.62 2.39
-6.80 4.48 2.39
-6.87 4.34 2.39
-6.95 4.19 2.39
-7.02 4.05 2.39
-7.09 3.90 2.39
-7.15 3.75 2.39
-7.22 3.60 2.39
-7.28 3.45 2.39
-7.33 3.30 2.39
-7.38 3.15 2.39
-7.43 3.00 2.39
-7.48 2.84 2.39
-7.52 2.69 2.39
-7.56 2.53 2.39
-7.60 2.38 2.39
-7.63 2.22 2.39
-7.66 2.06 2.39
-7.69 1.91 2.39
-7.71 1.75 2.39
-7.73 1.59 2.39
-7.75 1.43 2.39
-7.76 1.28 2.39
-7.77 1.12 2.39
-7.78 0.96 2.39
-7.79 0.80 2.39
-7.79 0.64 2.39
-7.79 0.49 2.39
-7.78 0.33 2.39
-7.77 0.17 2.39
-7.76 0.02 2.39
-7.75 -0.14 2.39
-7.73 -0.29 2.39
-7.71 -0.45 2.39
-7.68 -0.60 2.39
-7.66 -0.75 2.39
-7.63 -0.91 2.39
-7.60 -1.06 2.39
-7.56 -1.21 2.39
-7.52 -1.36 2.39
-7.48 -1.50 2.39
-7.44 -1.65 2.39
-7.39 -1.80 2.39
-7.34 -1.94 2.39
-7.29 -2.09 2.39
-7.23 -2.23 2.39
-7.18 -2.37 2.39
-7.11 -2.51 2.39
-7.05 -2.65 2.39
-6.99 -2.79 2.39
-6.92 -2.92 2.39
-6.85 -3.06 2.39
-6.77 -3.19 2.39
-6.70 -3.32 2.39
-6.62 -3.45 2.39
-6.54 -3.57 2.39
-6.46 -3.70 2.39
-6.37 -3.82 2.39
-6.28 -3.95 2.39
-6.20 -4.07 2.39
-6.13 -4.20 2.40
-6.12 -4.38 2.43
-6.12 -4.57 2.47
-6.07 -4.72 2.49
-5.96 -4.84 2.49
-5.86 -4.95 2.49
-5.75 -5.06 2.49
-5.64 -5.17 2.49
-5.53 -5.28 2.49
-5.41 -5.38 2.49
-5.30 -5.48 2.49
-5.18 -5.58 2.49
-5.06 -5.68 2.49
-4.94 -5.77 2.49
-4.82 -5.87 2.49
-4.69 -5.96 2.49
-4.57 -6.04 2.49
-4.44 -6.13 2.49
-4.31 -6.21 2.49
-4.18 -6.29 2.49
-4.05 -6.37 2.49
-3.92 -6.44 2.49
-3.78 -6.52 2.49
-3.65 -6.59 2.49
-3.51 -6.65 2.49
-3.37 -6.72 2.49
-3.23 -6.78 2.49
-3.09 -6.84 2.49
-2.95 -6.90 2.49
-2.81 -6.95 2.49
-2.67 -7.00 2.49
-2.52 -7.05 2.49
-2.38 -7.10 2.49
-2.24 -7.14 2.49
-2.09 -7.18 2.49
-1.94 -7.22 2.49
-1.80 -7.25 2.49
-1.65 -7.28 2.49
-1.50 -7.31 2.49
-1.35 -7.34 2.49
-1.20 -7.36 2.49
-1.05 -7.38 2.49
-0.90 -7.40 2.49
-0.75 -7.42 2.49
-0.60 -7.43 2.49
-0.45 -7.44 2.49
-0.30 -7.45 2.49
-0.15 -7.45 2.49
-0.00 -6.93 2.49
0.14 -6.93 2.49
0.28 -6.92 2.49
0.42 -6.92 2.49
0.56 -6.91 2.49
0.70 -6.90 2.49
0.84 -6.88 2.49
0.98 -6.86 2.49
1.12 -6.84 2.49
1.26 -6.82 2.49
1.39 -6.80 2.49
1.53 -6.77 2.49
1.67 -6.74 2.49
1.81 -6.71 2.49
1.90 -6.53 2.44
1.99 -6.36 2.39
2.12 -6.32 2.39
2.25 -6.28 2.39
2.38 -6.24 2.39
2.50 -6.19 2.39
2.63 -6.14 2.39
2.76 -6.09 2.39
2.88 -6.04 2.39
3.00 -5.98 2.39
3.13 -5.92 2.39
3.25 -5.86 2.39
3.37 -5.80 2.39
3.49 -5.74 2.39
3.61 -5.67 2.39
3.72 -5.60 2.39
3.84 -5.53 2.39
3.95 -5.45 2.39
4.07 -5.38 2.39
4.18 -5.30 2.39
4.29 -5.22 2.39
4.40 -5.14 2.39
4.50 -5.05 2.39
4.61 -4.96 2.39
4.71 -4.88 2.39
4.82 -4.78 2.39
4.92 -4.69 2.39
5.02 -4.60 2.39
5.11 -4.50 2.39
5.21 -4.40 2.39
5.30 -4.30 2.39
5.40 -4.20 2.39
5.45 -4.07 2.37
5.45 -3.90 2.33
5.45 -3.73 2.30
5.45 -3.57 2.26
5.42 -3.40 2.22
5.42 -3.25 2.19
5.60 -3.20 2.23
6.10 -3.33 2.40
6.18 -3.21 2.40
6.25 -3.09 2.40
6.32 -2.97 2.40
5.42 -2.41 2.04
5.42 -2.28 2.02
5.42 -2.16 2.00
5.42 -2.03 1.98
5.42 -1.91 1.96
5.42 -1.79 1.94
5.42 -1.67 1.93
5.41 -1.55 1.91
5.42 -1.43 1.90
5.43 -1.32 1.89
5.80 -1.29 2.01
5.80 -1.16 2.00
5.80 -1.04 1.99
5.80 -0.92 1.98
5.80 -0.80 1.97
5.80 -0.68 1.96
5.80 -0.57 1.95
5.80 -0.45 1.95
5.79 -0.33 1.94
7.13 -0.27 2.38
7.14 -0.12 2.38
7.15 0.02 2.38
7.16 0.16 2.38
7.16 0.31 2.38
6.08 0.38 2.02
6.07 0.51 2.01
5.94 0.62 1.97
5.91 0.73 1.96
5.94 0.86 1.97
5.94 0.98 1.98
5.94 1.10 1.98
5.91 1.22 1.97
5.91 1.34 1.98
5.94 1.48 2.00
5.94 1.60 2.00
5.94 1.73 2.01
5.90 1.85 2.01
5.90 1.98 2.02
5.90 2.11 2.03
5.93 2.26 2.05
5.93 2.40 2.07
5.93 2.53 2.08
5.93 2.68 2.09
5.93 2.82 2.11
5.90 2.95 2.12
5.90 3.10 2.13
5.93 3.27 2.17
5.93 3.42 2.19
5.93 3.58 2.21
5.93 3.75 2.23
5.89 3.89 2.25
5.89 4.06 2.27
5.93 4.26 2.32
5.93 4.45 2.35
5.92 4.63 2.38
5.86 4.77 2.39
5.77 4.89 2.39
5.68 5.01 2.39
5.58 5.13 2.39
5.49 5.25 2.39
5.39 5.36 2.39
5.28 5.48 2.39
5.18 5.59 2.39
5.07 5.70 2.39
4.96 5.80 2.39
4.85 5.91 2.39
4.74 6.01 2.39
4.62 6.11 2.39
4.50 6.21 2.39
4.38 6.30 2.39
4.26 6.39 2.39
4.14 6.48 2.39
4.01 6.57 2.39
3.88 6.66 2.39
3.75 6.74 2.39
3.62 6.82 2.39
3.49 6.89 2.39
3.35 6.97 2.39
3.21 7.04 2.39
3.07 7.11 2.39
2.93 7.17 2.39
2.79 7.23 2.39
2.65 7.29 2.39
2.51 7.35 2.39
2.36 7.40 2.39
2.21 7.45 2.39
2.07 7.49 2.39
1.92 7.54 2.39
1.84 7.90 2.49
1.69 7.94 2.49
1.53 7.98 2.49
1.37 8.01 2.49
1.21 8.04 2.49
1.05 8.06 2.49
0.89 8.08 2.49
0.73 8.10 2.49
0.57 8.11 2.49
0.40 8.12 2.49
0.24 8.13 2.49
0.08 8.14 2.49
-0.08 8.14 2.49
-0.24 8.13 2.49
-0.41 8.13 2.49
-0.57 8.11 2.49
-0.73 8.10 2.49
-0.89 8.08 2.49
-1.05 8.06 2.49
-1.21 8.04 2.49
-1.37 8.01 2.49
-1.53 7.98 2.49
-1.69 7.94 2.49
-1.84 7.91 2.49
-2.00 7.86 2.49
-2.16 7.82 2.49
-2.31 7.77 2.49
-2.46 7.72 2.49
-2.62 7.67 2.49
-2.77 7.61 2.49
-2.92 7.55 2.49
-3.06 7.48 2.49
-3.21 7.42 2.49
-3.35 7.34 2.49
-3.50 7.27 2.49
-3.64 7.19 2.49
-3.78 7.12 2.49
-3.92 7.03 2.49
-4.05 6.95 2.49
-4.19 6.86 2.49
-4.32 6.77 2.49
-4.45 6.68 2.49
-4.58 6.58 2.49
-4.70 6.48 2.49
-4.83 6.38 2.49
-4.95 6.27 2.49
-5.07 6.17 2.49
-5.18 6.06 2.49
-5.30 5.95 2.49
-5.41 5.83 2.49
-5.52 5.72 2.49
-5.62 5.60 2.49
-5.73 5.48 2.49
-5.83 5.36 2.49
-5.93 5.23 2.49
-6.02 5.11 2.49
-6.12 4.98 2.49
-6.18 4.83 2.48
-6.18 4.63 2.44
-6.18 4.45 2.41
-6.19 4.27 2.39
-6.27 4.14 2.39
-6.34 4.01 2.39
-6.41 3.87 2.39
-6.48 3.74 2.39
-6.54 3.60 2.39
-6.60 3.47 2.39
-6.66 3.33 2.39
-6.71 3.19 2.39
-6.77 3.05 2.39
-6.82 2.91 2.39
-6.86 2.77 2.39
-6.91 2.63 2.39
-6.95 2.49 2.39
-6.98 2.34 2.39
-7.02 2.20 2.39
-7.05 2.05 2.39
-7.08 1.91 2.39
-7.10 1.77 2.39
-7.13 1.62 2.39
-7.15 1.47 2.39
-7.16 1.33 2.39
-7.18 1.18 2.39
-7.19 1.04 2.39
-7.20 0.89 2.39
-7.20 0.75 2.39
-7.20 0.60 2.39
-7.20 0.46 2.39
-7.20 0.31 2.39
-7.19 0.17 2.39
-7.18 0.02 2.39
-7.17 -0.12 2.39
-7.15 -0.27 2.39
-7.14 -0.41 2.39
-7.11 -0.55 2.39
-7.09 -0.69 2.39
-7.06 -0.83 2.39
-7.03 -0.97 2.39
-7.00 -1.11 2.39
-6.97 -1.25 2.39
-6.93 -1.39 2.39
-6.89 -1.53 2.39
-6.85 -1.66 2.39
-6.80 -1.80 2.39
-6.75 -1.93 2.39
-6.70 -2.06 2.39
-6.65 -2.19 2.39
-6.60 -2.32 2.39
-6.54 -2.45 2.39
-6.48 -2.58 2.39
-6.42 -2.70 2.39
-6.35 -2.83 2.39
-6.28 -2.95 2.39
-6.21 -3.07 2.39
-6.14 -3.19 2.39
-6.13 -3.35 2.41
-6.13 -3.51 2.44
-6.13 -3.67 2.47
-6.09 -3.82 2.49
-6.00 -3.93 2.49
-5.91 -4.05 2.49
-5.82 -4.16 2.49
-5.73 -4.27 2.49
-5.63 -4.38 2.49
-5.54 -4.49 2.49
-5.44 -4.59 2.49
-5.34 -4.70 2.49
-5.24 -4.80 2.49
-5.13 -4.90 2.49
-5.03 -4.99 2.49
-4.92 -5.09 2.49
-4.81 -5.18 2.49
-4.70 -5.27 2.49
-4.59 -5.36 2.49
-4.48 -5.45 2.49
-4.36 -5.53 2.49
-4.24 -5.61 2.49
-4.13 -5.69 2.49
-4.01 -5.77 2.49
-3.89 -5.84 2.49
-3.76 -5.92 2.49
-3.64 -5.99 2.49
-3.52 -6.05 2.49
-3.39 -6.12 2.49
-3.26 -6.18 2.49
-3.14 -6.24 2.49
-3.01 -6.30 2.49
-2.88 -6.36 2.49
-2.75 -6.41 2.49
-2.61 -6.46 2.49
-2.48 -6.51 2.49
-2.35 -6.55 2.49
-2.21 -6.60 2.49
-2.08 -6.64 2.49
-1.94 -6.67 2.49
-1.81 -6.71 2.49
-1.67 -6.74 2.49
-1.53 -6.77 2.49
-1.40 -6.80 2.49
-1.26 -6.82 2.49
-1.12 -6.85 2.49
-0.98 -6.86 2.49
-0.84 -6.88 2.49
-0.70 -6.90 2.49
-0.56 -6.91 2.49
-0.42 -6.92 2.49
-0.28 -6.92 2.49
-0.14 -6.93 2.49
-0.00 -6.47 2.49
0.13 -6.47 2.49
0.26 -6.46 2.49
0.39 -6.46 2.49
0.52 -6.45 2.49
0.65 -6.44 2.49
0.78 -6.42 2.49
0.91 -6.41 2.49
1.04 -6.39 2.49
1.17 -6.37 2.49
1.30 -6.34 2.49
1.43 -6.32 2.49
1.56 -6.29 2.49
1.69 -6.26 2.49
1.81 -6.23 2.49
1.90 -6.06 2.44
1.98 -5.90 2.39
2.11 -5.88 2.39
2.22 -5.82 2.39
2.34 -5.78 2.39
2.46 -5.73 2.39
2.57 -5.68 2.39
2.69 -5.63 2.39
2.80 -5.58 2.39
2.92 -5.53 2.39
3.03 -5.47 2.39
3.14 -5.41 2.39
3.25 -5.35 2.39
3.36 -5.29 2.39
3.47 -5.22 2.39
3.58 -5.15 2.39
3.69 -5.09 2.39
3.79 -5.01 2.39
3.90 -4.94 2.39
4.00 -4.87 2.39
4.10 -4.79 2.39
4.20 -4.71 2.39
4.30 -4.63 2.39
4.40 -4.54 2.39
4.49 -4.46 2.39
4.59 -4.37 2.39
4.68 -4.28 2.39
4.77 -4.19 2.39
4.86 -4.10 2.39
4.95 -4.01 2.39
5.03 -3.91 2.39
5.11 -3.81 2.39
5.20 -3.71 2.39
5.28 -3.61 2.39
5.36 -3.51 2.39
5.43 -3.40 2.39
5.45 -3.26 2.36
5.58 -3.19 2.39
5.65 -3.08 2.39
5.72 -2.97 2.39
5.78 -2.86 2.39
5.85 -2.74 2.39
5.42 -2.41 2.19
5.42 -2.28 2.17
5.42 -2.15 2.14
5.42 -2.03 2.13
5.42 -1.90 2.11
5.42 -1.78 2.09
5.42 -1.66 2.07
5.41 -1.54 2.06
5.41 -1.43 2.04
5.41 -1.31 2.03
5.41 -1.20 2.02
5.41 -1.08 2.00
5.41 -0.97 1.99
5.41 -0.86 1.98
5.41 -0.75 1.98
5.41 -0.64 1.97
5.41 -0.53 1.96
5.41 -0.42 1.95
6.61 -0.37 2.38
6.62 -0.24 2.38
6.63 -0.11 2.38
6.64 0.02 2.37
6.64 0.16 2.37
6.64 0.29 2.37
6.07 0.39 2.17
6.07 0.51 2.17
5.94 0.62 2.12
5.91 0.74 2.11
5.94 0.86 2.13
5.94 0.98 2.13
5.94 1.11 2.13
5.91 1.22 2.13
5.91 1.35 2.13
5.94 1.48 2.15
5.94 1.61 2.16
5.94 1.73 2.17
5.90 1.85 2.16
5.90 1.98 2.17
5.90 2.12 2.19
5.93 2.26 2.21
5.93 2.40 2.23
5.93 2.54 2.24
5.93 2.68 2.26
5.93 2.82 2.28
5.90 2.95 2.28
5.90 3.10 2.30
5.93 3.27 2.34
5.93 3.43 2.36
5.93 3.59 2.38
5.87 3.72 2.39
5.80 3.84 2.39
5.73 3.96 2.39
5.66 4.08 2.39
5.58 4.19 2.39
5.51 4.31 2.39
5.43 4.42 2.39
5.34 4.54 2.39
5.26 4.65 2.39
5.17 4.76 2.39
5.08 4.87 2.39
4.99 4.97 2.39
4.89 5.08 2.39
4.80 5.18 2.39
4.70 5.28 2.39
4.60 5.38 2.39
4.49 5.47 2.39
4.39 5.57 2.39
4.28 5.66 2.39
4.17 5.75 2.39
4.06 5.84 2.39
3.94 5.92 2.39
3.83 6.00 2.39
3.71 6.09 2.39
3.59 6.16 2.39
3.47 6.24 2.39
3.35 6.31 2.39
3.22 6.38 2.39
3.10 6.45 2.39
2.97 6.51 2.39
2.84 6.58 2.39
2.71 6.64 2.39
2.58 6.69 2.39
2.45 6.75 2.39
2.32 6.80 2.39
2.18 6.85 2.39
2.05 6.91 2.39
1.91 6.93 2.39
1.85 7.27 2.49
1.70 7.31 2.49
1.56 7.35 2.49
1.41 7.38 2.49
1.27 7.41 2.49
1.12 7.43 2.49
0.97 7.46 2.49
0.82 7.48 2.49
0.67 7.49 2.49
0.52 7.51 2.49
0.37 7.52 2.49
0.22 7.52 2.49
0.07 7.53 2.49
-0.08 7.53 2.49
-0.23 7.52 2.49
-0.37 7.52 2.49
-0.52 7.51 2.49
-0.67 7.49 2.49
-0.82 7.48 2.49
-0.97 7.46 2.49
-1.12 7.44 2.49
-1.27 7.41 2.49
-1.41 7.38 2.49
-1.56 7.35 2.49
-1.71 7.31 2.49
-1.85 7.28 2.49
-1.99 7.24 2.49
-2.14 7.19 2.49
-2.28 7.14 2.49
-2.42 7.09 2.49
-2.56 7.04 2.49
-2.70 6.98 2.49
-2.83 6.92 2.49
-2.97 6.86 2.49
-3.10 6.80 2.49
-3.24 6.73 2.49
-3.37 6.66 2.49
-3.50 6.59 2.49
-3.62 6.51 2.49
-3.75 6.43 2.49
-3.87 6.35 2.49
-4.00 6.27 2.49
-4.12 6.18 2.49
-4.24 6.09 2.49
-4.35 6.00 2.49
-4.47 5.91 2.49
-4.58 5.81 2.49
-4.69 5.71 2.49
-4.80 5.61 2.49
-4.90 5.51 2.49
-5.01 5.41 2.49
-5.11 5.30 2.49
-5.21 5.19 2.49
-5.30 5.08 2.49
-5.40 4.97 2.49
-5.49 4.85 2.49
-5.58 4.74 2.49
-5.67 4.62 2.49
-5.75 4.50 2.49
-5.83 4.38 2.49
-5.91 4.26 2.49
-5.99 4.13 2.49
-6.06 4.01 2.49
-6.13 3.88 2.49
-6.17 3.73 2.48
-6.17 3.57 2.45
-6.17 3.41 2.43
-6.18 3.25 2.41
-6.18 3.10 2.39
-6.23 2.96 2.39
-6.28 2.83 2.39
-6.32 2.71 2.39
-6.38 2.58 2.39
-6.41 2.44 2.39
-6.45 2.31 2.39
-6.48 2.18 2.39
-6.51 2.05 2.39
-6.54 1.91 2.39
-6.57 1.78 2.39
-6.60 1.64 2.39
-6.62 1.51 2.39
-6.64 1.37 2.39
-6.65 1.24 2.39
-6.67 1.10 2.39
-6.68 0.97 2.39
-6.68 0.83 2.39
-6.69 0.70 2.39
-6.69 0.56 2.39
-6.69 0.43 2.39
-6.69 0.29 2.39
-6.68 0.16 2.39
-6.68 0.02 2.39
-6.66 -0.11 2.39
-6.65 -0.24 2.39
-6.63 -0.38 2.39
-6.62 -0.51 2.39
-6.59 -0.64 2.39
-6.57 -0.77 2.39
-6.54 -0.90 2.39
-6.51 -1.03 2.39
-6.48 -1.16 2.39
-6.45 -1.29 2.39
-6.41 -1.42 2.39
-6.37 -1.54 2.39
-6.34 -1.67 2.39
-6.29 -1.79 2.39
-6.24 -1.92 2.39
-6.19 -2.04 2.39
-6.14 -2.16 2.39
-6.13 -2.30 2.40
-6.13 -2.44 2.43
-6.13 -2.58 2.45
-6.13 -2.73 2.47
-6.11 -2.87 2.49
-6.04 -2.98 2.49
-5.97 -3.10 2.49
-5.90 -3.22 2.49
-5.82 -3.33 2.49
-5.75 -3.44 2.49
-5.67 -3.55 2.49
-5.59 -3.66 2.49
-5.51 -3.77 2.49
-5.43 -3.87 2.49
-5.34 -3.98 2.49
-5.25 -4.08 2.49
-5.16 -4.18 2.49
-5.07 -4.28 2.49
-4.98 -4.38 2.49
-4.88 -4.47 2.49
-4.79 -4.56 2.49
-4.69 -4.65 2.49
-4.59 -4.74 2.49
-4.49 -4.83 2.49
-4.39 -4.92 2.49
-4.28 -5.00 2.49
-4.18 -5.08 2.49
-4.07 -5.16 2.49
-3.96 -5.23 2.49
-3.85 -5.31 2.49
-3.74 -5.38 2.49
-3.63 -5.45 2.49
-3.51 -5.52 2.49
-3.40 -5.58 2.49
-3.28 -5.65 2.49
-3.16 -5.71 2.49
-3.05 -5.77 2.49
-2.93 -5.82 2.49
-2.81 -5.88 2.49
-2.69 -5.93 2.49
-2.56 -5.98 2.49
-2.44 -6.03 2.49
-2.32 -6.07 2.49
-2.19 -6.11 2.49
-2.07 -6.15 2.49
-1.94 -6.19 2.49
-1.81 -6.23 2.49
-1.69 -6.26 2.49
-1.56 -6.29 2.49
-1.43 -6.32 2.49
-1.30 -6.34 2.49
-1.17 -6.37 2.49
-1.04 -6.39 2.49
-0.91 -6.41 2.49
-0.78 -6.42 2.49
-0.65 -6.44 2.49
-0.52 -6.45 2.49
-0.39 -6.46 2.49
-0.26 -6.46 2.49
-0.13 -6.47 2.49
-0.00 -6.06 2.49
0.12 -6.06 2.49
0.25 -6.05 2.49
0.37 -6.05 2.49
0.49 -6.04 2.49
0.61 -6.03 2.49
0.73 -6.01 2.49
0.86 -6.00 2.49
0.98 -5.98 2.49
1.10 -5.96 2.49
1.22 -5.94 2.49
1.34 -5.92 2.49
1.46 -5.89 2.49
1.58 -5.86 2.49
1.70 -5.83 2.49
1.82 -5.80 2.49
1.90 -5.65 2.44
1.97 -5.49 2.39
2.08 -5.45 2.39
2.19 -5.41 2.39
2.30 -5.36 2.39
2.41 -5.32 2.39
2.52 -5.27 2.39
2.63 -5.22 2.39
2.73 -5.17 2.39
2.84 -5.12 2.39
2.94 -5.06 2.39
3.05 -5.01 2.39
3.15 -4.95 2.39
3.25 -4.89 2.39
3.35 -4.82 2.39
3.45 -4.76 2.39
3.55 -4.69 2.39
3.65 -4.62 2.39
3.75 -4.55 2.39
3.84 -4.48 2.39
3.93 -4.40 2.39
4.03 -4.33 2.39
4.12 -4.25 2.39
4.20 -4.17 2.39
4.29 -4.09 2.39
4.38 -4.00 2.39
4.46 -3.92 2.39
4.55 -3.83 2.39
4.63 -3.74 2.39
4.71 -3.65 2.39
4.79 -3.56 2.39
4.86 -3.47 2.39
4.94 -3.37 2.39
5.01 -3.28 2.39
5.08 -3.18 2.39
5.15 -3.08 2.39
5.22 -2.98 2.39
5.28 -2.88 2.39
5.35 -2.77 2.39
5.41 -2.67 2.39
5.47 -2.56 2.39
5.52 -2.45 2.39
5.44 -2.29 2.33
5.44 -2.16 2.30
5.44 -2.03 2.28
5.44 -1.91 2.26
5.42 -1.78 2.24
5.42 -1.66 2.22
5.41 -1.54 2.20
5.41 -1.42 2.19
5.41 -1.31 2.17
5.41 -1.19 2.16
5.41 -1.08 2.15
5.41 -0.97 2.14
5.41 -0.85 2.12
5.41 -0.74 2.12
5.41 -0.63 2.11
5.41 -0.52 2.10
5.41 -0.41 2.09
6.23 -0.35 2.40
6.24 -0.22 2.40
6.25 -0.10 2.40
6.25 0.03 2.40
6.26 0.15 2.40
6.26 0.28 2.39
6.07 0.39 2.32
6.07 0.51 2.32
5.94 0.62 2.27
5.91 0.74 2.26
5.94 0.86 2.28
5.94 0.99 2.28
5.94 1.11 2.29
5.91 1.23 2.28
5.91 1.35 2.29
5.94 1.48 2.31
5.94 1.61 2.32
5.94 1.74 2.32
5.90 1.86 2.32
5.90 1.99 2.33
5.90 2.12 2.35
5.93 2.27 2.37
5.93 2.40 2.39
5.88 2.52 2.39
5.84 2.64 2.39
5.80 2.76 2.39
5.75 2.88 2.39
5.70 3.00 2.39
5.64 3.12 2.39
5.59 3.23 2.39
5.53 3.35 2.39
5.47 3.46 2.39
5.40 3.58 2.39
5.34 3.69 2.39
5.27 3.80 2.39
5.20 3.91 2.39
5.12 4.01 2.39
5.05 4.12 2.39
4.97 4.23 2.39
4.89 4.33 2.39
4.81 4.43 2.39
4.73 4.53 2.39
4.64 4.63 2.39
4.55 4.73 2.39
4.46 4.82 2.39
4.37 4.91 2.39
4.27 5.00 2.39
4.18 5.09 2.39
4.08 5.18 2.39
3.98 5.27 2.39
3.88 5.35 2.39
3.77 5.43 2.39
3.67 5.51 2.39
3.56 5.59 2.39
3.45 5.66 2.39
3.34 5.73 2.39
3.23 5.80 2.39
3.11 5.87 2.39
3.00 5.93 2.39
2.88 6.00 2.39
2.76 6.06 2.39
2.64 6.11 2.39
2.52 6.17 2.39
2.40 6.22 2.39
2.28 6.27 2.39
2.15 6.32 2.39
2.03 6.36 2.39
1.90 6.41 2.39
1.85 6.72 2.49
1.72 6.76 2.49
1.58 6.80 2.49
1.45 6.83 2.49
1.31 6.86 2.49
1.18 6.89 2.49
1.04 6.91 2.49
0.90 6.93 2.49
0.76 6.95 2.49
0.62 6.96 2.49
0.49 6.98 2.49
0.35 6.98 2.49
0.21 6.99 2.49
0.07 6.99 2.49
-0.07 6.99 2.49
-0.21 6.99 2.49
-0.35 6.98 2.49
-0.49 6.98 2.49
-0.63 6.96 2.49
-0.76 6.95 2.49
-0.90 6.93 2.49
-1.04 6.91 2.49
-1.18 6.89 2.49
-1.31 6.86 2.49
-1.45 6.83 2.49
-1.58 6.80 2.49
-1.72 6.76 2.49
-1.85 6.72 2.49
-1.98 6.68 2.49
-2.12 6.64 2.49
-2.25 6.59 2.49
-2.38 6.54 2.49
-2.50 6.49 2.49
-2.63 6.44 2.49
-2.76 6.38 2.49
-2.88 6.32 2.49
-3.01 6.26 2.49
-3.13 6.19 2.49
-3.25 6.12 2.49
-3.37 6.05 2.49
-3.49 5.98 2.49
-3.60 5.91 2.49
-3.71 5.83 2.49
-3.83 5.75 2.49
-3.94 5.67 2.49
-4.05 5.58 2.49
-4.15 5.50 2.49
-4.26 5.41 2.49
-4.36 5.32 2.49
-4.46 5.22 2.49
-4.56 5.13 2.49
-4.66 5.03 2.49
-4.75 4.93 2.49
-4.84 4.83 2.49
-4.93 4.73 2.49
-5.02 4.63 2.49
-5.11 4.52 2.49
-5.19 4.41 2.49
-5.27 4.30 2.49
-5.35 4.19 2.49
-5.43 4.08 2.49
-5.50 3.96 2.49
-5.57 3.85 2.49
-5.64 3.73 2.49
-5.71 3.61 2.49
-5.77 3.50 2.49
-5.83 3.38 2.49
-5.89 3.25 2.49
-5.95 3.13 2.49
-6.00 3.01 2.49
-6.05 2.88 2.49
-6.10 2.76 2.49
-6.15 2.63 2.49
-6.17 2.50 2.48
-6.17 2.35 2.46
-6.17 2.21 2.45
-6.16 2.08 2.44
-6.17 1.94 2.42
-6.17 1.81 2.41
-6.17 1.67 2.40
-6.17 1.54 2.40
-6.17 1.41 2.39
-6.19 1.28 2.39
-6.20 1.16 2.39
-6.22 1.03 2.39
-6.23 0.91 2.39
-6.23 0.78 2.39
-6.24 0.65 2.39
-6.24 0.53 2.39
-6.24 0.40 2.39
-6.24 0.28 2.39
-6.24 0.15 2.39
-6.23 0.03 2.39
-6.22 -0.10 2.39
-6.21 -0.22 2.39
-6.19 -0.35 2.39
-6.18 -0.47 2.39
-6.17 -0.59 2.39
-6.16 -0.72 2.40
-6.16 -0.85 2.41
-6.16 -0.97 2.42
-6.14 -1.09 2.42
-6.14 -1.22 2.43
-6.14 -1.35 2.44
-6.14 -1.48 2.46
-6.13 -1.61 2.47
-6.13 -1.74 2.49
-6.08 -1.86 2.49
-6.04 -1.98 2.49
-5.99 -2.10 2.49
-5.94 -2.22 2.49
-5.88 -2.33 2.49
-5.83 -2.45 2.49
-5.77 -2.56 2.49
-5.71 -2.67 2.49
-5.65 -2.79 2.49
-5.58 -2.90 2.49
-5.52 -3.00 2.49
-5.45 -3.11 2.49
-5.38 -3.22 2.49
-5.30 -3.32 2.49
-5.23 -3.42 2.49
-5.15 -3.52 2.49
-5.08 -3.62 2.49
-5.00 -3.72 2.49
-4.91 -3.81 2.49
-4.83 -3.91 2.49
-4.75 -4.00 2.49
-4.66 -4.09 2.49
-4.57 -4.18 2.49
-4.48 -4.27 2.49
-4.39 -4.35 2.49
-4.30 -4.44 2.49
-4.20 -4.52 2.49
-4.11 -4.60 2.49
-4.01 -4.68 2.49
-3.91 -4.75 2.49
-3.81 -4.83 2.49
-3.71 -4.90 2.49
-3.61 -4.97 2.49
-3.50 -5.03 2.49
-3.40 -5.10 2.49
-3.29 -5.16 2.49
-3.18 -5.23 2.49
-3.07 -5.29 2.49
-2.96 -5.34 2.49
-2.85 -5.40 2.49
-2.74 -5.45 2.49
-2.63 -5.50 2.49
-2.52 -5.55 2.49
-2.40 -5.60 2.49
-2.29 -5.64 2.49
-2.17 -5.68 2.49
-2.05 -5.72 2.49
-1.94 -5.76 2.49
-1.82 -5.80 2.49
-1.70 -5.83 2.49
-1.58 -5.86 2.49
-1.46 -5.89 2.49
-1.34 -5.92 2.49
-1.22 -5.94 2.49
-1.10 -5.96 2.49
-0.98 -5.98 2.49
-0.86 -6.00 2.49
-0.74 -6.02 2.49
-0.61 -6.03 2.49
-0.49 -6.04 2.49
-0.37 -6.05 2.49
-0.25 -6.05 2.49
-0.12 -6.06 2.49
-0.00 -5.69 2.49
0.11 -5.69 2.49
0.23 -5.68 2.49
0.35 -5.68 2.49
0.46 -5.67 2.49
0.58 -5.66 2.49
0.69 -5.65 2.49
0.80 -5.63 2.49
0.92 -5.62 2.49
1.03 -5.60 2.49
1.15 -5.58 2.49
1.26 -5.56 2.49
1.37 -5.53 2.49
1.48 -5.50 2.49
1.60 -5.47 2.49
1.71 -5.44 2.49
1.82 -5.41 2.49
1.89 -5.28 2.45
1.95 -5.12 2.39
2.06 -5.08 2.39
2.16 -5.04 2.39
2.26 -4.99 2.39
2.37 -4.95 2.39
2.47 -4.90 2.39
2.57 -4.86 2.39
2.67 -4.81 2.39
2.77 -4.75 2.39
2.86 -4.70 2.39
2.96 -4.64 2.39
3.06 -4.59 2.39
3.15 -4.53 2.39
3.24 -4.47 2.39
3.34 -4.40 2.39
3.43 -4.34 2.39
3.52 -4.27 2.39
3.61 -4.20 2.39
3.69 -4.13 2.39
3.78 -4.06 2.39
3.86 -3.99 2.39
3.95 -3.91 2.39
4.03 -3.83 2.39
4.11 -3.76 2.39
4.19 -3.68 2.39
4.27 -3.59 2.39
4.34 -3.51 2.39
4.42 -3.43 2.39
4.49 -3.34 2.39
4.56 -3.25 2.39
4.63 -3.16 2.39
4.70 -3.07 2.39
4.77 -2.98 2.39
4.83 -2.89 2.39
4.89 -2.79 2.39
4.96 -2.70 2.39
5.01 -2.60 2.39
5.07 -2.50 2.39
5.13 -2.40 2.39
5.18 -2.30 2.39
5.23 -2.20 2.39
5.28 -2.09 2.39
5.33 -1.99 2.39
5.38 -1.88 2.39
5.42 -1.78 2.39
5.44 -1.66 2.38
5.44 -1.54 2.36
5.44 -1.43 2.34
5.44 -1.31 2.33
5.44 -1.19 2.31
5.44 -1.08 2.30
5.44 -0.97 2.29
5.44 -0.85 2.28
5.43 -0.74 2.27
5.43 -0.63 2.26
5.41 -0.52 2.24
5.41 -0.41 2.23
5.79 -0.32 2.39
5.81 -0.21 2.39
5.82 -0.09 2.39
5.83 0.03 2.39
5.83 0.15 2.39
5.84 0.26 2.39
5.84 0.38 2.39
5.84 0.50 2.39
5.84 0.62 2.39
5.83 0.73 2.39
5.82 0.85 2.39
5.81 0.97 2.39
5.80 1.09 2.39
5.78 1.20 2.39
5.77 1.32 2.39
5.75 1.44 2.39
5.72 1.56 2.39
5.70 1.67 2.39
5.67 1.79 2.39
5.64 1.90 2.39
5.61 2.02 2.39
5.58 2.13 2.39
5.54 2.25 2.39
5.50 2.36 2.39
5.46 2.47 2.39
5.42 2.59 2.39
5.37 2.70 2.39
5.32 2.81 2.39
5.27 2.92 2.39
5.22 3.03 2.39
5.16 3.13 2.39
5.11 3.24 2.39
5.05 3.34 2.39
4.98 3.45 2.39
4.92 3.55 2.39
4.85 3.65 2.39
4.79 3.75 2.39
4.72 3.85 2.39
4.64 3.95 2.39
4.57 4.05 2.39
4.49 4.14 2.39
4.41 4.23 2.39
4.33 4.33 2.39
4.25 4.42 2.39
4.16 4.50 2.39
4.08 4.59 2.39
3.99 4.67 2.39
3.90 4.76 2.39
3.81 4.84 2.39
3.71 4.92 2.39
3.62 5.00 2.39
3.52 5.07 2.39
3.42 5.14 2.39
3.32 5.22 2.39
3.22 5.28 2.39
3.11 5.35 2.39
3.01 5.42 2.39
2.90 5.48 2.39
2.80 5.54 2.39
2.69 5.60 2.39
2.58 5.65 2.39
2.46 5.71 2.39
2.35 5.76 2.39
2.24 5.81 2.39
2.12 5.85 2.39
2.01 5.90 2.39
1.89 5.94 2.39
1.85 6.24 2.49
1.73 6.27 2.49
1.60 6.31 2.49
1.48 6.34 2.49
1.35 6.37 2.49
1.22 6.40 2.49
1.10 6.42 2.49
0.97 6.45 2.49
0.84 6.47 2.49
0.71 6.48 2.49
0.58 6.50 2.49
0.45 6.51 2.49
0.32 6.52 2.49
0.19 6.52 2.49
0.06 6.52 2.49
-0.07 6.52 2.49
-0.20 6.52 2.49
-0.32 6.52 2.49
-0.45 6.51 2.49
-0.58 6.50 2.49
-0.71 6.48 2.49
-0.84 6.47 2.49
-0.97 6.45 2.49
-1.10 6.43 2.49
-1.22 6.40 2.49
-1.35 6.37 2.49
-1.48 6.34 2.49
-1.60 6.31 2.49
-1.73 6.28 2.49
-1.85 6.24 2.49
-1.97 6.20 2.49
-2.10 6.15 2.49
-2.22 6.11 2.49
-2.34 6.06 2.49
-2.46 6.01 2.49
-2.57 5.96 2.49
-2.69 5.90 2.49
-2.80 5.84 2.49
-2.92 5.78 2.49
-3.03 5.72 2.49
-3.14 5.65 2.49
-3.25 5.58 2.49
-3.36 5.51 2.49
-3.47 5.44 2.49
-3.57 5.37 2.49
-3.67 5.29 2.49
-3.78 5.21 2.49
-3.88 5.13 2.49
-3.97 5.05 2.49
-4.07 4.97 2.49
-4.16 4.88 2.49
-4.26 4.79 2.49
-4.35 4.70 2.49
-4.44 4.61 2.49
-4.52 4.52 2.49
-4.61 4.42 2.49
-4.69 4.32 2.49
-4.77 4.22 2.49
-4.85 4.12 2.49
-4.92 4.02 2.49
-5.00 3.92 2.49
-5.07 3.81 2.49
-5.14 3.71 2.49
-5.20 3.60 2.49
-5.27 3.49 2.49
-5.33 3.38 2.49
-5.39 3.27 2.49
-5.45 3.16 2.49
-5.50 3.04 2.49
-5.56 2.93 2.49
-5.61 2.82 2.49
-5.66 2.70 2.49
-5.70 2.58 2.49
-5.74 2.47 2.49
-5.79 2.35 2.49
-5.82 2.23 2.49
-5.86 2.11 2.49
-5.89 1.99 2.49
-5.92 1.87 2.49
-5.95 1.75 2.49
-5.98 1.62 2.49
-6.00 1.50 2.49
-6.02 1.38 2.49
-6.04 1.26 2.49
-6.06 1.13 2.49
-6.07 1.01 2.49
-6.08 0.89 2.49
-6.09 0.77 2.49
-6.09 0.64 2.49
-6.10 0.52 2.49
-6.10 0.40 2.49
-6.10 0.27 2.49
-6.09 0.15 2.49
-6.08 0.03 2.49
-6.08 -0.09 2.49
-6.06 -0.21 2.49
-6.05 -0.34 2.49
-6.03 -0.46 2.49
-6.02 -0.58 2.49
-5.99 -0.70 2.49
-5.97 -0.82 2.49
-5.95 -0.93 2.49
-5.92 -1.05 2.49
-5.89 -1.17 2.49
-5.86 -1.29 2.49
-5.82 -1.40 2.49
-5.78 -1.52 2.49
-5.74 -1.63 2.49
-5.70 -1.74 2.49
-5.66 -1.86 2.49
-5.61 -1.97 2.49
-5.57 -2.08 2.49
-5.52 -2.19 2.49
-5.46 -2.29 2.49
-5.41 -2.40 2.49
-5.35 -2.50 2.49
-5.30 -2.61 2.49
-5.24 -2.71 2.49
-5.17 -2.81 2.49
-5.11 -2.91 2.49
-5.04 -3.01 2.49
-4.98 -3.11 2.49
-4.91 -3.21 2.49
-4.84 -3.30 2.49
-4.76 -3.39 2.49
-4.69 -3.49 2.49
-4.61 -3.58 2.49
-4.53 -3.66 2.49
-4.46 -3.75 2.49
-4.37 -3.84 2.49
-4.29 -3.92 2.49
-4.21 -4.00 2.49
-4.12 -4.08 2.49
-4.03 -4.16 2.49
-3.95 -4.24 2.49
-3.86 -4.31 2.49
-3.76 -4.39 2.49
-3.67 -4.46 2.49
-3.58 -4.53 2.49
-3.48 -4.60 2.49
-3.39 -4.66 2.49
-3.29 -4.73 2.49
-3.19 -4.79 2.49
-3.09 -4.85 2.49
-2.99 -4.91 2.49
-2.89 -4.96 2.49
-2.78 -5.02 2.49
-2.68 -5.07 2.49
-2.58 -5.12 2.49
-2.47 -5.17 2.49
-2.36 -5.21 2.49
-2.26 -5.26 2.49
-2.15 -5.30 2.49
-2.04 -5.34 2.49
-1.93 -5.38 2.49
-1.82 -5.41 2.49
-1.71 -5.44 2.49
-1.60 -5.48 2.49
-1.49 -5.51 2.49
-1.37 -5.53 2.49
-1.26 -5.56 2.49
-1.15 -5.58 2.49
-1.03 -5.60 2.49
-0.92 -5.62 2.49
-0.81 -5.64 2.49
-0.69 -5.65 2.49
-0.58 -5.66 2.49
-0.46 -5.67 2.49
-0.35 -5.68 2.49
-0.23 -5.68 2.49
-0.12 -5.69 2.49
-0.00 -5.36 2.49
0.11 -5.36 2.49
0.22 -5.35 2.49
0.33 -5.35 2.49
0.43 -5.34 2.49
0.54 -5.33 2.49
0.65 -5.32 2.49
0.76 -5.31 2.49
0.87 -5.29 2.49
0.97 -5.27 2.49
1.08 -5.25 2.49
1.19 -5.23 2.49
1.29 -5.21 2.49
1.40 -5.18 2.49
1.50 -5.15 2.49
1.61 -5.12 2.49
1.71 -5.09 2.49
1.82 -5.06 2.49
1.89 -4.95 2.45
1.94 -4.78 2.39
2.04 -4.74 2.39
2.13 -4.70 2.39
2.23 -4.66 2.39
2.32 -4.62 2.39
2.42 -4.57 2.39
2.51 -4.52 2.39
2.61 -4.47 2.39
2.70 -4.42 2.39
2.79 -4.37 2.39
2.88 -4.32 2.39
2.97 -4.26 2.39
3.05 -4.20 2.39
3.14 -4.14 2.39
3.23 -4.08 2.39
3.31 -4.02 2.39
3.40 -3.95 2.39
3.48 -3.89 2.39
3.56 -3.82 2.39
3.64 -3.75 2.39
3.72 -3.68 2.39
3.79 -3.61 2.39
3.87 -3.53 2.39
3.94 -3.46 2.39
4.02 -3.38 2.39
4.09 -3.30 2.39
4.16 -3.22 2.39
4.23 -3.14 2.39
4.29 -3.06 2.39
4.36 -2.97 2.39
4.42 -2.89 2.39
4.48 -2.80 2.39
4.55 -2.71 2.39
4.60 -2.62 2.39
4.66 -2.53 2.39
4.72 -2.44 2.39
4.77 -2.35 2.39
4.82 -2.25 2.39
4.87 -2.16 2.39
4.92 -2.06 2.39
4.97 -1.96 2.39
5.01 -1.87 2.39
5.05 -1.77 2.39
5.10 -1.67 2.39
5.13 -1.57 2.39
5.17 -1.46 2.39
5.21 -1.36 2.39
5.24 -1.26 2.39
5.27 -1.15 2.39
5.30 -1.05 2.39
5.33 -0.94 2.39
5.35 -0.84 2.39
5.37 -0.73 2.39
5.39 -0.62 2.39
5.41 -0.52 2.39
5.43 -0.41 2.39
5.44 -0.30 2.39
5.46 -0.19 2.39
