ply
format ascii 1.0
element vertex 2959
property float32 x
property float32 y
property float32 z
end_header
-9.89 -4.79 1.43
-9.89 -5.04 1.44
-9.89 -5.29 1.45
-9.89 -5.55 1.46
-9.85 -5.79 1.46
-9.90 -6.08 1.48
-9.90 -6.36 1.49
-9.90 -6.65 1.50
-9.91 -6.94 1.52
-9.91 -7.24 1.53
-9.91 -7.56 1.55
-9.92 -7.88 1.57
-9.92 -8.21 1.59
-9.92 -8.55 1.61
-9.93 -8.91 1.63
-9.93 -9.28 1.65
-9.94 -9.66 1.68
-9.94 -10.06 1.70
-9.94 -10.47 1.73
-9.95 -10.91 1.76
-9.95 -11.36 1.79
-9.96 -11.84 1.83
-9.96 -12.34 1.87
-9.97 -12.86 1.91
-9.97 -13.41 1.95
-9.92 -13.91 1.99
-9.99 -14.62 2.05
-9.99 -15.27 2.11
-9.94 -15.88 2.16
-10.06 -18.45 2.39
-9.73 -18.71 2.39
-9.38 -18.96 2.39
-9.03 -19.21 2.39
-8.67 -19.45 2.39
-8.30 -19.67 2.39
-7.93 -19.89 2.39
-7.55 -20.10 2.39
-6.49 -18.39 2.17
-6.44 -19.48 2.28
-6.38 -20.68 2.39
-6.24 -21.75 2.50
-5.82 -21.92 2.50
-5.39 -22.08 2.50
-4.96 -22.23 2.50
-4.52 -22.37 2.50
-4.08 -22.49 2.50
-3.64 -22.61 2.50
-3.19 -22.71 2.50
-2.74 -22.80 2.50
-2.28 -22.89 2.50
-1.83 -22.95 2.50
-1.37 -23.01 2.50
-0.91 -23.06 2.50
-0.45 -23.09 2.50
0.01 -19.08 2.50
0.39 -19.08 2.50
0.77 -19.08 2.50
1.16 -19.07 2.50
1.54 -19.04 2.50
1.92 -19.01 2.50
2.30 -18.97 2.50
2.56 -18.14 2.39
2.92 -18.08 2.39
3.28 -18.01 2.39
3.64 -17.93 2.39
4.00 -17.85 2.39
4.35 -17.75 2.39
4.70 -17.65 2.39
5.05 -17.54 2.39
5.39 -17.42 2.39
5.73 -17.29 2.39
6.07 -17.15 2.39
6.45 -17.12 2.41
6.78 -16.96 2.41
7.11 -16.80 2.41
7.43 -16.63 2.41
7.75 -16.45 2.41
8.06 -16.26 2.41
8.37 -16.07 2.41
8.67 -15.87 2.41
8.97 -15.66 2.41
9.26 -15.45 2.41
9.08 -14.49 2.29
9.24 -14.11 2.27
9.39 -13.73 2.24
9.53 -13.36 2.22
9.68 -13.00 2.19
9.81 -12.65 2.17
9.94 -12.30 2.15
10.07 -11.96 2.13
10.19 -11.62 2.12
10.30 -11.29 2.10
10.42 -10.97 2.08
10.60 -10.72 2.08
10.85 -10.54 2.10
11.09 -10.36 2.11
11.33 -10.16 2.12
11.57 -9.97 2.14
10.49 -8.67 1.91
9.88 -7.84 1.78
10.06 -7.67 1.79
10.25 -7.49 1.80
10.43 -7.31 1.81
10.62 -7.13 1.83
10.81 -6.94 1.84
6.87 -4.22 1.16
6.78 -3.98 1.14
6.73 -3.77 1.12
6.72 -3.60 1.11
6.68 -3.40 1.10
6.63 -3.21 1.08
6.52 -3.00 1.06
6.48 -2.82 1.04
6.44 -2.65 1.03
6.40 -2.49 1.02
6.36 -2.33 1.01
6.33 -2.17 1.01
6.32 -2.03 1.00
6.32 -1.89 1.00
6.32 -1.76 1.00
6.32 -1.62 1.00
6.33 -1.49 1.00
6.33 -1.35 1.00
6.33 -1.22 1.00
6.33 -1.09 1.00
6.33 -0.96 1.00
6.33 -0.83 1.00
6.33 -0.70 1.00
6.33 -0.58 1.01
6.34 -0.45 1.01
6.34 -0.32 1.01
6.34 -0.19 1.02
6.33 -0.07 1.02
6.34 0.06 1.02
6.34 0.19 1.03
6.34 0.32 1.03
6.34 0.44 1.04
6.34 0.57 1.05
6.34 0.70 1.05
6.35 0.83 1.06
6.41 0.97 1.08
6.41 1.10 1.09
6.38 1.23 1.09
6.38 1.36 1.10
6.38 1.50 1.11
6.42 1.64 1.12
6.42 1.78 1.13
6.55 1.96 1.17
11.40 3.66 2.06
11.40 3.92 2.08
11.40 4.17 2.10
11.41 4.44 2.13
11.41 4.70 2.15
11.36 4.95 2.17
11.16 5.13 2.16
10.95 5.31 2.15
10.71 5.46 2.13
10.59 5.67 2.13
10.49 5.89 2.14
10.39 6.11 2.16
10.28 6.33 2.17
10.18 6.55 2.18
10.08 6.78 2.20
9.98 7.01 2.21
9.88 7.24 2.23
9.79 7.48 2.25
9.69 7.72 2.27
9.59 7.96 2.29
9.47 8.19 2.31
9.34 8.41 2.32
9.21 8.64 2.34
9.08 8.86 2.36
8.94 9.08 2.38
8.83 9.34 2.40
8.64 9.52 2.41
8.42 9.66 2.41
8.20 9.80 2.41
7.98 9.94 2.41
7.76 10.07 2.41
7.52 10.19 2.41
7.23 10.21 2.38
7.01 10.33 2.38
6.78 10.44 2.38
6.55 10.55 2.38
6.32 10.66 2.38
6.12 10.81 2.39
5.89 10.91 2.39
5.66 11.01 2.39
5.43 11.10 2.39
5.19 11.18 2.39
4.96 11.27 2.39
4.72 11.34 2.39
4.48 11.42 2.39
4.24 11.49 2.39
4.01 11.55 2.39
3.77 11.61 2.39
3.53 11.67 2.39
3.28 11.72 2.39
3.04 11.77 2.39
2.52 10.64 2.16
2.56 11.86 2.39
2.32 11.89 2.39
2.13 12.24 2.46
1.91 12.47 2.50
1.66 12.50 2.50
1.40 12.52 2.50
1.15 12.53 2.50
0.90 12.55 2.50
0.64 12.55 2.50
0.39 12.56 2.50
0.13 12.56 2.50
-0.12 12.55 2.50
-0.37 12.54 2.50
-0.63 12.53 2.50
-0.88 12.51 2.50
-1.13 12.49 2.50
-1.38 12.47 2.50
-1.63 12.44 2.50
-1.89 12.40 2.50
-2.14 12.36 2.50
-2.39 12.32 2.50
-2.63 12.27 2.50
-2.88 12.22 2.50
-3.13 12.17 2.50
-3.38 12.11 2.50
-3.62 12.05 2.50
-3.87 11.98 2.50
-4.11 11.91 2.50
-4.36 11.83 2.50
-4.60 11.75 2.50
-4.84 11.67 2.50
-5.08 11.58 2.50
-5.32 11.49 2.50
-5.55 11.39 2.50
-5.79 11.29 2.50
-5.93 11.01 2.46
-6.00 10.62 2.39
-6.22 10.51 2.39
-6.44 10.40 2.39
-6.66 10.28 2.39
-6.88 10.16 2.39
-7.09 10.04 2.39
-7.31 9.91 2.39
-7.52 9.78 2.39
-7.73 9.64 2.39
-7.94 9.50 2.39
-8.14 9.36 2.39
-8.35 9.21 2.39
-8.55 9.06 2.39
-8.75 8.91 2.39
-8.95 8.75 2.39
-9.15 8.59 2.39
-9.34 8.42 2.39
-9.53 8.25 2.39
-9.72 8.08 2.39
-9.91 7.90 2.39
-9.71 6.54 2.19
-9.72 6.26 2.15
-9.75 6.01 2.13
-9.78 5.76 2.10
-9.78 5.50 2.07
-9.78 5.24 2.04
-9.78 4.99 2.02
-9.79 4.75 1.99
-9.79 4.51 1.97
-9.79 4.27 1.94
-9.79 4.04 1.92
-9.80 3.81 1.90
-9.80 3.59 1.88
-9.80 3.37 1.86
-9.80 3.15 1.84
-9.81 2.93 1.82
-9.81 2.72 1.81
-9.81 2.51 1.79
-9.81 2.30 1.78
-9.76 2.08 1.75
-9.82 1.89 1.75
-9.82 1.69 1.74
-9.82 1.48 1.72
-9.82 1.28 1.71
-9.82 1.08 1.70
-9.83 0.88 1.69
-9.83 0.69 1.68
-9.83 0.49 1.68
-9.83 0.29 1.67
-9.84 0.09 1.66
-9.84 -0.10 1.65
-9.84 -0.30 1.65
-9.84 -0.50 1.64
-9.84 -0.70 1.64
-9.85 -0.90 1.64
-9.85 -1.10 1.63
-9.85 -1.30 1.63
-9.85 -1.50 1.63
-9.85 -1.70 1.63
-9.79 -1.89 1.62
-9.86 -2.11 1.63
-9.86 -2.32 1.63
-9.86 -2.53 1.63
-9.86 -2.74 1.63
-9.87 -2.96 1.63
-9.87 -3.18 1.64
-9.87 -3.40 1.64
-9.87 -3.62 1.65
-9.88 -3.85 1.65
-9.88 -4.08 1.66
-9.88 -4.31 1.67
-9.88 -4.55 1.68
-9.89 -4.80 1.68
-9.89 -5.04 1.69
-9.89 -5.30 1.71
-9.89 -5.56 1.72
-9.85 -5.79 1.72
-9.90 -6.09 1.75
-9.90 -6.37 1.76
-9.90 -6.66 1.78
-9.91 -6.95 1.80
-9.91 -7.25 1.81
-9.91 -7.57 1.84
-9.92 -7.89 1.86
-9.92 -8.22 1.88
-9.92 -8.56 1.91
-9.93 -8.92 1.93
-9.93 -9.29 1.96
-6.66 -6.48 1.34
-9.94 -10.07 2.03
-9.94 -10.49 2.06
-9.95 -10.92 2.10
-9.92 -11.34 2.13
-9.90 -11.78 2.17
-9.95 -12.34 2.23
-9.97 -14.00 2.39
-9.72 -14.24 2.39
-9.46 -14.48 2.39
-9.20 -14.71 2.39
-8.93 -14.94 2.39
-8.66 -15.16 2.39
-8.38 -15.37 2.39
-8.09 -15.58 2.39
-7.80 -15.78 2.39
-7.50 -15.97 2.39
-7.20 -16.16 2.39
-6.89 -16.34 2.39
-6.58 -16.52 2.39
-6.26 -16.69 2.39
-6.20 -17.57 2.50
-5.86 -17.73 2.50
-5.51 -17.88 2.50
-5.16 -18.02 2.50
-4.81 -18.15 2.50
-4.46 -18.28 2.50
-4.10 -18.40 2.50
-3.74 -18.50 2.50
-3.37 -18.60 2.50
-3.00 -18.69 2.50
-2.63 -18.77 2.50
-2.26 -18.85 2.50
-1.88 -18.91 2.50
-1.51 -18.96 2.50
-1.13 -19.01 2.50
-0.75 -19.04 2.50
-0.37 -19.06 2.50
0.01 -16.23 2.50
0.34 -16.23 2.50
0.66 -16.23 2.50
0.98 -16.22 2.50
1.31 -16.20 2.50
1.63 -16.17 2.50
1.88 -15.51 2.40
2.18 -15.43 2.39
2.49 -15.38 2.39
2.79 -15.32 2.39
3.10 -15.25 2.39
3.40 -15.18 2.39
3.70 -15.10 2.39
4.00 -15.02 2.39
4.29 -14.92 2.39
4.59 -14.82 2.39
4.88 -14.72 2.39
5.17 -14.60 2.39
5.45 -14.48 2.39
5.73 -14.35 2.39
6.05 -14.31 2.41
6.33 -14.17 2.41
6.60 -14.02 2.41
6.87 -13.87 2.41
7.13 -13.71 2.41
7.39 -13.54 2.41
7.65 -13.36 2.41
7.90 -13.19 2.41
8.14 -13.00 2.41
8.39 -12.81 2.41
8.56 -12.52 2.39
8.70 -12.20 2.37
8.84 -11.88 2.35
8.97 -11.57 2.32
9.09 -11.26 2.30
9.23 -10.97 2.29
9.36 -10.68 2.27
9.49 -10.40 2.26
9.61 -10.12 2.24
9.72 -9.84 2.23
9.82 -9.55 2.21
9.92 -9.27 2.20
10.04 -9.01 2.19
10.16 -8.76 2.19
10.28 -8.51 2.18
9.87 -7.85 2.07
10.06 -7.67 2.08
10.24 -7.49 2.09
10.43 -7.31 2.11
10.62 -7.13 2.12
10.80 -6.95 2.14
6.88 -4.23 1.35
6.78 -3.99 1.32
6.73 -3.78 1.30
6.73 -3.60 1.29
6.68 -3.41 1.27
6.63 -3.22 1.25
6.59 -3.04 1.24
6.51 -2.84 1.21
6.47 -2.67 1.20
6.43 -2.51 1.19
6.43 -2.36 1.18
6.39 -2.20 1.17
6.38 -2.05 1.17
6.38 -1.91 1.16
6.35 -1.77 1.16
6.35 -1.63 1.15
6.35 -1.50 1.15
6.39 -1.37 1.16
6.39 -1.24 1.16
6.39 -1.11 1.16
6.39 -0.97 1.16
6.39 -0.84 1.16
6.36 -0.71 1.16
6.36 -0.58 1.16
6.36 -0.45 1.16
6.40 -0.33 1.17
6.40 -0.20 1.17
6.39 -0.07 1.18
6.40 0.06 1.18
6.36 0.18 1.18
6.37 0.31 1.19
6.37 0.44 1.19
6.40 0.57 1.20
6.40 0.70 1.21
6.41 0.83 1.22
6.41 0.96 1.23
6.41 1.10 1.24
6.38 1.22 1.24
6.38 1.36 1.25
6.38 1.49 1.26
6.42 1.64 1.28
6.42 1.78 1.29
6.55 1.95 1.33
10.46 3.35 2.14
10.41 3.57 2.15
10.35 3.78 2.16
10.29 3.99 2.17
10.22 4.21 2.19
10.16 4.42 2.20
10.08 4.63 2.21
10.01 4.84 2.22
9.93 5.05 2.23
9.84 5.26 2.24
9.74 5.46 2.25
9.65 5.67 2.26
9.55 5.87 2.27
9.46 6.08 2.29
9.36 6.29 2.30
9.27 6.50 2.32
9.17 6.71 2.33
9.06 6.92 2.35
8.96 7.13 2.36
8.86 7.35 2.38
8.74 7.55 2.40
8.61 7.74 2.41
8.43 7.89 2.41
8.24 8.04 2.41
8.06 8.18 2.41
7.87 8.32 2.41
7.68 8.46 2.41
7.49 8.59 2.41
7.30 8.72 2.41
7.11 8.84 2.41
6.91 8.96 2.41
6.71 9.08 2.41
6.52 9.19 2.41
6.32 9.30 2.41
6.07 9.35 2.39
5.87 9.45 2.39
5.67 9.54 2.39
5.46 9.64 2.39
5.26 9.73 2.39
5.05 9.82 2.39
4.84 9.90 2.39
4.64 9.98 2.39
4.43 10.05 2.39
4.22 10.12 2.39
4.00 10.19 2.39
3.79 10.25 2.39
3.58 10.31 2.39
3.20 9.84 2.27
3.15 10.42 2.39
2.94 10.47 2.39
2.72 10.52 2.39
2.51 10.56 2.39
2.30 10.65 2.41
2.11 10.84 2.44
1.94 11.12 2.50
1.71 11.15 2.50
1.48 11.17 2.50
1.26 11.19 2.50
1.03 11.21 2.50
0.80 11.22 2.50
0.58 11.22 2.50
0.35 11.23 2.50
0.12 11.23 2.50
-0.11 11.23 2.50
-0.33 11.22 2.50
-0.56 11.21 2.50
-0.79 11.19 2.50
-1.01 11.17 2.50
-1.24 11.15 2.50
-1.46 11.12 2.50
-1.69 11.09 2.50
-1.91 11.06 2.50
-2.13 11.02 2.50
-2.36 10.98 2.50
-2.58 10.93 2.50
-2.80 10.88 2.50
-3.02 10.83 2.50
-3.24 10.77 2.50
-3.46 10.71 2.50
-3.68 10.64 2.50
-3.90 10.57 2.50
-4.11 10.50 2.50
-4.33 10.43 2.50
-4.54 10.35 2.50
-4.75 10.26 2.50
-4.97 10.17 2.50
-5.18 10.08 2.50
-5.38 9.99 2.50
-5.59 9.89 2.50
-5.80 9.79 2.50
-5.95 9.59 2.47
-5.96 9.19 2.40
-6.16 9.10 2.40
-6.33 8.96 2.39
-6.52 8.84 2.39
-6.71 8.72 2.39
-6.90 8.60 2.39
-7.08 8.47 2.39
-7.27 8.34 2.39
-7.45 8.21 2.39
-7.63 8.07 2.39
-7.80 7.93 2.39
-7.98 7.79 2.39
-8.15 7.64 2.39
-8.32 7.49 2.39
-8.49 7.34 2.39
-8.65 7.18 2.39
-8.82 7.02 2.39
-8.98 6.86 2.39
-9.14 6.70 2.39
-9.29 6.53 2.39
-9.45 6.35 2.39
-9.60 6.18 2.39
-9.74 6.00 2.39
-9.89 5.82 2.39
-9.74 4.48 2.21
-9.73 4.24 2.18
-9.74 4.01 2.15
-9.76 3.79 2.14
-9.80 3.58 2.12
-9.80 3.36 2.10
-9.80 3.14 2.08
-9.81 2.93 2.06
-9.81 2.71 2.04
-9.81 2.50 2.03
-9.81 2.29 2.01
-9.76 2.08 1.98
-9.82 1.88 1.98
-9.82 1.68 1.97
-9.82 1.48 1.96
-9.82 1.28 1.94
-9.82 1.08 1.93
-9.83 0.88 1.92
-9.83 0.68 1.91
-9.83 0.48 1.90
-9.83 0.28 1.90
-9.84 0.09 1.89
-9.84 -0.11 1.88
-9.84 -0.31 1.88
-9.84 -0.51 1.87
-9.84 -0.71 1.87
-9.85 -0.90 1.87
-9.85 -1.10 1.86
-9.85 -1.31 1.86
-9.85 -1.51 1.86
-9.85 -1.71 1.86
-9.79 -1.90 1.85
-9.86 -2.12 1.86
-9.86 -2.33 1.86
-9.86 -2.54 1.87
-9.86 -2.75 1.87
-9.87 -2.97 1.87
-9.87 -3.19 1.88
-9.87 -3.41 1.88
-9.87 -3.63 1.89
-9.88 -3.86 1.90
-9.88 -4.09 1.91
-9.88 -4.32 1.92
-9.88 -4.56 1.93
-9.89 -4.80 1.94
-9.89 -5.05 1.95
-9.89 -5.31 1.97
-9.89 -5.57 1.98
-9.84 -5.80 1.99
-9.90 -6.10 2.02
-9.90 -6.38 2.03
-9.90 -6.67 2.05
-9.91 -6.96 2.08
-9.91 -7.27 2.10
-9.90 -7.57 2.12
-9.87 -7.86 2.14
-9.86 -8.18 2.17
-9.87 -8.53 2.20
-6.64 -6.47 1.55
-10.11 -10.25 2.39
-9.93 -10.49 2.39
-9.75 -10.72 2.39
-9.56 -10.94 2.39
-9.37 -11.17 2.39
-9.17 -11.38 2.39
-8.97 -11.60 2.39
-8.76 -11.81 2.39
-8.55 -12.02 2.39
-8.33 -12.22 2.39
-8.11 -12.42 2.39
-7.88 -12.61 2.39
-7.65 -12.80 2.39
-7.41 -12.98 2.39
-7.16 -13.16 2.39
-6.92 -13.33 2.39
-6.66 -13.50 2.39
-6.41 -13.66 2.39
-6.18 -13.89 2.41
-6.14 -14.57 2.50
-5.86 -14.72 2.50
-5.57 -14.86 2.50
-5.28 -15.00 2.50
-4.99 -15.13 2.50
-4.70 -15.25 2.50
-4.40 -15.37 2.50
-4.10 -15.48 2.50
-3.79 -15.58 2.50
-3.49 -15.68 2.50
-3.18 -15.77 2.50
-2.87 -15.85 2.50
-2.55 -15.92 2.50
-2.24 -15.99 2.50
-1.92 -16.04 2.50
-1.60 -16.09 2.50
-1.28 -16.14 2.50
-0.96 -16.17 2.50
-0.64 -16.20 2.50
-0.31 -16.22 2.50
0.01 -14.11 2.50
0.29 -14.11 2.50
0.57 -14.11 2.50
0.86 -14.10 2.50
1.14 -14.08 2.50
1.42 -14.05 2.50
1.70 -14.02 2.50
1.89 -13.41 2.39
2.16 -13.36 2.39
2.43 -13.32 2.39
2.69 -13.26 2.39
2.95 -13.20 2.39
3.21 -13.13 2.39
3.47 -13.06 2.39
3.73 -12.98 2.39
3.99 -12.89 2.39
4.24 -12.80 2.39
4.49 -12.70 2.39
4.74 -12.60 2.39
4.98 -12.49 2.39
5.23 -12.37 2.39
5.47 -12.25 2.39
5.70 -12.13 2.39
5.97 -12.07 2.41
6.21 -11.94 2.41
6.43 -11.79 2.41
6.66 -11.64 2.41
6.88 -11.49 2.41
7.09 -11.33 2.41
7.31 -11.17 2.41
7.51 -11.00 2.41
7.72 -10.83 2.41
7.92 -10.65 2.41
8.11 -10.47 2.41
8.30 -10.29 2.41
8.48 -10.09 2.41
8.60 -9.83 2.39
8.72 -9.57 2.38
8.83 -9.31 2.36
8.94 -9.06 2.35
9.07 -8.83 2.34
9.20 -8.61 2.33
9.05 -8.13 2.26
9.17 -7.92 2.25
9.29 -7.70 2.25
9.40 -7.48 2.25
9.51 -7.26 2.25
9.62 -7.05 2.24
9.72 -6.83 2.24
9.82 -6.61 2.24
9.91 -6.39 2.24
6.88 -4.24 1.54
6.79 -4.00 1.50
6.74 -3.79 1.48
6.73 -3.61 1.46
6.68 -3.41 1.44
6.64 -3.22 1.42
6.59 -3.04 1.41
6.51 -2.85 1.38
6.47 -2.68 1.36
6.43 -2.51 1.35
6.43 -2.36 1.34
6.39 -2.21 1.33
6.38 -2.06 1.32
6.38 -1.92 1.32
6.35 -1.77 1.31
6.35 -1.64 1.31
6.35 -1.50 1.30
6.39 -1.38 1.31
6.39 -1.24 1.31
6.39 -1.11 1.31
6.39 -0.98 1.31
6.39 -0.85 1.31
6.36 -0.72 1.30
6.36 -0.59 1.31
6.36 -0.46 1.31
6.40 -0.33 1.32
6.40 -0.20 1.32
6.39 -0.08 1.33
6.40 0.05 1.33
6.36 0.18 1.33
6.37 0.31 1.33
6.37 0.44 1.34
6.40 0.57 1.35
6.40 0.70 1.36
6.41 0.83 1.37
6.41 0.96 1.38
6.41 1.09 1.39
6.38 1.22 1.39
6.38 1.35 1.40
6.38 1.49 1.41
6.42 1.63 1.43
6.42 1.77 1.45
6.55 1.95 1.49
9.77 3.12 2.24
9.72 3.32 2.25
9.66 3.52 2.26
9.60 3.72 2.27
9.54 3.92 2.28
9.48 4.12 2.29
9.40 4.31 2.30
9.33 4.51 2.31
9.25 4.70 2.32
9.18 4.90 2.33
9.09 5.09 2.35
9.00 5.28 2.36
8.91 5.47 2.37
8.83 5.67 2.38
8.74 5.86 2.40
8.65 6.05 2.41
8.50 6.21 2.41
8.35 6.37 2.41
8.20 6.52 2.41
8.05 6.66 2.41
7.89 6.81 2.41
7.73 6.95 2.41
7.57 7.08 2.41
7.41 7.22 2.41
7.25 7.35 2.41
7.08 7.48 2.41
6.91 7.60 2.41
6.74 7.72 2.41
6.57 7.84 2.41
6.40 7.95 2.41
6.23 8.06 2.41
6.01 8.12 2.39
5.83 8.22 2.39
5.65 8.32 2.39
5.47 8.42 2.39
5.29 8.51 2.39
5.11 8.60 2.39
4.93 8.68 2.39
4.74 8.77 2.39
4.56 8.85 2.39
4.37 8.92 2.39
4.18 9.00 2.39
4.00 9.06 2.39
3.81 9.13 2.39
3.62 9.19 2.39
3.43 9.25 2.39
3.11 8.95 2.30
2.99 9.21 2.36
2.80 9.25 2.36
2.53 9.00 2.28
2.46 9.49 2.39
2.27 9.53 2.39
2.10 9.73 2.43
1.96 10.01 2.50
1.75 10.04 2.50
1.55 10.07 2.50
1.34 10.09 2.50
1.14 10.11 2.50
0.93 10.12 2.50
0.73 10.13 2.50
0.52 10.14 2.50
0.32 10.14 2.50
0.11 10.15 2.50
-0.09 10.14 2.50
-0.30 10.14 2.50
-0.50 10.13 2.50
-0.71 10.11 2.50
-0.91 10.09 2.50
-1.12 10.07 2.50
-1.32 10.05 2.50
-1.52 10.02 2.50
-1.73 9.99 2.50
-1.93 9.96 2.50
-2.13 9.92 2.50
-2.33 9.88 2.50
-2.53 9.83 2.50
-2.73 9.78 2.50
-2.93 9.73 2.50
-3.13 9.67 2.50
-3.32 9.61 2.50
-3.52 9.55 2.50
-3.72 9.48 2.50
-3.91 9.41 2.50
-4.10 9.34 2.50
-4.29 9.26 2.50
-4.49 9.18 2.50
-4.68 9.10 2.50
-4.86 9.01 2.50
-5.05 8.92 2.50
-5.24 8.83 2.50
-5.42 8.73 2.50
-5.60 8.63 2.50
-5.78 8.53 2.50
-5.96 8.42 2.50
-5.97 8.08 2.43
-6.06 7.86 2.39
-6.22 7.75 2.39
-6.39 7.63 2.39
-6.55 7.52 2.39
-6.71 7.39 2.39
-6.87 7.27 2.39
-7.03 7.14 2.39
-7.19 7.01 2.39
-7.34 6.88 2.39
-7.49 6.74 2.39
-7.64 6.60 2.39
-7.79 6.46 2.39
-7.94 6.32 2.39
-8.08 6.17 2.39
-8.22 6.02 2.39
-8.36 5.86 2.39
-8.50 5.71 2.39
-8.63 5.55 2.39
-8.76 5.38 2.39
-8.89 5.22 2.39
-9.01 5.05 2.39
-9.14 4.88 2.39
-9.26 4.71 2.39
-9.37 4.53 2.39
-9.49 4.35 2.39
-9.60 4.17 2.39
-9.71 3.99 2.39
-9.81 3.80 2.39
-9.91 3.62 2.39
-10.01 3.42 2.39
-9.76 2.07 2.22
-9.76 1.87 2.20
-9.76 1.66 2.19
-9.76 1.46 2.18
-9.77 1.26 2.16
-9.77 1.06 2.15
-9.78 0.87 2.14
-9.79 0.67 2.14
-9.81 0.47 2.13
-9.82 0.28 2.12
-9.84 0.08 2.12
-9.84 -0.12 2.11
-9.84 -0.32 2.11
-9.84 -0.52 2.10
-9.84 -0.71 2.10
-9.85 -0.91 2.10
-9.85 -1.11 2.09
-9.85 -1.31 2.09
-9.85 -1.52 2.09
-9.85 -1.72 2.09
-9.80 -1.91 2.08
-9.86 -2.13 2.10
-9.86 -2.34 2.10
-9.86 -2.55 2.10
-9.86 -2.76 2.11
-9.87 -2.98 2.11
-9.87 -3.19 2.12
-9.85 -3.41 2.12
-9.85 -3.63 2.13
-9.84 -3.85 2.14
-9.83 -4.07 2.15
-9.82 -4.31 2.16
-9.83 -4.54 2.17
-9.83 -4.79 2.18
-9.83 -5.03 2.20
-9.87 -5.30 2.22
-9.84 -5.81 2.25
-10.06 -7.08 2.39
-9.95 -7.30 2.39
-9.83 -7.52 2.39
-9.70 -7.74 2.39
-9.58 -7.96 2.39
-9.44 -8.17 2.39
-9.31 -8.38 2.39
-9.16 -8.59 2.39
-6.63 -6.47 1.76
-8.86 -9.00 2.39
-8.71 -9.20 2.39
-8.54 -9.40 2.39
-8.38 -9.60 2.39
-8.21 -9.79 2.39
-8.03 -9.98 2.39
-7.85 -10.16 2.39
-7.66 -10.34 2.39
-7.48 -10.52 2.39
-7.28 -10.69 2.39
-7.08 -10.86 2.39
-6.88 -11.03 2.39
-6.68 -11.19 2.39
-6.47 -11.34 2.39
-6.25 -11.50 2.39
-6.15 -11.87 2.44
-6.06 -12.29 2.50
-5.83 -12.44 2.50
-5.59 -12.57 2.50
-5.35 -12.71 2.50
-5.10 -12.84 2.50
-4.85 -12.96 2.50
-4.60 -13.07 2.50
-4.35 -13.18 2.50
-4.09 -13.29 2.50
-3.83 -13.39 2.50
-3.57 -13.48 2.50
-3.30 -13.57 2.50
-3.03 -13.65 2.50
-2.76 -13.72 2.50
-2.49 -13.79 2.50
-2.22 -13.85 2.50
-1.94 -13.91 2.50
-1.67 -13.96 2.50
-1.39 -14.00 2.50
-1.11 -14.03 2.50
-0.83 -14.06 2.50
-0.55 -14.08 2.50
-0.27 -14.10 2.50
0.01 -12.47 2.50
0.26 -12.47 2.50
0.51 -12.46 2.50
0.76 -12.45 2.50
1.00 -12.44 2.50
1.25 -12.42 2.50
1.50 -12.39 2.50
1.75 -12.36 2.50
1.91 -11.81 2.39
2.14 -11.77 2.39
2.38 -11.72 2.39
2.61 -11.66 2.39
2.27 -9.29 1.92
2.46 -9.27 1.92
2.66 -9.27 1.93
3.52 -11.39 2.39
3.75 -11.31 2.39
3.97 -11.23 2.39
4.19 -11.14 2.39
4.40 -11.04 2.39
4.62 -10.94 2.39
4.83 -10.84 2.39
5.04 -10.73 2.39
5.25 -10.61 2.39
5.45 -10.49 2.39
5.65 -10.37 2.39
5.85 -10.24 2.39
6.08 -10.17 2.41
6.28 -10.04 2.41
6.47 -9.89 2.41
6.65 -9.75 2.41
6.83 -9.60 2.41
7.01 -9.44 2.41
6.95 -8.98 2.33
7.09 -8.80 2.32
7.23 -8.61 2.32
7.37 -8.43 2.31
7.50 -8.24 2.30
7.62 -8.05 2.30
7.75 -7.86 2.29
7.87 -7.67 2.29
7.98 -7.48 2.28
8.10 -7.28 2.28
8.21 -7.09 2.27
8.32 -6.90 2.27
8.42 -6.71 2.27
8.52 -6.51 2.26
8.62 -6.32 2.26
8.71 -6.12 2.26
8.79 -5.92 2.25
8.88 -5.73 2.25
6.88 -4.25 1.73
6.79 -4.00 1.69
6.74 -3.79 1.66
6.73 -3.61 1.64
6.68 -3.42 1.62
6.64 -3.23 1.60
6.59 -3.05 1.58
6.51 -2.85 1.55
6.47 -2.68 1.53
6.43 -2.52 1.51
6.43 -2.37 1.50
6.39 -2.21 1.49
6.38 -2.06 1.48
6.38 -1.92 1.48
6.35 -1.78 1.46
6.35 -1.64 1.46
6.35 -1.51 1.46
6.39 -1.38 1.46
6.39 -1.25 1.46
6.39 -1.12 1.46
6.39 -0.98 1.46
6.39 -0.85 1.46
6.36 -0.72 1.46
6.36 -0.59 1.46
6.36 -0.46 1.46
6.40 -0.34 1.47
6.40 -0.21 1.47
6.39 -0.08 1.48
6.40 0.05 1.48
6.36 0.17 1.48
6.37 0.30 1.48
6.37 0.43 1.49
6.40 0.56 1.51
6.40 0.69 1.51
6.41 0.82 1.52
6.41 0.95 1.53
6.41 1.09 1.54
6.41 1.22 1.55
6.38 1.35 1.56
6.38 1.48 1.57
6.42 1.63 1.59
6.42 1.76 1.60
6.55 1.94 1.65
9.16 2.92 2.33
9.11 3.11 2.34
9.06 3.29 2.35
9.00 3.48 2.36
8.94 3.66 2.37
8.87 3.85 2.37
8.81 4.03 2.38
8.74 4.21 2.39
8.66 4.39 2.40
8.57 4.56 2.41
8.45 4.72 2.41
8.34 4.88 2.41
8.21 5.03 2.41
8.09 5.19 2.41
7.96 5.33 2.41
7.84 5.48 2.41
7.70 5.62 2.41
7.57 5.76 2.41
7.44 5.90 2.41
7.30 6.03 2.41
7.16 6.17 2.41
7.02 6.29 2.41
6.87 6.42 2.41
6.73 6.54 2.41
6.58 6.66 2.41
6.43 6.78 2.41
6.28 6.89 2.41
6.09 6.96 2.39
5.93 7.07 2.39
5.78 7.17 2.39
5.62 7.27 2.39
5.46 7.37 2.39
5.30 7.46 2.39
5.14 7.56 2.39
4.98 7.65 2.39
4.82 7.73 2.39
4.65 7.81 2.39
4.48 7.89 2.39
4.32 7.97 2.39
4.15 8.04 2.39
3.98 8.11 2.39
3.81 8.18 2.39
3.64 8.25 2.39
3.47 8.31 2.39
3.13 7.94 2.27
3.07 8.28 2.36
2.90 8.33 2.36
2.63 8.09 2.27
2.52 8.30 2.32
2.42 8.61 2.39
2.24 8.64 2.39
2.10 8.81 2.43
1.97 9.09 2.50
1.78 9.12 2.50
1.60 9.14 2.50
1.41 9.17 2.50
1.22 9.19 2.50
1.04 9.21 2.50
0.85 9.22 2.50
0.66 9.23 2.50
0.48 9.24 2.50
0.29 9.24 2.50
0.10 9.24 2.50
-0.09 9.24 2.50
-0.27 9.24 2.50
-0.46 9.23 2.50
-0.65 9.21 2.50
-0.83 9.20 2.50
-1.02 9.18 2.50
-1.20 9.16 2.50
-1.39 9.13 2.50
-1.57 9.10 2.50
-1.76 9.07 2.50
-1.94 9.04 2.50
-2.13 9.00 2.50
-2.31 8.96 2.50
-2.49 8.91 2.50
-2.67 8.86 2.50
-2.85 8.81 2.50
-3.03 8.76 2.50
-3.21 8.70 2.50
-3.39 8.64 2.50
-3.56 8.57 2.50
-3.74 8.51 2.50
-3.91 8.44 2.50
-4.09 8.36 2.50
-4.26 8.29 2.50
-4.43 8.21 2.50
-4.60 8.12 2.50
-4.77 8.04 2.50
-4.94 7.95 2.50
-5.10 7.86 2.50
-5.27 7.76 2.50
-5.43 7.66 2.50
-5.59 7.56 2.50
-5.75 7.46 2.50
-5.91 7.35 2.50
-5.97 7.13 2.46
-5.98 6.86 2.40
-6.11 6.72 2.39
-6.25 6.61 2.39
-6.39 6.49 2.39
-6.54 6.37 2.39
-6.67 6.25 2.39
-6.81 6.12 2.39
-6.95 5.99 2.39
-7.08 5.86 2.39
-7.21 5.73 2.39
-7.34 5.60 2.39
-7.47 5.46 2.39
-7.59 5.32 2.39
-7.71 5.17 2.39
-7.83 5.03 2.39
-7.95 4.88 2.39
-8.06 4.73 2.39
-8.18 4.58 2.39
-8.28 4.42 2.39
-8.39 4.26 2.39
-8.50 4.10 2.39
-8.60 3.94 2.39
-8.70 3.77 2.39
-8.79 3.61 2.39
-8.88 3.44 2.39
-8.97 3.27 2.39
-9.06 3.09 2.39
-9.15 2.92 2.39
-9.23 2.74 2.39
-9.30 2.56 2.39
-9.38 2.38 2.39
-9.45 2.20 2.39
-9.52 2.01 2.39
-9.58 1.82 2.39
-9.65 1.63 2.39
-9.70 1.44 2.39
-9.76 1.25 2.39
-9.81 1.06 2.39
-9.86 0.86 2.39
-9.90 0.67 2.39
-9.94 0.47 2.39
-9.98 0.27 2.39
-10.01 0.07 2.39
-10.04 -0.13 2.39
-10.06 -0.33 2.39
-9.80 -1.92 2.32
-10.07 -2.61 2.39
-10.05 -2.82 2.39
-10.02 -3.03 2.39
-9.99 -3.24 2.39
-9.95 -3.45 2.39
-9.91 -3.66 2.39
-9.87 -3.87 2.39
-9.82 -4.08 2.39
-9.76 -4.29 2.39
-9.70 -4.50 2.39
-9.64 -4.70 2.39
-9.57 -4.91 2.39
-9.50 -5.11 2.39
-9.42 -5.32 2.39
-9.34 -5.52 2.39
-9.26 -5.72 2.39
-9.17 -5.93 2.39
-9.07 -6.12 2.39
-8.97 -6.32 2.39
-8.87 -6.52 2.39
-8.76 -6.71 2.39
-8.65 -6.91 2.39
-8.53 -7.10 2.39
-8.41 -7.29 2.39
-8.29 -7.47 2.39
-8.16 -7.66 2.39
-6.62 -6.47 1.98
-7.88 -8.02 2.39
-7.74 -8.19 2.39
-7.60 -8.37 2.39
-7.45 -8.54 2.39
-7.29 -8.71 2.39
-7.13 -8.87 2.39
-6.97 -9.03 2.39
-6.80 -9.19 2.39
-6.63 -9.35 2.39
-6.46 -9.50 2.39
-6.28 -9.64 2.39
-6.13 -9.84 2.41
-6.13 -10.29 2.48
-5.98 -10.50 2.50
-5.78 -10.64 2.50
-5.57 -10.77 2.50
-5.37 -10.90 2.50
-5.16 -11.02 2.50
-4.95 -11.14 2.50
-4.73 -11.26 2.50
-4.51 -11.37 2.50
-4.29 -11.47 2.50
-4.07 -11.58 2.50
-3.84 -11.67 2.50
-3.61 -11.76 2.50
-3.38 -11.85 2.50
-3.15 -11.93 2.50
-2.92 -12.00 2.50
-2.68 -12.07 2.50
-2.44 -12.14 2.50
-2.20 -12.19 2.50
-1.96 -12.25 2.50
-1.72 -12.29 2.50
-1.47 -12.34 2.50
-1.23 -12.37 2.50
-0.98 -12.40 2.50
-0.73 -12.43 2.50
-0.49 -12.45 2.50
-0.24 -12.46 2.50
0.01 -11.16 2.50
0.23 -11.16 2.50
0.45 -11.15 2.50
0.68 -11.14 2.50
0.90 -11.13 2.50
1.12 -11.11 2.50
1.34 -11.09 2.50
1.56 -11.06 2.50
1.78 -11.02 2.50
1.92 -10.53 2.39
2.13 -10.48 2.39
2.33 -10.44 2.39
2.27 -9.28 2.14
2.46 -9.27 2.15
2.66 -9.27 2.16
3.15 -10.20 2.39
3.35 -10.13 2.39
3.55 -10.05 2.39
3.75 -9.97 2.39
3.94 -9.89 2.39
4.13 -9.80 2.39
4.32 -9.71 2.39
4.51 -9.61 2.39
4.70 -9.51 2.39
4.88 -9.40 2.39
5.06 -9.29 2.39
5.24 -9.18 2.39
5.41 -9.06 2.39
5.59 -8.94 2.39
5.75 -8.81 2.39
5.92 -8.68 2.39
6.11 -8.59 2.40
6.23 -8.39 2.39
6.36 -8.22 2.38
6.48 -8.05 2.37
6.61 -7.88 2.36
6.73 -7.70 2.35
6.84 -7.52 2.34
6.96 -7.35 2.34
7.07 -7.17 2.33
7.17 -7.00 2.32
7.28 -6.82 2.32
7.37 -6.64 2.31
7.47 -6.46 2.30
7.56 -6.28 2.30
7.66 -6.11 2.29
7.74 -5.93 2.29
7.83 -5.75 2.28
7.89 -5.56 2.28
7.97 -5.38 2.27
8.05 -5.20 2.27
6.88 -4.25 1.92
6.79 -4.01 1.88
6.74 -3.80 1.84
6.73 -3.62 1.83
6.68 -3.43 1.80
6.64 -3.24 1.77
6.60 -3.05 1.75
6.51 -2.86 1.72
6.47 -2.69 1.70
6.43 -2.52 1.68
6.43 -2.38 1.67
6.39 -2.22 1.65
6.38 -2.07 1.64
6.38 -1.93 1.63
6.35 -1.78 1.62
6.35 -1.65 1.62
6.35 -1.51 1.61
6.39 -1.39 1.62
6.39 -1.25 1.62
6.39 -1.12 1.62
6.39 -0.99 1.62
6.39 -0.86 1.62
6.36 -0.73 1.61
6.36 -0.60 1.61
6.36 -0.47 1.61
6.40 -0.34 1.62
6.40 -0.21 1.63
6.39 -0.09 1.63
6.40 0.04 1.63
6.36 0.17 1.63
6.37 0.30 1.64
6.37 0.43 1.64
6.40 0.56 1.66
6.40 0.69 1.67
6.41 0.82 1.68
6.41 0.95 1.69
6.41 1.08 1.70
6.41 1.21 1.71
6.38 1.34 1.71
6.38 1.48 1.72
6.42 1.62 1.75
6.42 1.76 1.76
6.55 1.94 1.81
8.62 2.74 2.41
8.55 2.91 2.41
8.47 3.07 2.41
8.39 3.23 2.41
8.30 3.39 2.41
8.21 3.55 2.41
8.11 3.70 2.41
8.02 3.86 2.41
7.92 4.01 2.41
7.82 4.16 2.41
7.71 4.30 2.41
7.61 4.45 2.41
7.50 4.59 2.41
7.39 4.73 2.41
7.27 4.86 2.41
7.16 5.00 2.41
7.04 5.13 2.41
6.92 5.26 2.41
6.80 5.38 2.41
6.67 5.51 2.41
6.54 5.63 2.41
6.42 5.75 2.41
6.29 5.86 2.41
6.15 5.98 2.41
5.98 6.05 2.39
5.85 6.16 2.39
5.71 6.26 2.39
5.57 6.36 2.39
5.43 6.46 2.39
5.29 6.56 2.39
5.15 6.65 2.39
5.00 6.74 2.39
4.86 6.83 2.39
4.71 6.91 2.39
4.56 7.00 2.39
4.41 7.08 2.39
4.26 7.15 2.39
4.11 7.23 2.39
3.96 7.30 2.39
3.80 7.37 2.39
3.65 7.43 2.39
3.49 7.49 2.39
3.17 7.17 2.27
3.09 7.41 2.33
2.97 7.54 2.36
2.82 7.59 2.36
2.57 7.37 2.27
2.51 7.71 2.36
2.38 7.85 2.39
2.22 7.89 2.39
2.09 8.04 2.43
1.98 8.30 2.50
1.81 8.33 2.50
1.64 8.36 2.50
1.47 8.39 2.50
1.30 8.41 2.50
1.12 8.43 2.50
0.95 8.44 2.50
0.78 8.46 2.50
0.61 8.47 2.50
0.44 8.48 2.50
0.27 8.48 2.50
0.09 8.48 2.50
-0.08 8.48 2.50
-0.25 8.47 2.50
-0.42 8.46 2.50
-0.59 8.45 2.50
-0.76 8.44 2.50
-0.93 8.42 2.50
-1.10 8.40 2.50
-1.27 8.38 2.50
-1.44 8.35 2.50
-1.61 8.32 2.50
-1.78 8.29 2.50
-1.95 8.25 2.50
-2.12 8.22 2.50
-2.28 8.17 2.50
-2.45 8.13 2.50
-2.62 8.08 2.50
-2.78 8.03 2.50
-2.94 7.98 2.50
-3.11 7.92 2.50
-3.27 7.86 2.50
-3.43 7.80 2.50
-3.59 7.74 2.50
-3.75 7.67 2.50
-3.91 7.60 2.50
-4.06 7.52 2.50
-4.22 7.45 2.50
-4.37 7.37 2.50
-4.53 7.28 2.50
-4.68 7.20 2.50
-4.83 7.11 2.50
-4.98 7.02 2.50
-5.12 6.93 2.50
-5.27 6.83 2.50
-5.41 6.73 2.50
-5.56 6.63 2.50
-5.70 6.52 2.50
-5.84 6.42 2.50
-5.98 6.31 2.50
-5.98 6.06 2.44
-6.00 5.84 2.40
-6.11 5.72 2.39
-6.24 5.60 2.39
-6.36 5.48 2.39
-6.48 5.36 2.39
-6.60 5.24 2.39
-6.72 5.11 2.39
-6.83 4.99 2.39
-6.94 4.86 2.39
-7.05 4.73 2.39
-7.16 4.59 2.39
-7.27 4.46 2.39
-7.37 4.32 2.39
-7.47 4.18 2.39
-7.57 4.03 2.39
-7.67 3.89 2.39
-7.76 3.74 2.39
-7.85 3.59 2.39
-7.94 3.44 2.39
-8.03 3.29 2.39
-8.11 3.13 2.39
-8.19 2.97 2.39
-8.27 2.82 2.39
-8.34 2.65 2.39
-8.42 2.49 2.39
-8.48 2.33 2.39
-8.55 2.16 2.39
-8.61 1.99 2.39
-8.67 1.83 2.39
-8.73 1.65 2.39
-8.79 1.48 2.39
-8.84 1.31 2.39
-8.88 1.13 2.39
-8.93 0.96 2.39
-8.97 0.78 2.39
-9.01 0.60 2.39
-9.04 0.42 2.39
-9.07 0.24 2.39
-9.10 0.06 2.39
-9.12 -0.13 2.39
-9.14 -0.31 2.39
-9.16 -0.49 2.39
-9.17 -0.68 2.39
-9.18 -0.87 2.39
-9.19 -1.05 2.39
-9.19 -1.24 2.39
-9.19 -1.43 2.39
-9.19 -1.62 2.39
-9.18 -1.81 2.39
-9.16 -1.99 2.39
-9.15 -2.18 2.39
-9.13 -2.37 2.39
-9.10 -2.56 2.39
-9.07 -2.75 2.39
-9.04 -2.94 2.39
-9.01 -3.13 2.39
-8.97 -3.32 2.39
-8.92 -3.51 2.39
-8.88 -3.70 2.39
-8.82 -3.88 2.39
-8.77 -4.07 2.39
-8.71 -4.26 2.39
-8.64 -4.44 2.39
-8.58 -4.63 2.39
-8.51 -4.81 2.39
-8.43 -4.99 2.39
-8.35 -5.17 2.39
-8.27 -5.35 2.39
-8.18 -5.53 2.39
-8.09 -5.71 2.39
-7.99 -5.88 2.39
-7.89 -6.06 2.39
-7.79 -6.23 2.39
-7.68 -6.40 2.39
-7.57 -6.57 2.39
-7.46 -6.73 2.39
-7.34 -6.90 2.39
-6.62 -6.47 2.20
-7.09 -7.22 2.39
-6.96 -7.38 2.39
-6.83 -7.53 2.39
-6.69 -7.68 2.39
-6.55 -7.83 2.39
-6.41 -7.98 2.39
-6.26 -8.12 2.39
-6.12 -8.28 2.40
-6.11 -8.62 2.46
-6.05 -8.90 2.50
-5.88 -9.04 2.50
-5.71 -9.17 2.50
-5.54 -9.30 2.50
-5.36 -9.43 2.50
-5.18 -9.55 2.50
-5.00 -9.66 2.50
-4.81 -9.78 2.50
-4.62 -9.89 2.50
-4.43 -9.99 2.50
-4.24 -10.10 2.50
-4.04 -10.19 2.50
-3.84 -10.29 2.50
-3.64 -10.38 2.50
-3.44 -10.46 2.50
-3.24 -10.54 2.50
-3.03 -10.61 2.50
-2.82 -10.68 2.50
-2.61 -10.75 2.50
-2.40 -10.81 2.50
-2.18 -10.87 2.50
-1.97 -10.92 2.50
-1.75 -10.97 2.50
-1.53 -11.01 2.50
-1.32 -11.04 2.50
-1.10 -11.07 2.50
-0.88 -11.10 2.50
-0.65 -11.12 2.50
-0.43 -11.14 2.50
-0.21 -11.15 2.50
0.01 -10.09 2.50
0.21 -10.09 2.50
0.41 -10.08 2.50
0.61 -10.07 2.50
0.81 -10.06 2.50
1.01 -10.04 2.50
1.21 -10.02 2.50
1.41 -9.99 2.50
1.61 -9.96 2.50
1.81 -9.93 2.50
1.92 -9.48 2.39
2.11 -9.46 2.40
2.30 -9.39 2.39
2.48 -9.34 2.39
2.66 -9.28 2.39
2.85 -9.22 2.39
3.03 -9.16 2.39
3.21 -9.09 2.39
3.39 -9.02 2.39
3.56 -8.94 2.39
3.74 -8.86 2.39
3.91 -8.78 2.39
4.08 -8.69 2.39
4.25 -8.60 2.39
4.41 -8.51 2.39
4.58 -8.41 2.39
4.74 -8.31 2.39
4.90 -8.20 2.39
5.05 -8.09 2.39
5.21 -7.98 2.39
5.36 -7.86 2.39
5.51 -7.74 2.39
5.65 -7.62 2.39
5.79 -7.50 2.39
5.93 -7.37 2.39
6.10 -7.28 2.41
6.21 -7.11 2.40
6.32 -6.96 2.39
6.43 -6.80 2.38
6.53 -6.64 2.38
6.63 -6.47 2.37
6.73 -6.31 2.36
6.82 -6.15 2.35
6.91 -5.98 2.35
6.99 -5.81 2.34
7.06 -5.64 2.33
7.13 -5.47 2.32
7.20 -5.30 2.32
7.28 -5.13 2.31
7.34 -4.96 2.31
7.41 -4.80 2.30
6.88 -4.26 2.11
6.79 -4.02 2.07
6.74 -3.81 2.03
6.73 -3.63 2.01
6.69 -3.43 1.98
6.64 -3.24 1.95
6.60 -3.06 1.92
6.52 -2.87 1.89
6.47 -2.69 1.87
6.43 -2.53 1.84
6.43 -2.38 1.83
6.40 -2.22 1.81
6.38 -2.07 1.80
6.38 -1.94 1.79
6.35 -1.79 1.78
6.35 -1.65 1.77
6.35 -1.52 1.77
6.39 -1.39 1.78
6.39 -1.26 1.77
6.39 -1.13 1.77
6.39 -0.99 1.77
6.39 -0.86 1.77
6.36 -0.73 1.76
6.36 -0.60 1.76
6.36 -0.47 1.77
6.40 -0.35 1.78
6.40 -0.22 1.78
6.39 -0.09 1.78
6.40 0.04 1.79
6.40 0.17 1.79
6.37 0.29 1.79
6.37 0.42 1.80
6.40 0.55 1.82
6.40 0.68 1.82
6.41 0.81 1.83
6.41 0.94 1.84
6.41 1.08 1.85
6.41 1.21 1.87
6.38 1.34 1.87
6.38 1.47 1.88
6.42 1.62 1.91
6.42 1.75 1.92
6.55 1.93 1.98
7.91 2.51 2.41
7.84 2.66 2.41
7.77 2.81 2.41
7.69 2.96 2.41
7.61 3.11 2.41
7.53 3.25 2.41
7.45 3.39 2.41
7.36 3.53 2.41
7.27 3.67 2.41
7.18 3.81 2.41
7.08 3.94 2.41
6.99 4.08 2.41
6.89 4.21 2.41
6.79 4.34 2.41
6.68 4.46 2.41
6.58 4.59 2.41
6.47 4.71 2.41
6.36 4.83 2.41
6.25 4.94 2.41
6.14 5.06 2.41
5.98 5.14 2.39
5.87 5.25 2.39
5.75 5.35 2.39
5.63 5.46 2.39
5.51 5.56 2.39
5.38 5.66 2.39
5.26 5.76 2.39
5.13 5.85 2.39
5.00 5.94 2.39
4.87 6.03 2.39
4.74 6.12 2.39
4.61 6.21 2.39
4.48 6.29 2.39
4.34 6.37 2.39
4.21 6.44 2.39
4.07 6.52 2.39
3.93 6.59 2.39
3.79 6.66 2.39
3.65 6.72 2.39
3.51 6.79 2.39
3.20 6.50 2.27
3.09 6.61 2.29
3.03 6.85 2.36
2.89 6.90 2.36
2.74 6.95 2.36
2.51 6.76 2.28
2.50 7.16 2.39
2.35 7.20 2.39
2.20 7.24 2.39
2.08 7.39 2.43
1.98 7.62 2.50
1.83 7.66 2.50
1.67 7.69 2.50
1.51 7.71 2.50
1.35 7.74 2.50
1.20 7.76 2.50
1.04 7.78 2.50
0.88 7.79 2.50
0.72 7.80 2.50
0.56 7.81 2.50
0.40 7.82 2.50
0.25 7.82 2.50
0.09 7.83 2.50
-0.07 7.82 2.50
-0.23 7.82 2.50
-0.39 7.81 2.50
-0.55 7.80 2.50
-0.70 7.79 2.50
-0.86 7.77 2.50
-1.02 7.75 2.50
-1.18 7.73 2.50
-1.33 7.71 2.50
-1.49 7.68 2.50
-1.65 7.65 2.50
-1.80 7.62 2.50
-1.96 7.58 2.50
-2.11 7.54 2.50
-2.26 7.50 2.50
-2.42 7.46 2.50
-2.57 7.41 2.50
-2.72 7.36 2.50
-2.87 7.31 2.50
-3.02 7.25 2.50
-3.17 7.20 2.50
-3.31 7.13 2.50
-3.46 7.07 2.50
-3.61 7.01 2.50
-3.75 6.94 2.50
-3.89 6.87 2.50
-4.04 6.79 2.50
-4.18 6.72 2.50
-4.32 6.64 2.50
-4.45 6.55 2.50
-4.59 6.47 2.50
-4.73 6.38 2.50
-4.86 6.29 2.50
-4.99 6.20 2.50
-5.12 6.11 2.50
-5.25 6.01 2.50
-5.38 5.91 2.50
-5.51 5.81 2.50
-5.63 5.70 2.50
-5.76 5.60 2.50
-5.88 5.49 2.50
-5.99 5.37 2.49
-5.99 5.16 2.45
-6.00 4.96 2.41
-6.08 4.82 2.39
-6.21 4.72 2.40
-6.29 4.59 2.39
-6.39 4.47 2.39
-6.49 4.34 2.39
-6.59 4.22 2.39
-6.69 4.09 2.39
-6.78 3.97 2.39
-6.87 3.84 2.39
-6.96 3.70 2.39
-7.05 3.57 2.39
-7.14 3.43 2.39
-7.22 3.30 2.39
-7.30 3.16 2.39
-7.38 3.01 2.39
-7.45 2.87 2.39
-7.53 2.73 2.39
-7.60 2.58 2.39
-7.66 2.43 2.39
-7.73 2.28 2.39
-7.79 2.13 2.39
-7.85 1.98 2.39
-7.91 1.82 2.39
-7.96 1.67 2.39
-8.01 1.51 2.39
-8.06 1.35 2.39
-8.10 1.19 2.39
-8.15 1.03 2.39
-8.18 0.87 2.39
-8.22 0.71 2.39
-8.25 0.54 2.39
-8.28 0.38 2.39
-8.31 0.21 2.39
-8.33 0.05 2.39
-8.35 -0.12 2.39
-8.37 -0.29 2.39
-8.38 -0.46 2.39
-8.39 -0.63 2.39
-8.40 -0.80 2.39
-8.40 -0.97 2.39
-8.40 -1.14 2.39
-8.40 -1.31 2.39
-8.39 -1.48 2.39
-8.38 -1.66 2.39
-8.37 -1.83 2.39
-8.35 -2.00 2.39
-8.33 -2.17 2.39
-8.31 -2.35 2.39
-8.28 -2.52 2.39
-8.25 -2.69 2.39
-8.22 -2.86 2.39
-8.18 -3.04 2.39
-8.14 -3.21 2.39
-8.09 -3.38 2.39
-8.04 -3.55 2.39
-7.99 -3.72 2.39
-7.93 -3.89 2.39
-7.87 -4.05 2.39
-7.81 -4.22 2.39
-7.74 -4.39 2.39
-7.67 -4.55 2.39
-7.60 -4.72 2.39
-7.52 -4.88 2.39
-7.44 -5.04 2.39
-7.36 -5.20 2.39
-7.27 -5.36 2.39
-7.18 -5.51 2.39
-7.08 -5.67 2.39
-6.98 -5.82 2.39
-6.88 -5.97 2.39
-6.77 -6.12 2.39
-6.66 -6.27 2.39
-6.55 -6.42 2.39
-6.44 -6.56 2.39
-6.32 -6.70 2.39
-6.20 -6.84 2.39
-6.10 -7.01 2.41
-6.10 -7.30 2.46
-6.06 -7.55 2.50
-5.92 -7.69 2.50
-5.78 -7.82 2.50
-5.63 -7.95 2.50
-5.48 -8.07 2.50
-5.33 -8.20 2.50
-5.17 -8.32 2.50
-5.01 -8.43 2.50
-4.85 -8.54 2.50
-4.69 -8.65 2.50
-4.52 -8.76 2.50
-4.35 -8.86 2.50
-4.18 -8.96 2.50
-4.01 -9.05 2.50
-3.83 -9.14 2.50
-3.66 -9.23 2.50
-3.48 -9.31 2.50
-3.29 -9.39 2.50
-3.11 -9.47 2.50
-2.92 -9.54 2.50
-2.74 -9.61 2.50
-2.55 -9.67 2.50
-2.36 -9.73 2.50
-2.17 -9.78 2.50
-1.97 -9.83 2.50
-1.78 -9.88 2.50
-1.58 -9.92 2.50
-1.39 -9.95 2.50
-1.19 -9.99 2.50
-0.99 -10.01 2.50
-0.79 -10.04 2.50
-0.59 -10.06 2.50
-0.39 -10.07 2.50
-0.19 -10.08 2.50
0.01 -9.19 2.50
0.19 -9.19 2.50
0.38 -9.19 2.50
0.56 -9.18 2.50
0.74 -9.17 2.50
0.92 -9.15 2.50
1.10 -9.13 2.50
1.29 -9.11 2.50
1.47 -9.08 2.50
1.65 -9.05 2.50
1.83 -9.01 2.50
1.92 -8.61 2.40
2.09 -8.56 2.39
2.26 -8.51 2.39
2.43 -8.46 2.39
2.59 -8.41 2.39
2.76 -8.35 2.39
2.92 -8.29 2.39
3.09 -8.22 2.39
3.25 -8.16 2.39
3.41 -8.08 2.39
3.56 -8.01 2.39
3.72 -7.93 2.39
3.87 -7.85 2.39
4.02 -7.76 2.39
4.17 -7.67 2.39
4.32 -7.58 2.39
4.47 -7.48 2.39
4.61 -7.38 2.39
4.75 -7.28 2.39
4.89 -7.18 2.39
5.02 -7.07 2.39
5.16 -6.96 2.39
5.29 -6.85 2.39
5.41 -6.73 2.39
5.54 -6.61 2.39
5.66 -6.49 2.39
5.78 -6.37 2.39
5.90 -6.24 2.39
6.05 -6.16 2.41
6.15 -6.01 2.41
6.24 -5.86 2.40
6.33 -5.71 2.39
6.42 -5.56 2.39
6.50 -5.42 2.38
6.59 -5.27 2.38
6.67 -5.12 2.38
6.74 -4.96 2.37
6.81 -4.81 2.36
6.88 -4.65 2.36
6.94 -4.49 2.35
6.88 -4.27 2.31
6.83 -4.05 2.27
6.74 -3.81 2.22
6.73 -3.63 2.20
6.69 -3.44 2.16
6.64 -3.25 2.13
6.60 -3.07 2.10
6.52 -2.87 2.06
6.48 -2.70 2.04
6.44 -2.53 2.01
6.44 -2.39 2.00
6.40 -2.23 1.98
6.38 -2.08 1.96
6.38 -1.94 1.96
6.35 -1.79 1.94
6.35 -1.66 1.93
6.35 -1.52 1.93
6.39 -1.40 1.94
6.39 -1.26 1.93
6.39 -1.13 1.93
6.39 -1.00 1.93
6.39 -0.87 1.93
6.36 -0.74 1.92
6.36 -0.61 1.92
6.36 -0.48 1.92
6.40 -0.35 1.93
6.40 -0.22 1.94
6.39 -0.10 1.94
6.40 0.03 1.94
6.40 0.16 1.95
6.37 0.29 1.95
6.37 0.42 1.95
6.40 0.55 1.97
6.40 0.68 1.98
6.41 0.81 1.99
6.41 0.94 2.00
6.41 1.07 2.01
6.41 1.20 2.03
6.38 1.33 2.03
6.38 1.47 2.04
6.42 1.61 2.07
6.42 1.75 2.09
6.55 1.93 2.15
7.30 2.31 2.41
7.23 2.45 2.41
7.17 2.59 2.41
7.10 2.72 2.41
7.03 2.86 2.41
6.95 2.99 2.41
6.87 3.13 2.41
6.80 3.26 2.41
6.71 3.39 2.41
6.63 3.51 2.41
6.54 3.64 2.41
6.46 3.76 2.41
6.37 3.88 2.41
6.27 4.00 2.41
6.18 4.12 2.41
6.04 4.21 2.39
5.94 4.32 2.39
5.84 4.43 2.39
5.74 4.54 2.39
5.64 4.64 2.39
5.53 4.75 2.39
5.43 4.85 2.39
5.32 4.95 2.39
5.21 5.05 2.39
5.10 5.14 2.39
4.98 5.23 2.39
4.87 5.32 2.39
4.75 5.41 2.39
4.63 5.50 2.39
4.51 5.58 2.39
4.39 5.66 2.39
4.27 5.74 2.39
4.15 5.82 2.39
4.02 5.89 2.39
3.90 5.96 2.39
3.77 6.03 2.39
3.64 6.10 2.39
3.51 6.17 2.39
3.21 5.91 2.27
3.09 5.97 2.27
3.07 6.24 2.35
2.94 6.29 2.36
2.81 6.34 2.36
2.58 6.17 2.27
2.50 6.32 2.31
2.45 6.59 2.39
2.31 6.63 2.39
2.18 6.67 2.39
2.07 6.82 2.43
1.98 7.03 2.50
1.84 7.07 2.50
1.69 7.10 2.50
1.55 7.13 2.50
1.40 7.15 2.50
1.26 7.17 2.50
1.11 7.19 2.50
0.96 7.21 2.50
0.82 7.22 2.50
0.67 7.24 2.50
0.52 7.25 2.50
0.38 7.25 2.50
0.23 7.26 2.50
0.08 7.26 2.50
-0.07 7.26 2.50
-0.21 7.25 2.50
-0.36 7.24 2.50
-0.51 7.23 2.50
-0.65 7.22 2.50
-0.80 7.21 2.50
-0.95 7.19 2.50
-1.09 7.17 2.50
-1.24 7.15 2.50
-1.38 7.12 2.50
-1.53 7.09 2.50
-1.67 7.06 2.50
-1.81 7.03 2.50
-1.96 6.99 2.50
-2.10 6.96 2.50
-2.24 6.91 2.50
-2.38 6.87 2.50
-2.52 6.82 2.50
-2.66 6.78 2.50
-2.80 6.72 2.50
-2.94 6.67 2.50
-3.07 6.61 2.50
-3.21 6.55 2.50
-3.34 6.49 2.50
-3.48 6.43 2.50
-3.61 6.36 2.50
-3.74 6.29 2.50
-3.87 6.22 2.50
-4.00 6.15 2.50
-4.13 6.07 2.50
-4.26 5.99 2.50
-4.38 5.91 2.50
-4.51 5.83 2.50
-4.63 5.74 2.50
-4.75 5.66 2.50
-4.87 5.57 2.50
-4.99 5.47 2.50
-5.10 5.38 2.50
-5.22 5.28 2.50
-5.33 5.18 2.50
-5.44 5.08 2.50
-5.55 4.98 2.50
-5.66 4.87 2.50
-5.77 4.76 2.50
-5.87 4.65 2.50
-5.97 4.54 2.50
-6.00 4.37 2.47
-6.00 4.19 2.43
-6.01 4.02 2.40
-6.10 3.90 2.39
-6.19 3.78 2.39
-6.28 3.66 2.39
-6.36 3.54 2.39
-6.44 3.42 2.39
-6.52 3.30 2.39
-6.60 3.17 2.39
-6.67 3.04 2.39
-6.75 2.91 2.39
-6.82 2.78 2.39
-6.89 2.65 2.39
-6.95 2.51 2.39
-7.02 2.38 2.39
-7.08 2.24 2.39
-7.14 2.10 2.39
-7.19 1.96 2.39
-7.25 1.82 2.39
-7.30 1.68 2.39
-7.35 1.53 2.39
-7.39 1.39 2.39
-7.43 1.24 2.39
-7.48 1.10 2.39
-7.51 0.95 2.39
-7.55 0.80 2.39
-7.58 0.65 2.39
-7.61 0.50 2.39
-7.63 0.34 2.39
-7.66 0.19 2.39
-7.68 0.04 2.39
-7.69 -0.12 2.39
-7.71 -0.27 2.39
-7.72 -0.43 2.39
-7.73 -0.59 2.39
-7.73 -0.74 2.39
-7.73 -0.90 2.39
-7.73 -1.06 2.39
-7.73 -1.21 2.39
-7.72 -1.37 2.39
-7.71 -1.53 2.39
-7.70 -1.69 2.39
-7.68 -1.85 2.39
-7.66 -2.01 2.39
-7.64 -2.16 2.39
-7.61 -2.32 2.39
-7.58 -2.48 2.39
-7.55 -2.64 2.39
-7.51 -2.79 2.39
-7.47 -2.95 2.39
-7.43 -3.11 2.39
-7.38 -3.26 2.39
-7.33 -3.42 2.39
-7.28 -3.57 2.39
-7.22 -3.72 2.39
-7.16 -3.88 2.39
-7.10 -4.03 2.39
-7.03 -4.18 2.39
-6.96 -4.33 2.39
-6.89 -4.48 2.39
-6.82 -4.62 2.39
-6.74 -4.77 2.39
-6.65 -4.91 2.39
-6.57 -5.06 2.39
-6.48 -5.20 2.39
-6.39 -5.34 2.39
-6.30 -5.48 2.40
-6.20 -5.61 2.39
-6.10 -5.75 2.39
-6.09 -5.97 2.43
-6.09 -6.22 2.48
-6.03 -6.40 2.50
-5.91 -6.53 2.50
-5.79 -6.66 2.50
-5.66 -6.79 2.50
-5.54 -6.91 2.50
-5.41 -7.03 2.50
-5.28 -7.15 2.50
-5.14 -7.27 2.50
-5.00 -7.38 2.50
-4.86 -7.49 2.50
-4.72 -7.60 2.50
-4.58 -7.70 2.50
-4.43 -7.81 2.50
-4.28 -7.90 2.50
-4.13 -8.00 2.50
-3.97 -8.09 2.50
-3.82 -8.18 2.50
-3.66 -8.26 2.50
-3.50 -8.35 2.50
-3.33 -8.43 2.50
-3.17 -8.50 2.50
-3.00 -8.57 2.50
-2.84 -8.64 2.50
-2.67 -8.70 2.50
-2.49 -8.76 2.50
-2.32 -8.82 2.50
-2.15 -8.87 2.50
-1.97 -8.92 2.50
-1.80 -8.97 2.50
-1.62 -9.01 2.50
-1.44 -9.04 2.50
-1.26 -9.08 2.50
-1.08 -9.10 2.50
-0.90 -9.13 2.50
-0.72 -9.15 2.50
-0.54 -9.17 2.50
-0.36 -9.18 2.50
-0.17 -9.19 2.50
0.01 -8.44 2.50
0.18 -8.44 2.50
0.35 -8.43 2.50
0.51 -8.43 2.50
0.68 -8.42 2.50
0.85 -8.40 2.50
1.01 -8.38 2.50
1.18 -8.36 2.50
1.35 -8.33 2.50
1.51 -8.30 2.50
1.68 -8.27 2.50
1.84 -8.23 2.50
1.93 -7.90 2.41
2.07 -7.81 2.39
2.23 -7.77 2.39
2.38 -7.72 2.39
2.53 -7.67 2.39
2.68 -7.61 2.39
2.83 -7.55 2.39
2.98 -7.49 2.39
3.13 -7.42 2.39
3.27 -7.35 2.39
3.41 -7.28 2.39
3.55 -7.21 2.39
3.69 -7.13 2.39
3.83 -7.05 2.39
3.97 -6.96 2.39
4.10 -6.88 2.39
4.23 -6.79 2.39
4.36 -6.69 2.39
4.49 -6.60 2.39
4.61 -6.50 2.39
4.74 -6.40 2.39
4.86 -6.30 2.39
4.97 -6.19 2.39
5.09 -6.08 2.39
5.20 -5.97 2.39
5.31 -5.86 2.39
5.42 -5.74 2.39
5.52 -5.63 2.39
5.63 -5.51 2.39
5.73 -5.38 2.39
5.82 -5.26 2.39
5.92 -5.14 2.39
6.05 -5.04 2.41
6.13 -4.91 2.41
6.20 -4.77 2.40
6.28 -4.63 2.40
6.35 -4.49 2.40
6.42 -4.35 2.39
6.54 -4.24 2.41
6.61 -4.10 2.41
6.68 -3.96 2.41
6.74 -3.82 2.41
6.72 -3.63 2.38
6.69 -3.45 2.35
6.64 -3.26 2.31
6.60 -3.07 2.28
6.56 -2.90 2.25
6.48 -2.71 2.21
6.44 -2.54 2.18
6.44 -2.39 2.17
6.40 -2.23 2.15
6.38 -2.09 2.13
6.38 -1.95 2.12
6.35 -1.80 2.10
6.35 -1.66 2.10
6.35 -1.53 2.09
6.39 -1.40 2.10
6.39 -1.27 2.09
6.39 -1.14 2.09
6.39 -1.01 2.09
6.39 -0.87 2.09
6.36 -0.74 2.08
6.36 -0.61 2.08
6.36 -0.48 2.08
6.40 -0.36 2.09
6.40 -0.23 2.10
6.39 -0.10 2.10
6.40 0.03 2.10
6.40 0.15 2.11
6.37 0.28 2.10
6.37 0.41 2.11
6.40 0.54 2.13
6.40 0.67 2.14
6.41 0.80 2.15
6.41 0.93 2.16
6.41 1.06 2.17
6.41 1.20 2.19
6.38 1.32 2.19
6.38 1.46 2.21
6.42 1.60 2.23
6.42 1.74 2.25
6.55 1.92 2.31
6.76 2.13 2.41
6.71 2.26 2.41
6.65 2.39 2.41
6.58 2.52 2.41
6.52 2.65 2.41
6.45 2.77 2.41
6.38 2.89 2.41
6.31 3.02 2.41
6.23 3.14 2.41
6.15 3.25 2.41
6.03 3.35 2.39
5.95 3.46 2.39
5.87 3.57 2.39
5.79 3.69 2.39
5.70 3.79 2.39
5.61 3.90 2.39
5.52 4.01 2.39
5.43 4.11 2.39
5.34 4.21 2.39
5.24 4.31 2.39
5.14 4.41 2.39
5.04 4.50 2.39
4.94 4.59 2.39
4.84 4.69 2.39
4.74 4.77 2.39
4.63 4.86 2.39
4.53 4.95 2.39
4.42 5.03 2.39
4.31 5.11 2.39
4.20 5.19 2.39
4.09 5.26 2.39
3.97 5.34 2.39
3.86 5.41 2.39
3.74 5.48 2.39
3.63 5.55 2.39
3.51 5.61 2.39
3.39 5.67 2.39
3.11 5.44 2.27
3.08 5.65 2.34
2.98 5.75 2.36
2.86 5.80 2.36
2.74 5.85 2.36
2.53 5.70 2.27
2.49 5.95 2.35
2.41 6.09 2.39
2.28 6.13 2.39
2.16 6.17 2.39
2.07 6.33 2.44
1.98 6.51 2.50
1.85 6.55 2.50
1.71 6.58 2.50
1.58 6.61 2.50
1.44 6.63 2.50
1.31 6.66 2.50
1.17 6.68 2.50
1.04 6.70 2.50
0.90 6.71 2.50
0.76 6.73 2.50
0.63 6.74 2.50
0.49 6.75 2.50
0.35 6.75 2.50
0.21 6.76 2.50
0.08 6.76 2.50
-0.06 6.76 2.50
-0.20 6.75 2.50
-0.33 6.75 2.50
-0.47 6.74 2.50
-0.61 6.73 2.50
-0.74 6.71 2.50
-0.88 6.70 2.50
-1.02 6.68 2.50
-1.15 6.66 2.50
-1.29 6.63 2.50
-1.42 6.61 2.50
-1.56 6.58 2.50
-1.69 6.55 2.50
-1.82 6.51 2.50
-1.96 6.48 2.50
-2.09 6.44 2.50
-2.22 6.40 2.50
-2.35 6.35 2.50
-2.48 6.31 2.50
-2.61 6.26 2.50
-2.74 6.21 2.50
-2.86 6.16 2.50
-2.99 6.10 2.50
-3.12 6.04 2.50
-3.24 5.98 2.50
-3.36 5.92 2.50
-3.49 5.86 2.50
-3.61 5.79 2.50
-3.73 5.72 2.50
-3.85 5.65 2.50
-3.96 5.58 2.50
-4.08 5.50 2.50
-4.20 5.42 2.50
-4.31 5.34 2.50
-4.42 5.26 2.50
-4.53 5.18 2.50
-4.64 5.09 2.50
-4.75 5.00 2.50
-4.86 4.91 2.50
-4.96 4.82 2.50
-5.07 4.72 2.50
-5.17 4.62 2.50
-5.27 4.52 2.50
-5.36 4.42 2.50
-5.46 4.32 2.50
-5.56 4.22 2.50
-5.65 4.11 2.50
-5.74 4.00 2.50
-5.83 3.89 2.50
-5.92 3.78 2.50
-6.00 3.66 2.50
-6.01 3.50 2.47
-6.01 3.34 2.44
-6.02 3.19 2.41
-6.06 3.06 2.39
-6.13 2.94 2.39
-6.20 2.82 2.39
-6.27 2.70 2.39
-6.33 2.58 2.39
-6.40 2.45 2.39
-6.46 2.33 2.39
-6.51 2.20 2.39
-6.57 2.07 2.39
-6.62 1.95 2.39
-6.67 1.81 2.39
-6.72 1.68 2.39
-6.77 1.55 2.39
-6.81 1.42 2.39
-6.86 1.28 2.39
-6.89 1.15 2.39
-6.93 1.01 2.39
-6.96 0.87 2.39
-7.00 0.73 2.39
-7.02 0.59 2.39
-7.05 0.45 2.39
-7.07 0.31 2.39
-7.09 0.17 2.39
-7.11 0.03 2.39
-7.12 -0.12 2.39
-7.14 -0.26 2.39
-7.15 -0.40 2.39
-7.15 -0.55 2.39
-7.16 -0.69 2.39
-7.16 -0.84 2.39
-7.15 -0.98 2.39
-7.15 -1.13 2.39
-7.14 -1.27 2.39
-7.13 -1.42 2.39
-7.12 -1.57 2.39
-7.10 -1.71 2.39
-7.08 -1.86 2.39
-7.06 -2.01 2.39
-7.03 -2.15 2.39
-7.00 -2.30 2.39
-6.97 -2.44 2.39
-6.93 -2.59 2.39
-6.90 -2.73 2.39
-6.86 -2.87 2.39
-6.81 -3.02 2.39
-6.76 -3.16 2.39
-6.71 -3.30 2.39
-6.66 -3.44 2.39
-6.61 -3.58 2.39
-6.55 -3.72 2.39
-6.49 -3.86 2.39
-6.42 -4.00 2.39
-6.35 -4.13 2.39
-6.30 -4.28 2.40
-6.21 -4.40 2.39
-6.13 -4.53 2.39
-6.10 -4.70 2.41
-6.09 -4.89 2.44
-6.10 -5.10 2.48
-6.05 -5.27 2.50
-5.95 -5.40 2.50
-5.85 -5.52 2.50
-5.75 -5.65 2.50
-5.65 -5.77 2.50
-5.54 -5.90 2.50
-5.43 -6.02 2.50
-5.32 -6.13 2.50
-5.21 -6.25 2.50
-5.09 -6.36 2.50
-4.97 -6.47 2.50
-4.85 -6.58 2.50
-4.73 -6.69 2.50
-4.60 -6.79 2.50
-4.47 -6.89 2.50
-4.34 -6.99 2.50
-4.20 -7.09 2.50
-4.07 -7.18 2.50
-3.93 -7.27 2.50
-3.79 -7.35 2.50
-3.65 -7.44 2.50
-3.50 -7.52 2.50
-3.36 -7.60 2.50
-3.21 -7.67 2.50
-3.06 -7.74 2.50
-2.91 -7.81 2.50
-2.76 -7.87 2.50
-2.60 -7.94 2.50
-2.45 -7.99 2.50
-2.29 -8.05 2.50
-2.13 -8.10 2.50
-1.97 -8.15 2.50
-1.81 -8.19 2.50
-1.65 -8.23 2.50
-1.48 -8.27 2.50
-1.32 -8.30 2.50
-1.16 -8.33 2.50
-0.99 -8.36 2.50
-0.83 -8.38 2.50
-0.66 -8.40 2.50
-0.49 -8.41 2.50
-0.32 -8.43 2.50
-0.16 -8.43 2.50
0.01 -7.79 2.50
0.16 -7.79 2.50
0.32 -7.78 2.50
0.47 -7.78 2.50
0.63 -7.77 2.50
0.78 -7.75 2.50
0.94 -7.74 2.50
1.09 -7.72 2.50
1.24 -7.69 2.50
1.39 -7.67 2.50
1.55 -7.63 2.50
1.70 -7.60 2.50
1.85 -7.56 2.50
1.93 -7.28 2.42
2.06 -7.17 2.39
2.20 -7.13 2.39
2.34 -7.08 2.39
2.48 -7.03 2.39
2.61 -6.97 2.39
2.75 -6.91 2.39
2.88 -6.85 2.39
3.02 -6.79 2.39
3.15 -6.72 2.39
3.28 -6.66 2.39
3.41 -6.58 2.39
3.54 -6.51 2.39
3.66 -6.43 2.39
3.78 -6.35 2.39
3.91 -6.27 2.39
4.03 -6.18 2.39
4.14 -6.10 2.39
4.26 -6.01 2.39
4.37 -5.91 2.39
4.48 -5.82 2.39
4.59 -5.72 2.39
4.70 -5.62 2.39
4.81 -5.52 2.39
4.91 -5.42 2.39
5.01 -5.31 2.39
5.11 -5.20 2.39
5.20 -5.09 2.39
5.29 -4.98 2.39
5.38 -4.87 2.39
5.47 -4.75 2.39
5.56 -4.64 2.39
5.64 -4.52 2.39
5.72 -4.40 2.39
5.80 -4.28 2.39
5.87 -4.15 2.39
5.94 -4.03 2.39
6.05 -3.93 2.41
6.12 -3.80 2.41
6.18 -3.67 2.41
6.24 -3.54 2.41
6.30 -3.41 2.41
6.35 -3.28 2.41
6.41 -3.15 2.41
6.46 -3.01 2.41
6.50 -2.88 2.41
6.48 -2.71 2.39
6.44 -2.55 2.36
6.44 -2.40 2.34
6.40 -2.24 2.32
6.38 -2.09 2.30
6.38 -1.95 2.29
6.35 -1.80 2.27
6.35 -1.67 2.26
6.35 -1.53 2.25
6.39 -1.41 2.26
6.39 -1.27 2.26
6.39 -1.14 2.25
6.39 -1.01 2.25
6.39 -0.88 2.25
6.36 -0.75 2.24
6.36 -0.62 2.24
6.36 -0.49 2.24
6.40 -0.36 2.25
6.40 -0.24 2.26
6.39 -0.11 2.26
6.40 0.02 2.26
6.40 0.15 2.27
6.37 0.28 2.26
6.37 0.40 2.27
6.40 0.54 2.29
6.40 0.67 2.30
6.41 0.80 2.31
6.41 0.93 2.33
6.41 1.06 2.34
6.41 1.19 2.35
6.38 1.32 2.35
6.38 1.45 2.37
6.42 1.60 2.40
6.40 1.73 2.41
6.35 1.86 2.41
6.30 1.98 2.41
6.24 2.10 2.41
6.19 2.22 2.41
6.13 2.34 2.41
6.03 2.44 2.39
5.97 2.56 2.39
5.90 2.67 2.39
5.84 2.79 2.39
5.77 2.90 2.39
5.70 3.01 2.39
5.63 3.12 2.39
5.55 3.22 2.39
5.47 3.33 2.39
5.40 3.43 2.39
5.32 3.53 2.39
5.23 3.63 2.39
5.15 3.73 2.39
5.07 3.83 2.39
4.98 3.92 2.39
4.89 4.01 2.39
4.80 4.11 2.39
4.71 4.20 2.39
4.62 4.28 2.39
4.52 4.37 2.39
4.42 4.45 2.39
4.33 4.53 2.39
4.23 4.61 2.39
4.13 4.69 2.39
4.03 4.77 2.39
3.92 4.84 2.39
3.82 4.91 2.39
3.71 4.98 2.39
3.61 5.05 2.39
3.50 5.11 2.39
3.39 5.18 2.39
3.11 4.97 2.27
3.01 5.03 2.27
2.90 5.08 2.27
2.80 5.13 2.27
2.79 5.37 2.36
2.58 5.23 2.27
2.49 5.31 2.29
2.49 5.61 2.39
2.37 5.65 2.39
2.25 5.69 2.39
2.14 5.73 2.39
2.06 5.90 2.45
1.98 6.05 2.50
1.86 6.09 2.50
1.73 6.12 2.50
1.60 6.15 2.50
1.48 6.17 2.50
1.35 6.20 2.50
1.22 6.22 2.50
1.10 6.24 2.50
0.97 6.26 2.50
0.84 6.27 2.50
0.71 6.29 2.50
0.59 6.30 2.50
0.46 6.31 2.50
0.33 6.31 2.50
0.20 6.32 2.50
0.07 6.32 2.50
-0.06 6.32 2.50
-0.18 6.31 2.50
-0.31 6.31 2.50
-0.44 6.30 2.50
-0.57 6.29 2.50
-0.70 6.27 2.50
-0.82 6.26 2.50
-0.95 6.24 2.50
-1.08 6.22 2.50
-1.20 6.20 2.50
-1.33 6.17 2.50
-1.46 6.15 2.50
-1.58 6.12 2.50
-1.70 6.09 2.50
-1.83 6.05 2.50
-1.95 6.02 2.50
-2.08 5.98 2.50
-2.20 5.94 2.50
-2.32 5.90 2.50
-2.44 5.85 2.50
-2.56 5.80 2.50
-2.68 5.75 2.50
-2.80 5.70 2.50
-2.91 5.65 2.50
-3.03 5.59 2.50
-3.14 5.53 2.50
-3.26 5.47 2.50
-3.37 5.41 2.50
-3.48 5.34 2.50
-3.60 5.28 2.50
-3.71 5.21 2.50
-3.81 5.14 2.50
-3.92 5.06 2.50
-4.03 4.99 2.50
-4.13 4.91 2.50
-4.24 4.83 2.50
-4.34 4.75 2.50
-4.44 4.67 2.50
-4.54 4.58 2.50
-4.64 4.49 2.50
-4.73 4.40 2.50
-4.83 4.31 2.50
-4.92 4.22 2.50
-5.01 4.13 2.50
-5.10 4.03 2.50
-5.19 3.93 2.50
-5.27 3.83 2.50
-5.36 3.73 2.50
-5.44 3.63 2.50
-5.52 3.52 2.50
-5.60 3.41 2.50
-5.68 3.30 2.50
-5.75 3.19 2.50
-5.83 3.08 2.50
-5.90 2.97 2.50
-5.97 2.85 2.50
-6.02 2.73 2.49
-6.02 2.59 2.47
-6.02 2.44 2.44
-6.03 2.31 2.42
-6.03 2.17 2.40
-6.07 2.05 2.39
-6.12 1.93 2.39
-6.17 1.81 2.39
-6.24 1.69 2.40
-6.26 1.56 2.39
-6.31 1.44 2.39
-6.35 1.31 2.39
-6.38 1.19 2.39
-6.42 1.06 2.39
-6.45 0.93 2.39
-6.48 0.81 2.39
-6.51 0.68 2.39
-6.54 0.55 2.39
-6.56 0.42 2.39
-6.58 0.29 2.39
-6.60 0.15 2.39
-6.61 0.02 2.39
-6.63 -0.11 2.39
-6.64 -0.25 2.39
-6.64 -0.38 2.39
-6.65 -0.51 2.39
-6.65 -0.65 2.39
-6.65 -0.78 2.39
-6.65 -0.92 2.39
-6.64 -1.05 2.39
-6.63 -1.19 2.39
-6.62 -1.33 2.39
-6.61 -1.46 2.39
-6.59 -1.60 2.39
-6.57 -1.73 2.39
-6.55 -1.87 2.39
-6.53 -2.00 2.39
-6.50 -2.14 2.39
-6.47 -2.27 2.39
-6.43 -2.41 2.39
-6.40 -2.54 2.39
-6.36 -2.67 2.39
-6.32 -2.80 2.39
-6.29 -2.94 2.40
-6.23 -3.07 2.39
-6.18 -3.20 2.39
-6.12 -3.33 2.39
-6.09 -3.47 2.40
-6.09 -3.63 2.43
-6.08 -3.79 2.45
-6.08 -3.97 2.48
-6.07 -4.13 2.50
-6.00 -4.26 2.50
-5.92 -4.39 2.50
-5.84 -4.51 2.50
-5.76 -4.64 2.50
-5.68 -4.76 2.50
-5.60 -4.88 2.50
-5.51 -5.00 2.50
-5.42 -5.12 2.50
-5.32 -5.23 2.50
-5.23 -5.35 2.50
-5.13 -5.46 2.50
-5.03 -5.57 2.50
-4.92 -5.68 2.50
-4.82 -5.78 2.50
-4.71 -5.89 2.50
-4.60 -5.99 2.50
-4.48 -6.09 2.50
-4.37 -6.19 2.50
-4.25 -6.28 2.50
-4.13 -6.37 2.50
-4.01 -6.46 2.50
-3.88 -6.55 2.50
-3.76 -6.64 2.50
-3.63 -6.72 2.50
-3.50 -6.80 2.50
-3.37 -6.88 2.50
-3.23 -6.95 2.50
-3.10 -7.02 2.50
-2.96 -7.09 2.50
-2.82 -7.15 2.50
-2.68 -7.22 2.50
-2.54 -7.27 2.50
-2.40 -7.33 2.50
-2.26 -7.38 2.50
-2.11 -7.43 2.50
-1.96 -7.48 2.50
-1.82 -7.52 2.50
-1.67 -7.56 2.50
-1.52 -7.60 2.50
-1.37 -7.64 2.50
-1.22 -7.67 2.50
-1.07 -7.69 2.50
-0.91 -7.72 2.50
-0.76 -7.74 2.50
-0.61 -7.75 2.50
-0.45 -7.77 2.50
-0.30 -7.78 2.50
-0.14 -7.78 2.50
0.01 -7.22 2.50
0.15 -7.22 2.50
0.30 -7.22 2.50
0.44 -7.21 2.50
0.58 -7.21 2.50
0.73 -7.19 2.50
0.87 -7.18 2.50
1.01 -7.16 2.50
1.15 -7.14 2.50
1.29 -7.11 2.50
1.43 -7.08 2.50
1.57 -7.05 2.50
1.71 -7.02 2.50
1.85 -6.98 2.50
1.93 -6.75 2.43
2.04 -6.61 2.39
2.17 -6.57 2.39
2.30 -6.52 2.39
2.42 -6.47 2.39
2.55 -6.42 2.39
2.67 -6.36 2.39
2.80 -6.30 2.39
2.92 -6.24 2.39
3.04 -6.18 2.39
3.16 -6.11 2.39
3.28 -6.04 2.39
3.40 -5.97 2.39
3.51 -5.90 2.39
3.62 -5.82 2.39
3.73 -5.74 2.39
3.84 -5.66 2.39
3.95 -5.58 2.39
4.06 -5.49 2.39
4.16 -5.41 2.39
4.26 -5.32 2.39
4.36 -5.22 2.39
4.46 -5.13 2.39
4.56 -5.03 2.39
4.65 -4.94 2.39
4.74 -4.84 2.39
4.83 -4.74 2.39
4.92 -4.63 2.39
5.00 -4.53 2.39
5.08 -4.42 2.39
5.16 -4.31 2.39
5.24 -4.20 2.39
5.31 -4.09 2.39
5.38 -3.98 2.39
5.45 -3.86 2.39
5.52 -3.75 2.39
5.59 -3.63 2.39
5.65 -3.52 2.39
5.71 -3.40 2.39
5.76 -3.28 2.39
5.82 -3.16 2.39
5.87 -3.03 2.39
5.92 -2.91 2.39
5.96 -2.79 2.39
6.05 -2.68 2.41
6.09 -2.56 2.41
6.13 -2.43 2.41
6.16 -2.30 2.41
6.20 -2.17 2.41
6.23 -2.05 2.41
6.26 -1.92 2.41
6.28 -1.79 2.41
6.30 -1.66 2.41
6.32 -1.53 2.41
6.34 -1.40 2.41
6.35 -1.27 2.41
6.37 -1.14 2.41
6.37 -1.01 2.41
6.38 -0.88 2.41
6.36 -0.75 2.40
6.36 -0.62 2.40
6.36 -0.49 2.40
6.38 -0.37 2.41
6.37 -0.24 2.41
6.36 -0.11 2.41
6.35 0.02 2.41
6.34 0.14 2.41
6.32 0.27 2.41
6.30 0.40 2.41
6.28 0.52 2.41
6.26 0.64 2.41
6.23 0.77 2.41
6.20 0.89 2.41
6.17 1.01 2.41
6.14 1.14 2.41
6.10 1.26 2.41
6.02 1.37 2.39
5.98 1.48 2.39
5.94 1.60 2.39
5.89 1.72 2.39
5.85 1.83 2.39
5.80 1.94 2.39
5.75 2.06 2.39
5.69 2.17 2.39
5.64 2.28 2.39
5.58 2.39 2.39
5.52 2.49 2.39
5.46 2.60 2.39
5.39 2.70 2.39
5.33 2.81 2.39
5.26 2.91 2.39
5.19 3.01 2.39
5.12 3.11 2.39
5.05 3.20 2.39
4.98 3.30 2.39
4.90 3.39 2.39
4.82 3.49 2.39
4.74 3.58 2.39
4.66 3.67 2.39
4.58 3.75 2.39
4.50 3.84 2.39
4.41 3.92 2.39
4.32 4.01 2.39
