ply
format ascii 1.0
element vertex 2831
property float32 x
property float32 y
property float32 z
end_header
-34.14 -9.30 1.00
-19.67 -5.79 0.58
-33.90 -10.72 1.00
-18.84 -6.38 0.56
-16.38 -5.91 0.49
-14.91 -5.72 0.45
-6.35 -2.59 0.19
-6.25 -2.69 0.19
-6.22 -2.83 0.19
-12.59 -6.03 0.39
-12.54 -6.32 0.39
-12.48 -6.61 0.39
-12.43 -6.90 0.39
-12.37 -7.20 0.39
-12.31 -7.50 0.39
-12.26 -7.81 0.40
-12.20 -8.12 0.40
-12.14 -8.43 0.40
-12.08 -8.76 0.40
-12.01 -9.09 0.41
-11.95 -9.42 0.41
-11.89 -9.76 0.42
-11.82 -10.11 0.42
-11.75 -10.47 0.42
-8.60 -7.98 0.31
-11.61 -11.21 0.43
-11.54 -11.60 0.44
-11.47 -12.00 0.44
-19.19 -20.91 0.76
-18.07 -20.50 0.73
-16.66 -19.68 0.68
-15.87 -19.53 0.67
-15.58 -19.98 0.67
-14.41 -19.26 0.63
-13.65 -19.04 0.62
-13.11 -19.08 0.61
-12.35 -18.77 0.59
-11.69 -18.56 0.57
-11.18 -18.57 0.57
-10.93 -19.00 0.57
-10.03 -18.29 0.54
-8.09 -15.48 0.45
-7.64 -15.36 0.45
-7.36 -15.57 0.45
-7.77 -17.32 0.49
-7.30 -17.20 0.48
-7.45 -18.59 0.52
-8.10 -21.43 0.59
-7.93 -22.32 0.61
-13.80 -41.48 1.13
-12.60 -40.58 1.09
-11.79 -40.84 1.09
-9.85 -40.08 1.06
-3.48 -17.13 0.45
-5.36 -33.09 0.86
-4.67 -33.02 0.85
-4.23 -34.98 0.90
-3.81 -37.80 0.97
15.62 -46.96 2.37
16.32 -45.94 2.33
16.99 -44.95 2.30
17.70 -44.13 2.27
17.75 -41.80 2.17
10.08 -22.49 1.18
9.78 -20.68 1.09
9.37 -18.83 1.01
9.43 -18.04 0.97
12.19 -22.22 1.21
12.70 -22.09 1.22
13.26 -22.01 1.23
13.78 -21.88 1.24
14.41 -21.90 1.26
14.98 -21.79 1.27
15.55 -21.68 1.28
16.14 -21.57 1.29
16.96 -21.74 1.32
17.58 -21.62 1.34
17.97 -21.23 1.34
18.61 -21.11 1.35
19.26 -20.99 1.37
20.19 -21.13 1.41
20.89 -21.00 1.43
21.59 -20.85 1.45
22.06 -20.46 1.45
22.81 -20.32 1.47
23.58 -20.17 1.50
24.22 -19.89 1.52
24.64 -19.43 1.52
25.48 -19.27 1.55
26.79 -19.43 1.60
27.25 -18.94 1.61
28.19 -18.76 1.64
28.71 -18.29 1.65
29.71 -18.10 1.69
11.87 -6.91 0.67
10.14 -5.63 0.56
10.27 -5.44 0.57
10.40 -5.24 0.57
10.54 -5.05 0.57
10.67 -4.85 0.57
10.81 -4.65 0.58
10.94 -4.45 0.58
11.08 -4.25 0.58
11.22 -4.05 0.58
11.36 -3.84 0.59
11.50 -3.64 0.59
11.64 -3.43 0.60
11.79 -3.21 0.60
11.94 -3.00 0.61
12.09 -2.78 0.61
12.24 -2.56 0.62
12.32 -2.32 0.62
12.46 -2.08 0.63
12.60 -1.85 0.63
12.76 -1.61 0.64
12.92 -1.37 0.65
13.12 -1.12 0.65
13.31 -0.87 0.66
13.56 -0.61 0.68
13.75 -0.35 0.69
13.93 -0.07 0.70
14.13 0.21 0.71
14.33 0.50 0.72
14.53 0.80 0.73
14.74 1.11 0.74
14.96 1.43 0.75
15.18 1.76 0.77
15.42 2.10 0.78
25.01 3.92 1.28
24.95 4.42 1.28
24.82 4.92 1.28
24.76 5.42 1.28
24.63 5.92 1.28
24.57 6.43 1.29
24.48 6.93 1.29
18.57 5.66 0.99
44.69 14.61 2.39
41.21 14.40 2.22
45.86 17.06 2.49
2.12 0.84 0.12
2.08 0.87 0.12
2.08 0.92 0.12
44.15 20.59 2.49
43.67 21.45 2.49
43.19 22.30 2.49
42.68 23.13 2.49
21.31 12.11 1.26
20.65 12.29 1.24
20.55 12.80 1.25
20.46 13.31 1.26
20.36 13.84 1.27
34.68 24.61 2.20
38.06 28.17 2.45
33.10 25.54 2.17
31.44 25.29 2.09
29.81 24.98 2.02
28.30 24.70 1.95
26.88 24.43 1.89
25.48 24.11 1.83
24.31 23.95 1.78
23.14 23.72 1.73
22.03 23.52 1.68
20.99 23.32 1.64
19.99 23.13 1.60
19.05 22.95 1.56
18.15 22.78 1.53
17.29 22.62 1.49
13.63 18.59 1.21
15.68 22.32 1.43
14.92 22.17 1.41
14.19 22.04 1.38
13.49 21.90 1.36
12.82 21.78 1.33
12.17 21.66 1.31
11.54 21.54 1.29
10.93 21.42 1.27
10.34 21.31 1.25
9.74 21.15 1.23
9.21 21.10 1.22
8.67 20.99 1.20
8.14 20.90 1.19
7.62 20.80 1.18
7.12 20.70 1.16
6.63 20.61 1.15
6.15 20.52 1.14
5.68 20.43 1.13
5.22 20.34 1.12
4.76 20.26 1.11
4.32 20.17 1.10
3.88 20.09 1.09
3.45 20.01 1.08
3.02 19.93 1.08
2.61 19.85 1.07
2.19 19.77 1.06
1.79 19.70 1.06
1.38 19.62 1.05
0.98 19.55 1.05
0.59 19.47 1.04
0.20 19.40 1.04
-0.19 19.32 1.03
-0.58 19.25 1.03
-0.96 19.18 1.03
-1.34 19.11 1.03
-1.72 19.04 1.02
-2.10 18.96 1.02
-2.48 18.89 1.02
-2.86 18.82 1.02
-3.23 18.75 1.02
-3.61 18.68 1.02
-3.98 18.61 1.02
-4.36 18.54 1.02
-4.73 18.47 1.02
-5.11 18.40 1.02
-5.49 18.33 1.03
-5.85 18.20 1.02
-6.25 18.18 1.03
-6.64 18.11 1.03
-7.02 18.04 1.04
-7.41 17.96 1.04
-7.81 17.89 1.05
-8.20 17.81 1.05
-8.61 17.74 1.06
-9.01 17.66 1.06
-9.42 17.58 1.07
-9.80 17.45 1.07
-10.26 17.43 1.08
-10.68 17.35 1.09
-11.12 17.26 1.10
-11.56 17.18 1.11
-12.01 17.10 1.12
-12.46 17.01 1.13
-12.93 16.92 1.14
-13.41 16.83 1.15
-13.89 16.74 1.16
-14.39 16.65 1.17
-14.90 16.55 1.19
-15.42 16.45 1.20
-15.95 16.35 1.22
-16.50 16.25 1.23
-17.06 16.14 1.25
-17.62 16.01 1.27
-18.24 15.92 1.29
-18.86 15.80 1.31
-19.50 15.68 1.33
-20.16 15.56 1.35
-20.84 15.43 1.37
-21.55 15.30 1.40
-22.29 15.16 1.43
-23.06 15.01 1.46
-23.86 14.86 1.49
-24.70 14.70 1.52
-25.50 14.49 1.55
-26.50 14.36 1.59
-27.46 14.18 1.63
-28.48 13.99 1.67
-29.46 13.74 1.71
-30.69 13.57 1.76
-31.89 13.35 1.82
-33.17 13.11 1.87
-34.53 12.85 1.93
-35.99 12.57 2.00
-37.55 12.28 2.07
-14.03 4.28 0.77
-41.02 11.61 2.23
-43.68 10.49 2.34
-44.85 9.83 2.39
-45.08 8.93 2.39
-45.30 8.03 2.39
-45.53 7.13 2.39
-47.65 6.49 2.49
-47.82 5.54 2.49
-47.97 4.58 2.49
-48.11 3.62 2.49
-48.22 2.66 2.49
-12.00 0.42 0.62
-11.67 0.17 0.60
-11.65 -0.06 0.60
-11.86 -0.30 0.61
-10.25 -0.46 0.53
-10.33 -0.68 0.53
-10.41 -0.89 0.54
-10.87 -1.15 0.56
-35.23 -4.45 1.82
-35.14 -5.16 1.81
-35.10 -5.87 1.82
-34.79 -6.54 1.80
-10.24 -2.14 0.53
-10.08 -2.32 0.53
-10.06 -2.53 0.53
-9.92 -2.70 0.52
-19.53 -5.75 1.03
-33.87 -10.71 1.80
-18.83 -6.37 1.01
-16.37 -5.91 0.88
-14.90 -5.72 0.81
-6.35 -2.59 0.35
-12.70 -5.47 0.70
-12.64 -5.75 0.70
-12.59 -6.03 0.70
-12.54 -6.32 0.70
-12.48 -6.61 0.71
-12.43 -6.90 0.71
-9.84 -5.73 0.57
-9.11 -5.55 0.53
-8.96 -5.71 0.53
-8.93 -5.94 0.53
-8.76 -6.09 0.53
-12.08 -8.76 0.74
-12.01 -9.09 0.75
-11.95 -9.42 0.75
-9.59 -7.88 0.61
-8.99 -7.69 0.59
-8.67 -7.72 0.57
-8.44 -7.83 0.57
-8.48 -8.19 0.58
-11.54 -11.60 0.81
-11.47 -12.00 0.82
-9.03 -9.83 0.66
-8.64 -9.81 0.64
-8.39 -9.91 0.64
-8.33 -10.25 0.65
-9.19 -11.78 0.73
-8.65 -11.56 0.71
-8.26 -11.52 0.69
-7.96 -11.58 0.69
-7.83 -11.90 0.70
-8.57 -13.61 0.78
-8.13 -13.50 0.77
-7.71 -13.42 0.75
-7.46 -13.61 0.75
-8.03 -15.36 0.84
-7.62 -15.33 0.83
-7.24 -15.32 0.82
-7.10 -15.85 0.84
-7.27 -17.13 0.90
-6.94 -17.32 0.90
-8.02 -21.23 1.10
-7.85 -22.10 1.13
-13.78 -41.44 2.11
-12.63 -40.67 2.06
-11.80 -40.90 2.05
-10.95 -41.01 2.05
-9.85 -40.11 1.99
-7.90 -35.21 1.74
-3.48 -17.13 0.84
-5.35 -33.06 1.61
-4.65 -32.91 1.60
-4.21 -34.84 1.69
-3.73 -37.07 1.79
-1.60 -39.89 1.91
-0.79 -39.64 1.90
0.00 -34.10 2.40
0.71 -35.37 2.49
1.42 -35.35 2.49
2.13 -35.32 2.49
2.84 -35.28 2.49
3.55 -35.22 2.49
4.25 -35.15 2.49
4.96 -35.06 2.49
5.66 -34.95 2.49
6.36 -34.84 2.49
7.06 -34.70 2.49
7.76 -34.56 2.49
8.10 -32.97 2.39
8.76 -32.81 2.39
9.42 -32.62 2.39
10.07 -32.43 2.39
10.72 -32.22 2.39
11.36 -31.99 2.39
10.64 -28.16 2.12
10.07 -25.12 1.91
13.35 -31.45 2.41
10.08 -22.49 1.74
9.78 -20.68 1.61
9.47 -19.02 1.50
9.14 -17.48 1.39
8.90 -16.23 1.30
8.75 -15.21 1.24
8.54 -14.18 1.17
8.35 -13.25 1.10
8.15 -12.39 1.05
8.02 -11.66 1.00
8.05 -11.22 0.97
8.27 -11.05 0.97
16.74 -21.46 1.92
17.35 -21.35 1.94
17.97 -21.23 1.97
18.61 -21.11 1.99
19.26 -20.99 2.01
19.93 -20.86 2.04
20.62 -20.73 2.07
21.33 -20.60 2.10
22.06 -20.46 2.13
22.80 -20.32 2.16
23.58 -20.17 2.20
24.19 -19.87 2.22
23.93 -18.86 2.16
23.94 -18.11 2.13
24.45 -17.73 2.15
25.28 -17.57 2.19
25.51 -16.98 2.18
25.83 -16.46 2.18
11.69 -7.12 0.97
11.82 -6.88 0.97
10.14 -5.63 0.83
10.27 -5.44 0.83
10.40 -5.24 0.83
10.54 -5.05 0.83
10.67 -4.85 0.84
10.81 -4.65 0.84
10.94 -4.45 0.85
11.08 -4.25 0.85
11.22 -4.05 0.85
11.36 -3.84 0.86
11.50 -3.64 0.87
11.64 -3.43 0.87
11.79 -3.21 0.88
11.94 -3.00 0.88
12.09 -2.78 0.89
12.24 -2.56 0.90
12.32 -2.32 0.90
12.46 -2.08 0.91
12.59 -1.85 0.92
12.76 -1.61 0.93
12.92 -1.37 0.94
13.12 -1.12 0.95
13.31 -0.87 0.97
13.56 -0.62 0.98
13.75 -0.35 1.00
13.93 -0.07 1.01
14.13 0.21 1.03
14.33 0.50 1.04
14.53 0.80 1.06
14.74 1.11 1.08
14.96 1.43 1.09
15.18 1.76 1.11
15.42 2.10 1.13
25.01 3.92 1.85
24.95 4.42 1.85
24.82 4.92 1.85
24.76 5.42 1.85
24.63 5.91 1.85
24.57 6.42 1.86
24.48 6.93 1.87
18.57 5.66 1.42
30.94 10.11 2.39
30.70 10.72 2.39
30.46 11.33 2.39
2.12 0.84 0.17
2.08 0.87 0.17
2.08 0.92 0.17
30.62 14.28 2.49
30.31 14.88 2.49
29.98 15.48 2.49
22.80 12.36 1.92
21.31 12.11 1.81
19.87 11.83 1.71
19.42 12.09 1.70
19.33 12.58 1.71
19.24 13.08 1.73
19.14 13.58 1.74
26.95 19.95 2.49
26.53 20.47 2.49
25.19 20.26 2.41
24.59 20.60 2.39
24.15 21.07 2.39
23.71 21.54 2.39
23.25 22.00 2.39
22.79 22.44 2.39
22.32 22.88 2.39
21.84 23.31 2.39
18.09 22.71 2.18
17.25 22.58 2.13
13.61 18.57 1.73
15.68 22.32 2.05
14.92 22.17 2.01
14.20 22.04 1.97
13.50 21.91 1.94
12.82 21.78 1.90
12.17 21.66 1.87
11.54 21.54 1.84
10.93 21.42 1.82
10.34 21.31 1.79
9.75 21.15 1.76
9.21 21.10 1.74
8.67 20.99 1.72
8.14 20.90 1.70
7.63 20.80 1.68
7.12 20.70 1.66
6.63 20.61 1.64
6.15 20.52 1.62
5.68 20.43 1.61
5.22 20.34 1.59
4.76 20.26 1.58
4.32 20.17 1.57
3.88 20.09 1.55
3.45 20.01 1.54
3.03 19.93 1.53
2.61 19.85 1.52
2.19 19.77 1.51
1.79 19.70 1.50
1.38 19.62 1.50
0.98 19.55 1.49
0.59 19.47 1.48
0.20 19.40 1.48
-0.19 19.32 1.47
-0.58 19.25 1.47
-0.96 19.18 1.46
-1.34 19.11 1.46
-1.72 19.04 1.46
-2.10 18.96 1.45
-2.48 18.89 1.45
-2.85 18.82 1.45
-3.23 18.75 1.45
-3.61 18.68 1.45
-3.98 18.61 1.45
-4.36 18.54 1.45
-4.73 18.47 1.45
-5.11 18.40 1.46
-5.49 18.33 1.46
-5.85 18.20 1.46
-6.25 18.18 1.47
-6.64 18.11 1.47
-7.02 18.04 1.48
-7.41 17.96 1.48
-7.81 17.89 1.49
-8.20 17.81 1.49
-8.61 17.74 1.50
-9.01 17.66 1.51
-9.42 17.58 1.52
-9.80 17.45 1.52
-10.26 17.43 1.54
-10.68 17.35 1.55
-11.12 17.26 1.56
-11.56 17.18 1.58
-12.01 17.10 1.59
-12.47 17.01 1.60
-12.93 16.92 1.62
-13.41 16.83 1.64
-13.89 16.74 1.65
-14.39 16.65 1.67
-14.90 16.55 1.69
-15.42 16.45 1.71
-15.95 16.35 1.73
-16.50 16.25 1.76
-17.06 16.14 1.78
-17.62 16.01 1.80
-18.24 15.92 1.83
-18.86 15.80 1.86
-19.50 15.68 1.89
-20.16 15.56 1.93
-20.84 15.43 1.96
-21.55 15.29 2.00
-22.29 15.16 2.04
-23.06 15.01 2.08
-23.85 14.85 2.12
-24.63 14.66 2.16
-25.50 14.49 2.21
-28.51 14.00 2.39
-28.81 13.44 2.39
-29.09 12.86 2.39
-29.36 12.28 2.39
-29.62 11.70 2.39
-29.86 11.11 2.39
-30.10 10.51 2.39
-30.33 9.91 2.39
-14.03 4.28 1.10
-32.07 9.08 2.49
-32.26 8.44 2.49
-32.45 7.79 2.49
-32.62 7.14 2.49
-32.78 6.49 2.49
-32.93 5.84 2.49
-33.06 5.18 2.49
-33.18 4.52 2.49
-33.29 3.85 2.49
-33.39 3.19 2.49
-33.47 2.52 2.49
-33.54 1.85 2.49
-11.59 0.41 0.86
-11.58 0.17 0.86
-11.54 -0.06 0.86
-10.35 -0.26 0.77
-10.31 -0.47 0.76
-10.16 -0.67 0.75
-10.12 -0.87 0.75
-10.99 -1.16 0.82
-31.35 -3.96 2.33
-30.89 -4.53 2.30
-30.43 -5.09 2.27
-29.93 -5.63 2.24
-10.16 -2.12 0.76
-9.93 -2.28 0.75
-10.00 -2.51 0.76
-9.95 -2.71 0.76
-19.59 -5.77 1.50
-15.18 -4.80 1.17
-13.00 -4.40 1.00
-10.54 -3.81 0.82
-9.54 -3.66 0.75
-6.35 -2.59 0.50
-9.37 -4.03 0.74
-9.37 -4.26 0.75
-12.59 -6.03 1.02
-12.54 -6.32 1.02
-12.48 -6.61 1.03
-12.43 -6.90 1.03
-9.67 -5.63 0.81
-9.08 -5.53 0.77
-8.93 -5.69 0.77
-8.86 -5.90 0.77
-8.85 -6.15 0.78
-12.08 -8.76 1.08
-12.01 -9.09 1.09
-11.95 -9.42 1.10
-9.44 -7.76 0.88
-8.85 -7.57 0.84
-8.58 -7.64 0.83
-8.35 -7.75 0.82
-8.37 -8.09 0.84
-11.54 -11.60 1.18
-9.50 -9.95 0.99
-9.00 -9.81 0.96
-8.58 -9.73 0.93
-8.36 -9.87 0.93
-8.24 -10.14 0.94
-9.05 -11.61 1.05
-8.61 -11.51 1.03
-8.16 -11.38 1.00
-7.88 -11.47 0.99
-7.68 -11.67 1.00
-8.51 -13.51 1.14
-8.09 -13.44 1.12
-7.69 -13.38 1.10
-7.35 -13.40 1.09
-8.02 -15.35 1.23
-7.60 -15.28 1.21
-7.23 -15.31 1.20
-7.06 -15.75 1.23
-7.27 -17.13 1.32
-6.92 -17.25 1.32
-8.00 -21.19 1.61
-7.85 -22.11 1.66
-10.42 -31.34 2.34
-9.81 -31.61 2.35
-9.98 -34.57 2.55
-8.86 -33.21 2.43
-8.21 -33.44 2.44
-7.53 -33.56 2.43
-3.48 -17.13 1.24
-6.13 -33.56 2.41
-5.44 -33.62 2.41
-4.66 -32.99 2.35
-4.02 -33.22 2.36
-3.39 -33.69 2.39
-2.69 -33.52 2.37
-2.02 -33.58 2.37
-1.36 -33.86 2.39
-0.68 -33.89 2.39
0.00 -26.76 2.49
0.54 -26.76 2.49
1.08 -26.75 2.49
1.61 -26.73 2.49
2.15 -26.69 2.49
2.68 -26.65 2.49
3.22 -26.59 2.49
3.75 -26.52 2.49
4.28 -26.44 2.49
4.81 -26.35 2.49
5.34 -26.25 2.49
5.87 -26.14 2.49
6.39 -26.02 2.49
6.63 -24.82 2.39
7.12 -24.68 2.39
7.62 -24.53 2.39
8.11 -24.37 2.39
8.59 -24.20 2.39
9.08 -24.02 2.39
9.56 -23.83 2.39
10.03 -23.64 2.39
10.08 -22.49 2.30
9.78 -20.69 2.13
9.47 -19.03 1.98
9.14 -17.48 1.84
8.90 -16.23 1.72
8.75 -15.21 1.63
8.54 -14.18 1.54
8.35 -13.25 1.46
8.19 -12.44 1.39
8.10 -11.79 1.33
7.97 -11.12 1.28
7.81 -10.44 1.22
7.75 -9.94 1.18
7.61 -9.36 1.13
7.56 -8.93 1.09
7.40 -8.39 1.04
7.34 -8.00 1.01
7.60 -7.95 1.03
16.92 -17.01 2.24
17.26 -16.66 2.24
17.58 -16.31 2.24
17.39 -15.50 2.18
17.70 -15.14 2.18
17.99 -14.78 2.18
18.28 -14.41 2.18
19.09 -14.44 2.24
19.37 -14.05 2.24
19.64 -13.65 2.24
8.65 -5.76 0.97
8.76 -5.58 0.97
8.92 -5.43 0.98
9.25 -5.38 1.00
9.85 -5.47 1.06
10.27 -5.44 1.09
10.40 -5.24 1.10
10.54 -5.05 1.10
10.67 -4.85 1.10
10.81 -4.65 1.11
10.94 -4.45 1.11
11.08 -4.25 1.12
11.22 -4.05 1.12
11.36 -3.85 1.13
11.50 -3.64 1.14
11.64 -3.43 1.15
11.79 -3.21 1.15
11.94 -3.00 1.16
12.09 -2.78 1.17
12.24 -2.56 1.18
12.32 -2.32 1.19
12.46 -2.09 1.20
12.59 -1.85 1.21
12.76 -1.61 1.22
12.92 -1.37 1.23
13.12 -1.13 1.25
13.31 -0.87 1.27
13.56 -0.62 1.29
13.75 -0.35 1.31
13.93 -0.07 1.33
14.13 0.21 1.35
14.43 0.50 1.38
14.64 0.81 1.40
14.85 1.12 1.42
15.07 1.44 1.45
15.18 1.76 1.46
15.42 2.10 1.49
23.54 3.69 2.28
23.92 4.24 2.33
24.24 4.80 2.37
24.53 5.37 2.41
24.40 5.86 2.41
24.26 6.34 2.41
24.12 6.82 2.41
18.57 5.66 1.87
23.64 7.73 2.39
23.46 8.19 2.39
23.28 8.66 2.39
2.13 0.84 0.22
2.08 0.87 0.22
2.08 0.92 0.22
22.06 10.29 2.35
21.68 10.65 2.33
21.99 11.35 2.39
22.68 12.29 2.49
20.86 11.85 2.32
19.88 11.83 2.24
19.40 12.08 2.21
19.31 12.56 2.23
19.21 13.06 2.25
20.97 14.88 2.49
20.66 15.29 2.49
20.33 15.69 2.49
20.00 16.08 2.49
19.66 16.47 2.49
19.32 16.86 2.49
18.97 17.23 2.49
18.61 17.60 2.49
18.24 17.96 2.49
17.87 18.31 2.49
17.49 18.66 2.49
16.81 18.67 2.45
16.02 18.54 2.39
15.63 18.83 2.39
15.24 19.13 2.39
14.85 19.43 2.39
13.61 18.56 2.25
14.04 19.99 2.39
13.63 20.26 2.39
13.22 20.52 2.39
12.80 20.77 2.39
12.37 21.01 2.39
11.94 21.25 2.39
11.51 21.48 2.39
9.75 21.15 2.29
8.12 20.83 2.20
7.60 20.74 2.17
7.10 20.64 2.15
6.62 20.58 2.13
6.15 20.52 2.11
5.68 20.43 2.09
5.22 20.34 2.07
4.76 20.26 2.05
4.32 20.17 2.03
3.88 20.09 2.02
3.45 20.01 2.00
3.03 19.93 1.99
2.61 19.85 1.98
2.19 19.77 1.96
1.79 19.70 1.95
1.38 19.62 1.94
0.98 19.55 1.93
0.59 19.47 1.92
0.20 19.40 1.92
-0.19 19.32 1.91
-0.58 19.25 1.90
-0.96 19.18 1.90
-1.34 19.11 1.89
-1.72 19.04 1.89
-2.10 18.96 1.89
-2.48 18.89 1.88
-2.85 18.82 1.88
-3.23 18.75 1.88
-3.61 18.68 1.88
-3.98 18.61 1.88
-4.36 18.54 1.88
-4.73 18.47 1.89
-5.11 18.40 1.89
-5.49 18.33 1.89
-5.85 18.20 1.89
-6.25 18.18 1.90
-6.64 18.11 1.91
-7.02 18.04 1.91
-7.41 17.96 1.92
-7.81 17.89 1.93
-8.20 17.81 1.94
-8.61 17.74 1.95
-9.01 17.66 1.96
-9.42 17.58 1.97
-9.80 17.45 1.98
-10.26 17.43 2.00
-10.69 17.35 2.01
-11.12 17.26 2.03
-11.56 17.18 2.05
-12.01 17.10 2.06
-12.47 17.01 2.08
-12.93 16.92 2.10
-13.39 16.82 2.12
-13.86 16.70 2.14
-14.35 16.60 2.16
-11.96 13.29 1.76
-12.37 13.20 1.78
-12.79 13.11 1.81
-13.23 13.03 1.83
-13.69 12.95 1.86
-14.17 12.88 1.89
-14.66 12.79 1.91
-15.15 12.69 1.94
-15.65 12.58 1.98
-19.25 14.85 2.39
-19.55 14.47 2.39
-19.84 14.08 2.39
-20.13 13.68 2.39
-20.41 13.28 2.39
-20.68 12.87 2.39
-20.94 12.46 2.39
-21.20 12.04 2.39
-21.44 11.62 2.39
-21.97 11.34 2.42
-22.78 11.19 2.49
-23.09 10.77 2.49
-23.31 10.31 2.49
-23.52 9.84 2.49
-23.73 9.37 2.49
-23.92 8.90 2.49
-24.11 8.42 2.49
-24.28 7.94 2.49
-14.01 4.27 1.43
-24.61 6.96 2.49
-24.75 6.47 2.49
-24.89 5.98 2.49
-25.02 5.48 2.49
-25.14 4.98 2.49
-25.25 4.47 2.49
-25.35 3.97 2.49
-25.43 3.46 2.49
-25.51 2.95 2.49
-24.52 2.34 2.39
-24.58 1.85 2.39
-24.63 1.35 2.39
-11.58 0.40 1.12
-11.56 0.17 1.12
-11.52 -0.06 1.12
-10.06 -0.26 0.97
-10.01 -0.46 0.97
-10.03 -0.66 0.97
-10.03 -0.86 0.97
-10.96 -1.16 1.06
-23.87 -3.02 2.32
-23.79 -3.49 2.32
-23.74 -3.97 2.32
-23.66 -4.45 2.32
-10.04 -2.10 0.99
-9.90 -2.28 0.98
-9.87 -2.48 0.98
-9.87 -2.69 0.98
-17.19 -5.06 1.72
-15.18 -4.80 1.53
-12.99 -4.40 1.31
-9.71 -3.51 0.99
-9.45 -3.63 0.97
-6.35 -2.59 0.66
-9.23 -3.98 0.96
-9.31 -4.24 0.98
-12.59 -6.03 1.33
-12.54 -6.32 1.34
-12.48 -6.61 1.35
-12.43 -6.90 1.35
-9.56 -5.57 1.05
-8.98 -5.47 1.00
-8.73 -5.56 0.98
-8.65 -5.76 0.99
-8.72 -6.06 1.01
-12.08 -8.76 1.42
-12.01 -9.09 1.43
-10.06 -7.93 1.22
-9.42 -7.74 1.16
-8.96 -7.67 1.12
-8.58 -7.64 1.09
-8.33 -7.73 1.08
-8.33 -8.04 1.10
-11.54 -11.60 1.55
-9.45 -9.89 1.29
-8.98 -9.79 1.26
-8.57 -9.73 1.22
-8.26 -9.76 1.21
-8.20 -10.10 1.23
-9.07 -11.63 1.39
-8.60 -11.50 1.35
-8.16 -11.38 1.32
-7.88 -11.47 1.31
-7.66 -11.65 1.31
-8.51 -13.52 1.50
-8.10 -13.45 1.48
-7.67 -13.34 1.45
-7.35 -13.41 1.44
-7.27 -13.91 1.47
-7.58 -15.23 1.60
-7.21 -15.25 1.58
-6.96 -15.53 1.60
-7.27 -17.13 1.74
-6.97 -17.38 1.75
-8.55 -22.62 2.26
-8.21 -23.13 2.30
-7.80 -23.46 2.31
-7.38 -23.79 2.33
-6.96 -24.11 2.35
-6.52 -24.44 2.36
-6.14 -25.01 2.41
-5.60 -24.97 2.39
-3.48 -17.09 1.63
-2.19 -12.01 1.14
-1.95 -12.06 1.14
-1.71 -12.11 1.14
-1.47 -12.15 1.14
-1.26 -12.54 1.18
-2.05 -25.55 2.39
-1.56 -25.89 2.42
-1.07 -26.73 2.49
-0.53 -26.75 2.49
0.00 -21.51 2.49
0.43 -21.51 2.49
0.87 -21.50 2.49
1.30 -21.48 2.49
1.73 -21.45 2.49
2.16 -21.41 2.49
2.59 -21.37 2.49
3.02 -21.31 2.49
3.44 -21.25 2.49
3.87 -21.17 2.49
4.29 -21.09 2.49
4.72 -21.00 2.49
5.14 -20.91 2.49
5.55 -20.80 2.49
5.72 -19.83 2.39
6.12 -19.71 2.39
6.51 -19.58 2.39
6.91 -19.45 2.39
7.29 -19.30 2.39
7.68 -19.15 2.39
8.06 -18.99 2.39
8.44 -18.83 2.39
8.82 -18.65 2.39
9.19 -18.47 2.39
9.14 -17.48 2.29
8.90 -16.23 2.15
8.75 -15.21 2.03
2.97 -4.93 0.67
3.05 -4.84 0.66
3.17 -4.82 0.67
8.10 -11.79 1.66
7.97 -11.12 1.59
7.81 -10.44 1.51
7.75 -9.94 1.46
7.61 -9.36 1.40
7.56 -8.93 1.36
7.43 -8.43 1.31
7.40 -8.06 1.27
7.60 -7.95 1.28
13.72 -13.79 2.26
13.98 -13.50 2.26
14.23 -13.20 2.26
14.47 -12.90 2.26
7.11 -6.08 1.09
7.32 -6.01 1.10
7.50 -5.91 1.11
7.72 -5.84 1.13
7.97 -5.78 1.15
8.21 -5.70 1.16
8.42 -5.60 1.18
8.67 -5.52 1.20
8.99 -5.48 1.23
9.28 -5.40 1.25
10.14 -5.63 1.35
10.27 -5.44 1.36
10.40 -5.24 1.36
10.54 -5.05 1.37
10.75 -4.89 1.38
10.89 -4.69 1.39
11.03 -4.49 1.39
11.16 -4.29 1.40
11.30 -4.08 1.41
11.44 -3.88 1.42
11.50 -3.64 1.41
11.64 -3.43 1.42
11.79 -3.22 1.43
11.94 -3.00 1.44
12.09 -2.78 1.46
12.24 -2.56 1.47
12.32 -2.32 1.47
12.46 -2.09 1.48
12.59 -1.85 1.50
12.76 -1.61 1.51
12.92 -1.37 1.53
13.12 -1.13 1.55
13.31 -0.87 1.57
13.56 -0.62 1.60
13.74 -0.35 1.62
13.93 -0.07 1.64
14.13 0.21 1.67
14.43 0.50 1.71
14.64 0.80 1.73
14.85 1.12 1.76
15.07 1.44 1.79
15.18 1.75 1.81
15.41 2.10 1.84
18.60 2.91 2.23
18.57 3.29 2.24
18.54 3.67 2.24
18.51 4.05 2.25
18.50 4.44 2.26
18.48 4.83 2.27
19.49 5.51 2.41
18.57 5.66 2.31
19.24 6.29 2.41
19.10 6.67 2.41
18.83 7.00 2.39
2.13 0.84 0.27
2.08 0.87 0.27
2.08 0.92 0.27
18.17 8.47 2.39
17.98 8.83 2.39
17.80 9.18 2.39
17.60 9.53 2.39
17.40 9.88 2.39
17.19 10.22 2.39
17.70 11.02 2.49
17.47 11.36 2.49
17.23 11.71 2.49
16.98 12.05 2.49
16.73 12.38 2.49
16.47 12.71 2.49
16.20 13.03 2.49
15.93 13.34 2.49
15.65 13.66 2.49
15.37 13.96 2.49
15.08 14.26 2.49
14.78 14.55 2.49
14.48 14.84 2.49
14.18 15.12 2.49
13.86 15.40 2.49
13.55 15.67 2.49
13.22 15.93 2.49
12.90 16.19 2.49
12.56 16.43 2.49
12.23 16.68 2.49
11.88 16.91 2.49
11.54 17.14 2.49
11.19 17.36 2.49
10.80 17.52 2.49
10.26 17.42 2.44
9.74 17.33 2.40
9.34 17.43 2.39
8.99 17.61 2.39
8.63 17.78 2.39
8.27 17.94 2.39
7.90 18.10 2.39
7.54 18.25 2.39
7.17 18.39 2.39
6.79 18.52 2.39
6.42 18.65 2.39
6.04 18.77 2.39
5.66 18.88 2.39
5.28 18.99 2.39
4.90 19.09 2.39
4.51 19.18 2.39
4.12 19.26 2.39
3.74 19.33 2.39
2.77 16.05 1.98
2.43 16.00 1.97
2.09 15.94 1.95
1.76 15.88 1.94
1.44 15.82 1.93
1.11 15.76 1.92
0.79 15.70 1.91
0.47 15.64 1.90
0.16 15.58 1.90
-0.15 15.52 1.89
-0.46 15.46 1.88
-0.77 15.40 1.88
-1.08 15.34 1.87
-1.38 15.28 1.87
-1.69 15.22 1.86
-1.99 15.16 1.86
-2.29 15.10 1.86
-2.59 15.04 1.86
-2.89 14.99 1.86
-3.19 14.93 1.86
-3.50 14.88 1.86
-3.80 14.82 1.86
-4.10 14.76 1.87
-4.41 14.71 1.87
-4.71 14.65 1.87
-5.02 14.60 1.88
-5.33 14.54 1.89
-5.64 14.49 1.89
-5.96 14.43 1.90
-6.27 14.37 1.91
-6.59 14.31 1.92
-6.91 14.25 1.93
-7.24 14.19 1.94
-7.57 14.12 1.95
-7.90 14.05 1.96
-8.23 13.98 1.97
-8.57 13.91 1.99
-8.92 13.84 2.00
-9.27 13.78 2.02
-9.63 13.71 2.04
-10.00 13.65 2.06
-11.95 15.63 2.39
-12.26 15.39 2.39
-12.57 15.15 2.39
-12.87 14.89 2.39
-13.17 14.64 2.39
-12.60 13.44 2.24
-13.76 14.10 2.39
-13.45 13.25 2.29
-14.32 13.54 2.39
-14.59 13.26 2.39
-14.86 12.97 2.39
-15.12 12.67 2.39
-15.60 12.55 2.43
-16.13 12.45 2.47
-16.55 12.25 2.49
-16.80 11.92 2.49
-17.04 11.58 2.49
-17.28 11.24 2.49
-17.51 10.90 2.49
-17.73 10.55 2.49
-17.94 10.19 2.49
-18.15 9.83 2.49
-18.35 9.47 2.49
-18.54 9.10 2.49
-18.73 8.73 2.49
-18.91 8.36 2.49
-19.08 7.98 2.49
-19.24 7.60 2.49
-19.40 7.21 2.49
-19.55 6.83 2.49
-19.69 6.43 2.49
-14.00 4.27 1.76
-19.95 5.64 2.49
-20.06 5.24 2.49
-20.17 4.84 2.49
-20.28 4.44 2.49
-20.37 4.03 2.49
-19.61 3.47 2.39
-19.68 3.08 2.39
-19.75 2.69 2.39
-19.81 2.29 2.39
-19.86 1.89 2.39
-19.90 1.49 2.39
-19.94 1.10 2.39
-11.56 0.40 1.38
-11.55 0.17 1.38
-11.52 -0.06 1.38
-10.26 -0.26 1.23
-10.03 -0.46 1.20
-10.04 -0.66 1.20
-10.04 -0.86 1.20
-10.94 -1.16 1.31
-20.03 -2.53 2.41
-19.98 -2.94 2.41
-19.72 -3.30 2.38
-19.40 -3.65 2.35
-10.03 -2.10 1.22
-9.89 -2.28 1.21
-9.88 -2.48 1.21
-9.88 -2.70 1.22
-15.74 -4.63 1.95
-15.11 -4.78 1.88
-12.97 -4.39 1.62
-9.71 -3.51 1.22
-9.37 -3.60 1.19
-6.35 -2.59 0.81
-9.21 -3.97 1.19
-9.22 -4.20 1.20
-12.59 -6.03 1.65
-12.54 -6.32 1.66
-12.48 -6.61 1.67
-12.43 -6.91 1.68
-9.60 -5.59 1.31
-8.98 -5.47 1.24
-8.73 -5.57 1.22
-8.67 -5.77 1.23
-8.74 -6.07 1.25
-12.08 -8.76 1.76
-12.01 -9.09 1.77
-10.04 -7.92 1.51
-9.46 -7.77 1.44
-8.96 -7.67 1.39
-8.55 -7.62 1.35
-8.30 -7.70 1.33
-8.29 -8.01 1.35
-11.54 -11.60 1.92
-9.52 -9.96 1.62
-9.02 -9.83 1.56
-8.57 -9.73 1.52
-8.25 -9.75 1.50
-8.13 -10.00 1.51
-9.09 -11.66 1.73
-8.63 -11.54 1.69
-8.16 -11.38 1.64
-7.84 -11.41 1.62
-7.65 -11.63 1.63
-8.51 -13.51 1.87
-8.07 -13.41 1.83
-7.71 -13.42 1.81
-7.35 -13.40 1.78
-7.77 -14.86 1.96
-7.59 -15.26 1.99
-7.20 -15.24 1.96
-7.01 -15.65 2.00
-7.25 -17.09 2.16
-6.91 -17.23 2.16
-7.30 -19.34 2.41
-6.87 -19.36 2.39
-6.48 -19.50 2.39
-6.09 -19.63 2.39
-5.70 -19.75 2.39
-5.30 -19.87 2.39
-4.90 -19.98 2.39
-4.50 -20.08 2.39
-3.48 -17.09 2.03
-2.15 -11.76 1.39
-1.90 -11.71 1.38
-1.65 -11.66 1.37
-1.42 -11.71 1.37
-1.26 -12.54 1.46
-1.72 -21.43 2.49
-1.29 -21.46 2.49
-0.86 -21.48 2.49
-0.43 -21.50 2.49
0.00 -17.96 2.49
0.36 -17.96 2.49
0.72 -17.95 2.49
1.08 -17.93 2.49
1.44 -17.91 2.49
1.80 -17.88 2.49
2.16 -17.84 2.49
2.52 -17.80 2.49
2.87 -17.74 2.49
3.23 -17.68 2.49
3.58 -17.61 2.49
3.94 -17.54 2.49
4.29 -17.46 2.49
4.64 -17.37 2.49
4.99 -17.27 2.49
5.11 -16.46 2.39
5.44 -16.35 2.39
5.77 -16.24 2.39
6.09 -16.12 2.39
6.41 -15.99 2.39
6.73 -15.86 2.39
7.05 -15.72 2.39
7.36 -15.58 2.39
7.67 -15.42 2.39
7.98 -15.26 2.39
8.28 -15.10 2.39
2.84 -4.94 0.79
2.90 -4.82 0.78
2.99 -4.75 0.78
3.10 -4.71 0.78
3.25 -4.73 0.80
7.97 -11.12 1.90
7.81 -10.45 1.81
7.75 -9.94 1.75
7.61 -9.36 1.68
7.56 -8.93 1.63
7.43 -8.43 1.56
7.40 -8.06 1.52
7.60 -7.95 1.53
11.84 -11.90 2.33
11.99 -11.58 2.32
12.14 -11.27 2.31
12.27 -10.94 2.29
7.11 -6.09 1.30
7.32 -6.01 1.32
7.50 -5.91 1.33
7.72 -5.84 1.35
7.97 -5.78 1.37
8.21 -5.70 1.39
8.42 -5.60 1.41
8.67 -5.52 1.43
8.99 -5.48 1.47
9.28 -5.40 1.50
10.14 -5.63 1.62
10.27 -5.44 1.62
10.40 -5.25 1.63
10.54 -5.05 1.63
10.75 -4.89 1.65
10.89 -4.69 1.66
11.03 -4.49 1.67
11.16 -4.29 1.67
11.30 -4.08 1.68
11.44 -3.88 1.69
11.50 -3.64 1.69
11.64 -3.43 1.70
4.27 -1.17 0.62
4.29 -1.08 0.62
4.39 -1.01 0.63
12.24 -2.56 1.75
12.32 -2.32 1.76
12.46 -2.09 1.77
12.59 -1.85 1.79
12.76 -1.61 1.81
12.92 -1.37 1.83
13.12 -1.13 1.85
13.31 -0.87 1.88
13.56 -0.62 1.91
13.74 -0.35 1.94
13.93 -0.08 1.96
14.12 0.21 1.99
14.32 0.50 2.02
14.53 0.80 2.05
14.74 1.11 2.09
14.96 1.42 2.12
15.18 1.75 2.16
15.41 2.10 2.20
15.67 2.45 2.24
15.65 2.77 2.25
15.63 3.09 2.25
15.61 3.41 2.26
15.58 3.74 2.27
15.56 4.06 2.28
15.55 4.40 2.29
15.56 4.74 2.31
15.61 5.10 2.33
15.70 5.48 2.36
15.77 5.86 2.39
2.13 0.84 0.32
2.08 0.87 0.32
2.08 0.92 0.32
15.24 7.10 2.39
15.09 7.41 2.39
14.93 7.70 2.39
14.77 8.00 2.39
14.60 8.29 2.39
14.42 8.58 2.39
14.24 8.86 2.39
14.06 9.14 2.39
13.86 9.42 2.39
12.37 8.78 2.16
12.29 9.09 2.18
13.83 10.67 2.49
13.61 10.94 2.49
13.38 11.20 2.49
13.15 11.47 2.49
12.91 11.72 2.49
12.67 11.98 2.49
12.42 12.22 2.49
12.17 12.47 2.49
11.91 12.70 2.49
11.65 12.94 2.49
11.38 13.16 2.49
11.11 13.38 2.49
10.84 13.60 2.49
10.56 13.81 2.49
10.27 14.01 2.49
9.99 14.21 2.49
9.70 14.41 2.49
9.40 14.59 2.49
9.11 14.77 2.49
8.80 14.95 2.49
8.50 15.12 2.49
8.19 15.28 2.49
7.88 15.44 2.49
7.57 15.59 2.49
7.25 15.73 2.49
6.93 15.87 2.49
6.61 16.00 2.49
6.29 16.13 2.49
5.96 16.25 2.49
5.63 16.36 2.49
5.30 16.47 2.49
4.92 16.42 2.47
4.55 16.35 2.45
4.18 16.28 2.42
3.81 16.21 2.40
3.47 16.20 2.39
3.14 16.26 2.39
2.82 16.32 2.39
2.49 16.37 2.39
2.12 16.10 2.35
1.83 16.45 2.39
1.50 16.48 2.39
1.16 16.51 2.39
0.83 16.53 2.39
0.50 16.54 2.39
0.17 16.54 2.39
-0.16 16.54 2.39
-0.50 16.53 2.39
-0.83 16.52 2.39
-1.16 16.49 2.39
-1.49 16.47 2.39
-1.82 16.43 2.39
-2.15 16.39 2.39
-2.48 16.34 2.39
-2.81 16.29 2.39
-3.13 16.23 2.39
-3.46 16.16 2.39
-3.53 15.04 2.23
-4.10 16.01 2.39
-4.42 15.93 2.39
-4.74 15.83 2.39
-5.06 15.74 2.39
-5.38 15.63 2.39
-5.69 15.52 2.39
-6.00 15.40 2.39
-6.31 15.28 2.39
-6.61 15.15 2.39
-6.65 14.45 2.30
-7.22 14.88 2.39
-7.52 14.73 2.39
-7.81 14.58 2.39
-8.10 14.42 2.39
-8.39 14.25 2.39
-8.68 14.08 2.39
-8.96 13.91 2.39
-9.26 13.75 2.40
-9.61 13.68 2.41
-9.97 13.61 2.44
-10.35 13.54 2.46
-10.73 13.47 2.49
-11.03 13.29 2.49
-11.30 13.07 2.49
-11.56 12.84 2.49
-11.82 12.61 2.49
-12.07 12.37 2.49
-12.32 12.13 2.49
-12.56 11.88 2.49
-12.80 11.63 2.49
-13.04 11.37 2.49
-13.26 11.11 2.49
-13.49 10.85 2.49
-13.71 10.58 2.49
-13.92 10.30 2.49
-14.13 10.02 2.49
-14.33 9.74 2.49
-14.53 9.45 2.49
-14.72 9.16 2.49
-14.90 8.87 2.49
-15.08 8.57 2.49
-15.26 8.27 2.49
-15.42 7.96 2.49
-15.58 7.65 2.49
-15.74 7.34 2.49
-15.89 7.02 2.49
-16.03 6.71 2.49
-16.17 6.38 2.49
-16.30 6.06 2.49
-16.42 5.73 2.49
-16.54 5.40 2.49
-14.00 4.27 2.10
-16.76 4.74 2.49
-16.16 4.22 2.39
-16.24 3.90 2.39
-16.32 3.57 2.39
-16.40 3.24 2.39
-16.47 2.92 2.39
-16.53 2.59 2.39
-16.58 2.25 2.39
-16.63 1.92 2.39
-16.67 1.59 2.39
-16.71 1.25 2.39
-13.69 0.75 1.96
-11.55 0.40 1.65
-11.54 0.17 1.65
-11.51 -0.06 1.64
-10.02 -0.26 1.43
-9.96 -0.45 1.42
-9.96 -0.65 1.42
-10.03 -0.86 1.43
-10.82 -1.15 1.55
-16.80 -2.13 2.41
-16.76 -2.46 2.41
-16.76 -2.81 2.41
-16.76 -3.16 2.42
-9.93 -2.08 1.44
-9.84 -2.27 1.43
-9.80 -2.46 1.43
-9.88 -2.69 1.45
-16.45 -4.85 2.43
-15.11 -4.78 2.24
-12.97 -4.39 1.94
-9.70 -3.51 1.46
-9.24 -3.55 1.40
-6.35 -2.59 0.97
-9.20 -3.97 1.42
-9.21 -4.19 1.43
-12.59 -6.04 1.97
-12.54 -6.32 1.98
-12.48 -6.61 1.99
-10.52 -5.85 1.70
-9.62 -5.60 1.57
-9.01 -5.49 1.49
-8.76 -5.59 1.46
-8.63 -5.75 1.46
-8.61 -5.99 1.48
-12.08 -8.76 2.10
-12.01 -9.09 2.12
-11.95 -9.43 2.14
-9.45 -7.77 1.72
-8.88 -7.60 1.64
-8.55 -7.62 1.61
-8.29 -7.69 1.59
-8.29 -8.01 1.62
-11.69 -11.76 2.32
-9.51 -9.96 1.93
-9.01 -9.82 1.87
-8.57 -9.73 1.82
-8.26 -9.76 1.79
-8.12 -10.00 1.80
-8.59 -11.03 1.96
-8.37 -11.20 1.96
-8.16 -11.38 1.96
-7.86 -11.45 1.94
-7.66 -11.65 1.95
-7.69 -12.22 2.02
-7.98 -13.26 2.16
-7.71 -13.41 2.16
-7.35 -13.41 2.13
-7.27 -13.91 2.19
-7.57 -15.23 2.37
-7.21 -15.26 2.35
-6.96 -15.53 2.37
-6.70 -15.79 2.39
-6.38 -15.93 2.39
-6.06 -16.05 2.39
-5.74 -16.18 2.39
-5.42 -16.29 2.39
-5.09 -16.40 2.39
-4.76 -16.50 2.39
-4.43 -16.60 2.39
-4.10 -16.69 2.39
-2.59 -11.55 1.65
-2.34 -11.50 1.63
-2.09 -11.45 1.62
-1.84 -11.40 1.60
-1.60 -11.35 1.59
-1.38 -11.40 1.60
-1.20 -11.90 1.66
-1.02 -12.75 1.78
-1.08 -17.92 2.49
-0.72 -17.94 2.49
-0.36 -17.96 2.49
0.00 -15.41 2.49
0.31 -15.40 2.49
0.62 -15.40 2.49
0.93 -15.38 2.49
1.24 -15.36 2.49
1.55 -15.34 2.49
1.85 -15.30 2.49
2.16 -15.26 2.49
2.47 -15.22 2.49
2.77 -15.16 2.49
3.07 -15.11 2.49
3.38 -15.04 2.49
3.68 -14.97 2.49
3.98 -14.89 2.49
4.28 -14.81 2.49
4.46 -14.38 2.44
4.67 -14.02 2.39
4.95 -13.93 2.39
5.22 -13.82 2.39
5.50 -13.72 2.39
5.77 -13.60 2.39
6.05 -13.48 2.39
6.31 -13.36 2.39
6.58 -13.23 2.39
6.84 -13.09 2.39
7.10 -12.95 2.39
2.82 -4.90 0.91
2.88 -4.79 0.90
2.97 -4.72 0.90
3.08 -4.67 0.91
3.21 -4.67 0.92
7.97 -11.12 2.22
7.81 -10.45 2.11
7.75 -9.94 2.04
7.61 -9.37 1.96
7.56 -8.94 1.90
7.43 -8.43 1.82
7.40 -8.06 1.77
7.60 -7.95 1.78
10.47 -10.52 2.41
10.63 -10.26 2.40
10.76 -9.98 2.38
10.87 -9.69 2.36
7.11 -6.09 1.52
7.32 -6.01 1.54
7.50 -5.91 1.55
7.72 -5.84 1.57
7.97 -5.78 1.60
8.21 -5.70 1.62
8.42 -5.60 1.64
8.67 -5.52 1.67
8.99 -5.48 1.71
9.28 -5.40 1.75
10.14 -5.63 1.89
10.27 -5.44 1.89
10.40 -5.25 1.90
10.54 -5.05 1.90
10.67 -4.85 1.91
10.80 -4.66 1.92
10.94 -4.46 1.92
11.08 -4.26 1.93
11.22 -4.05 1.94
11.36 -3.85 1.96
4.21 -1.33 0.72
4.14 -1.22 0.70
4.13 -1.13 0.70
4.14 -1.04 0.70
4.19 -0.96 0.70
4.28 -0.89 0.71
12.06 -2.27 2.01
12.10 -2.03 2.01
12.14 -1.78 2.01
12.17 -1.54 2.01
12.19 -1.30 2.01
12.21 -1.05 2.01
12.23 -0.80 2.01
12.23 -0.56 2.01
12.24 -0.31 2.01
12.24 -0.07 2.01
12.23 0.18 2.01
12.69 0.44 2.08
12.61 0.69 2.07
12.56 0.94 2.07
12.80 1.22 2.11
13.06 1.51 2.16
13.32 1.81 2.21
13.55 2.12 2.25
13.74 2.43 2.29
13.93 2.75 2.34
14.12 3.09 2.38
14.22 3.41 2.41
14.14 3.69 2.41
14.06 3.97 2.41
13.96 4.25 2.41
13.88 4.53 2.41
13.78 4.81 2.41
13.67 5.08 2.41
2.13 0.84 0.38
2.08 0.87 0.37
2.08 0.92 0.38
13.11 6.11 2.39
12.98 6.37 2.39
12.85 6.63 2.39
12.71 6.88 2.39
12.56 7.13 2.39
12.41 7.38 2.39
12.26 7.63 2.39
12.10 7.87 2.39
11.93 8.11 2.39
11.77 8.34 2.39
11.59 8.58 2.39
11.41 8.80 2.39
11.23 9.03 2.39
11.04 9.25 2.39
11.32 9.87 2.49
11.12 10.10 2.49
10.91 10.31 2.49
10.70 10.53 2.49
10.48 10.74 2.49
10.26 10.94 2.49
10.03 11.14 2.49
9.80 11.34 2.49
9.57 11.53 2.49
9.34 11.71 2.49
9.10 11.90 2.49
8.85 12.07 2.49
8.61 12.24 2.49
8.36 12.41 2.49
8.10 12.57 2.49
7.85 12.73 2.49
7.59 12.88 2.49
7.33 13.03 2.49
7.06 13.17 2.49
6.79 13.31 2.49
6.52 13.44 2.49
6.25 13.56 2.49
5.98 13.68 2.49
5.70 13.80 2.49
5.42 13.90 2.49
5.14 14.01 2.49
4.85 14.10 2.49
4.57 14.20 2.49
4.28 14.28 2.49
3.99 14.36 2.49
3.70 14.44 2.49
3.41 14.51 2.49
3.12 14.57 2.49
2.83 14.63 2.49
2.53 14.68 2.49
2.24 14.72 2.49
1.94 14.76 2.49
1.64 14.80 2.49
1.35 14.83 2.49
1.05 14.85 2.49
0.75 14.86 2.49
0.45 14.87 2.49
0.15 14.88 2.49
-0.15 14.88 2.49
-0.45 14.87 2.49
-0.74 14.86 2.49
-1.04 14.84 2.49
-1.34 14.81 2.49
-1.64 14.78 2.49
-1.93 14.75 2.49
-2.23 14.70 2.49
-2.52 14.66 2.49
-2.82 14.60 2.49
-3.11 14.54 2.49
-3.40 14.48 2.49
-3.69 14.40 2.49
-3.98 14.33 2.49
-4.27 14.24 2.49
-4.55 14.16 2.49
-4.84 14.06 2.49
-5.12 13.96 2.49
-5.40 13.86 2.49
-5.67 13.75 2.49
-5.95 13.63 2.49
-6.22 13.51 2.49
-6.49 13.38 2.49
-6.76 13.25 2.49
-7.03 13.11 2.49
-7.29 12.97 2.49
-7.55 12.82 2.49
-7.81 12.67 2.49
-8.06 12.51 2.49
-8.31 12.35 2.49
-8.56 12.18 2.49
-8.80 12.01 2.49
-9.04 11.83 2.49
-9.28 11.65 2.49
-9.51 11.46 2.49
-9.74 11.27 2.49
-9.97 11.07 2.49
-10.19 10.87 2.49
-10.41 10.67 2.49
-10.62 10.46 2.49
-10.83 10.24 2.49
-11.04 10.03 2.49
-11.24 9.80 2.49
-11.43 9.58 2.49
-11.63 9.35 2.49
-11.82 9.12 2.49
-12.00 8.88 2.49
-12.18 8.64 2.49
-12.35 8.39 2.49
-12.52 8.15 2.49
-12.68 7.89 2.49
-12.84 7.64 2.49
-13.00 7.38 2.49
-13.15 7.12 2.49
-13.29 6.86 2.49
-13.43 6.59 2.49
-13.56 6.32 2.49
-13.69 6.05 2.49
-13.81 5.78 2.49
-8.63 3.41 1.54
-9.42 3.50 1.67
-9.64 3.37 1.70
-9.76 3.19 1.71
-9.81 2.99 1.71
-9.81 2.77 1.69
-9.70 2.53 1.67
-9.04 2.17 1.54
-14.06 3.08 2.39
-14.12 2.79 2.39
-14.18 2.51 2.39
-14.23 2.23 2.39
-14.28 1.94 2.39
-14.32 1.65 2.39
-14.35 1.37 2.39
-11.77 0.88 1.96
-11.79 0.65 1.96
-11.59 0.40 1.92
-11.56 0.17 1.91
-11.52 -0.06 1.91
-10.10 -0.26 1.67
-9.96 -0.45 1.65
-9.97 -0.66 1.65
-10.03 -0.86 1.66
-14.48 -1.54 2.41
-14.46 -1.83 2.41
-14.42 -2.12 2.41
-14.38 -2.41 2.41
-14.34 -2.70 2.41
-9.95 -2.08 1.68
-9.84 -2.27 1.66
-9.84 -2.47 1.67
-9.87 -2.70 1.69
-14.11 -4.16 2.42
-14.06 -4.45 2.43
-14.00 -4.74 2.43
-9.70 -3.51 1.70
-9.27 -3.56 1.63
-6.35 -2.59 1.13
-9.15 -3.94 1.64
-9.16 -4.17 1.65
-14.09 -6.76 2.57
-13.93 -7.02 2.56
-13.74 -7.28 2.55
-13.55 -7.53 2.54
-9.59 -5.58 1.82
-9.06 -5.52 1.74
-8.78 -5.60 1.71
-8.63 -5.75 1.70
-8.72 -6.07 1.74
-12.05 -8.75 2.44
-11.83 -8.95 2.43
-11.61 -9.16 2.42
-9.24 -7.60 1.96
-8.95 -7.66 1.93
-8.53 -7.61 1.87
-8.35 -7.75 1.86
-8.31 -8.03 1.89
-8.33 -8.38 1.93
-8.75 -9.16 2.07
-8.69 -9.47 2.10
-8.57 -9.73 2.11
-8.25 -9.75 2.08
-8.12 -10.00 2.10
-8.20 -10.52 2.17
-8.37 -11.19 2.28
-8.18 -11.41 2.29
-7.84 -11.41 2.25
-7.65 -11.63 2.27
-7.82 -12.43 2.39
-7.58 -12.59 2.39
-7.32 -12.74 2.39
-7.07 -12.89 2.39
-6.81 -13.03 2.39
-6.55 -13.17 2.39
-6.28 -13.30 2.39
-6.02 -13.43 2.39
-5.75 -13.55 2.39
-5.48 -13.67 2.39
-5.20 -13.78 2.39
-4.93 -13.88 2.39
-4.65 -13.98 2.39
-4.37 -14.07 2.39
-4.08 -14.16 2.39
-3.80 -14.24 2.39
-3.64 -14.83 2.48
-2.59 -11.54 1.92
-2.34 -11.49 1.90
-2.09 -11.44 1.88
-1.84 -11.39 1.87
-1.60 -11.34 1.86
-1.36 -11.30 1.84
-1.20 -11.90 1.94
-1.02 -12.75 2.07
-0.92 -15.37 2.49
-0.62 -15.39 2.49
-0.31 -15.40 2.49
0.00 -13.48 2.49
0.27 -13.47 2.49
0.54 -13.47 2.49
0.81 -13.45 2.49
1.08 -13.44 2.49
1.35 -13.41 2.49
1.62 -13.38 2.49
1.89 -13.35 2.49
2.16 -13.31 2.49
2.42 -13.26 2.49
2.69 -13.21 2.49
2.95 -13.16 2.49
3.22 -13.09 2.49
3.48 -13.03 2.49
3.74 -12.95 2.49
4.00 -12.88 2.49
4.08 -12.26 2.39
4.33 -12.18 2.39
4.57 -12.09 2.39
4.81 -12.00 2.39
5.05 -11.90 2.39
5.29 -11.79 2.39
5.52 -11.68 2.39
5.76 -11.57 2.39
5.99 -11.45 2.39
6.21 -11.33 2.39
2.81 -4.90 1.05
2.88 -4.78 1.03
2.97 -4.71 1.03
3.07 -4.67 1.03
3.21 -4.67 1.05
7.53 -10.49 2.39
7.73 -10.34 2.39
7.75 -9.94 2.34
7.61 -9.37 2.24
7.56 -8.94 2.17
7.43 -8.43 2.08
7.40 -8.06 2.03
7.59 -7.95 2.04
9.16 -9.21 2.41
9.34 -9.02 2.41
9.51 -8.83 2.41
9.69 -8.64 2.41
7.11 -6.09 1.74
7.32 -6.01 1.76
7.50 -5.91 1.77
7.72 -5.84 1.80
7.97 -5.78 1.83
8.20 -5.70 1.86
8.42 -5.60 1.88
8.67 -5.52 1.91
8.99 -5.48 1.96
9.28 -5.40 2.00
10.14 -5.63 2.16
10.27 -5.44 2.16
10.40 -5.25 2.17
10.54 -5.05 2.17
10.67 -4.85 2.18
10.80 -4.66 2.19
10.94 -4.46 2.20
11.08 -4.26 2.21
11.06 -4.00 2.19
10.91 -3.70 2.15
4.10 -1.30 0.80
4.06 -1.20 0.79
4.06 -1.11 0.78
4.08 -1.03 0.78
4.12 -0.95 0.79
4.19 -0.88 0.80
4.33 -0.81 0.82
10.84 -1.82 2.05
10.85 -1.60 2.05
10.99 -1.39 2.07
11.13 -1.18 2.09
11.20 -0.96 2.10
11.18 -0.74 2.09
11.15 -0.51 2.09
11.12 -0.28 2.08
11.08 -0.06 2.07
11.04 0.16 2.07
10.99 0.38 2.06
10.93 0.60 2.05
11.09 0.83 2.08
11.27 1.07 2.12
11.45 1.32 2.16
11.63 1.58 2.20
11.79 1.84 2.24
11.96 2.12 2.28
12.13 2.40 2.32
12.32 2.69 2.37
12.46 2.99 2.41
12.39 3.24 2.41
12.32 3.48 2.41
12.24 3.73 2.41
12.16 3.97 2.41
12.08 4.21 2.41
11.99 4.45 2.41
2.13 0.84 0.43
2.08 0.87 0.43
2.08 0.92 0.43
11.58 5.39 2.41
11.38 5.59 2.39
11.27 5.81 2.39
11.14 6.03 2.39
11.02 6.26 2.39
10.89 6.47 2.39
10.75 6.69 2.39
10.61 6.90 2.39
10.47 7.11 2.39
10.32 7.32 2.39
10.17 7.52 2.39
10.01 7.72 2.39
9.85 7.92 2.39
9.69 8.11 2.39
9.52 8.30 2.39
9.35 8.49 2.39
9.17 8.67 2.39
9.00 8.85 2.39
9.19 9.42 2.49
9.00 9.60 2.49
8.80 9.78 2.49
8.60 9.95 2.49
8.40 10.12 2.49
8.19 10.28 2.49
7.98 10.44 2.49
7.77 10.59 2.49
7.55 10.75 2.49
7.33 10.89 2.49
7.11 11.04 2.49
6.89 11.17 2.49
6.66 11.31 2.49
6.43 11.44 2.49
6.20 11.56 2.49
5.96 11.68 2.49
5.73 11.79 2.49
5.49 11.90 2.49
5.25 12.01 2.49
5.00 12.11 2.49
4.76 12.21 2.49
4.51 12.30 2.49
4.26 12.38 2.49
4.01 12.46 2.49
3.76 12.54 2.49
3.51 12.61 2.49
3.25 12.68 2.49
3.00 12.74 2.49
2.74 12.79 2.49
2.48 12.84 2.49
2.22 12.89 2.49
1.96 12.93 2.49
1.70 12.96 2.49
1.44 12.99 2.49
1.18 13.02 2.49
0.92 13.04 2.49
0.66 13.05 2.49
0.40 13.06 2.49
0.13 13.07 2.49
-0.13 13.07 2.49
-0.39 13.06 2.49
-0.65 13.05 2.49
-0.92 13.03 2.49
-1.18 13.01 2.49
-1.44 12.98 2.49
-1.70 12.95 2.49
-1.96 12.91 2.49
-2.22 12.87 2.49
-2.48 12.82 2.49
-2.73 12.77 2.49
-2.99 12.71 2.49
-3.24 12.65 2.49
-3.50 12.58 2.49
-3.75 12.51 2.49
-4.00 12.43 2.49
-4.25 12.35 2.49
-4.49 12.26 2.49
-4.74 12.17 2.49
-4.98 12.07 2.49
-5.23 11.97 2.49
-5.47 11.86 2.49
-5.70 11.75 2.49
-5.94 11.64 2.49
-6.17 11.52 2.49
-6.40 11.39 2.49
-6.63 11.26 2.49
-6.85 11.13 2.49
-7.08 10.99 2.49
-7.30 10.84 2.49
-7.51 10.70 2.49
-7.73 10.54 2.49
-7.94 10.39 2.49
-8.15 10.23 2.49
-8.35 10.06 2.49
-8.55 9.89 2.49
-8.75 9.72 2.49
-8.95 9.55 2.49
-9.14 9.37 2.49
-9.33 9.18 2.49
-9.51 8.99 2.49
-9.69 8.80 2.49
-9.87 8.61 2.49
-10.04 8.41 2.49
-10.21 8.21 2.49
-10.37 8.00 2.49
-10.53 7.79 2.49
-10.69 7.58 2.49
-10.84 7.37 2.49
-10.99 7.15 2.49
-11.13 6.93 2.49
-11.27 6.71 2.49
-11.41 6.48 2.49
-11.54 6.25 2.49
-11.66 6.02 2.49
-11.79 5.78 2.49
-11.90 5.55 2.49
-12.01 5.31 2.49
-12.12 5.07 2.49
-11.72 4.63 2.39
-8.64 3.21 1.75
-8.55 2.99 1.72
-8.56 2.80 1.71
-8.62 2.63 1.71
-8.74 2.47 1.72
-8.96 2.34 1.76
-12.27 2.94 2.39
-12.33 2.70 2.39
-12.39 2.45 2.39
-12.44 2.20 2.39
-12.48 1.95 2.39
-12.52 1.70 2.39
-12.56 1.45 2.39
-12.59 1.20 2.39
-11.72 0.88 2.22
-11.28 0.62 2.13
-10.98 0.38 2.07
-10.78 0.16 2.04
-10.63 -0.06 2.01
-10.06 -0.26 1.90
-10.04 -0.46 1.89
-10.04 -0.66 1.90
-10.04 -0.86 1.90
-10.32 -1.10 1.96
-10.30 -1.30 1.96
-10.28 -1.51 1.96
-10.25 -1.72 1.96
-10.21 -1.92 1.96
-9.92 -2.08 1.91
-9.88 -2.28 1.91
-9.88 -2.49 1.92
-9.88 -2.70 1.92
-9.99 -2.94 1.96
-9.93 -3.14 1.96
-9.87 -3.34 1.96
-9.70 -3.51 1.94
-9.30 -3.57 1.87
-6.35 -2.59 1.29
-9.18 -3.96 1.88
-9.23 -4.20 1.90
-9.61 -4.61 2.00
-9.57 -4.83 2.01
-9.52 -5.05 2.02
-9.48 -5.27 2.03
-9.44 -5.50 2.04
-9.04 -5.51 1.98
-8.74 -5.58 1.94
-8.69 -5.79 1.95
-8.71 -6.06 1.98
-9.22 -6.69 2.13
-9.17 -6.94 2.15
-9.12 -7.19 2.17
-9.07 -7.46 2.19
-8.89 -7.61 2.18
-8.55 -7.63 2.14
-8.30 -7.70 2.11
-8.30 -8.02 2.15
-8.33 -8.38 2.20
-8.75 -9.16 2.36
-8.67 -9.45 2.39
-8.48 -9.63 2.39
-8.27 -9.78 2.39
-8.09 -9.97 2.39
-7.89 -10.13 2.39
-7.69 -10.29 2.39
-7.48 -10.44 2.39
-7.28 -10.59 2.39
-7.06 -10.74 2.39
-6.85 -10.88 2.39
-6.63 -11.02 2.39
-6.41 -11.15 2.39
-6.18 -11.28 2.39
-5.96 -11.41 2.39
-5.73 -11.53 2.39
-5.50 -11.64 2.39
-5.27 -11.75 2.39
-5.03 -11.86 2.39
-4.79 -11.96 2.39
-4.55 -12.05 2.39
-4.31 -12.15 2.39
-4.11 -12.37 2.42
-3.98 -12.84 2.49
-3.73 -12.92 2.49
-3.47 -13.00 2.49
-3.21 -13.07 2.49
-2.59 -11.53 2.19
-2.33 -11.48 2.17
-2.09 -11.43 2.15
-1.84 -11.38 2.14
-1.60 -11.34 2.12
-1.36 -11.29 2.11
-1.16 -11.50 2.14
-1.08 -13.43 2.49
-0.81 -13.45 2.49
-0.54 -13.46 2.49
-0.27 -13.47 2.49
0.00 -11.96 2.49
0.24 -11.96 2.49
0.48 -11.96 2.49
0.72 -11.94 2.49
0.96 -11.93 2.49
1.20 -11.91 2.49
1.44 -11.88 2.49
1.68 -11.85 2.49
1.91 -11.81 2.49
2.15 -11.77 2.49
2.39 -11.73 2.49
2.62 -11.68 2.49
2.86 -11.62 2.49
3.09 -11.56 2.49
3.32 -11.50 2.49
3.55 -11.43 2.49
3.78 -11.36 2.49
3.84 -10.81 2.39
4.06 -10.73 2.39
4.27 -10.65 2.39
4.48 -10.56 2.39
4.69 -10.47 2.39
4.90 -10.37 2.39
5.11 -10.27 2.39
5.31 -10.17 2.39
5.52 -10.06 2.39
2.81 -4.90 1.18
2.88 -4.78 1.16
2.97 -4.71 1.16
3.08 -4.67 1.17
3.21 -4.68 1.18
6.68 -9.32 2.39
6.87 -9.18 2.39
7.05 -9.04 2.39
7.23 -8.90 2.39
7.40 -8.75 2.39
7.43 -8.44 2.35
7.40 -8.06 2.28
7.59 -7.95 2.29
6.54 -6.58 1.94
6.77 -6.54 1.96
6.82 -6.32 1.94
8.49 -7.57 2.38
7.11 -6.09 1.96
7.31 -6.01 1.98
7.50 -5.91 2.00
7.71 -5.84 2.02
7.97 -5.78 2.06
8.20 -5.71 2.09
8.42 -5.61 2.11
8.67 -5.52 2.15
8.99 -5.48 2.20
9.28 -5.40 2.25
10.07 -5.60 2.41
10.18 -5.39 2.41
10.29 -5.19 2.41
10.39 -4.98 2.41
10.49 -4.78 2.41
10.45 -4.50 2.38
10.33 -4.21 2.34
10.21 -3.92 2.29
10.11 -3.65 2.25
4.17 -1.41 0.92
4.06 -1.28 0.89
4.03 -1.19 0.88
4.02 -1.10 0.88
4.04 -1.02 0.87
4.08 -0.94 0.88
4.15 -0.87 0.89
4.26 -0.80 0.91
10.30 -1.73 2.19
10.32 -1.52 2.19
10.32 -1.31 2.19
10.31 -1.10 2.18
10.29 -0.89 2.17
10.26 -0.68 2.16
10.23 -0.47 2.16
10.20 -0.26 2.15
10.17 -0.06 2.14
10.13 0.15 2.13
10.09 0.35 2.13
10.06 0.55 2.12
10.04 0.75 2.12
10.08 0.96 2.13
10.21 1.18 2.17
10.35 1.40 2.20
10.49 1.64 2.24
10.63 1.88 2.28
10.77 2.13 2.32
10.90 2.38 2.36
11.03 2.64 2.40
11.02 2.88 2.41
10.96 3.10 2.41
10.89 3.31 2.41
10.82 3.53 2.41
10.74 3.75 2.41
10.66 3.96 2.41
2.13 0.84 0.48
2.08 0.87 0.48
2.08 0.92 0.48
10.30 4.80 2.41
10.19 5.00 2.41
10.02 5.17 2.39
9.91 5.37 2.39
9.80 5.56 2.39
9.68 5.76 2.39
9.56 5.95 2.39
9.44 6.14 2.39
9.31 6.33 2.39
9.18 6.51 2.39
9.05 6.69 2.39
8.91 6.87 2.39
8.77 7.04 2.39
8.62 7.22 2.39
8.47 7.39 2.39
8.32 7.55 2.39
8.16 7.72 2.39
8.01 7.88 2.39
7.84 8.04 2.39
7.68 8.19 2.39
7.51 8.34 2.39
7.35 8.49 2.39
7.17 8.63 2.39
7.29 9.15 2.49
7.11 9.29 2.49
6.92 9.43 2.49
6.72 9.56 2.49
6.53 9.70 2.49
6.33 9.82 2.49
6.13 9.95 2.49
5.93 10.07 2.49
5.73 10.18 2.49
5.52 10.29 2.49
5.31 10.40 2.49
5.10 10.50 2.49
4.89 10.60 2.49
4.67 10.69 2.49
4.46 10.78 2.49
4.24 10.87 2.49
4.02 10.95 2.49
3.80 11.03 2.49
3.57 11.10 2.49
3.35 11.17 2.49
3.12 11.23 2.49
2.90 11.29 2.49
2.67 11.34 2.49
2.44 11.39 2.49
2.21 11.44 2.49
1.98 11.48 2.49
1.75 11.51 2.49
1.52 11.55 2.49
1.29 11.57 2.49
1.05 11.59 2.49
0.82 11.61 2.49
0.59 11.63 2.49
0.35 11.63 2.49
0.12 11.64 2.49
-0.11 11.64 2.49
-0.35 11.63 2.49
-0.58 11.62 2.49
-0.82 11.61 2.49
-1.05 11.59 2.49
-1.28 11.56 2.49
-1.51 11.53 2.49
-1.74 11.50 2.49
-1.97 11.46 2.49
-2.20 11.42 2.49
-2.43 11.37 2.49
-2.66 11.32 2.49
-2.89 11.27 2.49
-3.11 11.21 2.49
-3.34 11.14 2.49
-3.56 11.07 2.49
-3.78 11.00 2.49
-4.00 10.92 2.49
-4.22 10.84 2.49
-4.44 10.75 2.49
-4.65 10.66 2.49
-4.87 10.57 2.49
-5.08 10.47 2.49
-5.29 10.36 2.49
-5.50 10.26 2.49
-5.70 10.14 2.49
-5.90 10.03 2.49
-6.11 9.91 2.49
-6.30 9.78 2.49
-6.50 9.66 2.49
-6.69 9.53 2.49
-6.88 9.39 2.49
-7.07 9.25 2.49
-7.26 9.11 2.49
-7.44 8.96 2.49
-7.62 8.81 2.49
-7.79 8.66 2.49
-7.97 8.50 2.49
-8.14 8.34 2.49
-8.30 8.18 2.49
-8.47 8.01 2.49
-8.63 7.84 2.49
-8.79 7.66 2.49
-8.94 7.49 2.49
-9.09 7.31 2.49
-9.24 7.12 2.49
-9.38 6.94 2.49
-9.52 6.75 2.49
-9.65 6.56 2.49
-9.79 6.37 2.49
-9.91 6.17 2.49
-10.04 5.97 2.49
-10.16 5.77 2.49
-10.27 5.56 2.49
-10.38 5.36 2.49
-10.49 5.15 2.49
-10.60 4.94 2.49
-10.69 4.73 2.49
-10.34 4.32 2.39
-10.43 4.12 2.39
-10.51 3.91 2.39
-8.69 3.03 1.96
-8.69 2.84 1.95
-8.75 2.67 1.95
-8.89 2.51 1.97
-10.86 2.84 2.39
-10.92 2.62 2.39
-10.98 2.40 2.39
-11.02 2.18 2.39
-11.07 1.96 2.39
-11.11 1.74 2.39
-11.14 1.51 2.39
-11.18 1.29 2.39
-11.20 1.06 2.39
-11.22 0.84 2.39
-11.24 0.61 2.39
-10.98 0.38 2.33
-10.78 0.16 2.29
-10.63 -0.06 2.25
-10.02 -0.26 2.13
-9.96 -0.46 2.11
-9.96 -0.66 2.12
-10.03 -0.86 2.13
-10.25 -1.09 2.18
-10.21 -1.29 2.18
-10.18 -1.50 2.18
-10.14 -1.70 2.18
-10.10 -1.90 2.18
-9.94 -2.08 2.15
-9.79 -2.26 2.13
-9.83 -2.47 2.14
-9.83 -2.68 2.15
-9.92 -2.93 2.19
-9.89 -3.13 2.19
-9.85 -3.34 2.20
-9.70 -3.51 2.18
-9.25 -3.56 2.09
-6.35 -2.59 1.45
-9.17 -3.95 2.11
-9.21 -4.19 2.14
-9.61 -4.61 2.25
-9.57 -4.83 2.26
-9.52 -5.05 2.27
-9.48 -5.27 2.29
-9.44 -5.50 2.30
-8.97 -5.47 2.21
-8.72 -5.56 2.18
-8.63 -5.75 2.18
-8.61 -5.99 2.21
-9.20 -6.68 2.39
-9.07 -6.86 2.39
-8.93 -7.04 2.39
-8.79 -7.22 2.39
-8.64 -7.40 2.39
-8.49 -7.58 2.39
-8.28 -7.69 2.37
-8.19 -7.91 2.39
-8.03 -8.08 2.39
-7.87 -8.24 2.39
-7.70 -8.40 2.39
-7.53 -8.55 2.39
-7.36 -8.71 2.39
-7.19 -8.85 2.39
-7.01 -8.99 2.39
-6.83 -9.14 2.39
-6.65 -9.27 2.39
-6.46 -9.41 2.39
-6.27 -9.54 2.39
-6.08 -9.67 2.39
-5.89 -9.79 2.39
-5.69 -9.91 2.39
-5.49 -10.02 2.39
-5.29 -10.13 2.39
-5.09 -10.24 2.39
-4.88 -10.34 2.39
-4.68 -10.45 2.39
-4.47 -10.53 2.39
-4.38 -10.92 2.46
-4.22 -11.17 2.49
-3.99 -11.25 2.49
-3.77 -11.33 2.49
-3.54 -11.41 2.49
-3.31 -11.48 2.49
-3.08 -11.54 2.49
-2.85 -11.60 2.49
-2.61 -11.66 2.49
-2.38 -11.71 2.49
-2.14 -11.76 2.49
-1.91 -11.80 2.49
-1.67 -11.84 2.49
-1.40 -11.57 2.43
-1.16 -11.55 2.42
-0.96 -11.92 2.49
-0.72 -11.94 2.49
-0.48 -11.95 2.49
-0.24 -11.96 2.49
0.00 -10.75 2.49
0.22 -10.74 2.49
0.43 -10.74 2.49
0.65 -10.73 2.49
0.86 -10.71 2.49
1.08 -10.69 2.49
1.29 -10.67 2.49
1.51 -10.64 2.49
1.72 -10.61 2.49
1.93 -10.58 2.49
2.14 -10.53 2.49
2.36 -10.49 2.49
2.57 -10.44 2.49
2.77 -10.39 2.49
2.98 -10.33 2.49
3.19 -10.27 2.49
3.39 -10.20 2.49
3.60 -10.13 2.49
3.64 -9.64 2.39
3.84 -9.57 2.39
4.03 -9.49 2.39
4.22 -9.40 2.39
4.40 -9.32 2.39
4.59 -9.23 2.39
4.77 -9.13 2.39
4.95 -9.03 2.39
2.81 -4.90 1.31
2.88 -4.78 1.30
2.97 -4.71 1.29
3.08 -4.67 1.30
3.21 -4.68 1.32
6.00 -8.37 2.39
3.37 -4.51 1.31
6.33 -8.12 2.39
6.49 -7.99 2.39
6.65 -7.86 2.39
6.80 -7.72 2.39
6.96 -7.58 2.39
7.11 -7.44 2.39
6.33 -6.37 2.09
6.34 -6.13 2.05
6.56 -6.08 2.08
7.65 -6.82 2.38
7.11 -6.09 2.18
7.31 -6.01 2.20
7.50 -5.91 2.22
7.71 -5.84 2.25
7.97 -5.78 2.29
8.20 -5.71 2.32
8.42 -5.61 2.35
8.67 -5.52 2.39
8.83 -5.38 2.41
8.93 -5.20 2.41
9.03 -5.02 2.41
9.13 -4.84 2.41
9.22 -4.65 2.41
9.31 -4.47 2.41
9.40 -4.28 2.41
9.49 -4.09 2.41
9.46 -3.86 2.38
9.46 -3.64 2.36
9.49 -3.43 2.35
4.17 -1.41 1.03
4.05 -1.28 0.99
4.02 -1.18 0.98
4.02 -1.10 0.97
4.03 -1.02 0.97
4.07 -0.94 0.98
4.14 -0.87 0.99
4.25 -0.80 1.01
9.66 -1.62 2.29
9.66 -1.42 2.28
9.66 -1.22 2.28
9.66 -1.03 2.27
9.66 -0.83 2.27
9.65 -0.64 2.26
9.63 -0.44 2.26
9.60 -0.25 2.25
9.57 -0.05 2.24
9.54 0.14 2.23
9.50 0.33 2.23
9.48 0.52 2.23
9.46 0.71 2.22
9.43 0.90 2.22
9.40 1.08 2.22
9.37 1.27 2.22
9.45 1.48 2.24
9.56 1.69 2.28
9.66 1.91 2.31
9.77 2.13 2.35
9.88 2.37 2.39
9.91 2.59 2.41
9.85 2.78 2.41
9.79 2.98 2.41
9.73 3.18 2.41
9.66 3.37 2.41
9.59 3.56 2.41
2.13 0.84 0.54
2.08 0.87 0.53
2.08 0.92 0.54
9.26 4.31 2.41
9.17 4.50 2.41
9.08 4.68 2.41
8.98 4.86 2.41
8.82 5.01 2.39
8.71 5.18 2.39
8.61 5.35 2.39
8.49 5.52 2.39
8.38 5.69 2.39
8.26 5.86 2.39
8.14 6.02 2.39
8.02 6.18 2.39
7.89 6.34 2.39
7.76 6.49 2.39
7.62 6.65 2.39
7.49 6.80 2.39
7.35 6.94 2.39
7.21 7.09 2.39
7.06 7.23 2.39
6.91 7.37 2.39
6.76 7.51 2.39
6.61 7.64 2.39
6.45 7.77 2.39
6.29 7.89 2.39
6.13 8.02 2.39
5.97 8.14 2.39
5.80 8.25 2.39
5.88 8.73 2.49
5.70 8.84 2.49
5.52 8.95 2.49
5.34 9.06 2.49
5.15 9.16 2.49
4.97 9.26 2.49
4.78 9.36 2.49
4.59 9.45 2.49
4.40 9.54 2.49
4.21 9.63 2.49
4.01 9.71 2.49
3.82 9.78 2.49
3.62 9.86 2.49
3.42 9.93 2.49
3.22 9.99 2.49
3.02 10.05 2.49
2.81 10.11 2.49
2.61 10.16 2.49
2.40 10.21 2.49
2.20 10.26 2.49
1.99 10.30 2.49
1.78 10.34 2.49
1.58 10.37 2.49
1.37 10.40 2.49
1.16 10.42 2.49
0.95 10.44 2.49
0.74 10.46 2.49
0.53 10.47 2.49
0.32 10.48 2.49
0.11 10.48 2.49
-0.10 10.48 2.49
-0.31 10.47 2.49
-0.52 10.47 2.49
-0.73 10.45 2.49
-0.94 10.43 2.49
-1.15 10.41 2.49
-1.36 10.39 2.49
-1.57 10.36 2.49
-1.78 10.32 2.49
-1.99 10.29 2.49
-2.19 10.24 2.49
-2.40 10.20 2.49
-2.60 10.15 2.49
-2.80 10.09 2.49
-3.01 10.03 2.49
-3.21 9.97 2.49
-3.41 9.91 2.49
-3.61 9.84 2.49
-3.80 9.76 2.49
-4.00 9.68 2.49
-4.19 9.60 2.49
-4.38 9.52 2.49
-4.57 9.43 2.49
-4.76 9.33 2.49
-4.95 9.24 2.49
-5.13 9.13 2.49
-5.32 9.03 2.49
-5.50 8.92 2.49
-5.68 8.81 2.49
-5.85 8.70 2.49
-6.03 8.58 2.49
-6.20 8.46 2.49
-6.37 8.33 2.49
-6.53 8.20 2.49
-6.70 8.07 2.49
-6.86 7.93 2.49
-7.02 7.80 2.49
-7.17 7.65 2.49
-7.33 7.51 2.49
-7.48 7.36 2.49
-7.63 7.21 2.49
-7.77 7.06 2.49
-7.91 6.90 2.49
-8.05 6.74 2.49
-8.18 6.58 2.49
-8.32 6.41 2.49
-8.44 6.25 2.49
-8.57 6.08 2.49
-8.69 5.90 2.49
-8.81 5.73 2.49
-8.92 5.55 2.49
-9.04 5.37 2.49
-9.14 5.19 2.49
-9.25 5.01 2.49
-9.35 4.82 2.49
-9.44 4.63 2.49
-9.54 4.44 2.49
-9.63 4.25 2.49
-9.33 3.90 2.39
-9.39 3.70 2.39
-9.46 3.52 2.39
-8.85 3.09 2.22
-9.41 3.07 2.34
-9.66 2.94 2.39
-9.04 2.55 2.22
-9.78 2.55 2.39
-9.83 2.36 2.39
-9.88 2.16 2.39
-9.92 1.96 2.39
-9.96 1.76 2.39
-10.00 1.56 2.39
-10.03 1.36 2.39
-10.06 1.16 2.39
-10.08 0.96 2.39
-10.10 0.76 2.39
-10.11 0.55 2.39
-10.13 0.35 2.39
-10.13 0.15 2.39
-10.14 -0.06 2.39
-10.11 -0.26 2.38
-9.96 -0.46 2.35
-9.98 -0.66 2.36
-10.03 -0.86 2.37
-10.09 -1.07 2.39
-10.07 -1.28 2.39
-10.05 -1.48 2.39
-10.02 -1.68 2.39
-9.99 -1.88 2.39
-9.95 -2.08 2.39
-9.84 -2.27 2.37
-9.85 -2.48 2.39
-9.81 -2.68 2.39
-9.76 -2.88 2.39
-9.70 -3.07 2.39
-9.64 -3.27 2.39
-9.58 -3.46 2.39
-9.28 -3.57 2.33
-6.35 -2.59 1.61
-9.19 -3.96 2.35
-9.22 -4.20 2.38
-9.19 -4.41 2.39
-9.10 -4.59 2.39
-9.01 -4.78 2.39
-8.92 -4.96 2.39
-8.82 -5.14 2.39
-8.72 -5.32 2.39
-8.61 -5.49 2.39
-8.50 -5.66 2.39
-8.39 -5.83 2.39
-8.27 -6.00 2.39
-8.15 -6.17 2.39
-8.03 -6.33 2.39
-7.90 -6.49 2.39
-7.77 -6.65 2.39
-7.64 -6.81 2.39
-7.50 -6.96 2.39
-7.36 -7.11 2.39
-7.22 -7.26 2.39
-7.07 -7.41 2.39
-6.92 -7.55 2.39
-6.77 -7.69 2.39
-6.62 -7.82 2.39
-6.46 -7.96 2.39
-6.30 -8.09 2.39
-6.14 -8.21 2.39
-5.97 -8.34 2.39
-5.81 -8.46 2.39
-5.64 -8.57 2.39
-5.46 -8.69 2.39
-5.29 -8.80 2.39
-5.11 -8.90 2.39
-4.94 -9.00 2.39
-4.75 -9.10 2.39
-4.67 -9.40 2.44
-4.58 -9.69 2.49
-4.38 -9.78 2.49
-4.19 -9.87 2.49
-3.99 -9.95 2.49
-3.79 -10.03 2.49
-3.59 -10.11 2.49
-3.38 -10.18 2.49
