ply
format ascii 1.0
element vertex 2876
property float32 x
property float32 y
property float32 z
end_header
10.41 -6.64 0.14
10.59 -6.46 0.14
10.78 -6.28 0.15
10.96 -6.10 0.16
11.15 -5.91 0.17
11.34 -5.72 0.17
11.54 -5.53 0.18
11.73 -5.34 0.19
11.93 -5.15 0.20
12.14 -4.95 0.21
12.34 -4.74 0.22
12.55 -4.54 0.23
12.77 -4.33 0.23
12.99 -4.11 0.24
13.21 -3.89 0.26
13.44 -3.67 0.27
13.67 -3.44 0.28
13.91 -3.21 0.29
14.16 -2.97 0.30
14.41 -2.72 0.31
33.32 -5.59 0.74
33.32 -4.91 0.76
33.33 -4.23 0.78
33.34 -3.55 0.80
32.81 -2.83 0.80
24.36 -1.61 0.61
27.13 -1.25 0.69
27.43 -0.71 0.72
27.51 -0.16 0.74
27.43 0.39 0.75
27.15 0.93 0.76
26.63 1.45 0.76
32.50 2.42 0.95
32.50 3.08 0.97
32.51 3.74 0.99
32.52 4.40 1.01
32.52 5.07 1.04
33.42 5.90 1.09
15.10 2.98 0.50
13.64 2.98 0.46
12.67 3.03 0.44
12.40 3.23 0.44
12.38 3.49 0.45
12.41 3.77 0.46
12.42 4.05 0.47
12.41 4.33 0.48
12.41 4.61 0.49
12.42 4.89 0.51
12.38 5.17 0.52
12.42 5.48 0.53
12.38 5.77 0.54
12.40 6.08 0.55
12.43 6.41 0.57
12.47 6.75 0.58
12.40 7.03 0.59
12.44 7.39 0.61
12.44 7.74 0.63
12.45 8.09 0.64
12.45 8.45 0.66
12.45 8.82 0.68
12.40 9.17 0.69
12.46 9.60 0.71
11.46 9.20 0.67
11.46 9.59 0.69
14.03 12.23 0.87
13.92 12.63 0.89
13.69 12.94 0.90
16.86 16.58 1.14
16.17 16.55 1.12
15.57 16.59 1.11
14.96 16.60 1.10
14.37 16.60 1.09
13.80 16.61 1.08
13.22 16.58 1.07
12.67 16.56 1.06
12.15 16.56 1.06
11.65 16.57 1.05
11.17 16.57 1.04
10.69 16.58 1.04
10.23 16.58 1.03
9.78 16.59 1.02
9.34 16.59 1.02
8.90 16.60 1.01
8.48 16.60 1.01
8.07 16.60 1.00
7.68 16.66 1.00
11.31 25.88 1.55
11.42 27.62 1.65
11.34 29.09 1.73
12.90 35.16 2.08
12.11 35.17 2.08
11.33 35.18 2.07
10.55 35.15 2.07
9.79 35.19 2.06
9.04 35.20 2.06
8.29 35.21 2.06
2.43 11.35 0.66
8.01 41.41 2.41
7.16 41.47 2.41
6.27 41.24 2.39
5.43 41.28 2.39
4.59 41.31 2.39
3.48 38.37 2.22
2.84 40.26 2.33
2.17 43.13 2.50
1.30 43.13 2.50
0.43 43.12 2.50
-0.43 43.10 2.50
-1.30 43.08 2.50
-2.16 43.04 2.50
-3.03 42.99 2.50
-3.89 42.94 2.50
-4.76 42.88 2.50
-5.62 42.81 2.50
-6.22 40.97 2.39
-7.05 40.88 2.39
-7.88 40.79 2.39
-8.72 40.69 2.39
-9.55 40.58 2.39
-9.43 36.73 2.17
-9.51 34.19 2.03
-9.53 31.78 1.89
-9.55 29.67 1.77
-9.57 27.80 1.67
-9.59 26.13 1.57
-9.60 24.63 1.49
-9.62 23.27 1.41
-9.63 22.04 1.35
-9.64 20.91 1.28
-9.65 19.87 1.23
-9.60 18.79 1.17
-9.67 18.03 1.12
-9.68 17.20 1.08
-9.69 16.43 1.04
-9.69 15.71 1.00
-9.70 15.04 0.96
-9.71 14.41 0.93
-9.71 13.81 0.90
-9.72 13.24 0.87
-9.72 12.71 0.84
-9.73 12.20 0.81
-9.73 11.71 0.79
-9.74 11.25 0.77
-9.69 10.75 0.74
-9.74 10.39 0.72
-9.75 9.98 0.70
-9.75 9.59 0.68
-9.76 9.22 0.66
-9.76 8.86 0.65
-9.76 8.51 0.63
-9.77 8.17 0.61
-9.77 7.85 0.60
-9.77 7.53 0.58
-9.78 7.23 0.57
-9.78 6.93 0.56
-9.78 6.64 0.54
-9.78 6.36 0.53
-9.79 6.08 0.52
-9.79 5.82 0.51
-9.79 5.55 0.49
-9.80 5.30 0.48
-9.80 5.05 0.47
-9.80 4.80 0.46
-9.80 4.56 0.45
-9.81 4.33 0.44
-9.81 4.09 0.43
-9.81 3.87 0.42
-9.81 3.64 0.42
-9.81 3.42 0.41
-9.82 3.20 0.40
-9.82 2.99 0.39
-9.77 2.76 0.38
-9.82 2.56 0.37
-9.82 2.35 0.37
-9.83 2.14 0.36
-9.83 1.94 0.35
-9.83 1.74 0.35
-9.83 1.53 0.34
-9.83 1.33 0.33
-9.84 1.13 0.33
-9.84 0.93 0.32
-9.84 0.73 0.31
-9.84 0.54 0.31
-9.84 0.34 0.30
-9.85 0.14 0.29
-9.85 -0.06 0.29
-9.85 -0.26 0.28
-9.85 -0.45 0.28
-9.85 -0.65 0.27
-9.86 -0.85 0.27
-9.86 -1.05 0.26
-9.81 -1.25 0.25
-9.86 -1.45 0.25
-9.86 -1.66 0.25
-9.87 -1.86 0.24
-9.87 -2.07 0.24
-9.87 -2.28 0.23
-9.87 -2.49 0.23
-9.87 -2.70 0.22
-9.88 -2.91 0.22
-9.88 -3.13 0.21
-9.88 -3.35 0.21
-9.88 -3.57 0.20
-9.89 -3.80 0.20
-9.89 -4.03 0.19
-9.89 -4.27 0.19
-9.89 -4.50 0.18
-9.89 -4.75 0.18
-9.90 -4.99 0.18
-9.84 -5.21 0.17
-9.90 -5.51 0.17
-9.91 -5.77 0.16
-9.91 -6.04 0.16
-9.91 -6.32 0.16
-9.91 -6.60 0.15
-9.92 -6.90 0.15
-9.92 -7.20 0.14
-9.92 -7.51 0.14
-9.93 -7.83 0.14
-9.93 -8.16 0.13
-9.93 -8.50 0.13
-6.58 -5.87 0.08
-9.87 -9.16 0.12
-9.94 -9.61 0.12
-9.95 -10.01 0.11
-9.95 -10.42 0.11
-9.96 -10.85 0.10
-9.96 -11.30 0.10
-9.96 -11.78 0.10
-9.97 -12.27 0.09
-9.97 -12.80 0.09
-9.98 -13.35 0.09
-9.99 -13.93 0.08
-9.99 -14.55 0.08
-10.00 -15.20 0.07
-10.01 -15.90 0.07
-10.01 -16.64 0.07
-10.02 -17.43 0.06
-10.03 -18.29 0.06
-10.04 -19.21 0.05
-10.05 -20.21 0.05
-9.99 -21.15 0.04
-10.07 -22.47 0.04
-10.08 -23.76 0.03
-10.06 -25.10 0.03
-10.11 -26.77 0.02
-10.13 -28.54 0.02
-10.15 -30.53 0.01
-10.17 -32.77 0.01
-10.20 -35.35 -0.00
-10.23 -38.32 -0.01
-10.26 -41.80 -0.02
-10.30 -45.92 -0.03
-6.75 -36.96 -0.03
6.12 -43.31 0.92
6.05 -37.35 0.80
6.28 -34.43 0.74
2.42 -11.93 0.26
7.39 -32.93 0.72
10.65 -43.40 0.96
8.99 -33.68 0.75
9.59 -33.24 0.75
9.54 -30.74 0.71
10.93 -32.88 0.77
12.94 -36.46 0.86
12.61 -33.40 0.80
13.11 -32.71 0.80
15.48 -36.49 0.90
14.75 -32.94 0.83
17.24 -36.51 0.94
16.82 -33.85 0.89
14.63 -28.02 0.75
18.57 -33.88 0.93
18.82 -32.76 0.92
20.62 -34.29 0.98
20.66 -32.83 0.96
22.46 -34.16 1.03
22.56 -32.85 1.01
24.33 -33.96 1.08
24.75 -33.12 1.08
27.97 -35.91 1.20
28.35 -34.93 1.21
25.09 -29.67 1.06
11.27 -10.90 0.46
12.89 -10.61 0.51
11.69 -9.23 0.47
10.26 -7.78 0.41
9.87 -7.17 0.39
10.05 -7.00 0.40
10.23 -6.82 0.41
10.41 -6.64 0.42
10.59 -6.46 0.42
10.77 -6.28 0.43
10.96 -6.10 0.44
11.15 -5.92 0.45
11.34 -5.73 0.46
11.53 -5.54 0.47
11.73 -5.35 0.48
11.93 -5.15 0.49
12.13 -4.95 0.50
12.34 -4.75 0.51
12.55 -4.54 0.53
12.76 -4.33 0.54
12.98 -4.12 0.55
13.20 -3.90 0.57
13.43 -3.68 0.58
13.66 -3.45 0.59
13.90 -3.21 0.61
14.15 -2.97 0.63
14.41 -2.73 0.64
21.66 -3.65 0.98
21.44 -3.17 0.98
21.38 -2.73 0.99
21.39 -2.29 1.00
21.39 -1.86 1.01
21.40 -1.43 1.02
21.40 -1.00 1.03
21.40 -0.57 1.04
21.41 -0.14 1.05
21.44 0.29 1.07
21.48 0.72 1.08
21.45 1.15 1.10
21.49 1.59 1.11
21.46 2.02 1.13
19.57 2.24 1.04
18.13 2.44 0.98
21.50 3.34 1.18
21.51 3.78 1.19
15.29 3.01 0.86
13.63 2.97 0.78
12.71 3.03 0.74
11.76 3.06 0.69
11.40 3.21 0.68
11.40 3.46 0.69
11.40 3.71 0.70
11.40 3.97 0.72
11.41 4.23 0.73
11.41 4.49 0.74
11.43 4.76 0.76
11.43 5.04 0.77
12.42 5.77 0.85
11.43 5.60 0.80
12.43 6.40 0.88
12.43 6.72 0.90
12.44 7.05 0.92
11.45 6.79 0.86
12.44 7.72 0.96
12.45 8.08 0.98
12.45 8.44 1.00
11.46 8.11 0.94
12.46 9.20 1.04
12.46 9.59 1.07
12.43 9.97 1.09
11.49 9.60 1.03
14.00 12.19 1.29
13.82 12.53 1.30
13.68 12.91 1.32
16.87 16.58 1.67
16.18 16.55 1.65
15.58 16.59 1.63
14.97 16.59 1.61
14.38 16.60 1.59
13.81 16.61 1.57
13.23 16.58 1.55
12.73 16.62 1.54
12.18 16.59 1.52
11.70 16.63 1.51
11.19 16.60 1.50
10.74 16.64 1.49
10.25 16.61 1.47
9.82 16.65 1.46
9.36 16.62 1.45
8.94 16.65 1.44
8.52 16.66 1.44
8.09 16.63 1.42
7.69 16.67 1.42
10.74 24.56 2.08
9.74 23.54 1.98
9.69 24.81 2.08
10.04 27.34 2.28
9.64 27.98 2.32
9.25 28.70 2.37
8.75 29.15 2.40
8.14 29.24 2.40
7.53 29.30 2.40
6.89 29.24 2.39
2.43 11.35 0.92
5.70 29.47 2.39
5.10 29.53 2.39
4.50 29.58 2.39
3.90 29.62 2.39
3.30 29.66 2.39
2.70 29.69 2.39
2.19 30.99 2.50
1.56 31.00 2.50
0.94 31.01 2.50
0.31 31.01 2.50
-0.31 31.00 2.50
-0.93 30.98 2.50
-1.56 30.95 2.50
-2.18 30.92 2.50
-2.80 30.88 2.50
-3.42 30.83 2.50
-4.04 30.77 2.50
-4.67 30.71 2.50
-5.29 30.63 2.50
-5.76 29.80 2.44
-6.26 29.20 2.39
-6.85 29.11 2.39
-7.45 29.01 2.39
-8.04 28.90 2.39
-8.48 28.26 2.35
-9.23 28.66 2.39
-8.30 24.10 2.02
-8.26 22.50 1.90
-8.67 22.23 1.88
-9.62 23.26 1.98
-9.63 22.02 1.89
-9.64 20.89 1.80
-9.65 19.86 1.72
-9.60 18.78 1.64
-9.67 18.01 1.59
-9.68 17.19 1.53
-9.69 16.42 1.47
-9.69 15.70 1.42
-9.70 15.03 1.37
-9.71 14.40 1.32
-9.71 13.80 1.28
-9.72 13.23 1.24
-9.72 12.70 1.20
-9.73 12.19 1.17
-9.73 11.70 1.13
-9.74 11.24 1.10
-9.70 10.75 1.07
-9.75 10.38 1.04
-9.75 9.97 1.02
-9.75 9.58 0.99
-9.76 9.21 0.97
-9.76 8.85 0.94
-9.76 8.50 0.92
-9.77 8.16 0.90
-9.77 7.84 0.88
-9.77 7.52 0.86
-9.78 7.22 0.84
-9.72 6.88 0.82
-9.78 6.63 0.81
-9.78 6.35 0.79
-9.79 6.08 0.78
-9.79 5.81 0.76
-9.79 5.55 0.75
-9.80 5.29 0.74
-9.80 5.04 0.72
-9.80 4.80 0.71
-9.80 4.56 0.70
-9.81 4.32 0.68
-9.81 4.09 0.67
-9.81 3.86 0.66
-9.81 3.63 0.65
-9.81 3.41 0.64
-9.82 3.19 0.63
-9.82 2.98 0.62
-9.77 2.75 0.61
-9.82 2.55 0.60
-9.82 2.34 0.59
-9.83 2.14 0.59
-9.83 1.93 0.58
-9.83 1.73 0.57
-9.83 1.53 0.56
-9.83 1.32 0.56
-9.84 1.12 0.55
-9.84 0.93 0.54
-9.84 0.73 0.53
-9.84 0.53 0.53
-9.84 0.33 0.52
-9.85 0.13 0.52
-9.85 -0.06 0.51
-9.85 -0.26 0.50
-9.85 -0.46 0.50
-9.85 -0.66 0.49
-9.86 -0.86 0.49
-9.86 -1.06 0.48
-9.82 -1.25 0.48
-9.86 -1.46 0.47
-9.86 -1.66 0.47
-9.87 -1.87 0.47
-9.87 -2.07 0.46
-9.87 -2.28 0.46
-9.87 -2.49 0.45
-9.87 -2.71 0.45
-9.88 -2.92 0.45
-9.88 -3.14 0.45
-9.88 -3.36 0.44
-9.88 -3.58 0.44
-9.89 -3.81 0.44
-9.89 -4.04 0.43
-9.89 -4.27 0.43
-9.89 -4.51 0.43
-9.89 -4.75 0.43
-9.90 -5.00 0.43
-9.84 -5.22 0.42
-9.90 -5.51 0.42
-9.91 -5.78 0.42
-9.91 -6.05 0.42
-9.91 -6.33 0.42
-9.91 -6.61 0.42
-9.92 -6.91 0.42
-9.92 -7.21 0.42
-9.92 -7.52 0.42
-9.93 -7.84 0.42
-9.93 -8.17 0.42
-9.93 -8.51 0.42
-6.58 -5.87 0.28
-9.87 -9.17 0.42
-9.94 -9.62 0.43
-9.95 -10.02 0.43
-9.95 -10.43 0.43
-9.96 -10.86 0.44
-9.96 -11.31 0.44
-9.96 -11.79 0.44
-9.97 -12.29 0.45
-9.97 -12.81 0.45
-9.98 -13.36 0.46
-9.99 -13.94 0.47
-9.99 -14.56 0.48
-10.00 -15.21 0.48
-10.01 -15.91 0.49
-10.01 -16.65 0.50
-10.02 -17.45 0.51
-10.03 -18.30 0.53
-10.04 -19.23 0.54
-10.05 -20.22 0.56
-9.99 -21.16 0.57
-10.07 -22.49 0.59
-10.08 -23.78 0.62
-10.05 -25.10 0.64
-10.11 -26.80 0.67
-10.13 -28.56 0.70
-10.15 -30.55 0.74
-10.17 -32.80 0.78
-10.20 -35.38 0.83
-10.23 -38.35 0.88
-10.26 -41.83 0.95
-10.30 -45.96 1.03
5.40 -44.70 1.96
6.14 -43.48 1.92
6.04 -37.35 1.65
6.25 -34.24 1.52
2.48 -12.23 0.55
7.36 -32.83 1.48
10.43 -42.53 1.93
8.88 -33.32 1.52
9.52 -33.03 1.52
9.50 -30.64 1.43
10.85 -32.67 1.54
12.93 -36.46 1.73
12.57 -33.33 1.60
13.05 -32.60 1.59
15.46 -36.49 1.80
14.75 -32.95 1.65
15.44 -32.72 1.66
16.82 -33.86 1.74
14.54 -27.85 1.45
18.55 -33.87 1.80
18.76 -32.68 1.76
24.99 -41.57 2.29
20.66 -32.86 1.84
22.52 -34.28 1.96
22.54 -32.86 1.91
23.89 -33.37 1.98
24.68 -33.05 2.01
27.97 -35.93 2.23
29.11 -35.90 2.28
25.06 -29.66 1.93
30.71 -34.91 2.33
31.50 -34.39 2.35
16.29 -17.09 1.20
16.19 -16.31 1.18
11.26 -10.90 0.81
16.06 -14.93 1.14
16.19 -14.46 1.14
16.47 -14.13 1.15
12.95 -10.66 0.90
11.73 -9.27 0.81
10.30 -7.81 0.70
9.86 -7.17 0.67
10.04 -7.00 0.68
10.22 -6.82 0.68
10.40 -6.65 0.69
10.58 -6.47 0.70
10.77 -6.29 0.71
10.95 -6.11 0.72
11.14 -5.92 0.73
11.33 -5.73 0.75
11.53 -5.54 0.76
11.72 -5.35 0.77
11.92 -5.16 0.78
12.12 -4.96 0.80
12.33 -4.76 0.81
12.54 -4.55 0.83
12.75 -4.34 0.84
12.97 -4.13 0.86
13.20 -3.91 0.88
13.42 -3.68 0.89
13.66 -3.46 0.91
13.90 -3.22 0.93
14.14 -2.98 0.95
14.40 -2.73 0.97
21.43 -3.63 1.46
21.44 -3.19 1.47
21.44 -2.75 1.48
21.45 -2.31 1.49
21.42 -1.88 1.49
21.46 -1.45 1.51
21.43 -1.01 1.52
21.46 -0.58 1.53
21.47 -0.15 1.54
21.44 0.28 1.55
21.48 0.71 1.57
21.45 1.14 1.58
21.49 1.57 1.60
21.46 2.00 1.61
19.89 2.26 1.51
17.07 2.29 1.31
14.95 2.31 1.16
13.14 2.30 1.03
12.33 2.42 0.98
12.18 2.64 0.98
12.74 3.03 1.04
11.94 3.10 0.98
12.38 3.48 1.03
11.41 3.45 0.96
11.42 3.71 0.98
11.42 3.96 0.99
12.41 4.59 1.09
12.42 4.88 1.11
11.44 4.76 1.04
11.43 5.03 1.05
12.42 5.77 1.16
11.45 5.59 1.09
12.43 6.39 1.20
12.43 6.71 1.22
12.44 7.04 1.24
12.44 7.37 1.27
12.44 7.71 1.29
12.45 8.07 1.31
11.44 7.75 1.23
11.45 8.09 1.26
11.45 8.44 1.28
11.50 8.84 1.31
11.44 9.17 1.33
11.44 9.55 1.36
13.90 12.09 1.69
12.41 11.24 1.55
14.28 13.47 1.82
15.67 15.38 2.05
15.25 15.59 2.05
14.86 15.80 2.04
14.98 16.59 2.12
14.39 16.60 2.09
13.82 16.61 2.06
13.25 16.58 2.04
12.74 16.62 2.02
12.19 16.59 1.99
11.71 16.63 1.97
11.20 16.60 1.95
10.75 16.64 1.94
10.26 16.61 1.92
9.83 16.65 1.90
9.37 16.62 1.88
8.95 16.65 1.87
8.52 16.66 1.86
8.09 16.63 1.84
7.70 16.67 1.84
9.39 21.46 2.35
9.07 21.90 2.38
8.70 22.28 2.41
8.23 22.40 2.41
7.76 22.51 2.41
7.29 22.61 2.41
6.82 22.71 2.41
6.35 22.80 2.41
5.84 22.73 2.39
5.38 22.81 2.39
2.44 11.35 1.19
4.44 22.94 2.39
3.97 22.99 2.39
3.26 21.39 2.22
2.93 22.22 2.30
2.57 23.12 2.39
2.19 24.14 2.50
1.71 24.16 2.50
1.22 24.18 2.50
0.73 24.18 2.50
0.25 24.19 2.50
-0.24 24.18 2.50
-0.73 24.17 2.50
-1.21 24.15 2.50
-1.70 24.12 2.50
-2.19 24.09 2.50
-2.67 24.05 2.50
-3.16 24.00 2.50
-3.64 23.94 2.50
-4.12 23.88 2.50
-4.61 23.81 2.50
-5.09 23.74 2.50
-5.57 23.65 2.50
-5.84 22.73 2.41
-6.27 22.50 2.39
-6.73 22.40 2.39
-7.19 22.29 2.39
-7.65 22.18 2.39
-8.11 22.06 2.39
-8.38 21.45 2.34
-9.02 21.80 2.39
-8.60 19.65 2.17
-8.51 18.43 2.05
-8.31 17.08 1.91
-8.54 16.69 1.88
-9.67 18.00 2.05
-9.68 17.18 1.97
-9.69 16.41 1.90
-9.69 15.69 1.83
-9.70 15.02 1.77
-9.71 14.38 1.72
-9.71 13.79 1.66
-9.72 13.22 1.61
-9.72 12.69 1.56
-9.73 12.18 1.52
-9.73 11.69 1.48
-9.74 11.23 1.44
-9.70 10.75 1.40
-9.75 10.37 1.37
-9.75 9.96 1.33
-9.75 9.57 1.30
-9.76 9.20 1.27
-9.76 8.84 1.24
-9.76 8.49 1.22
-9.77 8.16 1.19
-9.77 7.83 1.17
-9.77 7.52 1.14
-9.78 7.21 1.12
-9.72 6.87 1.09
-9.78 6.62 1.08
-9.79 6.34 1.06
-9.79 6.07 1.04
-9.79 5.80 1.02
-9.79 5.54 1.00
-9.80 5.28 0.99
-9.80 5.03 0.97
-9.80 4.79 0.96
-9.80 4.55 0.94
-9.81 4.31 0.93
-9.81 4.08 0.91
-9.81 3.85 0.90
-9.81 3.63 0.89
-9.81 3.41 0.88
-9.82 3.19 0.86
-9.82 2.97 0.85
-9.78 2.75 0.84
-9.82 2.55 0.83
-9.82 2.34 0.82
-9.83 2.13 0.81
-9.83 1.93 0.80
-9.83 1.72 0.80
-9.83 1.52 0.79
-9.83 1.32 0.78
-9.84 1.12 0.77
-9.84 0.92 0.76
-9.84 0.72 0.76
-9.84 0.52 0.75
-9.84 0.32 0.74
-9.85 0.13 0.74
-9.85 -0.07 0.73
-9.85 -0.27 0.73
-9.85 -0.47 0.72
-9.85 -0.67 0.72
-9.86 -0.86 0.71
-9.86 -1.06 0.71
-9.84 -1.26 0.70
-9.86 -1.47 0.70
-9.86 -1.67 0.70
-9.87 -1.88 0.69
-9.87 -2.08 0.69
-9.87 -2.29 0.69
-9.87 -2.50 0.68
-9.87 -2.71 0.68
-9.88 -2.93 0.68
-9.88 -3.14 0.68
-9.88 -3.36 0.68
-9.88 -3.59 0.68
-9.89 -3.82 0.68
-9.89 -4.05 0.68
-9.89 -4.28 0.68
-9.89 -4.52 0.68
-9.90 -4.76 0.68
-9.90 -5.01 0.68
-9.84 -5.23 0.67
-9.90 -5.52 0.68
-9.91 -5.79 0.68
-9.91 -6.06 0.68
-9.91 -6.34 0.69
-9.91 -6.62 0.69
-9.92 -6.91 0.69
-9.92 -7.22 0.70
-9.92 -7.53 0.70
-9.93 -7.85 0.71
-9.93 -8.18 0.71
-9.93 -8.52 0.72
-6.58 -5.88 0.48
-9.87 -9.18 0.73
-9.94 -9.63 0.74
-9.95 -10.03 0.75
-9.95 -10.44 0.76
-9.96 -10.87 0.77
-9.96 -11.32 0.78
-9.96 -11.80 0.79
-9.97 -12.30 0.81
-9.97 -12.82 0.82
-9.98 -13.37 0.84
-9.99 -13.95 0.85
-9.99 -14.57 0.87
-10.00 -15.23 0.89
-10.01 -15.92 0.92
-10.01 -16.67 0.94
-10.02 -17.46 0.97
-10.03 -18.32 1.00
-10.04 -19.24 1.03
-10.05 -20.24 1.07
-9.99 -21.17 1.10
-10.07 -22.51 1.15
-10.08 -23.80 1.20
-10.05 -25.11 1.25
-10.11 -26.82 1.31
-10.13 -28.59 1.38
-10.15 -30.58 1.46
-10.17 -32.83 1.55
-10.20 -35.41 1.66
-10.23 -38.38 1.78
-10.26 -41.87 1.93
-10.30 -46.00 2.10
0.00 -37.78 2.50
0.76 -37.79 2.50
1.52 -37.77 2.50
2.18 -36.17 2.39
2.90 -36.11 2.39
3.62 -36.03 2.39
4.34 -35.93 2.39
4.38 -30.99 2.07
5.61 -34.69 2.33
6.17 -33.85 2.28
2.48 -12.23 0.83
7.35 -32.83 2.24
8.14 -33.20 2.28
8.85 -33.22 2.30
9.54 -33.12 2.31
9.50 -30.66 2.15
10.85 -32.67 2.31
11.79 -33.26 2.38
12.50 -33.15 2.39
13.05 -32.60 2.38
13.74 -32.44 2.39
14.34 -32.05 2.39
14.93 -31.65 2.39
15.51 -31.24 2.39
14.53 -27.86 2.16
16.62 -30.37 2.39
17.16 -29.91 2.39
17.68 -29.44 2.39
18.44 -29.36 2.43
19.27 -29.36 2.47
20.00 -29.17 2.50
20.48 -28.63 2.50
20.95 -28.09 2.50
21.41 -27.53 2.50
21.85 -26.96 2.50
22.27 -26.38 2.50
22.68 -25.80 2.50
23.07 -25.21 2.50
16.30 -17.10 1.74
16.19 -16.33 1.70
12.77 -12.37 1.32
16.06 -14.94 1.64
16.19 -14.47 1.63
16.46 -14.13 1.64
13.00 -10.72 1.28
11.78 -9.32 1.15
10.33 -7.84 1.00
9.86 -7.18 0.94
10.04 -7.00 0.95
10.22 -6.83 0.96
10.40 -6.65 0.97
10.58 -6.47 0.98
10.76 -6.29 1.00
10.95 -6.11 1.01
11.14 -5.93 1.02
11.33 -5.74 1.03
11.52 -5.55 1.05
11.72 -5.36 1.06
11.92 -5.16 1.08
12.12 -4.96 1.09
12.32 -4.76 1.11
12.53 -4.56 1.13
12.75 -4.35 1.15
12.97 -4.13 1.17
13.19 -3.92 1.19
13.42 -3.69 1.21
13.65 -3.46 1.23
13.89 -3.23 1.25
14.13 -2.99 1.28
14.39 -2.74 1.31
21.43 -3.64 1.95
21.44 -3.20 1.96
21.41 -2.76 1.96
21.45 -2.33 1.97
21.42 -1.89 1.98
21.45 -1.46 1.99
21.43 -1.03 2.00
21.46 -0.60 2.02
21.47 -0.17 2.03
21.44 0.26 2.04
21.48 0.69 2.06
21.45 1.12 2.07
21.48 1.56 2.09
21.46 1.99 2.10
20.00 2.26 1.98
17.16 2.29 1.71
15.01 2.31 1.51
13.52 2.36 1.37
11.98 2.34 1.23
10.89 2.35 1.13
9.84 2.34 1.03
9.25 2.39 0.98
9.15 2.56 0.98
11.40 3.44 1.23
11.40 3.69 1.25
11.40 3.95 1.26
11.41 4.21 1.28
11.41 4.47 1.30
11.40 4.74 1.31
11.40 5.00 1.33
11.40 5.28 1.35
11.40 5.56 1.37
11.41 5.85 1.39
11.41 6.15 1.41
11.41 6.45 1.44
11.41 6.75 1.46
11.42 7.07 1.49
11.42 7.39 1.51
11.42 7.73 1.54
11.43 8.07 1.57
11.43 8.42 1.60
11.44 8.78 1.63
11.44 9.16 1.67
11.44 9.54 1.70
11.45 9.94 1.74
11.56 10.45 1.80
12.92 12.17 2.05
12.65 12.40 2.06
12.38 12.63 2.06
12.14 12.90 2.07
11.90 13.17 2.08
11.66 13.44 2.10
11.42 13.70 2.11
11.17 13.97 2.12
10.94 14.27 2.14
10.71 14.56 2.16
10.47 14.85 2.18
10.23 15.14 2.20
9.98 15.44 2.22
9.93 16.06 2.28
9.72 16.45 2.32
9.37 16.62 2.32
8.96 16.65 2.30
8.53 16.66 2.29
8.10 16.63 2.27
7.71 16.67 2.25
7.86 17.94 2.41
7.48 18.06 2.41
7.10 18.17 2.41
6.72 18.27 2.41
6.34 18.37 2.41
5.92 18.34 2.39
5.54 18.43 2.39
5.16 18.50 2.39
4.78 18.58 2.39
4.40 18.64 2.39
2.43 11.32 1.45
3.64 18.76 2.39
3.13 18.11 2.30
2.67 17.50 2.22
2.49 18.89 2.39
2.18 19.62 2.48
1.80 19.76 2.50
1.40 19.78 2.50
1.00 19.80 2.50
0.60 19.81 2.50
0.20 19.81 2.50
-0.20 19.80 2.50
-0.60 19.79 2.50
-0.99 19.78 2.50
-1.39 19.76 2.50
-1.79 19.73 2.50
-2.19 19.69 2.50
-2.59 19.65 2.50
-2.98 19.61 2.50
-3.38 19.55 2.50
-3.77 19.49 2.50
-4.17 19.43 2.50
-4.56 19.36 2.50
-4.96 19.28 2.50
-5.35 19.20 2.50
-5.74 19.11 2.50
-5.89 18.25 2.40
-6.25 18.13 2.39
-6.63 18.02 2.39
-7.00 17.91 2.39
-7.37 17.80 2.39
-7.74 17.68 2.39
-8.11 17.55 2.39
-8.48 17.41 2.39
-8.63 16.87 2.34
-8.54 15.89 2.22
-9.57 16.98 2.39
-11.43 19.35 2.75
-11.86 19.19 2.76
-9.64 14.92 2.17
-9.71 14.37 2.11
-9.71 13.78 2.05
-9.72 13.21 1.98
-9.72 12.68 1.93
-9.73 12.17 1.87
-9.73 11.68 1.82
-9.74 11.22 1.78
-9.71 10.74 1.73
-9.75 10.36 1.69
-9.75 9.95 1.65
-9.75 9.57 1.61
-9.76 9.19 1.58
-9.76 8.83 1.54
-9.76 8.48 1.51
-9.77 8.15 1.48
-9.77 7.82 1.45
-9.77 7.51 1.42
-9.78 7.20 1.40
-9.72 6.86 1.36
-9.78 6.62 1.35
-9.79 6.34 1.32
-9.79 6.06 1.30
-9.79 5.79 1.28
-9.79 5.53 1.26
-9.80 5.28 1.24
-9.80 5.03 1.22
-9.80 4.78 1.20
-9.80 4.54 1.19
-9.81 4.31 1.17
-9.81 4.07 1.15
-9.81 3.85 1.14
-9.81 3.62 1.13
-9.81 3.40 1.11
-9.82 3.18 1.10
-9.82 2.96 1.09
-9.79 2.74 1.07
-9.82 2.54 1.06
-9.82 2.33 1.05
-9.83 2.12 1.04
-9.83 1.92 1.03
-9.83 1.72 1.02
-9.83 1.51 1.01
-9.83 1.31 1.00
-9.84 1.11 1.00
-9.84 0.91 0.99
-9.84 0.71 0.98
-9.84 0.52 0.97
-9.84 0.32 0.97
-9.85 0.12 0.96
-9.85 -0.08 0.96
-9.85 -0.28 0.95
-9.85 -0.47 0.95
-9.85 -0.67 0.94
-9.86 -0.87 0.94
-9.86 -1.07 0.93
-9.86 -1.27 0.93
-9.86 -1.47 0.93
-9.86 -1.68 0.92
-9.87 -1.88 0.92
-9.87 -2.09 0.92
-9.87 -2.30 0.92
-9.87 -2.51 0.92
-9.87 -2.72 0.91
-9.88 -2.93 0.91
-9.88 -3.15 0.91
-9.88 -3.37 0.91
-9.88 -3.60 0.92
-9.89 -3.82 0.92
-9.89 -4.05 0.92
-9.89 -4.29 0.92
-9.89 -4.53 0.92
-9.90 -4.77 0.92
-9.90 -5.02 0.93
-9.84 -5.24 0.93
-9.90 -5.53 0.94
-9.91 -5.79 0.94
-9.91 -6.07 0.95
-9.91 -6.34 0.95
-9.91 -6.63 0.96
-9.92 -6.92 0.97
-9.92 -7.22 0.97
-9.92 -7.54 0.98
-9.93 -7.86 0.99
-9.93 -8.19 1.00
-9.93 -8.53 1.01
-6.58 -5.88 0.68
-9.87 -9.19 1.03
-9.94 -9.64 1.05
-9.95 -10.04 1.07
-9.95 -10.45 1.09
-9.96 -10.88 1.10
-9.96 -11.34 1.12
-9.96 -11.81 1.14
-9.97 -12.31 1.17
-9.97 -12.83 1.19
-9.98 -13.38 1.22
-9.99 -13.97 1.24
-9.99 -14.58 1.27
-10.00 -15.24 1.31
-10.01 -15.94 1.34
-10.01 -16.68 1.38
-10.02 -17.48 1.42
-10.03 -18.33 1.47
-10.04 -19.26 1.52
-10.05 -20.26 1.58
-9.99 -21.19 1.63
-10.07 -22.53 1.71
-10.08 -23.82 1.78
-10.04 -25.11 1.86
-10.11 -26.84 1.96
-10.13 -28.61 2.07
-10.09 -30.42 2.18
-9.79 -34.03 2.39
-9.14 -34.31 2.39
-6.33 -25.86 1.79
-6.38 -28.50 1.96
-6.63 -32.67 2.23
-6.42 -35.26 2.39
-5.97 -36.97 2.50
-5.24 -37.15 2.50
-4.50 -37.30 2.50
-3.76 -37.44 2.50
-3.01 -37.55 2.50
-2.26 -37.64 2.50
-1.51 -37.71 2.50
-0.75 -37.76 2.50
0.00 -28.14 2.50
0.57 -28.14 2.50
1.13 -28.12 2.50
1.69 -28.09 2.50
2.25 -28.05 2.50
2.81 -27.99 2.50
3.37 -27.92 2.50
3.93 -27.83 2.50
4.48 -27.72 2.50
5.03 -27.60 2.50
2.48 -12.23 1.11
6.12 -27.32 2.50
6.65 -27.16 2.50
7.19 -26.98 2.50
7.71 -26.79 2.50
8.24 -26.59 2.50
8.75 -26.37 2.50
9.26 -26.14 2.50
9.76 -25.90 2.50
10.25 -25.64 2.50
10.74 -25.38 2.50
11.22 -25.10 2.50
11.69 -24.80 2.50
12.15 -24.50 2.50
12.61 -24.19 2.50
13.05 -23.86 2.50
13.49 -23.53 2.50
13.91 -23.18 2.50
14.33 -22.83 2.50
14.73 -22.46 2.50
14.50 -21.18 2.39
14.87 -20.81 2.39
15.23 -20.43 2.39
15.58 -20.05 2.39
15.92 -19.66 2.39
16.25 -19.26 2.39
16.57 -18.86 2.39
16.22 -17.74 2.30
16.30 -17.12 2.27
16.19 -16.34 2.22
12.77 -12.38 1.72
16.06 -14.96 2.14
16.18 -14.48 2.12
16.46 -14.14 2.13
13.06 -10.78 1.67
11.82 -9.36 1.49
10.36 -7.87 1.30
9.85 -7.18 1.22
10.03 -7.01 1.23
10.21 -6.83 1.24
10.39 -6.66 1.25
10.57 -6.48 1.26
10.76 -6.30 1.28
10.94 -6.12 1.29
11.13 -5.93 1.31
11.32 -5.75 1.32
11.51 -5.56 1.34
11.71 -5.36 1.35
11.91 -5.17 1.37
12.11 -4.97 1.39
12.32 -4.77 1.41
12.53 -4.56 1.43
12.74 -4.35 1.45
12.96 -4.14 1.48
13.18 -3.92 1.50
13.41 -3.70 1.52
13.64 -3.47 1.55
13.88 -3.24 1.58
14.13 -3.00 1.61
14.38 -2.75 1.64
18.08 -3.08 2.06
18.04 -2.71 2.06
17.99 -2.33 2.06
17.94 -1.96 2.06
17.89 -1.59 2.06
17.82 -1.23 2.06
17.75 -0.86 2.06
17.67 -0.50 2.06
17.59 -0.15 2.06
17.50 0.20 2.06
17.40 0.55 2.06
17.30 0.89 2.06
17.19 1.24 2.06
17.07 1.57 2.06
16.95 1.90 2.06
16.83 2.23 2.06
15.07 2.31 1.86
13.57 2.36 1.69
12.02 2.34 1.51
10.91 2.35 1.38
9.97 2.36 1.28
9.18 2.37 1.19
8.61 2.41 1.12
7.82 2.36 1.03
7.33 2.37 0.98
7.25 2.51 0.98
7.17 2.64 0.98
11.39 4.46 1.57
11.39 4.72 1.59
11.40 5.00 1.61
11.40 5.27 1.64
11.40 5.55 1.66
11.41 5.84 1.68
11.41 6.14 1.71
11.41 6.44 1.74
11.41 6.75 1.76
11.42 7.06 1.79
11.42 7.38 1.82
11.42 7.72 1.86
11.43 8.06 1.89
11.43 8.41 1.93
11.43 8.77 1.96
11.44 9.15 2.00
11.44 9.53 2.04
11.45 9.93 2.09
11.45 10.35 2.13
11.46 10.78 2.18
11.28 11.05 2.19
10.82 11.04 2.16
10.62 11.28 2.17
10.43 11.53 2.18
10.24 11.79 2.20
10.04 12.04 2.21
9.84 12.30 2.23
9.64 12.55 2.25
9.43 12.81 2.26
9.22 13.07 2.28
9.00 13.31 2.30
8.77 13.55 2.32
8.54 13.79 2.33
8.30 14.03 2.35
8.04 14.24 2.36
7.77 14.43 2.37
7.48 14.60 2.38
7.18 14.74 2.38
6.87 14.84 2.38
6.55 14.95 2.38
6.25 15.08 2.39
5.96 15.22 2.39
5.64 15.31 2.39
5.32 15.40 2.39
5.00 15.48 2.39
4.68 15.56 2.39
4.36 15.63 2.39
4.04 15.69 2.39
3.72 15.75 2.39
2.43 11.32 1.71
3.08 15.86 2.39
2.75 15.90 2.39
2.43 15.94 2.39
2.15 16.32 2.45
1.86 16.69 2.50
1.52 16.72 2.50
1.18 16.73 2.50
0.85 16.75 2.50
0.51 16.76 2.50
0.17 16.76 2.50
-0.17 16.76 2.50
-0.50 16.75 2.50
-0.84 16.73 2.50
-1.18 16.71 2.50
-1.52 16.69 2.50
-1.85 16.66 2.50
-2.19 16.62 2.50
-2.52 16.58 2.50
-2.86 16.54 2.50
-3.19 16.49 2.50
-3.53 16.43 2.50
-3.86 16.37 2.50
-4.19 16.30 2.50
-4.52 16.22 2.50
-4.85 16.15 2.50
-5.18 16.06 2.50
-5.51 15.97 2.50
-5.84 15.88 2.50
-5.92 15.14 2.40
-6.22 15.02 2.39
-6.54 14.92 2.39
-6.85 14.80 2.39
-7.15 14.69 2.39
-7.46 14.57 2.39
-7.77 14.44 2.39
-8.07 14.30 2.39
-8.37 14.17 2.39
-8.67 14.02 2.39
-8.97 13.87 2.39
-9.27 13.72 2.39
-9.57 13.56 2.39
-9.86 13.40 2.39
-14.18 18.47 3.34
-9.71 12.14 2.23
-9.68 11.61 2.16
-9.74 11.21 2.12
-9.71 10.74 2.06
-9.75 10.35 2.01
-9.75 9.95 1.97
-9.75 9.56 1.92
-9.76 9.18 1.88
-9.76 8.82 1.84
-9.76 8.47 1.80
-9.77 8.14 1.77
-9.77 7.81 1.74
-9.77 7.50 1.70
-9.78 7.19 1.67
-9.71 6.85 1.63
-9.78 6.61 1.61
-9.79 6.33 1.59
-9.79 6.05 1.56
-9.79 5.79 1.54
-9.79 5.53 1.52
-9.80 5.27 1.49
-9.80 5.02 1.47
-9.80 4.78 1.45
-9.80 4.53 1.43
-9.81 4.30 1.41
-9.81 4.07 1.40
-9.81 3.84 1.38
-9.81 3.61 1.36
-9.81 3.39 1.35
-9.82 3.17 1.33
-9.82 2.96 1.32
-9.80 2.74 1.30
-9.82 2.53 1.29
-9.82 2.32 1.28
-9.83 2.12 1.27
-9.83 1.91 1.26
-9.83 1.71 1.25
-9.83 1.51 1.24
-9.83 1.31 1.23
-9.84 1.10 1.22
-9.84 0.91 1.21
-9.84 0.71 1.21
-9.84 0.51 1.20
-9.84 0.31 1.19
-9.85 0.11 1.19
-9.85 -0.08 1.18
-9.85 -0.28 1.18
-9.85 -0.48 1.17
-9.85 -0.68 1.17
-9.86 -0.88 1.16
-9.86 -1.28 1.16
-9.86 -1.48 1.15
-9.86 -1.68 1.15
-9.87 -1.89 1.15
-9.87 -2.10 1.15
-9.87 -2.30 1.15
-9.87 -2.51 1.15
-9.87 -2.73 1.15
-9.88 -2.94 1.15
-9.88 -3.16 1.15
-9.88 -3.38 1.15
-9.88 -3.60 1.15
-9.89 -3.83 1.16
-9.89 -4.06 1.16
-9.89 -4.29 1.16
-9.89 -4.53 1.17
-9.90 -4.78 1.17
-9.90 -5.03 1.18
-9.90 -5.28 1.19
-9.90 -5.54 1.19
-9.91 -5.80 1.20
-9.91 -6.07 1.21
-9.91 -6.35 1.22
-9.91 -6.64 1.23
-9.92 -6.93 1.24
-9.92 -7.23 1.25
-9.92 -7.54 1.27
-9.93 -7.87 1.28
-9.93 -8.20 1.30
-9.93 -8.54 1.31
-6.58 -5.89 0.88
-9.87 -9.20 1.34
-9.94 -9.65 1.37
-9.95 -10.05 1.39
-9.95 -10.46 1.41
-9.96 -10.89 1.44
-9.96 -11.35 1.47
-9.96 -11.82 1.49
-9.97 -12.32 1.53
-9.98 -12.84 1.56
-9.98 -13.40 1.59
-9.99 -13.98 1.63
-9.99 -14.60 1.68
-10.00 -15.25 1.72
-10.01 -15.95 1.77
-10.01 -16.70 1.82
-10.02 -17.49 1.88
-10.03 -18.35 1.95
-10.04 -19.27 2.02
-10.05 -20.27 2.09
-10.00 -21.23 2.16
-10.18 -24.07 2.39
-9.72 -24.33 2.39
-9.26 -24.59 2.39
-8.79 -24.83 2.39
-6.26 -18.90 1.81
-6.31 -20.39 1.93
-6.31 -21.93 2.06
-6.56 -24.65 2.30
-6.33 -25.86 2.39
-6.07 -27.15 2.50
-5.54 -27.31 2.50
-5.00 -27.46 2.50
-4.45 -27.60 2.50
-3.90 -27.72 2.50
-3.35 -27.82 2.50
-2.80 -27.91 2.50
-2.24 -27.99 2.50
-1.68 -28.05 2.50
-1.12 -28.09 2.50
-0.56 -28.12 2.50
0.00 -22.40 2.50
0.45 -22.40 2.50
0.90 -22.39 2.50
1.35 -22.36 2.50
1.79 -22.33 2.50
2.24 -22.28 2.50
2.68 -22.22 2.50
3.13 -22.16 2.50
3.57 -22.08 2.50
4.00 -21.98 2.50
2.48 -12.23 1.40
4.87 -21.77 2.50
5.30 -21.65 2.50
5.73 -21.51 2.50
5.89 -20.49 2.39
6.29 -20.34 2.39
6.69 -20.18 2.39
7.08 -20.01 2.39
7.47 -19.83 2.39
7.85 -19.64 2.39
8.23 -19.45 2.39
8.60 -19.24 2.39
8.96 -19.03 2.39
9.32 -18.81 2.39
9.67 -18.57 2.39
10.02 -18.34 2.39
10.36 -18.09 2.39
10.69 -17.83 2.39
11.02 -17.57 2.39
11.34 -17.30 2.39
18.50 -27.03 3.80
18.77 -26.28 3.76
12.34 -16.56 2.41
12.63 -16.26 2.41
12.91 -15.96 2.41
13.19 -15.65 2.41
13.45 -15.33 2.41
13.71 -15.01 2.41
13.97 -14.69 2.41
12.59 -12.71 2.13
11.24 -10.91 1.87
12.23 -11.41 2.01
12.41 -11.12 2.01
12.59 -10.83 2.01
12.76 -10.54 2.01
11.86 -9.41 1.85
10.88 -8.28 1.67
9.85 -7.18 1.50
10.02 -7.01 1.51
10.21 -6.84 1.52
10.39 -6.66 1.53
10.57 -6.48 1.55
10.75 -6.30 1.56
10.94 -6.12 1.58
6.84 -3.65 0.98
6.87 -3.49 0.98
6.91 -3.34 0.98
6.95 -3.19 0.98
6.98 -3.03 0.98
7.01 -2.88 0.98
12.31 -4.78 1.71
12.52 -4.57 1.73
12.73 -4.36 1.76
12.95 -4.15 1.79
13.17 -3.93 1.81
13.40 -3.71 1.84
13.63 -3.48 1.87
13.87 -3.24 1.90
14.12 -3.00 1.94
14.37 -2.76 1.97
15.69 -2.69 2.15
15.57 -2.35 2.14
14.98 -1.95 2.06
14.95 -1.64 2.06
14.91 -1.34 2.06
14.87 -1.03 2.06
14.82 -0.73 2.06
14.76 -0.43 2.06
14.68 -0.13 2.06
14.60 0.16 2.06
14.53 0.45 2.06
14.45 0.74 2.06
14.37 1.02 2.06
14.29 1.31 2.05
14.20 1.59 2.05
14.10 1.86 2.05
6.67 1.02 0.98
6.62 1.15 0.98
6.56 1.27 0.98
6.51 1.40 0.98
6.45 1.52 0.98
6.40 1.65 0.98
6.34 1.77 0.98
6.35 1.91 0.99
6.35 2.05 1.00
6.35 2.19 1.01
6.35 2.33 1.02
6.35 2.48 1.03
11.39 4.72 1.88
11.40 4.99 1.90
11.40 5.26 1.92
11.40 5.55 1.95
11.41 5.83 1.98
11.41 6.13 2.01
11.41 6.43 2.04
11.41 6.74 2.07
11.42 7.05 2.10
11.42 7.37 2.14
11.32 7.63 2.15
11.01 7.75 2.13
10.71 7.87 2.11
10.60 8.12 2.12
10.50 8.39 2.15
10.40 8.66 2.17
10.30 8.93 2.19
10.19 9.20 2.21
10.06 9.46 2.23
9.92 9.71 2.25
9.82 10.00 2.28
9.76 10.35 2.32
9.68 10.70 2.36
9.52 10.95 2.38
9.13 10.93 2.34
8.79 10.98 2.32
8.60 11.19 2.33
8.40 11.40 2.34
8.20 11.60 2.36
7.97 11.78 2.36
7.75 11.96 2.37
7.51 12.12 2.38
7.26 12.26 2.38
7.00 12.38 2.38
6.73 12.49 2.38
6.47 12.60 2.38
6.24 12.79 2.40
5.96 12.87 2.39
5.69 12.97 2.39
5.42 13.06 2.39
5.15 13.15 2.39
4.88 13.23 2.39
4.60 13.31 2.39
4.33 13.38 2.39
4.05 13.45 2.39
3.77 13.51 2.39
3.50 13.57 2.39
3.22 13.62 2.39
2.43 11.32 1.98
2.66 13.72 2.39
2.38 13.76 2.39
2.13 13.98 2.43
1.90 14.42 2.50
1.61 14.45 2.50
1.32 14.47 2.50
1.03 14.49 2.50
0.73 14.50 2.50
0.44 14.51 2.50
0.15 14.51 2.50
-0.14 14.51 2.50
-0.44 14.50 2.50
-0.73 14.49 2.50
-1.02 14.47 2.50
-1.31 14.45 2.50
-1.60 14.42 2.50
-1.89 14.39 2.50
-2.19 14.36 2.50
-2.48 14.31 2.50
-2.77 14.27 2.50
-3.05 14.22 2.50
-3.34 14.16 2.50
-3.63 14.10 2.50
-3.92 14.04 2.50
-4.20 13.97 2.50
-4.49 13.89 2.50
-4.77 13.81 2.50
-5.05 13.73 2.50
-5.34 13.64 2.50
-5.62 13.55 2.50
-5.90 13.45 2.50
-5.94 12.84 2.40
-6.18 12.69 2.39
-6.45 12.58 2.39
-6.71 12.47 2.39
-6.97 12.35 2.39
-7.23 12.23 2.39
-7.49 12.10 2.39
-7.75 11.97 2.39
-8.00 11.83 2.39
-8.25 11.69 2.39
-8.50 11.54 2.39
-8.75 11.39 2.39
-9.00 11.24 2.39
-9.25 11.08 2.39
-9.49 10.92 2.39
-9.73 10.75 2.39
-9.97 10.58 2.39
-9.70 9.12 2.18
-9.72 8.78 2.14
-9.76 8.47 2.10
-9.77 8.13 2.06
-9.77 7.81 2.02
-9.77 7.49 1.99
-9.78 7.19 1.95
-9.71 6.84 1.90
-9.78 6.60 1.89
-9.79 6.32 1.86
-9.79 6.05 1.83
-9.79 5.78 1.80
-9.79 5.52 1.77
-9.80 5.26 1.75
-9.80 5.01 1.72
-9.80 4.77 1.70
-9.80 4.53 1.68
-9.81 4.29 1.66
-9.81 4.06 1.64
-9.81 3.83 1.62
-9.81 3.61 1.60
-9.81 3.39 1.59
-9.82 3.17 1.57
-9.82 2.95 1.56
-9.81 2.73 1.54
-9.82 2.53 1.53
-9.82 2.32 1.51
-9.83 2.11 1.50
-9.83 1.91 1.49
-9.83 1.70 1.48
-9.83 1.50 1.47
-9.84 1.30 1.46
-9.84 1.10 1.45
-9.84 0.90 1.44
-9.84 0.70 1.43
-9.84 0.50 1.43
-9.84 0.30 1.42
-9.85 0.11 1.41
-9.85 -0.09 1.41
-9.85 -0.29 1.40
-9.85 -0.49 1.40
-9.85 -0.69 1.39
-9.86 -0.88 1.39
-9.86 -1.29 1.38
-9.86 -1.49 1.38
-9.86 -1.69 1.38
-9.87 -1.90 1.38
-9.87 -2.10 1.38
-9.87 -2.31 1.38
-9.87 -2.52 1.38
-9.87 -2.73 1.38
-9.88 -2.95 1.38
-9.88 -3.17 1.39
-9.88 -3.39 1.39
-9.88 -3.61 1.39
-9.89 -3.84 1.40
-9.89 -4.07 1.41
-9.89 -4.30 1.41
-9.89 -4.54 1.42
-9.90 -4.78 1.43
-9.90 -5.03 1.43
-9.90 -5.29 1.44
-9.90 -5.55 1.45
-9.91 -5.81 1.46
-9.91 -6.08 1.48
-9.91 -6.36 1.49
-9.91 -6.65 1.50
-9.92 -6.94 1.52
-9.92 -7.24 1.53
-9.92 -7.55 1.55
-9.93 -7.87 1.57
-9.93 -8.21 1.59
-9.93 -8.55 1.61
-6.59 -5.91 1.08
-9.88 -9.21 1.65
-9.94 -9.66 1.69
-9.95 -10.06 1.71
-9.95 -10.47 1.74
-9.96 -10.90 1.78
-9.96 -11.36 1.81
-9.97 -11.83 1.85
-9.97 -12.33 1.89
-9.98 -12.86 1.93
-9.98 -13.41 1.98
-9.99 -13.99 2.03
-9.99 -14.61 2.08
-9.97 -15.22 2.13
-9.95 -15.87 2.19
-10.24 -17.89 2.39
-9.91 -18.14 2.39
-9.57 -18.39 2.39
-9.22 -18.62 2.39
-8.87 -18.85 2.39
-8.51 -19.07 2.39
-8.15 -19.28 2.39
-7.78 -19.48 2.39
-7.40 -19.68 2.39
-7.02 -19.86 2.39
-6.64 -20.04 2.39
-6.25 -20.23 2.40
-6.10 -21.24 2.50
-5.69 -21.39 2.50
-5.26 -21.53 2.50
-4.84 -21.66 2.50
-4.41 -21.78 2.50
-3.98 -21.90 2.50
-3.55 -22.00 2.50
-3.11 -22.09 2.50
-2.67 -22.16 2.50
-2.23 -22.23 2.50
-1.78 -22.29 2.50
-1.34 -22.33 2.50
-0.89 -22.36 2.50
-0.44 -22.39 2.50
0.00 -18.59 2.50
0.38 -18.59 2.50
0.75 -18.58 2.50
1.12 -18.56 2.50
1.49 -18.53 2.50
1.86 -18.49 2.50
2.23 -18.44 2.50
2.49 -17.63 2.39
2.84 -17.57 2.39
3.19 -17.50 2.39
2.48 -12.23 1.68
3.88 -17.33 2.39
4.22 -17.24 2.39
4.56 -17.13 2.39
4.89 -17.02 2.39
5.23 -16.90 2.39
5.56 -16.77 2.39
5.88 -16.64 2.39
6.21 -16.49 2.39
6.57 -16.45 2.41
6.89 -16.29 2.41
7.20 -16.13 2.41
7.51 -15.95 2.41
7.81 -15.77 2.41
8.11 -15.58 2.41
8.40 -15.39 2.41
8.69 -15.19 2.41
8.98 -14.98 2.41
9.25 -14.77 2.41
9.07 -13.85 2.30
9.22 -13.49 2.27
9.37 -13.12 2.25
9.50 -12.77 2.22
9.64 -12.42 2.20
9.77 -12.08 2.18
9.89 -11.75 2.16
10.01 -11.42 2.14
10.13 -11.10 2.12
10.24 -10.78 2.11
10.34 -10.46 2.09
10.46 -10.16 2.08
10.65 -9.95 2.09
10.89 -9.76 2.10
11.12 -9.57 2.11
11.34 -9.38 2.12
11.56 -9.18 2.14
10.46 -7.96 1.91
9.84 -7.19 1.78
10.02 -7.02 1.79
10.20 -6.84 1.80
10.38 -6.67 1.82
10.56 -6.49 1.83
10.75 -6.31 1.85
10.93 -6.13 1.86
11.12 -5.94 1.88
6.86 -3.49 1.15
6.78 -3.28 1.13
6.73 -3.09 1.12
6.73 -2.93 1.11
6.68 -2.75 1.10
6.64 -2.58 1.09
6.54 -2.39 1.07
6.50 -2.23 1.06
6.46 -2.07 1.05
6.42 -1.92 1.04
6.39 -1.77 1.03
6.35 -1.63 1.02
6.33 -1.48 1.02
6.32 -1.35 1.01
6.32 -1.22 1.01
6.32 -1.09 1.02
6.32 -0.96 1.02
6.32 -0.83 1.02
6.32 -0.70 1.02
6.32 -0.57 1.02
6.32 -0.44 1.02
6.33 -0.32 1.03
6.33 -0.19 1.03
6.33 -0.06 1.03
6.33 0.06 1.04
6.33 0.19 1.04
6.33 0.32 1.05
6.33 0.45 1.05
6.33 0.57 1.06
6.33 0.70 1.06
6.39 0.84 1.08
6.36 0.97 1.08
6.36 1.10 1.09
6.40 1.24 1.10
6.40 1.37 1.11
6.40 1.51 1.12
6.40 1.64 1.13
6.40 1.78 1.14
6.37 1.91 1.15
6.37 2.05 1.16
6.38 2.19 1.17
6.41 2.35 1.19
6.41 2.50 1.20
11.39 4.71 2.16
11.24 4.91 2.16
11.05 5.10 2.15
10.87 5.28 2.14
10.67 5.45 2.13
10.58 5.67 2.14
10.49 5.90 2.15
10.39 6.12 2.16
10.29 6.35 2.17
10.19 6.57 2.19
10.08 6.79 2.20
9.97 7.01 2.21
9.87 7.24 2.23
9.76 7.47 2.24
9.65 7.70 2.26
9.55 7.94 2.28
9.45 8.18 2.30
9.35 8.43 2.32
9.22 8.66 2.34
9.09 8.88 2.35
8.95 9.11 2.37
8.81 9.34 2.39
8.67 9.56 2.41
8.46 9.72 2.41
8.24 9.87 2.41
8.03 10.01 2.41
7.81 10.15 2.41
7.58 10.28 2.41
7.36 10.41 2.41
7.14 10.54 2.41
6.91 10.66 2.41
6.68 10.77 2.41
6.45 10.88 2.41
6.22 11.00 2.41
5.95 11.03 2.39
5.71 11.13 2.39
5.48 11.22 2.39
5.24 11.31 2.39
5.01 11.40 2.39
4.77 11.48 2.39
4.53 11.56 2.39
4.29 11.64 2.39
4.05 11.71 2.39
3.81 11.77 2.39
3.57 11.83 2.39
3.32 11.89 2.39
3.08 11.94 2.39
2.84 11.99 2.39
2.44 11.31 2.25
2.35 12.08 2.39
2.12 12.21 2.41
1.94 12.67 2.50
1.68 12.70 2.50
1.42 12.72 2.50
1.16 12.74 2.50
0.91 12.76 2.50
0.65 12.77 2.50
0.39 12.78 2.50
0.13 12.78 2.50
-0.13 12.78 2.50
-0.38 12.77 2.50
-0.64 12.76 2.50
-0.90 12.75 2.50
-1.16 12.73 2.50
-1.41 12.70 2.50
-1.67 12.68 2.50
-1.93 12.64 2.50
-2.18 12.61 2.50
-2.44 12.57 2.50
-2.69 12.52 2.50
-2.94 12.47 2.50
-3.20 12.42 2.50
-3.45 12.36 2.50
-3.70 12.30 2.50
-3.95 12.23 2.50
-4.20 12.16 2.50
-4.45 12.08 2.50
-4.70 12.00 2.50
-4.94 11.92 2.50
-5.19 11.83 2.50
-5.43 11.73 2.50
-5.68 11.64 2.50
-5.92 11.54 2.50
-5.95 11.05 2.41
-6.13 10.85 2.39
-6.36 10.74 2.39
-6.58 10.63 2.39
-6.81 10.51 2.39
-7.03 10.39 2.39
-7.25 10.26 2.39
-7.47 10.13 2.39
-7.69 10.00 2.39
-7.90 9.86 2.39
-8.11 9.72 2.39
-8.32 9.57 2.39
-8.53 9.42 2.39
-8.74 9.27 2.39
-8.94 9.11 2.39
-9.15 8.95 2.39
-9.35 8.78 2.39
-9.54 8.61 2.39
-9.74 8.44 2.39
-9.93 8.26 2.39
-9.76 7.17 2.23
-9.71 6.83 2.18
-9.73 6.56 2.15
-9.77 6.30 2.12
-9.79 6.04 2.09
-9.79 5.77 2.06
-9.79 5.51 2.03
-9.80 5.26 2.01
-9.80 5.01 1.98
-9.80 4.76 1.95
-9.80 4.52 1.93
-9.81 4.28 1.91
-9.81 4.05 1.89
-9.81 3.82 1.87
-9.81 3.60 1.85
-9.81 3.38 1.83
-9.82 3.16 1.81
-9.82 2.94 1.79
-9.82 2.73 1.78
-9.82 2.52 1.76
-9.82 2.31 1.75
-9.83 2.10 1.73
-9.83 1.90 1.72
-9.83 1.70 1.71
-9.83 1.49 1.70
-9.84 1.29 1.69
-9.84 1.09 1.68
-9.84 0.89 1.67
-9.84 0.69 1.66
-9.84 0.50 1.65
-9.84 0.30 1.65
-9.85 0.10 1.64
-9.85 -0.10 1.63
-9.85 -0.30 1.63
-9.85 -0.49 1.62
-9.85 -0.69 1.62
-9.86 -0.89 1.62
-9.84 -1.09 1.61
-9.86 -1.29 1.61
-9.86 -1.49 1.61
-9.86 -1.70 1.61
-9.87 -1.90 1.61
-9.87 -2.11 1.61
-9.87 -2.32 1.61
-9.87 -2.53 1.62
-9.88 -2.74 1.62
-9.88 -2.96 1.62
-9.88 -3.17 1.63
-9.88 -3.39 1.63
-9.88 -3.62 1.64
-9.89 -3.84 1.64
-9.89 -4.08 1.65
-9.89 -4.31 1.66
-9.89 -4.55 1.67
-9.90 -4.79 1.68
-9.90 -5.04 1.69
-9.90 -5.29 1.70
-9.90 -5.55 1.71
-9.91 -5.82 1.73
-9.91 -6.09 1.74
-9.91 -6.37 1.76
-9.91 -6.65 1.78
-9.92 -6.95 1.80
-9.92 -7.25 1.82
-9.92 -7.56 1.84
-9.93 -7.88 1.86
-9.93 -8.22 1.89
-9.93 -8.56 1.91
-6.60 -5.92 1.29
-9.88 -9.23 1.96
-9.94 -9.67 2.00
-9.95 -10.07 2.04
-9.95 -10.48 2.08
-9.96 -10.91 2.12
-9.91 -11.31 2.15
-9.91 -11.78 2.19
-10.12 -13.61 2.39
-9.88 -13.85 2.39
-9.62 -14.08 2.39
-9.36 -14.31 2.39
-9.10 -14.53 2.39
-8.83 -14.74 2.39
-8.55 -14.95 2.39
-8.27 -15.15 2.39
-7.98 -15.35 2.39
-7.69 -15.54 2.39
-7.39 -15.72 2.39
-7.09 -15.90 2.39
-6.79 -16.07 2.39
-6.47 -16.23 2.39
-6.21 -16.52 2.41
-6.09 -17.25 2.50
-5.76 -17.39 2.50
-5.42 -17.53 2.50
-5.07 -17.66 2.50
-4.72 -17.79 2.50
-4.37 -17.90 2.50
-4.02 -18.00 2.50
-3.66 -18.10 2.50
-3.30 -18.19 2.50
-2.94 -18.27 2.50
-2.58 -18.34 2.50
-2.21 -18.40 2.50
-1.85 -18.46 2.50
-1.48 -18.50 2.50
-1.11 -18.54 2.50
-0.74 -18.56 2.50
-0.37 -18.58 2.50
0.00 -15.87 2.50
0.32 -15.87 2.50
0.64 -15.86 2.50
0.95 -15.84 2.50
1.27 -15.82 2.50
1.59 -15.79 2.50
1.90 -15.75 2.50
2.12 -15.05 2.39
2.42 -15.00 2.39
2.72 -14.94 2.39
2.48 -12.23 1.97
3.31 -14.81 2.39
3.60 -14.73 2.39
3.89 -14.64 2.39
4.18 -14.55 2.39
4.47 -14.45 2.39
4.75 -14.34 2.39
5.03 -14.23 2.39
5.31 -14.11 2.39
5.58 -13.98 2.39
5.85 -13.85 2.39
6.16 -13.80 2.41
6.42 -13.66 2.41
6.68 -13.50 2.41
6.94 -13.35 2.41
7.19 -13.18 2.41
7.44 -13.01 2.41
7.69 -12.84 2.41
7.93 -12.66 2.41
8.17 -12.48 2.41
8.40 -12.29 2.41
8.56 -12.00 2.39
8.69 -11.69 2.37
8.82 -11.38 2.35
8.95 -11.08 2.33
9.07 -10.78 2.31
9.19 -10.49 2.29
9.31 -10.21 2.27
9.43 -9.94 2.26
9.55 -9.67 2.25
9.66 -9.40 2.23
9.77 -9.13 2.22
9.86 -8.85 2.21
9.95 -8.58 2.19
10.06 -8.33 2.19
10.17 -8.08 2.18
10.29 -7.84 2.18
9.83 -7.19 2.06
10.01 -7.02 2.07
10.20 -6.85 2.09
10.38 -6.67 2.10
10.56 -6.49 2.12
10.74 -6.31 2.13
10.93 -6.13 2.15
11.11 -5.95 2.17
6.86 -3.50 1.33
6.78 -3.29 1.31
6.73 -3.10 1.29
6.73 -2.93 1.28
6.69 -2.76 1.27
6.64 -2.59 1.25
6.60 -2.42 1.24
6.57 -2.26 1.23
6.49 -2.09 1.21
6.45 -1.93 1.20
6.45 -1.79 1.20
6.42 -1.65 1.19
6.38 -1.50 1.18
6.37 -1.37 1.18
6.38 -1.23 1.17
6.34 -1.10 1.17
6.35 -0.96 1.17
6.35 -0.84 1.17
6.38 -0.71 1.18
6.38 -0.58 1.18
6.38 -0.45 1.18
6.39 -0.32 1.18
6.39 -0.20 1.19
6.35 -0.07 1.18
6.36 0.06 1.19
6.36 0.19 1.19
6.39 0.32 1.20
6.39 0.45 1.21
6.39 0.58 1.22
6.39 0.70 1.22
6.39 0.84 1.23
6.36 0.96 1.23
6.36 1.09 1.24
6.40 1.23 1.25
6.40 1.37 1.26
6.40 1.50 1.27
6.40 1.64 1.28
6.40 1.78 1.30
6.38 1.91 1.30
6.37 2.05 1.31
6.38 2.19 1.33
6.41 2.35 1.35
6.41 2.49 1.36
10.17 4.19 2.18
10.11 4.41 2.20
10.04 4.62 2.21
9.97 4.83 2.22
9.90 5.05 2.23
9.82 5.26 2.24
9.74 5.47 2.26
9.65 5.68 2.27
9.56 5.89 2.28
9.46 6.09 2.29
9.36 6.30 2.30
9.26 6.50 2.32
9.16 6.71 2.33
9.06 6.93 2.35
8.96 7.14 2.36
8.85 7.35 2.38
8.74 7.56 2.39
8.62 7.77 2.41
8.44 7.92 2.41
8.26 8.07 2.41
8.08 8.22 2.41
7.90 8.36 2.41
7.71 8.50 2.41
7.52 8.64 2.41
7.33 8.77 2.41
7.14 8.90 2.41
6.95 9.02 2.41
6.75 9.14 2.41
6.55 9.26 2.41
6.35 9.37 2.41
6.15 9.48 2.41
5.91 9.53 2.39
5.71 9.63 2.39
5.50 9.73 2.39
5.30 9.82 2.39
5.09 9.91 2.39
4.88 10.00 2.39
4.68 10.08 2.39
4.47 10.16 2.39
4.25 10.23 2.39
4.04 10.31 2.39
3.83 10.37 2.39
3.61 10.44 2.39
3.23 9.96 2.27
3.11 10.30 2.34
2.89 10.33 2.33
2.61 10.11 2.27
2.53 10.70 2.39
2.31 10.74 2.39
2.11 10.83 2.41
1.96 11.28 2.50
1.73 11.31 2.50
1.50 11.33 2.50
1.27 11.36 2.50
1.04 11.37 2.50
0.81 11.39 2.50
0.58 11.40 2.50
0.35 11.41 2.50
0.12 11.41 2.50
-0.11 11.41 2.50
-0.34 11.40 2.50
-0.57 11.39 2.50
-0.80 11.38 2.50
-1.03 11.36 2.50
-1.26 11.34 2.50
-1.49 11.32 2.50
-1.72 11.29 2.50
-1.95 11.25 2.50
-2.18 11.22 2.50
-2.40 11.17 2.50
-2.63 11.13 2.50
-2.86 11.08 2.50
-3.08 11.03 2.50
-3.30 10.97 2.50
-3.53 10.91 2.50
-3.75 10.84 2.50
-3.97 10.78 2.50
-4.19 10.70 2.50
-4.41 10.63 2.50
-4.63 10.55 2.50
-4.85 10.46 2.50
-5.06 10.37 2.50
-5.28 10.28 2.50
-5.49 10.19 2.50
-5.70 10.09 2.50
-5.91 9.98 2.50
-5.96 9.62 2.43
-6.07 9.36 2.39
-6.26 9.25 2.39
-6.46 9.13 2.39
-6.65 9.02 2.39
-6.85 8.90 2.39
-7.04 8.77 2.39
-7.22 8.64 2.39
-7.41 8.51 2.39
-7.59 8.37 2.39
-7.78 8.24 2.39
-7.96 8.09 2.39
-8.13 7.95 2.39
-8.31 7.80 2.39
-8.48 7.64 2.39
-8.65 7.49 2.39
-8.82 7.33 2.39
-8.99 7.16 2.39
-9.15 7.00 2.39
-9.31 6.83 2.39
-9.47 6.66 2.39
-9.62 6.48 2.39
-9.78 6.30 2.39
-9.93 6.12 2.39
-9.75 4.73 2.20
-9.75 4.49 2.17
-9.76 4.26 2.15
-9.79 4.04 2.13
-9.81 3.82 2.11
-9.81 3.59 2.09
-9.81 3.37 2.07
-9.82 3.15 2.05
-9.82 2.94 2.03
-9.82 2.72 2.01
-9.82 2.51 2.00
-9.83 2.30 1.98
-9.83 2.10 1.97
-9.83 1.89 1.95
-9.83 1.69 1.94
-9.83 1.49 1.93
-9.84 1.28 1.92
-9.84 1.08 1.91
-9.84 0.89 1.90
-9.84 0.69 1.89
-9.84 0.49 1.88
-9.85 0.29 1.87
-9.85 0.09 1.87
-9.85 -0.10 1.86
-9.85 -0.30 1.86
-9.85 -0.50 1.85
-9.85 -0.70 1.85
-9.86 -0.90 1.85
-9.83 -1.10 1.84
-9.86 -1.30 1.84
-9.86 -1.50 1.84
-9.86 -1.70 1.84
-9.87 -1.91 1.84
-9.87 -2.12 1.85
-9.87 -2.32 1.85
-9.87 -2.53 1.85
-9.88 -2.75 1.86
-9.88 -2.96 1.86
-9.88 -3.18 1.87
-9.88 -3.40 1.87
-9.88 -3.62 1.88
-9.89 -3.85 1.89
-9.89 -4.08 1.90
-9.89 -4.32 1.91
-9.89 -4.56 1.92
-9.90 -4.80 1.93
-9.90 -5.05 1.95
-9.90 -5.30 1.96
-9.90 -5.56 1.98
-9.91 -5.83 2.00
-9.91 -6.10 2.01
-9.91 -6.38 2.03
-9.91 -6.66 2.05
-9.92 -6.96 2.08
-9.92 -7.26 2.10
-9.91 -7.56 2.12
-9.88 -7.85 2.14
-9.87 -8.18 2.17
-9.88 -8.52 2.20
-6.55 -5.88 1.48
-9.88 -9.24 2.27
-10.07 -10.20 2.39
-9.89 -10.42 2.39
-9.70 -10.65 2.39
-9.51 -10.87 2.39
-9.32 -11.08 2.39
-9.11 -11.29 2.39
-8.91 -11.50 2.39
-8.70 -11.71 2.39
-8.48 -11.90 2.39
-8.26 -12.10 2.39
-8.04 -12.29 2.39
-7.80 -12.47 2.39
-7.57 -12.65 2.39
-7.33 -12.83 2.39
-7.09 -13.00 2.39
-6.84 -13.16 2.39
-6.59 -13.32 2.39
-6.33 -13.47 2.39
-6.18 -13.87 2.44
-6.06 -14.36 2.50
-5.78 -14.50 2.50
-5.50 -14.63 2.50
-5.21 -14.76 2.50
-4.92 -14.88 2.50
-4.63 -15.00 2.50
-4.33 -15.11 2.50
-4.04 -15.21 2.50
-3.74 -15.30 2.50
-3.43 -15.39 2.50
-3.13 -15.47 2.50
-2.82 -15.54 2.50
-2.51 -15.61 2.50
-2.20 -15.67 2.50
-1.89 -15.72 2.50
-1.58 -15.76 2.50
-1.26 -15.80 2.50
-0.95 -15.83 2.50
-0.63 -15.85 2.50
-0.31 -15.86 2.50
0.00 -13.83 2.50
0.28 -13.83 2.50
0.56 -13.82 2.50
0.83 -13.81 2.50
1.11 -13.79 2.50
1.38 -13.76 2.50
1.66 -13.73 2.50
1.87 -13.25 2.42
2.11 -13.08 2.39
2.37 -13.03 2.39
2.48 -12.23 2.26
2.88 -12.91 2.39
3.14 -12.84 2.39
3.39 -12.77 2.39
3.64 -12.69 2.39
3.89 -12.60 2.39
4.14 -12.51 2.39
4.39 -12.41 2.39
4.63 -12.31 2.39
4.87 -12.20 2.39
5.10 -12.09 2.39
5.34 -11.97 2.39
5.57 -11.85 2.39
5.80 -11.72 2.39
6.06 -11.66 2.41
6.28 -11.52 2.41
6.50 -11.38 2.41
6.72 -11.23 2.41
6.93 -11.07 2.41
7.14 -10.91 2.41
7.34 -10.75 2.41
7.54 -10.58 2.41
7.74 -10.41 2.41
7.93 -10.23 2.41
8.11 -10.05 2.41
8.30 -9.87 2.41
8.47 -9.68 2.41
8.59 -9.42 2.39
8.70 -9.17 2.38
8.80 -8.92 2.36
8.90 -8.67 2.35
9.01 -8.42 2.33
9.13 -8.20 2.33
9.24 -7.98 2.32
9.36 -7.75 2.32
9.23 -7.34 2.25
9.33 -7.13 2.25
9.44 -6.91 2.25
9.54 -6.70 2.24
9.64 -6.48 2.24
9.73 -6.27 2.24
9.82 -6.05 2.24
9.90 -5.83 2.24
9.98 -5.61 2.23
10.06 -5.39 2.23
6.86 -3.50 1.51
6.78 -3.29 1.48
6.73 -3.10 1.46
6.73 -2.94 1.45
6.69 -2.76 1.44
6.65 -2.59 1.42
6.61 -2.43 1.40
6.57 -2.26 1.39
6.49 -2.09 1.37
6.45 -1.94 1.36
6.45 -1.80 1.35
6.42 -1.65 1.34
6.39 -1.51 1.33
6.37 -1.37 1.33
6.38 -1.24 1.33
6.34 -1.10 1.32
6.35 -0.97 1.32
6.35 -0.84 1.32
6.38 -0.71 1.33
6.38 -0.59 1.33
6.38 -0.46 1.33
6.39 -0.33 1.33
6.39 -0.20 1.34
6.35 -0.07 1.33
6.36 0.06 1.34
6.36 0.18 1.34
6.39 0.31 1.35
6.39 0.44 1.36
6.39 0.57 1.37
6.39 0.70 1.37
6.39 0.83 1.38
6.36 0.96 1.38
6.36 1.09 1.39
6.40 1.23 1.41
6.40 1.36 1.42
6.40 1.50 1.43
6.40 1.63 1.44
6.40 1.77 1.45
6.40 1.91 1.46
6.37 2.04 1.47
6.38 2.18 1.48
6.41 2.34 1.51
6.41 2.49 1.52
9.50 3.91 2.28
9.44 4.11 2.29
9.37 4.31 2.30
9.30 4.50 2.31
9.23 4.70 2.32
9.15 4.89 2.34
9.07 5.09 2.35
8.99 5.28 2.36
8.91 5.48 2.37
8.82 5.67 2.38
8.73 5.86 2.39
8.64 6.06 2.41
8.50 6.22 2.41
8.35 6.38 2.41
8.21 6.53 2.41
8.06 6.68 2.41
7.90 6.83 2.41
7.75 6.97 2.41
7.59 7.11 2.41
7.43 7.25 2.41
7.27 7.38 2.41
7.10 7.51 2.41
6.94 7.64 2.41
6.77 7.76 2.41
6.60 7.88 2.41
6.43 8.00 2.41
6.25 8.11 2.41
6.04 8.17 2.39
5.86 8.27 2.39
5.68 8.38 2.39
5.51 8.48 2.39
5.33 8.57 2.39
5.14 8.67 2.39
4.96 8.76 2.39
4.78 8.84 2.39
4.59 8.93 2.39
4.40 9.00 2.39
4.22 9.08 2.39
4.03 9.15 2.39
3.84 9.22 2.39
3.65 9.29 2.39
3.45 9.35 2.39
3.10 8.95 2.28
3.02 9.31 2.35
2.83 9.36 2.35
2.54 9.08 2.27
2.48 9.61 2.39
2.29 9.65 2.39
2.10 9.72 2.40
1.97 10.14 2.50
1.77 10.17 2.50
1.56 10.20 2.50
1.35 10.22 2.50
1.15 10.24 2.50
0.94 10.26 2.50
0.73 10.27 2.50
0.52 10.28 2.50
0.31 10.29 2.50
0.11 10.29 2.50
-0.10 10.29 2.50
-0.31 10.29 2.50
-0.52 10.28 2.50
-0.72 10.27 2.50
-0.93 10.25 2.50
-1.14 10.23 2.50
-1.35 10.21 2.50
-1.55 10.18 2.50
-1.76 10.15 2.50
-1.96 10.12 2.50
-2.17 10.08 2.50
-2.37 10.04 2.50
-2.58 9.99 2.50
-2.78 9.95 2.50
-2.98 9.89 2.50
-3.18 9.84 2.50
-3.38 9.78 2.50
-3.58 9.72 2.50
-3.78 9.65 2.50
-3.98 9.58 2.50
-4.18 9.51 2.50
-4.37 9.43 2.50
-4.57 9.35 2.50
-4.76 9.26 2.50
-4.95 9.18 2.50
-5.14 9.09 2.50
-5.33 8.99 2.50
-5.52 8.89 2.50
-5.70 8.79 2.50
-5.89 8.69 2.50
-5.97 8.44 2.46
-5.99 8.12 2.39
-6.19 8.03 2.40
-6.33 7.89 2.39
-6.50 7.77 2.39
-6.67 7.65 2.39
-6.83 7.53 2.39
-7.00 7.40 2.39
-7.16 7.27 2.39
-7.32 7.14 2.39
-7.47 7.01 2.39
-7.63 6.87 2.39
-7.78 6.72 2.39
-7.93 6.58 2.39
-8.08 6.43 2.39
-8.22 6.28 2.39
-8.36 6.13 2.39
-8.50 5.97 2.39
-8.64 5.81 2.39
-8.78 5.65 2.39
-8.91 5.48 2.39
-9.04 5.31 2.39
-9.16 5.14 2.39
-9.29 4.97 2.39
-9.41 4.79 2.39
-9.52 4.61 2.39
-9.64 4.43 2.39
-9.75 4.25 2.39
-9.86 4.06 2.39
-9.96 3.87 2.39
-9.78 2.29 2.21
-9.77 2.08 2.19
-9.77 1.87 2.18
-9.77 1.67 2.16
-9.78 1.47 2.15
-9.79 1.27 2.14
-9.81 1.07 2.13
-9.82 0.88 2.13
-9.84 0.68 2.12
-9.84 0.48 2.11
-9.85 0.28 2.10
-9.85 0.09 2.10
-9.85 -0.11 2.09
-9.85 -0.31 2.09
-9.85 -0.51 2.08
-9.85 -0.71 2.08
-9.86 -0.91 2.08
-9.82 -1.10 2.07
-9.86 -1.31 2.08
-9.86 -1.51 2.08
-9.86 -1.71 2.08
-9.87 -1.92 2.08
-9.87 -2.12 2.08
-9.87 -2.33 2.09
-9.87 -2.54 2.09
-9.88 -2.75 2.10
-9.88 -2.97 2.10
-9.88 -3.19 2.11
-9.88 -3.41 2.12
-9.87 -3.63 2.12
-9.86 -3.85 2.13
-9.85 -4.07 2.14
-9.84 -4.30 2.15
-9.84 -4.54 2.16
-9.84 -4.78 2.18
-9.84 -5.03 2.19
-9.87 -5.29 2.22
-10.06 -7.07 2.39
-9.94 -7.29 2.39
-9.82 -7.50 2.39
-9.69 -7.72 2.39
-9.56 -7.93 2.39
-9.43 -8.14 2.39
-6.55 -5.89 1.69
-9.14 -8.55 2.39
-8.99 -8.76 2.39
-8.83 -8.96 2.39
-8.67 -9.15 2.39
-8.51 -9.34 2.39
-8.34 -9.53 2.39
-8.16 -9.72 2.39
-7.99 -9.90 2.39
-7.80 -10.08 2.39
-7.62 -10.26 2.39
-7.42 -10.43 2.39
-7.23 -10.60 2.39
-7.03 -10.76 2.39
-6.83 -10.92 2.39
-6.62 -11.07 2.39
-6.41 -11.22 2.39
-6.19 -11.37 2.39
-6.16 -11.86 2.47
-6.00 -12.15 2.50
-5.77 -12.29 2.50
-5.53 -12.42 2.50
-5.29 -12.54 2.50
-5.04 -12.66 2.50
-4.80 -12.78 2.50
-4.55 -12.89 2.50
-4.29 -12.99 2.50
-4.04 -13.09 2.50
-3.78 -13.18 2.50
-3.52 -13.27 2.50
-3.26 -13.35 2.50
-2.99 -13.43 2.50
-2.73 -13.49 2.50
-2.46 -13.56 2.50
-2.19 -13.61 2.50
-1.92 -13.66 2.50
-1.65 -13.71 2.50
-1.37 -13.74 2.50
-1.10 -13.77 2.50
-0.82 -13.80 2.50
-0.55 -13.82 2.50
-0.27 -13.83 2.50
0.00 -12.25 2.50
0.25 -12.25 2.50
0.49 -12.24 2.50
0.74 -12.23 2.50
0.98 -12.21 2.50
1.22 -12.19 2.50
1.47 -12.16 2.50
1.71 -12.12 2.50
1.88 -11.67 2.41
2.10 -11.54 2.39
2.33 -11.49 2.39
2.55 -11.44 2.39
2.78 -11.38 2.39
2.41 -9.06 1.92
2.60 -9.06 1.93
2.75 -8.91 1.91
3.67 -11.09 2.39
3.88 -11.00 2.39
4.10 -10.91 2.39
4.31 -10.82 2.39
4.52 -10.72 2.39
4.73 -10.61 2.39
4.93 -10.51 2.39
5.14 -10.39 2.39
5.34 -10.28 2.39
5.53 -10.15 2.39
5.73 -10.03 2.39
5.96 -9.96 2.41
6.15 -9.83 2.41
6.33 -9.69 2.41
6.51 -9.55 2.41
6.69 -9.40 2.41
6.87 -9.25 2.41
7.04 -9.09 2.41
7.21 -8.94 2.41
7.37 -8.78 2.41
7.24 -8.28 2.32
7.37 -8.09 2.31
7.49 -7.91 2.30
7.62 -7.72 2.30
7.73 -7.54 2.29
7.85 -7.35 2.29
7.96 -7.16 2.28
8.07 -6.97 2.28
8.18 -6.78 2.27
8.28 -6.59 2.27
8.38 -6.40 2.27
8.48 -6.21 2.27
8.57 -6.02 2.26
8.66 -5.83 2.26
8.74 -5.63 2.26
8.82 -5.44 2.25
8.89 -5.24 2.25
8.96 -5.04 2.25
9.03 -4.85 2.25
6.87 -3.51 1.69
6.78 -3.30 1.66
6.74 -3.11 1.64
6.72 -2.94 1.62
6.69 -2.77 1.61
6.65 -2.60 1.59
6.61 -2.43 1.57
6.57 -2.27 1.55
6.49 -2.10 1.53
6.46 -1.94 1.52
6.45 -1.80 1.51
6.42 -1.66 1.50
6.39 -1.51 1.49
6.37 -1.37 1.48
6.38 -1.24 1.48
6.34 -1.10 1.47
6.35 -0.97 1.47
6.35 -0.84 1.47
6.38 -0.72 1.48
6.38 -0.59 1.48
6.38 -0.46 1.48
6.39 -0.33 1.48
6.39 -0.20 1.49
6.35 -0.08 1.48
6.36 0.05 1.49
6.36 0.18 1.49
6.39 0.31 1.51
6.39 0.44 1.51
6.39 0.57 1.52
6.39 0.70 1.52
6.39 0.83 1.53
6.36 0.95 1.53
6.36 1.08 1.54
6.40 1.22 1.56
6.40 1.36 1.57
6.40 1.49 1.58
6.40 1.63 1.60
6.40 1.77 1.61
6.41 1.91 1.62
6.37 2.04 1.63
6.38 2.18 1.64
6.41 2.34 1.67
6.41 2.48 1.69
8.90 3.66 2.37
8.84 3.84 2.38
8.78 4.03 2.39
8.71 4.21 2.40
8.64 4.39 2.41
8.55 4.56 2.41
8.43 4.72 2.41
8.32 4.88 2.41
8.20 5.04 2.41
8.08 5.19 2.41
7.96 5.34 2.41
7.83 5.49 2.41
7.70 5.63 2.41
7.57 5.77 2.41
7.44 5.91 2.41
7.30 6.05 2.41
7.17 6.18 2.41
7.03 6.31 2.41
6.88 6.44 2.41
6.74 6.57 2.41
6.59 6.69 2.41
6.45 6.81 2.41
6.30 6.93 2.41
6.14 7.04 2.41
5.95 7.10 2.39
5.80 7.21 2.39
5.64 7.31 2.39
5.48 7.41 2.39
5.33 7.51 2.39
5.17 7.61 2.39
5.00 7.70 2.39
4.84 7.79 2.39
4.68 7.87 2.39
4.51 7.95 2.39
4.34 8.03 2.39
4.17 8.11 2.39
4.01 8.18 2.39
3.83 8.25 2.39
3.66 8.32 2.39
3.49 8.38 2.39
3.15 8.01 2.27
3.08 8.34 2.35
2.92 8.41 2.35
2.75 8.46 2.35
2.50 8.28 2.29
2.44 8.70 2.39
2.27 8.77 2.40
2.09 8.80 2.40
1.98 9.19 2.50
1.80 9.22 2.50
1.61 9.25 2.50
1.42 9.28 2.50
1.23 9.30 2.50
1.04 9.32 2.50
0.85 9.34 2.50
0.67 9.35 2.50
0.48 9.36 2.50
0.29 9.36 2.50
0.10 9.37 2.50
-0.09 9.37 2.50
-0.28 9.36 2.50
-0.47 9.35 2.50
-0.66 9.34 2.50
-0.85 9.33 2.50
-1.04 9.31 2.50
-1.23 9.29 2.50
-1.41 9.27 2.50
-1.60 9.24 2.50
-1.79 9.21 2.50
-1.97 9.17 2.50
-2.16 9.13 2.50
-2.35 9.09 2.50
-2.53 9.05 2.50
-2.71 9.00 2.50
-2.90 8.95 2.50
-3.08 8.89 2.50
-3.26 8.84 2.50
-3.44 8.78 2.50
-3.62 8.71 2.50
-3.80 8.64 2.50
-3.98 8.57 2.50
-4.15 8.50 2.50
-4.33 8.42 2.50
-4.50 8.34 2.50
-4.68 8.26 2.50
-4.85 8.17 2.50
-5.02 8.08 2.50
