ply
format ascii 1.0
element vertex 2831
property float32 x
property float32 y
property float32 z
end_header
-13.56 17.02 0.87
-14.10 16.99 0.88
-14.61 16.89 0.89
-15.13 16.80 0.89
-15.66 16.71 0.90
-16.21 16.61 0.91
-16.77 16.51 0.92
-17.35 16.41 0.93
-17.94 16.30 0.94
-18.56 16.19 0.95
-19.19 16.08 0.96
-19.85 15.96 0.97
-20.53 15.84 0.99
-21.24 15.71 1.00
-21.97 15.58 1.01
-22.73 15.45 1.03
-23.53 15.31 1.04
-24.35 15.16 1.06
-25.22 15.00 1.08
-26.13 14.84 1.10
-27.08 14.67 1.12
-28.08 14.49 1.14
-29.14 14.30 1.17
-30.26 14.11 1.19
-31.44 13.89 1.22
-32.69 13.67 1.25
-34.03 13.43 1.28
-35.45 13.18 1.32
-36.98 12.91 1.35
-14.00 4.57 0.51
-40.38 12.30 1.44
-42.29 11.96 1.49
-44.36 11.59 1.54
-46.63 11.19 1.60
-11.74 0.41 0.36
-13.65 0.20 0.41
-16.32 -0.42 0.49
-16.54 -0.75 0.49
-18.28 -1.20 0.54
-21.86 -1.88 0.64
-35.35 -3.75 1.02
-35.16 -4.45 1.01
-35.19 -5.17 1.00
-34.93 -5.85 0.99
-34.73 -6.54 0.98
-25.69 -5.37 0.72
-25.55 -5.88 0.71
-34.25 -8.61 0.95
-19.74 -5.39 0.54
-34.07 -10.03 0.93
-13.14 -4.16 0.36
-16.48 -5.58 0.45
-6.40 -2.31 0.17
-6.48 -2.49 0.18
-6.27 -2.55 0.17
-12.71 -5.47 0.34
-12.66 -5.76 0.34
-12.60 -6.04 0.34
-12.55 -6.33 0.34
-12.50 -6.62 0.33
-12.45 -6.92 0.33
-12.39 -7.22 0.33
-12.34 -7.52 0.33
-12.29 -7.83 0.33
-12.23 -8.14 0.33
-12.17 -8.46 0.33
-12.11 -8.79 0.33
-12.06 -9.12 0.33
-12.00 -9.46 0.33
-11.93 -9.81 0.33
-11.87 -10.16 0.33
-11.81 -10.52 0.33
-11.74 -10.89 0.33
-11.67 -11.27 0.33
-11.60 -11.67 0.33
-11.53 -12.07 0.33
-18.56 -20.23 0.54
-17.11 -19.41 0.50
-16.27 -19.23 0.48
-15.90 -19.57 0.48
-15.32 -19.66 0.47
-14.89 -19.91 0.46
-17.74 -24.74 0.56
-17.58 -25.59 0.57
-17.32 -26.33 0.57
-17.01 -27.02 0.57
-16.17 -26.87 0.55
-15.77 -27.43 0.55
-11.79 -21.49 0.42
-11.17 -21.37 0.41
-10.57 -21.25 0.40
-10.02 -21.19 0.39
-9.47 -21.13 0.39
-8.94 -21.07 0.38
-8.48 -21.15 0.37
-8.29 -21.96 0.38
-14.44 -40.68 0.70
-15.65 -47.07 0.79
-12.50 -40.28 0.67
-13.49 -46.75 0.77
-10.63 -39.84 0.65
-10.02 -40.83 0.65
-7.05 -43.56 0.67
16.09 -32.34 1.36
15.42 -29.50 1.26
15.53 -28.31 1.22
12.80 -22.27 0.98
13.21 -21.95 0.98
13.72 -21.79 0.98
14.37 -21.84 1.00
14.93 -21.74 1.01
15.51 -21.63 1.03
16.31 -21.81 1.05
16.92 -21.70 1.07
17.40 -21.42 1.08
17.94 -21.20 1.09
18.58 -21.09 1.10
19.49 -21.25 1.14
20.18 -21.12 1.16
20.88 -21.00 1.18
21.51 -20.78 1.19
22.05 -20.47 1.20
22.81 -20.33 1.23
23.59 -20.19 1.25
23.97 -19.70 1.26
24.67 -19.46 1.28
26.03 -19.70 1.34
26.54 -19.26 1.35
27.31 -18.99 1.37
28.14 -18.75 1.40
28.79 -18.36 1.42
29.81 -18.17 1.46
11.91 -6.94 0.58
10.05 -5.59 0.49
10.19 -5.40 0.49
10.32 -5.21 0.49
10.45 -5.01 0.50
10.59 -4.82 0.50
10.73 -4.62 0.51
10.86 -4.43 0.51
11.00 -4.23 0.52
11.14 -4.03 0.52
11.28 -3.82 0.53
11.43 -3.62 0.54
11.57 -3.41 0.54
11.72 -3.20 0.55
11.87 -2.99 0.56
12.02 -2.77 0.56
12.17 -2.55 0.57
12.26 -2.31 0.58
12.41 -2.08 0.58
11.02 -1.62 0.52
12.70 -1.61 0.60
12.87 -1.37 0.61
13.06 -1.13 0.62
13.26 -0.88 0.64
13.52 -0.62 0.65
13.71 -0.35 0.66
13.90 -0.08 0.68
14.09 0.20 0.69
14.30 0.49 0.70
14.50 0.79 0.72
14.72 1.10 0.73
14.94 1.42 0.75
15.17 1.75 0.77
15.41 2.09 0.79
25.03 3.91 1.29
24.97 4.41 1.29
24.85 4.91 1.30
24.79 5.42 1.31
24.67 5.91 1.32
24.58 6.41 1.32
24.49 6.92 1.33
18.61 5.66 1.02
42.94 14.01 2.39
40.27 14.04 2.27
43.72 16.24 2.50
32.50 12.82 1.88
42.61 17.80 2.50
42.04 18.56 2.50
2.12 0.99 0.13
2.08 1.02 0.13
2.08 1.07 0.13
39.65 21.46 2.50
39.03 22.15 2.50
19.82 11.78 1.29
19.41 12.07 1.28
19.32 12.56 1.30
19.23 13.06 1.32
19.14 13.57 1.33
33.68 24.91 2.39
33.04 25.47 2.39
37.12 29.82 2.74
29.62 24.80 2.23
28.03 24.44 2.16
26.73 24.26 2.10
25.42 24.03 2.05
24.20 23.81 1.99
23.05 23.61 1.94
21.89 23.34 1.89
20.92 23.23 1.86
19.94 23.05 1.82
19.01 22.89 1.78
18.12 22.73 1.74
17.27 22.58 1.71
16.45 22.43 1.68
15.67 22.29 1.65
14.92 22.16 1.62
14.20 22.03 1.60
13.51 21.91 1.57
12.84 21.79 1.55
12.19 21.67 1.53
11.56 21.56 1.51
10.95 21.45 1.49
10.37 21.35 1.47
9.79 21.24 1.45
9.24 21.14 1.44
8.70 21.05 1.42
8.17 20.95 1.41
7.65 20.86 1.39
7.15 20.77 1.38
6.66 20.69 1.37
6.18 20.60 1.36
5.71 20.52 1.35
5.24 20.43 1.34
4.79 20.35 1.33
4.34 20.27 1.32
3.90 20.19 1.31
3.47 20.12 1.30
3.04 20.04 1.29
2.62 19.97 1.29
2.20 19.83 1.28
1.80 19.82 1.27
1.39 19.75 1.27
0.99 19.67 1.26
0.59 19.60 1.26
0.20 19.53 1.25
-0.19 19.46 1.25
-0.58 19.39 1.25
-0.97 19.33 1.24
-1.35 19.26 1.24
-1.73 19.13 1.24
-2.12 19.12 1.24
-2.50 19.05 1.24
-2.88 18.98 1.24
-3.26 18.92 1.24
-3.64 18.85 1.24
-4.02 18.78 1.24
-4.40 18.71 1.24
-4.78 18.65 1.24
-5.16 18.58 1.24
-5.55 18.51 1.24
-5.93 18.44 1.24
-6.32 18.37 1.25
-6.71 18.30 1.25
-7.10 18.23 1.25
-7.50 18.16 1.26
-7.90 18.09 1.26
-8.30 18.02 1.27
-8.71 17.95 1.27
-9.12 17.87 1.28
-9.54 17.80 1.28
-9.96 17.72 1.29
-10.39 17.65 1.30
-10.83 17.57 1.31
-11.27 17.49 1.31
-11.72 17.41 1.32
-12.18 17.33 1.33
-12.64 17.24 1.34
-13.12 17.16 1.35
-13.56 17.02 1.36
-14.10 16.98 1.38
-14.61 16.89 1.39
-15.13 16.80 1.40
-15.66 16.71 1.42
-16.21 16.61 1.43
-16.77 16.51 1.45
-17.35 16.41 1.47
-17.95 16.30 1.49
-18.56 16.19 1.51
-19.20 16.08 1.53
-19.86 15.96 1.55
-20.54 15.84 1.57
-21.24 15.71 1.60
-21.98 15.58 1.62
-22.74 15.45 1.65
-23.53 15.30 1.68
-24.36 15.16 1.71
-25.23 15.00 1.74
-26.14 14.84 1.78
-27.09 14.67 1.82
-28.10 14.49 1.86
-29.15 14.30 1.90
-30.27 14.10 1.95
-31.45 13.89 2.00
-32.71 13.67 2.05
-34.04 13.43 2.11
-35.37 13.14 2.16
-14.00 4.57 0.84
-40.42 12.30 2.39
-40.84 11.54 2.39
-41.25 10.76 2.39
-41.64 9.98 2.39
-42.03 9.18 2.39
-42.40 8.38 2.39
-44.08 7.79 2.47
-44.96 7.02 2.50
-45.31 6.15 2.50
-45.65 5.26 2.50
-45.97 4.36 2.50
-46.28 3.46 2.50
-11.80 0.64 0.63
-11.67 0.40 0.62
-11.66 0.17 0.62
-10.57 -0.06 0.56
-10.29 -0.27 0.54
-10.37 -0.48 0.54
-10.43 -0.69 0.54
-21.85 -1.88 1.13
-35.31 -3.76 1.82
-35.21 -4.47 1.81
-35.20 -5.18 1.81
-34.91 -5.86 1.79
-10.30 -1.94 0.53
-10.14 -2.12 0.52
-10.14 -2.34 0.52
-10.15 -2.55 0.52
-19.67 -5.37 1.00
-34.03 -10.03 1.73
-13.12 -4.16 0.67
-16.45 -5.58 0.84
-6.40 -2.31 0.33
-9.52 -3.66 0.49
-6.33 -2.58 0.32
-12.70 -5.48 0.65
-12.65 -5.76 0.65
-12.60 -6.05 0.65
-12.55 -6.33 0.65
-12.50 -6.63 0.65
-9.75 -5.42 0.51
-9.34 -5.44 0.49
-9.03 -5.51 0.48
-9.21 -5.87 0.49
-12.23 -8.15 0.66
-12.17 -8.47 0.66
-12.11 -8.79 0.67
-12.05 -9.13 0.67
-9.64 -7.61 0.54
-9.11 -7.49 0.52
-8.77 -7.51 0.50
-8.49 -7.57 0.49
-8.57 -7.96 0.50
-11.67 -11.28 0.69
-11.60 -11.67 0.70
-9.23 -9.66 0.57
-8.76 -9.55 0.55
-8.61 -9.78 0.55
-16.19 -19.14 1.05
-9.36 -11.53 0.62
-8.84 -11.34 0.59
-8.43 -11.28 0.58
-8.11 -11.32 0.57
-7.97 -11.60 0.57
-8.79 -13.37 0.65
-8.37 -13.30 0.63
-7.94 -13.20 0.62
-7.66 -13.34 0.62
-8.35 -15.23 0.69
-7.91 -15.14 0.68
-7.52 -15.13 0.67
-7.34 -15.53 0.68
-7.61 -16.97 0.73
-7.25 -17.09 0.73
-8.39 -20.93 0.88
-8.16 -21.60 0.90
-14.40 -40.60 1.67
-15.64 -47.07 1.91
-12.46 -40.15 1.62
-12.03 -41.71 1.66
-10.61 -39.75 1.57
-9.99 -40.69 1.60
-8.85 -39.46 1.54
-8.09 -39.82 1.54
-7.13 -39.08 1.50
-5.30 -32.73 1.25
-4.69 -33.21 1.26
-4.28 -35.40 1.34
0.01 -41.73 2.50
0.84 -41.75 2.50
1.68 -41.75 2.50
2.52 -41.73 2.50
3.36 -41.68 2.50
4.19 -41.62 2.50
5.03 -41.53 2.50
5.86 -41.43 2.50
6.69 -41.30 2.50
7.52 -41.16 2.50
8.34 -40.99 2.50
8.78 -39.12 2.39
9.56 -38.92 2.39
10.33 -38.70 2.39
11.10 -38.46 2.39
11.86 -38.21 2.39
11.77 -35.39 2.23
10.73 -30.24 1.92
14.05 -37.19 2.38
15.23 -38.00 2.46
15.97 -37.64 2.46
9.78 -21.82 1.44
9.45 -20.00 1.33
9.13 -18.35 1.24
8.93 -17.10 1.16
8.73 -15.91 1.10
8.45 -14.70 1.03
8.29 -13.78 0.98
8.55 -13.59 0.98
14.36 -21.84 1.59
14.93 -21.74 1.61
15.51 -21.64 1.63
16.10 -21.53 1.65
16.70 -21.42 1.67
17.31 -21.31 1.69
17.94 -21.20 1.71
18.58 -21.09 1.74
19.23 -20.97 1.76
19.91 -20.85 1.79
20.60 -20.73 1.82
21.31 -20.60 1.85
22.05 -20.47 1.88
22.80 -20.34 1.92
23.58 -20.20 1.95
23.97 -19.71 1.96
24.66 -19.46 1.99
26.02 -19.70 2.07
26.55 -19.27 2.09
27.30 -18.99 2.13
27.69 -18.45 2.13
27.96 -17.84 2.13
12.91 -7.88 0.98
11.95 -6.96 0.90
10.05 -5.59 0.75
10.19 -5.40 0.75
10.32 -5.21 0.76
10.45 -5.02 0.76
10.59 -4.82 0.77
10.72 -4.63 0.77
10.86 -4.43 0.78
11.00 -4.23 0.78
11.14 -4.03 0.79
11.28 -3.83 0.80
11.43 -3.62 0.81
11.57 -3.41 0.81
11.72 -3.20 0.82
11.87 -2.99 0.83
12.02 -2.77 0.84
12.17 -2.55 0.85
12.26 -2.31 0.86
12.41 -2.09 0.87
11.01 -1.62 0.77
12.70 -1.61 0.89
12.87 -1.37 0.90
13.06 -1.13 0.92
13.26 -0.88 0.94
13.52 -0.62 0.96
13.70 -0.36 0.97
13.89 -0.08 0.99
14.09 0.20 1.01
14.29 0.49 1.03
14.50 0.79 1.05
14.72 1.10 1.07
14.94 1.41 1.09
15.17 1.74 1.11
15.41 2.08 1.14
25.03 3.90 1.86
24.97 4.41 1.87
24.85 4.90 1.87
24.79 5.41 1.88
24.67 5.90 1.89
24.58 6.41 1.90
24.49 6.91 1.91
18.61 5.66 1.46
30.09 9.81 2.39
29.78 10.38 2.39
29.47 10.93 2.39
29.14 11.48 2.39
28.33 11.83 2.35
29.68 13.10 2.50
2.13 0.99 0.18
2.08 1.02 0.18
2.08 1.07 0.18
22.29 12.06 1.98
21.15 12.00 1.90
19.84 11.79 1.81
18.58 11.55 1.72
18.19 11.82 1.71
18.10 12.29 1.73
18.02 12.77 1.76
17.93 13.25 1.78
24.72 19.04 2.50
24.26 19.48 2.50
23.76 19.88 2.49
22.58 19.68 2.42
21.89 19.87 2.39
21.43 20.24 2.39
20.96 20.61 2.39
20.49 20.97 2.39
20.01 21.32 2.39
19.53 21.66 2.39
19.04 22.00 2.39
18.54 22.32 2.39
18.05 22.63 2.39
14.92 22.15 2.23
14.17 21.97 2.19
13.47 21.84 2.15
12.83 21.77 2.12
12.19 21.67 2.09
11.57 21.56 2.06
10.96 21.45 2.03
10.37 21.35 2.01
9.80 21.24 1.98
9.24 21.15 1.96
8.70 21.05 1.94
8.17 20.95 1.92
7.66 20.86 1.90
7.16 20.77 1.88
6.66 20.69 1.86
6.18 20.60 1.84
5.71 20.52 1.83
5.25 20.43 1.81
4.79 20.35 1.80
4.35 20.27 1.79
3.91 20.19 1.77
3.47 20.12 1.76
3.05 20.04 1.75
2.63 19.97 1.74
2.20 19.83 1.73
1.80 19.82 1.72
1.39 19.75 1.72
0.99 19.67 1.71
0.59 19.60 1.70
0.20 19.53 1.70
-0.19 19.46 1.69
-0.58 19.39 1.69
-0.97 19.33 1.68
-1.35 19.26 1.68
-1.73 19.13 1.67
-2.12 19.12 1.67
-2.50 19.05 1.67
-2.88 18.98 1.67
-3.26 18.92 1.67
-3.64 18.85 1.67
-4.02 18.78 1.67
-4.40 18.71 1.67
-4.78 18.65 1.67
-5.16 18.58 1.68
-5.55 18.51 1.68
-5.93 18.44 1.68
-6.32 18.37 1.69
-6.71 18.30 1.69
-7.11 18.23 1.70
-7.50 18.16 1.70
-7.90 18.09 1.71
-8.31 18.02 1.72
-8.71 17.95 1.72
-9.13 17.87 1.73
-9.54 17.80 1.74
-9.97 17.72 1.75
-10.40 17.65 1.76
-10.83 17.57 1.77
-11.27 17.49 1.79
-11.72 17.41 1.80
-12.18 17.33 1.81
-12.65 17.24 1.83
-13.12 17.16 1.84
-13.57 17.02 1.85
-14.11 16.98 1.88
-14.61 16.89 1.90
-15.14 16.80 1.92
-15.67 16.71 1.94
-16.22 16.61 1.96
-16.78 16.51 1.98
-17.36 16.40 2.01
-17.96 16.30 2.04
-18.57 16.19 2.06
-19.21 16.07 2.09
-19.85 15.94 2.12
-20.49 15.79 2.15
-21.19 15.66 2.19
-25.07 14.90 2.39
-25.43 14.43 2.39
-25.79 13.95 2.39
-26.13 13.47 2.39
-26.47 12.98 2.39
-26.80 12.48 2.39
-27.12 11.97 2.39
-27.44 11.46 2.39
-27.74 10.94 2.39
-28.49 10.57 2.43
-29.55 10.30 2.50
-14.00 4.57 1.17
-30.13 9.16 2.50
-30.40 8.58 2.50
-30.67 7.99 2.50
-30.92 7.40 2.50
-31.16 6.80 2.50
-31.40 6.19 2.50
-31.62 5.58 2.50
-31.83 4.96 2.50
-32.04 4.34 2.50
-32.23 3.70 2.50
-32.41 3.07 2.50
-32.58 2.42 2.50
-11.60 0.63 0.88
-11.60 0.40 0.88
-11.64 0.16 0.88
-10.34 -0.06 0.78
-10.19 -0.27 0.76
-10.15 -0.47 0.76
-10.24 -0.68 0.76
-21.67 -1.88 1.61
-31.43 -3.36 2.34
-31.07 -3.95 2.31
-30.71 -4.53 2.28
-30.32 -5.10 2.25
-10.16 -1.92 0.75
-10.04 -2.11 0.74
-10.00 -2.31 0.74
-10.07 -2.54 0.75
-19.66 -5.38 1.46
-15.23 -4.50 1.13
-13.05 -4.14 0.97
-10.20 -3.46 0.76
-6.40 -2.31 0.48
-9.42 -3.63 0.71
-9.42 -3.84 0.71
-12.70 -5.48 0.97
-12.65 -5.77 0.97
-12.60 -6.05 0.97
-12.55 -6.34 0.97
-10.26 -5.44 0.80
-9.63 -5.36 0.76
-9.13 -5.33 0.72
-8.92 -5.44 0.71
-8.93 -5.70 0.72
-8.89 -5.93 0.72
-12.17 -8.47 1.00
-12.11 -8.80 1.00
-12.05 -9.13 1.01
-9.48 -7.48 0.80
-9.05 -7.44 0.78
-8.66 -7.42 0.75
-8.45 -7.54 0.75
-8.47 -7.87 0.76
-11.67 -11.28 1.06
-9.65 -9.71 0.89
-9.15 -9.59 0.86
-8.73 -9.52 0.84
-8.51 -9.66 0.83
-8.44 -9.98 0.84
-9.22 -11.36 0.94
-8.78 -11.27 0.91
-8.30 -11.11 0.88
-8.05 -11.23 0.88
-7.83 -11.41 0.88
-8.73 -13.28 1.00
-8.30 -13.19 0.98
-7.90 -13.13 0.96
-7.63 -13.28 0.96
-7.53 -13.75 0.98
-7.86 -15.05 1.06
-7.45 -14.99 1.04
-7.21 -15.27 1.05
-7.58 -16.92 1.15
-7.18 -16.94 1.13
-8.35 -20.84 1.38
-8.13 -21.54 1.41
-12.85 -36.24 2.36
-12.12 -36.49 2.35
-11.40 -36.77 2.35
-10.96 -38.03 2.41
-10.21 -38.28 2.41
-8.32 -33.92 2.12
-7.63 -34.05 2.11
-6.97 -34.30 2.12
-7.13 -39.09 2.40
-5.28 -32.64 1.99
-4.72 -33.42 2.03
-4.08 -33.75 2.04
-3.64 -36.22 2.19
-3.19 -39.74 2.39
-2.39 -39.83 2.39
-1.60 -39.91 2.39
-0.80 -39.97 2.39
0.01 -30.27 2.50
0.61 -30.28 2.50
1.22 -30.27 2.50
1.83 -30.25 2.50
2.43 -30.22 2.50
3.04 -30.17 2.50
3.65 -30.11 2.50
4.25 -30.03 2.50
4.85 -29.94 2.50
5.45 -29.83 2.50
6.04 -29.71 2.50
6.64 -29.58 2.50
6.93 -28.22 2.39
7.49 -28.06 2.39
8.05 -27.90 2.39
8.60 -27.72 2.39
9.15 -27.52 2.39
9.70 -27.32 2.39
10.17 -26.93 2.38
9.63 -24.02 2.14
11.37 -26.81 2.41
9.78 -21.82 1.98
9.45 -20.00 1.83
9.13 -18.36 1.70
8.93 -17.10 1.60
8.73 -15.92 1.51
8.54 -14.86 1.43
8.37 -13.91 1.35
8.22 -13.06 1.29
8.03 -12.22 1.22
7.91 -11.52 1.17
7.84 -10.94 1.13
7.69 -10.29 1.08
7.56 -9.70 1.03
7.47 -9.20 1.00
7.47 -8.84 0.98
7.64 -8.67 0.98
17.92 -19.55 2.24
18.28 -19.15 2.24
18.62 -18.74 2.24
18.96 -18.33 2.24
19.29 -17.91 2.24
19.60 -17.49 2.24
19.35 -16.57 2.18
19.63 -16.15 2.18
19.91 -15.72 2.18
20.76 -15.72 2.24
21.02 -15.27 2.24
21.28 -14.81 2.24
21.52 -14.35 2.24
21.75 -13.88 2.24
11.83 -7.22 1.21
9.65 -5.62 0.98
9.73 -5.42 0.98
10.18 -5.40 1.01
10.32 -5.21 1.02
10.45 -5.02 1.02
10.59 -4.82 1.03
10.72 -4.63 1.04
10.86 -4.43 1.04
11.00 -4.23 1.05
11.14 -4.03 1.06
11.28 -3.83 1.07
11.42 -3.62 1.08
11.57 -3.42 1.09
11.72 -3.21 1.10
11.86 -2.99 1.11
12.02 -2.78 1.12
12.17 -2.55 1.13
12.26 -2.32 1.14
12.40 -2.09 1.15
11.01 -1.63 1.02
12.70 -1.62 1.18
12.86 -1.38 1.20
13.05 -1.13 1.22
13.26 -0.88 1.24
13.51 -0.63 1.26
13.70 -0.36 1.28
13.89 -0.09 1.30
14.09 0.19 1.33
14.40 0.49 1.36
14.61 0.79 1.39
14.83 1.10 1.41
15.05 1.42 1.44
15.16 1.74 1.46
15.40 2.08 1.49
23.51 3.66 2.29
23.83 4.20 2.33
24.13 4.75 2.38
24.28 5.29 2.41
24.10 5.76 2.41
23.92 6.23 2.41
23.72 6.69 2.41
18.61 5.65 1.91
23.15 7.54 2.39
22.93 7.98 2.39
22.70 8.42 2.39
22.47 8.85 2.39
22.22 9.27 2.39
21.97 9.69 2.39
2.13 0.99 0.23
2.08 1.02 0.23
2.08 1.07 0.23
21.81 11.79 2.50
21.51 12.19 2.50
19.50 11.57 2.29
18.60 11.55 2.22
18.17 11.80 2.20
18.09 12.27 2.23
18.00 12.75 2.25
19.59 14.47 2.50
19.25 14.83 2.50
18.91 15.18 2.50
18.56 15.52 2.50
18.20 15.85 2.50
17.84 16.18 2.50
17.47 16.50 2.50
17.10 16.81 2.50
16.72 17.11 2.50
16.34 17.41 2.50
15.95 17.69 2.50
15.56 17.97 2.50
15.17 18.25 2.50
14.54 18.22 2.46
13.86 18.10 2.41
13.39 18.23 2.39
12.99 18.46 2.39
12.60 18.69 2.39
12.20 18.90 2.39
11.80 19.11 2.39
11.39 19.31 2.39
10.98 19.51 2.39
10.57 19.69 2.39
10.16 19.87 2.39
9.74 20.04 2.39
9.32 20.20 2.39
8.90 20.36 2.39
8.48 20.51 2.39
8.06 20.65 2.39
7.63 20.78 2.39
7.20 20.90 2.39
2.79 16.17 1.79
2.45 16.12 1.78
2.11 16.06 1.77
1.78 16.01 1.76
1.80 19.76 2.17
1.13 15.95 1.75
0.99 19.62 2.15
0.59 19.55 2.14
0.20 19.49 2.14
-0.16 15.82 1.73
-0.58 19.37 2.13
-0.97 19.31 2.12
-1.11 15.77 1.73
-1.73 19.13 2.11
-2.12 19.12 2.11
-2.50 19.05 2.11
-2.88 18.98 2.11
-3.26 18.92 2.11
-3.64 18.85 2.11
-4.02 18.78 2.11
-4.40 18.71 2.11
-4.78 18.65 2.11
-5.17 18.58 2.11
-4.54 15.15 1.73
-5.93 18.43 2.12
-6.32 18.35 2.13
-5.46 14.87 1.73
-7.09 18.19 2.14
-7.48 18.11 2.14
-7.88 18.04 2.15
-8.28 17.96 2.16
-8.69 17.89 2.17
-7.35 14.39 1.76
-7.68 14.32 1.77
-8.02 14.25 1.78
-8.36 14.18 1.79
-8.71 14.12 1.80
-9.06 14.05 1.82
-9.42 13.99 1.83
-9.79 13.92 1.84
-10.17 13.87 1.86
-10.56 13.81 1.88
-10.96 13.74 1.90
-11.36 13.67 1.92
-11.77 13.60 1.94
-12.18 13.52 1.96
-12.60 13.43 1.98
-13.04 13.34 2.00
-13.49 13.26 2.02
-13.96 13.19 2.05
-16.61 15.07 2.39
-16.93 14.75 2.39
-17.26 14.44 2.39
-17.57 14.11 2.39
-17.89 13.78 2.39
-18.19 13.44 2.39
-18.49 13.10 2.39
-18.79 12.75 2.39
-19.08 12.39 2.39
-19.55 12.15 2.42
-20.24 12.02 2.47
-20.77 11.78 2.50
-21.04 11.38 2.50
-21.31 10.98 2.50
-21.58 10.57 2.50
-21.83 10.16 2.50
-22.08 9.74 2.50
-22.32 9.31 2.50
-22.56 8.88 2.50
-22.79 8.45 2.50
-23.00 8.01 2.50
-13.98 4.55 1.50
-23.42 7.11 2.50
-23.62 6.66 2.50
-23.80 6.20 2.50
-23.98 5.73 2.50
-24.16 5.26 2.50
-24.32 4.79 2.50
-24.47 4.31 2.50
-24.62 3.83 2.50
-23.73 3.20 2.39
-23.86 2.73 2.39
-23.97 2.26 2.39
-24.08 1.78 2.39
-11.58 0.62 1.15
-11.57 0.39 1.14
-11.56 0.16 1.14
-10.07 -0.06 0.99
-10.04 -0.27 0.98
-10.02 -0.47 0.98
-10.22 -0.68 1.00
-21.66 -1.88 2.11
-23.92 -2.56 2.32
-23.84 -3.04 2.32
-23.80 -3.52 2.31
-10.28 -1.73 1.00
-9.94 -1.88 0.97
-9.90 -2.08 0.96
-9.91 -2.29 0.97
-10.06 -2.54 0.98
-17.19 -4.71 1.68
-15.23 -4.50 1.49
-13.04 -4.14 1.28
-9.66 -3.28 0.95
-6.39 -2.32 0.63
-9.31 -3.58 0.93
-9.32 -3.81 0.93
-9.54 -4.12 0.96
-12.65 -5.77 1.28
-12.60 -6.05 1.29
-12.55 -6.34 1.29
-10.21 -5.42 1.06
-9.31 -5.18 0.97
-9.04 -5.27 0.95
-8.80 -5.38 0.94
-8.83 -5.64 0.95
-8.79 -5.86 0.95
-12.17 -8.48 1.33
-12.11 -8.80 1.34
-12.05 -9.13 1.35
-9.45 -7.47 1.07
-8.90 -7.33 1.03
-8.66 -7.42 1.01
-8.42 -7.52 1.00
-8.41 -7.82 1.01
-11.67 -11.29 1.43
-9.57 -9.63 1.19
-9.09 -9.53 1.15
-8.68 -9.47 1.12
-8.37 -9.51 1.10
-8.30 -9.83 1.12
-9.20 -11.34 1.27
-8.76 -11.25 1.23
-8.30 -11.11 1.20
-8.04 -11.22 1.19
-7.82 -11.39 1.19
-8.75 -13.31 1.37
-8.30 -13.21 1.34
-7.90 -13.15 1.31
-7.56 -13.17 1.29
-7.53 -13.75 1.33
-7.86 -15.05 1.44
-7.45 -15.00 1.42
-7.18 -15.22 1.42
-7.58 -16.92 1.57
-7.15 -16.88 1.55
-8.33 -20.80 1.89
-8.09 -21.46 1.93
-9.56 -26.97 2.40
-9.07 -27.32 2.41
-8.54 -27.56 2.41
-7.99 -27.74 2.41
-7.44 -27.91 2.41
-6.88 -28.07 2.41
-6.33 -28.24 2.41
-5.73 -28.23 2.39
-5.17 -28.35 2.39
-4.60 -28.47 2.39
-4.03 -28.59 2.39
-3.46 -28.69 2.39
-2.89 -28.78 2.39
-2.31 -28.85 2.39
-1.74 -28.92 2.39
-1.17 -29.28 2.42
-0.60 -30.25 2.50
0.01 -23.73 2.50
0.48 -23.73 2.50
0.96 -23.73 2.50
1.43 -23.71 2.50
1.91 -23.68 2.50
2.38 -23.64 2.50
2.86 -23.59 2.50
3.33 -23.53 2.50
3.80 -23.46 2.50
4.27 -23.38 2.50
4.74 -23.29 2.50
5.20 -23.18 2.50
5.66 -23.07 2.50
5.91 -22.14 2.41
6.31 -21.87 2.39
6.74 -21.73 2.39
7.17 -21.58 2.39
7.60 -21.42 2.39
8.03 -21.25 2.39
8.44 -21.08 2.39
8.86 -20.89 2.39
9.27 -20.69 2.39
9.45 -20.00 2.34
9.13 -18.37 2.17
8.93 -17.10 2.04
8.73 -15.92 1.92
8.54 -14.86 1.82
8.37 -13.92 1.72
8.22 -13.06 1.64
8.03 -12.22 1.55
7.91 -11.52 1.49
7.84 -10.94 1.43
7.69 -10.29 1.37
7.64 -9.80 1.33
7.50 -9.24 1.27
7.46 -8.83 1.24
7.34 -8.34 1.19
7.31 -7.98 1.16
7.50 -7.86 1.17
14.73 -14.83 2.25
14.99 -14.50 2.25
15.25 -14.17 2.25
15.51 -13.84 2.25
7.06 -6.05 1.01
7.15 -5.88 1.00
7.36 -5.81 1.02
7.57 -5.74 1.03
7.80 -5.67 1.05
8.09 -5.63 1.08
8.33 -5.55 1.10
8.54 -5.46 1.11
8.86 -5.41 1.14
9.14 -5.33 1.17
9.66 -5.38 1.22
10.18 -5.41 1.27
10.32 -5.21 1.28
10.45 -5.02 1.29
10.67 -4.86 1.30
10.80 -4.67 1.31
10.94 -4.47 1.32
11.08 -4.27 1.33
11.22 -4.07 1.34
11.37 -3.86 1.35
11.43 -3.63 1.35
11.57 -3.42 1.36
11.71 -3.21 1.37
11.86 -3.00 1.39
12.01 -2.78 1.40
12.17 -2.56 1.42
12.25 -2.32 1.42
12.40 -2.09 1.44
11.01 -1.63 1.28
12.69 -1.62 1.47
12.86 -1.38 1.49
13.05 -1.14 1.51
13.25 -0.89 1.54
13.51 -0.63 1.57
13.70 -0.37 1.59
13.89 -0.09 1.62
14.08 0.19 1.65
14.40 0.48 1.69
14.61 0.78 1.72
14.82 1.09 1.75
15.05 1.41 1.78
15.16 1.73 1.80
15.40 2.07 1.84
18.55 2.88 2.23
18.49 3.25 2.24
18.43 3.62 2.24
18.38 4.00 2.25
18.33 4.37 2.26
18.27 4.75 2.27
18.34 5.16 2.30
18.61 5.65 2.35
18.92 6.15 2.41
18.75 6.52 2.41
18.45 6.83 2.39
18.27 7.19 2.39
18.08 7.53 2.39
17.88 7.88 2.39
2.13 0.99 0.29
2.08 1.02 0.29
2.08 1.07 0.29
17.05 9.21 2.39
16.82 9.53 2.39
16.59 9.84 2.39
16.36 10.15 2.39
16.81 10.91 2.50
16.56 11.22 2.50
12.48 8.83 1.91
12.37 9.13 1.93
15.76 12.13 2.50
15.48 12.42 2.50
15.20 12.70 2.50
14.91 12.98 2.50
14.62 13.25 2.50
14.33 13.52 2.50
14.03 13.78 2.50
13.72 14.03 2.50
13.42 14.28 2.50
13.10 14.52 2.50
12.79 14.76 2.50
12.47 14.99 2.50
12.14 15.21 2.50
11.82 15.43 2.50
11.49 15.64 2.50
11.15 15.84 2.50
10.82 16.04 2.50
10.48 16.23 2.50
10.13 16.42 2.50
9.79 16.59 2.50
9.44 16.76 2.50
9.09 16.93 2.50
8.74 17.09 2.50
8.32 17.12 2.48
7.86 17.03 2.45
7.42 16.95 2.41
7.00 16.92 2.39
6.65 17.04 2.39
6.30 17.15 2.39
5.95 17.26 2.39
5.60 17.36 2.39
5.24 17.45 2.39
4.88 17.54 2.39
4.53 17.62 2.39
4.17 17.69 2.39
3.81 17.76 2.39
3.45 17.82 2.39
3.09 17.87 2.39
2.73 17.92 2.39
2.36 17.96 2.39
2.00 17.99 2.39
1.64 18.02 2.39
1.14 16.05 2.13
0.91 18.05 2.39
0.55 18.06 2.39
0.19 18.06 2.39
-0.15 15.67 2.08
-0.47 15.61 2.07
-0.78 15.55 2.06
-1.09 15.49 2.06
-1.40 15.43 2.05
-1.70 15.37 2.05
-2.01 15.31 2.05
-2.31 15.26 2.05
-2.62 15.20 2.05
-2.93 15.15 2.05
-3.23 15.09 2.05
-3.54 15.04 2.05
-3.85 14.99 2.05
-4.15 14.94 2.05
-4.46 14.89 2.06
-4.78 14.84 2.06
-5.09 14.79 2.07
-5.41 14.74 2.08
-6.57 16.85 2.39
-6.91 16.72 2.39
-7.25 16.59 2.39
-7.58 16.45 2.39
-7.92 16.30 2.39
-7.42 14.52 2.15
-8.58 15.99 2.39
-8.90 15.83 2.39
-9.23 15.66 2.39
-9.55 15.48 2.39
-9.87 15.30 2.39
-10.18 15.11 2.39
-10.49 14.92 2.39
-10.80 14.72 2.39
-11.11 14.51 2.39
-11.41 14.30 2.39
-11.70 14.08 2.39
-12.00 13.86 2.39
-12.29 13.63 2.39
-12.58 13.40 2.39
-13.01 13.32 2.42
-13.46 13.24 2.45
-13.93 13.15 2.48
-14.27 12.94 2.50
-14.55 12.67 2.50
-14.82 12.39 2.50
-15.09 12.11 2.50
-15.35 11.82 2.50
-15.61 11.53 2.50
-15.86 11.23 2.50
-16.11 10.93 2.50
-16.35 10.62 2.50
-16.59 10.30 2.50
-16.82 9.98 2.50
-17.05 9.66 2.50
-17.27 9.33 2.50
-17.48 9.00 2.50
-17.69 8.66 2.50
-17.89 8.32 2.50
-18.09 7.97 2.50
-18.28 7.62 2.50
-18.47 7.27 2.50
-18.64 6.91 2.50
-18.82 6.55 2.50
-13.98 4.55 1.84
-19.14 5.81 2.50
-19.29 5.43 2.50
-19.44 5.05 2.50
-19.57 4.67 2.50
-19.71 4.29 2.50
-19.01 3.74 2.39
-19.12 3.36 2.39
-19.23 2.98 2.39
-19.32 2.60 2.39
-19.41 2.22 2.39
-19.50 1.83 2.39
-11.62 0.86 1.42
-11.56 0.62 1.41
-11.54 0.39 1.40
-11.55 0.16 1.40
-10.05 -0.07 1.21
-10.05 -0.27 1.21
-10.01 -0.47 1.21
-10.21 -0.68 1.23
-20.05 -1.75 2.41
-20.05 -2.15 2.41
-20.05 -2.56 2.41
-19.80 -2.94 2.38
-10.28 -1.73 1.24
-9.92 -1.88 1.19
-9.92 -2.09 1.20
-9.92 -2.30 1.20
-10.06 -2.54 1.22
-15.95 -4.37 1.94
-14.93 -4.42 1.82
-13.04 -4.14 1.60
-9.67 -3.29 1.19
-6.39 -2.32 0.79
-9.22 -3.56 1.14
-9.26 -3.79 1.16
-9.46 -4.09 1.19
-12.65 -5.77 1.60
-12.60 -6.06 1.60
-12.55 -6.35 1.61
-10.28 -5.46 1.33
-9.31 -5.19 1.21
-9.04 -5.28 1.19
-8.78 -5.37 1.17
-8.79 -5.61 1.18
-8.81 -5.88 1.20
-12.17 -8.48 1.67
-12.11 -8.81 1.68
-10.08 -7.64 1.42
-9.48 -7.49 1.35
-8.90 -7.33 1.29
-8.60 -7.38 1.26
-8.40 -7.50 1.25
-8.34 -7.76 1.26
-11.67 -11.29 1.80
-9.58 -9.66 1.50
-9.11 -9.56 1.46
-8.67 -9.47 1.41
-8.34 -9.48 1.39
-8.30 -9.82 1.41
-9.25 -11.41 1.61
-8.78 -11.28 1.56
-8.33 -11.16 1.52
-7.99 -11.16 1.49
-7.79 -11.35 1.50
-7.68 -11.70 1.52
-8.30 -13.21 1.69
-7.90 -13.15 1.66
-7.55 -13.16 1.64
-7.54 -13.77 1.69
-7.84 -15.03 1.83
-7.46 -15.03 1.80
-7.18 -15.23 1.81
-7.46 -16.67 1.96
-7.14 -16.85 1.96
-7.22 -18.04 2.08
-7.76 -20.58 2.35
-7.40 -20.88 2.36
-7.03 -21.18 2.38
-6.65 -21.48 2.39
-6.23 -21.63 2.39
-5.80 -21.78 2.39
-5.37 -21.91 2.39
-3.79 -16.93 1.84
-2.35 -11.58 1.25
-2.10 -11.54 1.24
-1.86 -11.49 1.23
-1.61 -11.45 1.22
-1.45 -12.04 1.28
-1.30 -12.91 1.37
-1.89 -23.61 2.50
-1.42 -23.66 2.50
-0.94 -23.69 2.50
-0.47 -23.72 2.50
0.01 -19.50 2.50
0.40 -19.50 2.50
0.79 -19.49 2.50
1.18 -19.48 2.50
1.57 -19.45 2.50
1.96 -19.42 2.50
2.35 -19.38 2.50
2.73 -19.33 2.50
3.12 -19.27 2.50
3.51 -19.20 2.50
3.89 -19.13 2.50
4.27 -19.04 2.50
4.65 -18.95 2.50
5.03 -18.85 2.50
5.18 -17.97 2.39
5.54 -17.85 2.39
5.89 -17.73 2.39
6.25 -17.60 2.39
6.59 -17.47 2.39
6.94 -17.32 2.39
7.28 -17.17 2.39
7.62 -17.01 2.39
7.95 -16.85 2.39
8.29 -16.67 2.39
8.61 -16.49 2.39
8.73 -15.93 2.34
8.54 -14.87 2.21
8.37 -13.92 2.09
2.90 -4.62 0.70
2.95 -4.49 0.69
3.04 -4.42 0.69
3.14 -4.39 0.70
3.33 -4.46 0.72
7.64 -9.81 1.61
7.50 -9.25 1.54
7.46 -8.83 1.50
7.34 -8.34 1.44
7.31 -7.98 1.41
7.49 -7.86 1.41
12.40 -12.49 2.30
12.55 -12.15 2.28
12.70 -11.80 2.27
12.90 -11.52 2.27
7.06 -6.06 1.22
7.20 -5.93 1.23
7.38 -5.83 1.24
7.60 -5.76 1.26
7.85 -5.71 1.28
8.08 -5.63 1.30
8.32 -5.56 1.32
8.54 -5.46 1.34
8.86 -5.41 1.38
9.14 -5.33 1.41
9.64 -5.37 1.47
10.18 -5.41 1.54
10.31 -5.22 1.54
10.45 -5.02 1.55
10.66 -4.87 1.57
10.80 -4.67 1.58
10.94 -4.47 1.59
11.08 -4.27 1.60
11.22 -4.07 1.61
11.36 -3.87 1.62
11.44 -3.64 1.63
11.56 -3.42 1.64
11.71 -3.21 1.65
11.86 -3.00 1.67
12.01 -2.78 1.68
12.17 -2.56 1.70
4.39 -0.83 0.61
12.40 -2.10 1.73
11.01 -1.63 1.53
12.69 -1.62 1.76
12.86 -1.38 1.79
13.04 -1.14 1.81
13.25 -0.89 1.84
13.51 -0.64 1.88
13.69 -0.37 1.91
13.88 -0.10 1.94
14.08 0.19 1.97
14.28 0.47 2.00
14.49 0.77 2.04
14.71 1.08 2.07
14.93 1.40 2.11
15.16 1.73 2.15
15.39 2.07 2.20
15.71 2.43 2.25
15.59 2.74 2.25
15.55 3.05 2.26
15.50 3.37 2.26
15.45 3.68 2.27
15.41 4.00 2.28
15.37 4.32 2.29
15.35 4.65 2.31
15.35 4.99 2.32
15.40 5.35 2.35
15.45 5.72 2.38
15.48 6.08 2.41
15.22 6.34 2.39
15.06 6.63 2.39
2.13 0.99 0.34
2.09 1.02 0.34
2.08 1.07 0.34
14.38 7.76 2.39
14.19 8.03 2.39
14.01 8.30 2.39
13.81 8.57 2.39
13.61 8.83 2.39
13.41 9.08 2.39
12.48 8.83 2.26
12.39 9.14 2.28
13.32 10.25 2.50
13.09 10.50 2.50
12.86 10.74 2.50
12.62 10.98 2.50
12.38 11.21 2.50
12.13 11.44 2.50
11.88 11.67 2.50
11.63 11.89 2.50
11.37 12.10 2.50
11.11 12.31 2.50
10.84 12.51 2.50
10.57 12.71 2.50
10.30 12.90 2.50
10.03 13.09 2.50
9.75 13.27 2.50
9.47 13.44 2.50
9.19 13.61 2.50
8.90 13.78 2.50
8.61 13.94 2.50
8.32 14.09 2.50
8.02 14.24 2.50
7.73 14.38 2.50
7.43 14.52 2.50
7.13 14.65 2.50
6.82 14.78 2.50
6.52 14.89 2.50
6.21 15.01 2.50
5.90 15.12 2.50
5.59 15.22 2.50
5.28 15.31 2.50
4.97 15.41 2.50
4.65 15.49 2.50
4.34 15.57 2.50
4.02 15.64 2.50
3.70 15.71 2.50
3.39 15.77 2.50
3.07 15.82 2.50
2.75 15.87 2.50
2.42 15.92 2.50
2.10 15.95 2.50
1.78 15.95 2.49
1.45 15.89 2.48
1.12 15.83 2.46
0.80 15.78 2.45
0.48 15.72 2.44
0.16 15.66 2.43
-0.15 15.61 2.43
-0.46 15.55 2.42
-0.78 15.50 2.41
-1.08 15.44 2.41
-1.39 15.39 2.40
-1.70 15.34 2.40
-2.01 15.28 2.40
-2.31 15.23 2.40
-2.62 15.18 2.40
-2.92 15.12 2.40
-3.23 15.06 2.40
-3.53 15.01 2.40
-3.84 14.95 2.40
-4.14 14.89 2.40
-4.45 14.84 2.41
-4.76 14.78 2.41
-5.07 14.72 2.42
-5.38 14.67 2.43
-5.70 14.61 2.44
-6.02 14.56 2.44
-6.34 14.50 2.46
-6.66 14.44 2.47
-6.99 14.38 2.48
-7.32 14.33 2.49
-7.62 14.20 2.50
-7.91 14.05 2.50
-8.20 13.90 2.50
-8.48 13.74 2.50
-8.76 13.58 2.50
-9.04 13.41 2.50
-9.31 13.24 2.50
-9.59 13.06 2.50
-9.86 12.87 2.50
-10.12 12.68 2.50
-10.38 12.49 2.50
-10.64 12.29 2.50
-10.90 12.09 2.50
-11.15 11.88 2.50
-11.40 11.66 2.50
-11.65 11.44 2.50
-11.89 11.22 2.50
-12.12 10.99 2.50
-12.36 10.76 2.50
-12.59 10.52 2.50
-12.81 10.28 2.50
-13.03 10.03 2.50
-13.25 9.78 2.50
-13.46 9.52 2.50
-13.66 9.26 2.50
-13.87 9.00 2.50
-14.07 8.73 2.50
-14.26 8.46 2.50
-14.45 8.18 2.50
-14.63 7.90 2.50
-14.81 7.62 2.50
-14.98 7.33 2.50
-15.15 7.04 2.50
-15.31 6.74 2.50
-15.47 6.44 2.50
-9.68 3.80 1.55
-9.77 3.62 1.55
-9.85 3.42 1.55
-9.94 3.23 1.55
-15.50 4.70 2.39
-15.62 4.39 2.39
-15.73 4.09 2.39
-15.84 3.78 2.39
-15.94 3.46 2.39
-16.03 3.15 2.39
-16.12 2.83 2.39
-16.20 2.51 2.39
-16.28 2.19 2.39
-16.35 1.86 2.39
-16.42 1.54 2.39
-13.48 0.99 1.96
-11.55 0.62 1.67
-11.55 0.38 1.67
-10.09 0.13 1.45
-10.03 -0.07 1.44
-10.03 -0.27 1.44
-10.01 -0.47 1.43
-10.05 -0.68 1.44
-16.82 -1.47 2.41
-16.82 -1.81 2.41
-16.82 -2.15 2.41
-16.85 -2.50 2.41
-9.96 -1.69 1.43
-9.90 -1.88 1.42
-9.89 -2.08 1.42
-9.91 -2.30 1.43
-9.91 -2.51 1.43
-16.69 -4.58 2.42
-14.89 -4.41 2.17
-12.97 -4.13 1.90
-9.51 -3.24 1.40
-6.39 -2.32 0.95
-9.24 -3.56 1.37
-9.25 -3.78 1.38
-9.26 -4.01 1.39
-12.65 -5.78 1.92
-12.60 -6.06 1.92
-12.55 -6.35 1.93
-10.34 -5.50 1.61
-9.51 -5.30 1.49
-8.82 -5.15 1.39
-8.76 -5.36 1.40
-8.75 -5.60 1.41
-8.79 -5.87 1.44
-12.17 -8.49 2.01
-12.11 -8.81 2.03
-12.05 -9.14 2.04
-9.47 -7.49 1.63
-8.89 -7.33 1.55
-8.58 -7.36 1.52
-8.38 -7.49 1.51
-8.37 -7.79 1.53
-11.67 -11.30 2.17
-9.61 -9.69 1.82
-9.11 -9.56 1.76
-8.67 -9.47 1.71
-8.36 -9.50 1.68
-8.23 -9.75 1.69
-9.24 -11.40 1.94
-8.76 -11.26 1.88
-8.29 -11.11 1.83
-7.99 -11.17 1.81
-7.77 -11.34 1.81
-7.82 -11.92 1.87
-8.13 -12.94 2.00
-7.90 -13.15 2.01
-7.55 -13.17 1.99
-7.53 -13.77 2.05
-7.78 -14.91 2.19
-7.45 -15.01 2.18
-7.18 -15.23 2.19
-7.46 -16.68 2.38
-7.17 -16.94 2.39
-6.85 -17.12 2.39
-6.51 -17.27 2.39
-6.17 -17.42 2.39
-5.82 -17.55 2.39
-5.48 -17.68 2.39
-5.13 -17.81 2.39
-4.77 -17.92 2.39
-4.42 -18.03 2.39
-3.79 -16.92 2.23
-2.35 -11.58 1.52
-2.10 -11.53 1.51
-1.85 -11.49 1.50
-1.61 -11.45 1.48
-1.45 -12.04 1.56
-1.27 -12.63 1.63
-1.05 -13.14 1.69
-1.16 -19.44 2.50
-0.77 -19.47 2.50
-0.38 -19.49 2.50
0.01 -16.53 2.50
0.34 -16.53 2.50
0.67 -16.53 2.50
1.00 -16.51 2.50
1.33 -16.49 2.50
1.66 -16.46 2.50
1.99 -16.43 2.50
2.32 -16.39 2.50
2.65 -16.34 2.50
2.97 -16.28 2.50
3.30 -16.22 2.50
3.62 -16.14 2.50
3.94 -16.07 2.50
4.26 -15.98 2.50
4.58 -15.89 2.50
4.70 -15.14 2.39
5.00 -15.04 2.39
5.30 -14.93 2.39
5.59 -14.81 2.39
5.88 -14.69 2.39
6.17 -14.57 2.39
6.46 -14.43 2.39
6.75 -14.29 2.39
7.03 -14.15 2.39
7.31 -13.99 2.39
7.58 -13.84 2.39
7.85 -13.67 2.39
2.83 -4.71 0.83
2.84 -4.52 0.81
2.90 -4.42 0.80
2.99 -4.35 0.80
3.09 -4.31 0.81
3.22 -4.32 0.82
7.64 -9.81 1.90
7.50 -9.25 1.82
7.46 -8.83 1.77
7.34 -8.35 1.70
7.31 -7.98 1.66
7.49 -7.86 1.66
10.92 -11.00 2.38
11.07 -10.71 2.37
11.20 -10.42 2.35
11.30 -10.10 2.33
7.06 -6.06 1.43
7.20 -5.93 1.44
7.38 -5.83 1.45
7.59 -5.76 1.47
7.85 -5.71 1.50
8.08 -5.63 1.53
8.32 -5.56 1.55
8.54 -5.46 1.58
8.86 -5.41 1.62
9.13 -5.33 1.65
9.63 -5.37 1.72
10.18 -5.41 1.80
10.31 -5.22 1.81
10.45 -5.03 1.82
10.66 -4.87 1.84
10.80 -4.67 1.85
10.94 -4.47 1.86
11.08 -4.27 1.87
11.22 -4.07 1.89
11.36 -3.87 1.90
11.45 -3.64 1.91
11.56 -3.43 1.92
11.71 -3.22 1.93
11.86 -3.00 1.95
4.25 -0.99 0.70
4.19 -0.88 0.68
4.17 -0.79 0.68
4.19 -0.71 0.68
4.24 -0.63 0.69
4.37 -0.56 0.71
12.38 -1.34 2.01
12.39 -1.09 2.01
12.39 -0.84 2.01
12.38 -0.59 2.01
12.37 -0.34 2.01
12.35 -0.09 2.01
12.17 0.16 1.98
12.81 0.42 2.09
12.71 0.67 2.08
12.61 0.92 2.07
12.76 1.19 2.10
13.00 1.48 2.15
13.24 1.78 2.20
13.48 2.08 2.25
13.65 2.39 2.29
13.82 2.71 2.33
13.99 3.03 2.37
14.12 3.36 2.41
14.03 3.64 2.41
13.93 3.91 2.41
13.82 4.18 2.41
13.71 4.45 2.41
13.60 4.72 2.41
13.48 4.98 2.41
13.35 5.24 2.41
13.22 5.50 2.41
13.00 5.72 2.39
2.13 0.99 0.40
2.09 1.02 0.39
2.08 1.07 0.40
12.42 6.70 2.39
12.27 6.94 2.39
12.11 7.17 2.39
11.94 7.40 2.39
11.77 7.63 2.39
11.60 7.85 2.39
11.42 8.07 2.39
11.24 8.29 2.39
11.06 8.50 2.39
10.87 8.71 2.39
10.68 8.91 2.39
10.48 9.11 2.39
10.72 9.71 2.50
10.51 9.91 2.50
10.30 10.11 2.50
10.08 10.30 2.50
9.86 10.48 2.50
9.63 10.67 2.50
9.40 10.84 2.50
9.17 11.02 2.50
8.94 11.19 2.50
8.70 11.35 2.50
8.46 11.51 2.50
8.22 11.66 2.50
7.97 11.81 2.50
7.73 11.96 2.50
7.48 12.10 2.50
7.22 12.23 2.50
6.97 12.37 2.50
6.71 12.49 2.50
6.46 12.61 2.50
6.19 12.73 2.50
5.93 12.84 2.50
5.67 12.94 2.50
5.40 13.04 2.50
5.13 13.14 2.50
4.86 13.23 2.50
4.59 13.31 2.50
4.32 13.39 2.50
4.05 13.47 2.50
3.78 13.54 2.50
3.50 13.60 2.50
3.22 13.66 2.50
2.95 13.72 2.50
2.67 13.77 2.50
2.39 13.81 2.50
2.11 13.85 2.50
1.83 13.88 2.50
1.55 13.91 2.50
1.27 13.93 2.50
0.99 13.95 2.50
0.71 13.96 2.50
0.43 13.97 2.50
0.15 13.97 2.50
-0.14 13.97 2.50
-0.42 13.96 2.50
-0.70 13.95 2.50
-0.98 13.93 2.50
-1.26 13.90 2.50
-1.54 13.87 2.50
-1.82 13.84 2.50
-2.09 13.80 2.50
-2.37 13.76 2.50
-2.65 13.71 2.50
-2.92 13.65 2.50
-3.20 13.59 2.50
-3.47 13.53 2.50
-3.74 13.46 2.50
-4.01 13.38 2.50
-4.28 13.30 2.50
-4.55 13.21 2.50
-4.82 13.12 2.50
-5.08 13.03 2.50
-5.34 12.93 2.50
-5.61 12.82 2.50
-5.87 12.71 2.50
-6.12 12.60 2.50
-6.38 12.48 2.50
-6.63 12.35 2.50
-6.88 12.23 2.50
-7.13 12.09 2.50
-7.38 11.95 2.50
-7.62 11.81 2.50
-7.86 11.66 2.50
-8.10 11.51 2.50
-8.34 11.35 2.50
-8.57 11.19 2.50
-8.80 11.02 2.50
-9.03 10.85 2.50
-9.25 10.68 2.50
-9.47 10.50 2.50
-9.69 10.32 2.50
-9.91 10.13 2.50
-10.12 9.94 2.50
-10.32 9.74 2.50
-10.53 9.54 2.50
-10.73 9.34 2.50
-10.93 9.13 2.50
-11.12 8.92 2.50
-11.31 8.70 2.50
-11.49 8.48 2.50
-11.68 8.26 2.50
-11.85 8.03 2.50
-12.03 7.80 2.50
-12.20 7.57 2.50
-12.36 7.33 2.50
-12.52 7.09 2.50
-12.68 6.84 2.50
-12.83 6.60 2.50
-12.98 6.35 2.50
-13.12 6.09 2.50
-13.26 5.83 2.50
-8.55 3.56 1.59
-8.40 3.30 1.55
-8.45 3.13 1.55
-8.52 2.96 1.55
-8.60 2.79 1.55
-8.66 2.62 1.55
-8.86 2.49 1.57
-13.60 3.53 2.39
-13.69 3.26 2.39
-13.77 2.99 2.39
-13.85 2.71 2.39
-13.92 2.44 2.39
-13.99 2.16 2.39
-14.05 1.88 2.39
-14.11 1.60 2.39
-11.59 1.08 1.96
-11.61 0.85 1.95
-11.60 0.61 1.95
-11.55 0.38 1.93
-10.50 0.13 1.75
-10.02 -0.07 1.67
-10.02 -0.27 1.67
-10.01 -0.47 1.67
-10.07 -0.68 1.67
-14.48 -1.27 2.41
-14.48 -1.56 2.41
-14.47 -1.86 2.41
-14.45 -2.15 2.41
-10.27 -1.74 1.71
-9.90 -1.88 1.65
-9.89 -2.09 1.66
-9.91 -2.30 1.66
-9.92 -2.51 1.67
-14.37 -3.95 2.43
-14.34 -4.25 2.44
-12.97 -4.13 2.21
-9.62 -3.28 1.65
-6.39 -2.32 1.10
-9.18 -3.55 1.59
-9.18 -3.76 1.60
-9.28 -4.02 1.63
-12.65 -5.78 2.24
-12.60 -6.07 2.25
-14.92 -7.56 2.68
-10.32 -5.49 1.87
-9.30 -5.19 1.70
-8.96 -5.24 1.66
-8.75 -5.35 1.63
-8.75 -5.60 1.65
-8.79 -5.88 1.68
-12.51 -8.73 2.42
-12.29 -8.95 2.41
-12.08 -9.17 2.40
-9.46 -7.48 1.90
-8.89 -7.33 1.82
-8.58 -7.37 1.78
-8.37 -7.48 1.76
-8.42 -7.84 1.80
-8.97 -8.70 1.96
-8.84 -8.91 1.96
-8.78 -9.22 1.99
-8.61 -9.41 1.99
-8.34 -9.49 1.97
-8.31 -9.85 2.00
-8.31 -10.26 2.05
-8.49 -10.92 2.15
-8.29 -11.12 2.15
-7.98 -11.16 2.12
-7.79 -11.36 2.13
-7.68 -11.70 2.16
-8.13 -12.95 2.36
-7.89 -13.15 2.36
-7.58 -13.22 2.34
-7.47 -13.66 2.39
-7.20 -13.82 2.39
-6.93 -13.98 2.39
-6.66 -14.13 2.39
-6.38 -14.27 2.39
-6.10 -14.41 2.39
-5.81 -14.55 2.39
-5.53 -14.67 2.39
-5.24 -14.79 2.39
-4.94 -14.91 2.39
-4.65 -15.02 2.39
-4.35 -15.12 2.39
-4.05 -15.21 2.39
-3.75 -15.30 2.39
-2.53 -11.31 1.76
-2.28 -11.26 1.74
-2.04 -11.22 1.73
-1.80 -11.17 1.71
-1.57 -11.13 1.70
-1.38 -11.44 1.74
-1.23 -12.23 1.86
-1.05 -13.15 1.99
-0.99 -16.49 2.50
-0.66 -16.51 2.50
-0.33 -16.52 2.50
0.01 -14.34 2.50
0.29 -14.34 2.50
0.58 -14.33 2.50
0.87 -14.32 2.50
1.15 -14.30 2.50
1.44 -14.28 2.50
1.73 -14.24 2.50
2.01 -14.21 2.50
2.29 -14.16 2.50
2.58 -14.12 2.50
2.86 -14.06 2.50
3.14 -14.00 2.50
3.42 -13.93 2.50
3.70 -13.86 2.50
3.97 -13.78 2.50
4.16 -13.42 2.45
4.33 -13.04 2.39
4.59 -12.95 2.39
4.85 -12.85 2.39
5.10 -12.74 2.39
5.35 -12.63 2.39
5.60 -12.52 2.39
5.85 -12.40 2.39
6.10 -12.27 2.39
6.34 -12.14 2.39
6.58 -12.01 2.39
6.81 -11.87 2.39
2.80 -4.66 0.95
2.82 -4.49 0.93
2.89 -4.39 0.92
2.97 -4.33 0.92
3.07 -4.29 0.92
3.19 -4.27 0.94
7.64 -9.82 2.19
7.50 -9.26 2.10
7.46 -8.84 2.04
7.34 -8.35 1.96
7.31 -7.99 1.91
7.49 -7.86 1.92
9.60 -9.68 2.41
9.79 -9.48 2.41
9.96 -9.27 2.41
10.14 -9.06 2.41
7.07 -6.06 1.65
7.20 -5.93 1.65
7.38 -5.83 1.67
7.59 -5.76 1.70
7.85 -5.71 1.73
8.08 -5.63 1.76
8.32 -5.56 1.79
8.54 -5.46 1.81
8.85 -5.41 1.86
9.13 -5.33 1.89
9.62 -5.36 1.97
10.18 -5.41 2.07
10.31 -5.22 2.08
10.44 -5.03 2.09
10.58 -4.83 2.10
10.72 -4.64 2.11
10.85 -4.44 2.12
10.99 -4.24 2.13
11.13 -4.04 2.15
11.17 -3.81 2.14
11.01 -3.51 2.10
10.98 -3.26 2.08
11.01 -3.03 2.08
4.26 -1.08 0.80
4.14 -0.96 0.78
4.10 -0.87 0.77
4.09 -0.78 0.76
4.11 -0.70 0.77
4.15 -0.62 0.77
4.23 -0.54 0.78
11.06 -1.20 2.05
11.21 -0.99 2.08
11.34 -0.77 2.10
11.30 -0.54 2.09
11.25 -0.31 2.09
11.20 -0.08 2.08
11.14 0.14 2.07
11.07 0.36 2.06
11.00 0.58 2.06
11.05 0.81 2.07
11.22 1.04 2.11
11.39 1.29 2.15
11.56 1.55 2.19
11.71 1.81 2.23
11.87 2.08 2.27
12.02 2.35 2.31
12.18 2.64 2.35
12.34 2.93 2.40
12.31 3.19 2.41
12.22 3.43 2.41
12.13 3.67 2.41
12.04 3.90 2.41
11.94 4.14 2.41
11.84 4.37 2.41
11.73 4.60 2.41
11.62 4.83 2.41
11.50 5.06 2.41
2.13 0.99 0.45
2.09 1.02 0.45
2.08 1.07 0.45
10.92 5.89 2.39
10.79 6.10 2.39
10.65 6.31 2.39
10.51 6.51 2.39
10.36 6.71 2.39
10.21 6.91 2.39
10.06 7.10 2.39
9.90 7.29 2.39
9.74 7.48 2.39
9.57 7.67 2.39
9.40 7.85 2.39
9.23 8.02 2.39
9.06 8.20 2.39
8.88 8.37 2.39
8.70 8.54 2.39
8.52 8.70 2.39
8.33 8.86 2.39
8.49 9.40 2.50
8.29 9.56 2.50
8.09 9.72 2.50
7.89 9.87 2.50
7.68 10.01 2.50
7.47 10.15 2.50
7.26 10.29 2.50
7.04 10.42 2.50
6.82 10.55 2.50
6.60 10.68 2.50
6.38 10.80 2.50
6.16 10.92 2.50
5.93 11.03 2.50
5.70 11.14 2.50
5.47 11.24 2.50
5.24 11.34 2.50
5.01 11.43 2.50
4.77 11.52 2.50
4.54 11.61 2.50
4.30 11.69 2.50
4.06 11.76 2.50
3.82 11.84 2.50
3.58 11.90 2.50
3.34 11.97 2.50
3.10 12.02 2.50
2.85 12.08 2.50
2.61 12.13 2.50
2.36 12.17 2.50
2.11 12.21 2.50
1.87 12.24 2.50
1.62 12.27 2.50
1.37 12.30 2.50
1.12 12.32 2.50
0.88 12.34 2.50
0.63 12.35 2.50
0.38 12.35 2.50
0.13 12.36 2.50
-0.12 12.35 2.50
-0.37 12.35 2.50
-0.62 12.34 2.50
-0.86 12.32 2.50
-1.11 12.30 2.50
-1.36 12.27 2.50
-1.61 12.24 2.50
-1.85 12.21 2.50
-2.10 12.17 2.50
-2.34 12.12 2.50
-2.59 12.07 2.50
-2.83 12.02 2.50
-3.07 11.96 2.50
-3.31 11.90 2.50
-3.55 11.83 2.50
-3.79 11.76 2.50
-4.03 11.69 2.50
-4.26 11.61 2.50
-4.49 11.52 2.50
-4.73 11.43 2.50
-4.96 11.34 2.50
-5.19 11.24 2.50
-5.41 11.14 2.50
-5.64 11.03 2.50
-5.86 10.92 2.50
-6.09 10.81 2.50
-6.30 10.69 2.50
-6.52 10.56 2.50
-6.74 10.44 2.50
-6.95 10.31 2.50
-7.16 10.17 2.50
-7.37 10.03 2.50
-7.57 9.89 2.50
-7.78 9.74 2.50
-7.98 9.59 2.50
-8.17 9.43 2.50
-8.37 9.27 2.50
-8.56 9.11 2.50
-8.75 8.94 2.50
-8.93 8.77 2.50
-9.12 8.60 2.50
-9.30 8.42 2.50
-9.47 8.24 2.50
-9.65 8.06 2.50
-9.81 7.87 2.50
-9.98 7.68 2.50
-10.14 7.48 2.50
-10.30 7.28 2.50
-10.46 7.08 2.50
-10.61 6.88 2.50
-10.76 6.67 2.50
-10.90 6.46 2.50
-11.04 6.25 2.50
-11.18 6.03 2.50
-11.31 5.81 2.50
-11.44 5.59 2.50
-11.56 5.36 2.50
-11.20 4.92 2.39
-11.31 4.70 2.39
-8.59 3.37 1.80
-8.56 3.16 1.78
-8.57 2.97 1.77
-8.68 2.82 1.77
-8.83 2.67 1.79
-11.88 3.34 2.39
-11.96 3.10 2.39
-12.04 2.86 2.39
-12.11 2.62 2.39
-12.18 2.38 2.39
-12.24 2.14 2.39
-12.30 1.90 2.39
-12.35 1.65 2.39
-12.40 1.41 2.39
-11.57 1.08 2.22
-11.16 0.81 2.14
-10.90 0.57 2.08
-10.72 0.35 2.04
-10.08 0.13 1.92
-10.07 -0.08 1.91
-10.05 -0.28 1.91
-10.01 -0.48 1.90
-10.06 -0.68 1.91
-10.32 -0.91 1.96
-10.32 -1.12 1.96
-10.31 -1.33 1.96
-10.30 -1.54 1.96
-9.95 -1.69 1.89
-9.94 -1.89 1.90
-9.91 -2.10 1.90
-9.91 -2.30 1.90
-9.91 -2.51 1.91
-10.13 -2.79 1.96
-10.09 -2.99 1.96
-10.04 -3.20 1.96
-9.65 -3.29 1.89
-6.39 -2.32 1.26
-9.18 -3.55 1.82
-9.24 -3.78 1.84
-9.29 -4.03 1.87
-9.67 -4.42 1.96
-9.60 -4.63 1.96
-9.56 -4.85 1.97
-9.52 -5.07 1.98
-9.30 -5.19 1.95
-9.01 -5.27 1.91
-8.80 -5.39 1.88
-8.79 -5.62 1.90
-8.80 -5.88 1.93
-9.28 -6.48 2.06
-9.24 -6.73 2.07
-9.19 -6.98 2.09
-9.14 -7.24 2.11
-8.89 -7.33 2.08
-8.46 -7.26 2.01
-8.39 -7.50 2.03
-8.36 -7.79 2.06
-8.36 -8.10 2.09
-8.84 -8.93 2.26
-8.79 -9.23 2.29
-8.67 -9.48 2.30
-8.36 -9.51 2.27
-8.23 -9.75 2.28
-8.31 -10.26 2.36
-8.23 -10.59 2.39
-8.03 -10.77 2.39
-7.82 -10.94 2.39
-7.61 -11.11 2.39
-7.39 -11.27 2.39
-7.17 -11.43 2.39
-6.95 -11.58 2.39
-6.72 -11.73 2.39
-6.49 -11.87 2.39
-6.26 -12.01 2.39
-6.02 -12.15 2.39
-5.78 -12.28 2.39
-5.54 -12.40 2.39
-5.30 -12.52 2.39
-5.05 -12.63 2.39
-4.80 -12.74 2.39
-4.54 -12.85 2.39
-4.30 -12.98 2.40
-4.07 -13.15 2.41
-3.94 -13.69 2.50
-3.66 -13.77 2.50
-3.39 -13.85 2.50
-2.53 -11.30 2.03
-2.28 -11.26 2.01
-2.04 -11.21 1.99
-1.80 -11.17 1.97
-1.57 -11.12 1.96
-1.38 -11.43 2.01
-1.22 -12.24 2.14
-1.05 -13.15 2.30
-0.85 -14.30 2.50
-0.57 -14.32 2.50
-0.28 -14.33 2.50
0.01 -12.64 2.50
0.26 -12.64 2.50
0.51 -12.64 2.50
0.76 -12.63 2.50
1.02 -12.61 2.50
1.27 -12.59 2.50
1.52 -12.56 2.50
1.77 -12.53 2.50
2.02 -12.49 2.50
2.27 -12.45 2.50
2.52 -12.40 2.50
2.77 -12.35 2.50
3.02 -12.29 2.50
3.26 -12.22 2.50
3.50 -12.15 2.50
3.75 -12.08 2.50
3.84 -11.56 2.40
4.05 -11.42 2.39
4.28 -11.33 2.39
4.50 -11.24 2.39
4.72 -11.14 2.39
4.94 -11.04 2.39
5.16 -10.94 2.39
5.38 -10.83 2.39
5.59 -10.71 2.39
5.80 -10.59 2.39
6.01 -10.47 2.39
2.80 -4.66 1.08
2.82 -4.49 1.05
2.88 -4.39 1.04
2.97 -4.33 1.04
3.07 -4.29 1.05
3.20 -4.28 1.06
7.38 -9.49 2.39
7.50 -9.26 2.37
7.46 -8.84 2.31
7.34 -8.35 2.22
7.31 -7.99 2.16
7.49 -7.86 2.17
8.48 -8.55 2.41
8.64 -8.37 2.41
8.80 -8.19 2.41
8.96 -8.01 2.41
7.07 -6.07 1.87
7.19 -5.93 1.87
7.37 -5.83 1.89
7.59 -5.76 1.92
7.85 -5.71 1.95
8.08 -5.64 1.99
8.31 -5.56 2.02
8.53 -5.46 2.05
8.85 -5.42 2.10
9.12 -5.34 2.14
9.60 -5.36 2.23
10.51 -5.59 2.42
10.61 -5.38 2.42
10.71 -5.16 2.42
10.80 -4.94 2.42
10.73 -4.65 2.38
10.59 -4.34 2.34
10.46 -4.04 2.29
10.33 -3.76 2.25
10.25 -3.50 2.22
10.26 -3.27 2.21
10.27 -3.05 2.20
10.28 -2.83 2.19
4.17 -1.06 0.89
4.09 -0.95 0.86
4.06 -0.86 0.86
4.05 -0.77 0.85
4.07 -0.69 0.85
4.11 -0.61 0.86
4.17 -0.54 0.87
4.31 -0.47 0.90
10.36 -0.92 2.16
10.33 -0.70 2.16
10.30 -0.49 2.15
10.26 -0.29 2.14
10.22 -0.08 2.14
10.18 0.12 2.13
10.14 0.33 2.13
10.09 0.53 2.12
10.06 0.73 2.12
10.03 0.93 2.12
10.15 1.15 2.15
10.28 1.37 2.19
10.40 1.60 2.23
10.54 1.84 2.26
10.67 2.08 2.30
10.79 2.33 2.34
10.91 2.59 2.38
10.95 2.83 2.41
10.88 3.05 2.41
10.80 3.26 2.41
10.72 3.47 2.41
10.63 3.68 2.41
10.54 3.89 2.41
10.45 4.10 2.41
10.35 4.30 2.41
10.25 4.50 2.41
2.13 0.99 0.51
2.09 1.02 0.50
2.08 1.07 0.50
9.74 5.25 2.39
9.62 5.43 2.39
9.50 5.62 2.39
9.37 5.80 2.39
9.24 5.98 2.39
9.11 6.16 2.39
8.97 6.33 2.39
8.83 6.51 2.39
8.69 6.67 2.39
8.55 6.84 2.39
8.40 7.00 2.39
8.25 7.16 2.39
8.09 7.32 2.39
7.93 7.47 2.39
7.77 7.62 2.39
7.61 7.77 2.39
7.45 7.91 2.39
7.28 8.05 2.39
7.11 8.19 2.39
6.93 8.32 2.39
6.77 8.46 2.40
6.58 8.58 2.39
6.68 9.07 2.50
6.49 9.20 2.50
6.30 9.32 2.50
6.10 9.44 2.50
5.91 9.55 2.50
5.71 9.66 2.50
5.51 9.76 2.50
5.31 9.86 2.50
5.10 9.96 2.50
4.90 10.05 2.50
4.69 10.14 2.50
4.48 10.23 2.50
4.27 10.31 2.50
4.06 10.39 2.50
3.85 10.46 2.50
3.64 10.53 2.50
3.42 10.59 2.50
3.21 10.65 2.50
2.99 10.71 2.50
2.77 10.76 2.50
2.55 10.81 2.50
2.33 10.86 2.50
2.11 10.90 2.50
1.89 10.93 2.50
1.67 10.96 2.50
1.45 10.99 2.50
1.23 11.01 2.50
1.01 11.03 2.50
0.78 11.05 2.50
0.56 11.06 2.50
0.34 11.06 2.50
0.12 11.07 2.50
-0.11 11.06 2.50
-0.33 11.06 2.50
-0.55 11.05 2.50
-0.77 11.03 2.50
-1.00 11.01 2.50
-1.22 10.99 2.50
-1.44 10.96 2.50
-1.66 10.93 2.50
-1.88 10.90 2.50
-2.10 10.86 2.50
-2.32 10.81 2.50
-2.53 10.77 2.50
-2.75 10.71 2.50
-2.97 10.66 2.50
-3.18 10.60 2.50
-3.39 10.53 2.50
-3.61 10.47 2.50
-3.82 10.39 2.50
-4.03 10.32 2.50
-4.23 10.24 2.50
-4.44 10.15 2.50
-4.65 10.06 2.50
-4.85 9.97 2.50
-5.05 9.88 2.50
-5.25 9.78 2.50
-5.45 9.67 2.50
-5.65 9.57 2.50
-5.84 9.46 2.50
-6.03 9.34 2.50
-6.22 9.22 2.50
-6.41 9.10 2.50
-6.60 8.98 2.50
-6.78 8.85 2.50
-6.96 8.71 2.50
-7.14 8.58 2.50
-7.31 8.44 2.50
-7.49 8.29 2.50
-7.66 8.15 2.50
-7.83 8.00 2.50
-7.99 7.85 2.50
-8.16 7.69 2.50
-8.32 7.53 2.50
-8.47 7.37 2.50
-8.63 7.20 2.50
-8.78 7.03 2.50
-8.92 6.86 2.50
-9.07 6.69 2.50
-9.21 6.51 2.50
-9.35 6.33 2.50
-9.48 6.14 2.50
-9.61 5.96 2.50
-9.74 5.77 2.50
-9.86 5.58 2.50
-9.98 5.38 2.50
-10.10 5.19 2.50
-10.21 4.99 2.50
-10.32 4.79 2.50
-10.00 4.39 2.39
-10.10 4.20 2.39
-10.19 4.00 2.39
-8.71 3.22 2.03
-8.72 3.02 2.01
-8.83 2.86 2.02
-10.53 3.18 2.39
-10.60 2.97 2.39
-10.67 2.76 2.39
-10.74 2.55 2.39
-10.80 2.34 2.39
-10.86 2.12 2.39
-10.91 1.91 2.39
-10.96 1.69 2.39
-11.01 1.47 2.39
-11.05 1.25 2.39
-11.09 1.03 2.39
-11.12 0.81 2.39
-10.90 0.57 2.34
-10.72 0.35 2.30
-10.10 0.12 2.16
-10.03 -0.08 2.14
-10.03 -0.28 2.14
-10.03 -0.48 2.14
-10.05 -0.69 2.14
-10.26 -0.91 2.19
-10.22 -1.11 2.18
-10.18 -1.31 2.17
-10.15 -1.52 2.17
-9.97 -1.70 2.14
-9.90 -1.89 2.13
-9.81 -2.08 2.11
-9.81 -2.28 2.12
-9.83 -2.50 2.13
-9.95 -2.74 2.16
-9.91 -2.95 2.17
-9.87 -3.15 2.17
-9.29 -3.17 2.05
-6.39 -2.33 1.42
-9.24 -3.58 2.06
-9.25 -3.80 2.08
-9.27 -4.02 2.10
-9.65 -4.42 2.20
-9.61 -4.63 2.21
-9.57 -4.85 2.22
-9.53 -5.08 2.23
-9.35 -5.23 2.21
-8.83 -5.17 2.11
-8.76 -5.36 2.11
-8.65 -5.54 2.11
-8.63 -5.78 2.13
-9.28 -6.48 2.32
-9.24 -6.73 2.34
-9.19 -6.99 2.36
-9.14 -7.24 2.38
-8.91 -7.35 2.36
-8.57 -7.36 2.30
-8.37 -7.50 2.29
-8.38 -7.81 2.33
-8.45 -8.20 2.39
-8.30 -8.38 2.39
-8.14 -8.55 2.39
-7.97 -8.72 2.39
-7.80 -8.89 2.39
-7.63 -9.05 2.39
-7.46 -9.21 2.39
-7.28 -9.37 2.39
-7.10 -9.52 2.39
-6.91 -9.67 2.39
-6.72 -9.82 2.39
-6.53 -9.96 2.39
-6.34 -10.10 2.39
-6.14 -10.23 2.39
-5.94 -10.36 2.39
-5.73 -10.49 2.39
-5.53 -10.61 2.39
-5.32 -10.73 2.39
-5.11 -10.84 2.39
-4.89 -10.95 2.39
-4.67 -11.06 2.39
-4.46 -11.15 2.39
-4.34 -11.54 2.45
-4.18 -11.83 2.50
-3.95 -11.92 2.50
-3.71 -12.00 2.50
-3.47 -12.08 2.50
-3.23 -12.16 2.50
-2.99 -12.23 2.50
-2.57 -11.48 2.33
-2.37 -11.71 2.37
-2.04 -11.21 2.25
-1.80 -11.16 2.24
-1.56 -11.12 2.22
-1.35 -11.26 2.24
-1.15 -11.47 2.28
-1.00 -12.59 2.50
-0.75 -12.61 2.50
-0.50 -12.63 2.50
-0.25 -12.64 2.50
0.01 -11.30 2.50
0.23 -11.30 2.50
0.46 -11.29 2.50
0.68 -11.28 2.50
0.91 -11.27 2.50
1.13 -11.25 2.50
1.36 -11.22 2.50
1.58 -11.19 2.50
1.81 -11.16 2.50
2.03 -11.12 2.50
2.25 -11.08 2.50
2.47 -11.03 2.50
2.69 -10.98 2.50
2.91 -10.92 2.50
3.13 -10.86 2.50
3.35 -10.79 2.50
3.56 -10.72 2.50
3.62 -10.20 2.39
3.82 -10.13 2.39
4.02 -10.05 2.39
4.22 -9.96 2.39
4.42 -9.87 2.39
4.61 -9.78 2.39
4.80 -9.68 2.39
5.00 -9.58 2.39
5.18 -9.47 2.39
5.37 -9.36 2.39
2.80 -4.66 1.21
2.82 -4.49 1.18
2.88 -4.39 1.17
2.97 -4.33 1.17
3.07 -4.29 1.17
3.20 -4.28 1.19
6.60 -8.49 2.39
6.76 -8.35 2.39
6.92 -8.20 2.39
7.08 -8.06 2.39
7.24 -7.91 2.39
7.38 -7.75 2.39
6.27 -6.32 1.99
6.24 -6.04 1.94
6.43 -5.99 1.97
6.65 -5.95 2.00
7.07 -6.07 2.09
7.19 -5.93 2.09
7.37 -5.84 2.11
7.59 -5.76 2.14
7.84 -5.71 2.18
8.07 -5.64 2.22
8.31 -5.56 2.25
8.53 -5.46 2.28
8.85 -5.42 2.34
9.12 -5.34 2.39
9.29 -5.19 2.41
9.39 -5.00 2.41
9.48 -4.80 2.41
9.56 -4.61 2.41
9.65 -4.42 2.41
9.73 -4.22 2.41
9.70 -3.98 2.39
9.59 -3.71 2.34
9.60 -3.49 2.33
9.62 -3.28 2.32
9.64 -3.08 2.31
9.65 -2.87 2.30
9.66 -2.66 2.30
4.16 -1.06 0.98
4.07 -0.95 0.96
4.04 -0.86 0.95
4.04 -0.77 0.95
4.06 -0.69 0.95
4.09 -0.61 0.96
4.16 -0.54 0.97
4.30 -0.47 1.00
9.72 -0.86 2.26
9.71 -0.66 2.26
9.68 -0.47 2.25
9.65 -0.27 2.24
9.62 -0.08 2.24
9.58 0.11 2.23
9.54 0.31 2.23
9.51 0.50 2.22
9.48 0.68 2.22
9.45 0.87 2.22
9.42 1.06 2.22
9.38 1.25 2.22
9.37 1.44 2.23
9.47 1.65 2.26
9.57 1.87 2.30
9.66 2.09 2.33
9.76 2.31 2.37
9.85 2.54 2.41
9.79 2.74 2.41
9.72 2.93 2.41
9.65 3.12 2.41
9.58 3.31 2.41
9.50 3.50 2.41
9.41 3.69 2.41
9.33 3.87 2.41
9.23 4.05 2.41
2.14 0.99 0.56
2.09 1.02 0.56
2.08 1.07 0.56
8.84 4.76 2.41
8.73 4.93 2.41
8.56 5.06 2.39
8.45 5.23 2.39
8.33 5.39 2.39
8.22 5.55 2.39
8.09 5.71 2.39
7.97 5.87 2.39
7.84 6.02 2.39
7.71 6.17 2.39
7.58 6.32 2.39
7.44 6.46 2.39
7.30 6.60 2.39
7.16 6.74 2.39
7.02 6.88 2.39
6.87 7.01 2.39
6.72 7.14 2.39
6.57 7.27 2.39
6.42 7.39 2.39
6.26 7.51 2.39
6.11 7.63 2.39
5.95 7.74 2.39
5.78 7.86 2.39
5.62 7.96 2.39
5.45 8.07 2.39
5.29 8.17 2.39
5.34 8.62 2.50
5.16 8.72 2.50
4.98 8.82 2.50
4.80 8.91 2.50
4.61 9.00 2.50
4.43 9.08 2.50
4.24 9.17 2.50
4.05 9.24 2.50
3.86 9.32 2.50
3.67 9.39 2.50
3.48 9.45 2.50
3.29 9.52 2.50
3.10 9.58 2.50
2.90 9.63 2.50
2.70 9.68 2.50
2.51 9.73 2.50
2.31 9.78 2.50
2.11 9.82 2.50
1.91 9.85 2.50
1.71 9.89 2.50
1.51 9.91 2.50
1.31 9.94 2.50
1.11 9.96 2.50
0.91 9.98 2.50
0.71 9.99 2.50
0.51 10.00 2.50
0.31 10.01 2.50
0.11 10.01 2.50
-0.10 10.01 2.50
-0.30 10.00 2.50
-0.50 9.99 2.50
-0.70 9.98 2.50
-0.90 9.96 2.50
-1.10 9.94 2.50
-1.30 9.92 2.50
-1.50 9.89 2.50
-1.70 9.86 2.50
-1.90 9.82 2.50
-2.10 9.78 2.50
-2.29 9.74 2.50
-2.49 9.69 2.50
-2.68 9.64 2.50
-2.88 9.59 2.50
-3.07 9.53 2.50
-3.26 9.47 2.50
-3.45 9.40 2.50
-3.64 9.33 2.50
-3.83 9.26 2.50
-4.02 9.18 2.50
-4.20 9.10 2.50
-4.39 9.02 2.50
-4.57 8.93 2.50
-4.75 8.84 2.50
-4.93 8.75 2.50
-5.11 8.65 2.50
-5.28 8.55 2.50
-5.45 8.45 2.50
-5.63 8.34 2.50
-5.80 8.23 2.50
-5.96 8.11 2.50
-6.13 8.00 2.50
-6.29 7.88 2.50
-6.45 7.75 2.50
-6.61 7.63 2.50
-6.77 7.50 2.50
-6.92 7.36 2.50
-7.07 7.23 2.50
-7.22 7.09 2.50
-7.37 6.95 2.50
-7.51 6.80 2.50
-7.66 6.65 2.50
-7.79 6.50 2.50
-7.93 6.35 2.50
-8.06 6.19 2.50
-8.19 6.04 2.50
-8.32 5.87 2.50
-8.44 5.71 2.50
-8.56 5.55 2.50
-8.68 5.38 2.50
-8.79 5.21 2.50
-8.91 5.03 2.50
-9.01 4.86 2.50
-9.12 4.68 2.50
-9.22 4.50 2.50
-9.32 4.32 2.50
-9.02 3.96 2.39
-9.11 3.78 2.39
-8.82 3.46 2.29
-8.89 3.28 2.29
-9.35 3.24 2.39
-9.01 2.92 2.29
-9.09 2.74 2.29
-9.56 2.68 2.39
-9.62 2.49 2.39
-9.68 2.30 2.39
-9.74 2.10 2.39
-9.79 1.91 2.39
-9.83 1.71 2.39
-9.88 1.52 2.39
-9.92 1.32 2.39
-9.95 1.12 2.39
-9.99 0.92 2.39
-10.01 0.72 2.39
-10.04 0.52 2.39
-10.06 0.32 2.39
-10.08 0.12 2.39
-10.02 -0.08 2.38
-10.02 -0.28 2.37
-10.03 -0.49 2.37
-10.07 -0.69 2.38
-10.10 -0.90 2.39
-10.09 -1.10 2.39
-10.08 -1.30 2.39
-10.06 -1.51 2.39
-10.04 -1.71 2.39
-9.89 -1.89 2.36
-9.89 -2.10 2.37
-9.91 -2.31 2.38
-9.92 -2.52 2.39
-9.88 -2.73 2.39
-9.84 -2.93 2.39
-9.79 -3.13 2.39
-9.65 -3.30 2.37
-6.39 -2.33 1.58
-9.18 -3.55 2.28
-9.18 -3.77 2.30
-9.27 -4.03 2.34
-9.41 -4.31 2.39
-9.33 -4.50 2.39
-9.25 -4.70 2.39
-9.17 -4.89 2.39
-9.08 -5.08 2.39
-8.94 -5.24 2.38
-8.74 -5.36 2.35
-8.75 -5.61 2.38
-8.68 -5.81 2.39
-8.57 -5.99 2.39
-8.46 -6.17 2.39
