ply
format ascii 1.0
element vertex 2822
property float32 x
property float32 y
property float32 z
end_header
-27.79 -6.98 -0.52
-27.80 -7.58 -0.52
-27.82 -8.18 -0.52
-27.83 -8.80 -0.52
-27.84 -9.42 -0.53
-27.85 -10.05 -0.53
-27.57 -10.58 -0.53
-27.59 -11.23 -0.53
-27.23 -11.72 -0.53
-26.87 -12.21 -0.53
-26.52 -12.70 -0.52
-26.04 -13.12 -0.52
-25.48 -13.49 -0.51
-22.80 -12.66 -0.46
-21.79 -12.68 -0.45
-20.85 -12.70 -0.43
-19.97 -12.72 -0.42
-19.13 -12.73 -0.41
-18.35 -12.75 -0.39
-17.60 -12.76 -0.38
-16.90 -12.78 -0.37
-16.70 -13.16 -0.37
-16.53 -13.58 -0.37
-16.46 -14.08 -0.38
-16.47 -14.67 -0.39
-16.75 -15.53 -0.40
-16.55 -15.98 -0.40
-15.91 -15.99 -0.39
-15.41 -16.13 -0.39
-14.96 -16.29 -0.38
-14.74 -16.72 -0.39
-14.64 -17.29 -0.39
-14.67 -18.05 -0.40
-16.87 -21.63 -0.47
-16.77 -22.41 -0.48
-16.12 -22.47 -0.47
-15.74 -22.89 -0.48
-15.32 -23.28 -0.48
-15.29 -24.28 -0.49
-16.72 -27.76 -0.55
-16.78 -29.18 -0.57
-16.61 -30.27 -0.59
-16.01 -30.63 -0.59
-15.48 -31.11 -0.59
-18.01 -38.10 -0.71
9.37 -30.16 0.21
9.59 -28.83 0.20
9.80 -27.60 0.19
9.98 -26.41 0.19
10.07 -25.10 0.18
10.17 -23.96 0.17
10.29 -22.94 0.17
10.42 -22.03 0.16
10.64 -21.39 0.16
10.83 -20.71 0.16
10.86 -19.79 0.15
10.86 -18.89 0.15
10.84 -18.00 0.14
10.62 -16.86 0.14
10.20 -15.49 0.13
9.99 -14.53 0.12
9.86 -13.75 0.12
9.83 -13.14 0.11
9.81 -12.58 0.11
9.79 -12.04 0.11
9.81 -11.59 0.11
9.83 -11.15 0.10
9.86 -10.73 0.10
9.88 -10.33 0.10
9.90 -9.95 0.10
9.91 -9.57 0.10
9.92 -9.20 0.09
9.92 -8.84 0.09
9.93 -8.49 0.09
9.94 -8.16 0.09
9.96 -7.85 0.09
9.98 -7.55 0.09
10.00 -7.25 0.09
10.01 -6.95 0.09
10.02 -6.67 0.08
10.03 -6.39 0.08
10.04 -6.12 0.08
10.04 -5.84 0.08
10.04 -5.57 0.08
10.05 -5.32 0.08
10.06 -5.07 0.08
10.07 -4.82 0.08
10.08 -4.58 0.08
10.09 -4.34 0.08
10.10 -4.11 0.08
10.11 -3.88 0.08
10.13 -3.65 0.08
10.13 -3.43 0.08
10.14 -3.20 0.07
10.14 -2.98 0.07
10.14 -2.76 0.07
10.15 -2.55 0.07
10.15 -2.33 0.07
10.15 -2.12 0.07
10.15 -1.91 0.07
10.17 -1.70 0.07
10.18 -1.49 0.07
10.21 -1.29 0.07
10.23 -1.08 0.07
10.25 -0.88 0.07
10.28 -0.67 0.07
10.30 -0.47 0.07
10.32 -0.26 0.07
10.35 -0.05 0.07
10.37 0.16 0.07
10.42 0.37 0.07
10.45 0.58 0.07
10.49 0.79 0.07
10.52 1.01 0.07
10.56 1.22 0.07
10.70 1.46 0.07
10.92 1.71 0.08
10.97 1.95 0.08
10.99 2.18 0.08
11.11 2.43 0.08
11.23 2.70 0.08
11.36 2.97 0.08
11.49 3.25 0.08
11.51 3.51 0.08
11.51 3.77 0.08
11.51 4.02 0.08
11.53 4.29 0.08
11.55 4.57 0.08
11.58 4.85 0.08
11.61 5.13 0.08
11.62 5.42 0.08
11.62 5.71 0.08
11.63 6.01 0.09
11.62 6.30 0.09
11.60 6.60 0.09
11.58 6.90 0.09
11.56 7.20 0.09
11.55 7.52 0.09
11.56 7.86 0.09
11.56 8.21 0.09
11.56 8.56 0.09
11.55 8.92 0.09
11.55 9.29 0.09
11.55 9.68 0.09
11.55 10.08 0.10
11.61 10.55 0.10
11.72 11.09 0.10
11.78 11.60 0.10
11.81 12.11 0.10
11.80 12.59 0.10
11.77 13.08 0.11
11.74 13.59 0.11
11.74 14.15 0.11
11.64 14.62 0.11
11.50 15.05 0.11
11.35 15.49 0.11
11.20 15.94 0.11
11.07 16.46 0.12
10.84 16.84 0.12
10.69 17.35 0.12
10.53 17.89 0.12
10.36 18.44 0.12
10.17 18.98 0.12
10.02 19.64 0.13
9.95 20.50 0.13
9.69 21.05 0.13
9.43 21.62 0.13
9.17 22.21 0.13
9.06 23.27 0.14
9.02 24.62 0.14
8.89 25.85 0.15
8.77 27.28 0.16
8.68 28.97 0.16
8.89 31.99 0.18
9.15 35.68 0.20
10.02 42.62 0.23
-6.12 40.37 0.20
-21.71 44.75 0.22
-19.46 36.33 0.18
-22.44 38.13 0.20
-20.01 32.49 0.17
-21.34 33.14 0.17
-23.88 35.50 0.19
-21.73 29.65 0.16
-23.10 30.23 0.17
-28.71 36.05 0.20
-26.62 32.09 0.18
-29.71 34.38 0.20
-31.55 35.07 0.20
-24.10 25.72 0.15
-25.72 26.37 0.16
-28.44 28.02 0.17
-31.67 29.97 0.19
-36.16 25.67 0.19
-36.68 24.95 0.19
-37.21 24.23 0.19
-27.68 10.94 0.13
-27.69 10.31 0.12
-27.70 9.68 0.12
-27.71 9.07 0.12
-27.73 8.46 0.12
-27.74 7.86 0.12
-27.75 7.26 0.12
-27.76 6.67 0.12
-27.77 6.09 0.12
-27.79 5.51 0.12
-27.80 4.93 0.12
-28.81 4.52 0.12
-28.89 3.94 0.12
-26.35 3.05 0.11
-26.31 2.52 0.11
-26.27 1.98 0.11
-26.24 1.45 0.11
-26.20 0.92 0.11
-29.05 0.44 0.13
-28.50 -0.14 0.12
-28.32 -0.71 0.12
-27.39 -1.24 0.12
-27.40 -1.79 0.12
-27.41 -2.34 0.12
-27.42 -2.90 0.12
-27.43 -3.46 0.12
-27.44 -4.02 0.12
-27.45 -4.59 0.12
-27.46 -5.16 0.12
-6.96 -1.45 0.03
-27.49 -6.31 0.13
-27.50 -6.90 0.13
-27.51 -7.49 0.13
-27.52 -8.09 0.13
-27.53 -8.70 0.13
-27.55 -9.32 0.13
-27.56 -9.94 0.14
-27.57 -10.58 0.14
-27.59 -11.23 0.14
-27.23 -11.72 0.14
-26.87 -12.21 0.14
-26.52 -12.70 0.14
-26.04 -13.12 0.14
-25.48 -13.49 0.14
-22.80 -12.66 0.12
-21.80 -12.68 0.12
-20.85 -12.70 0.12
-19.97 -12.72 0.12
-19.14 -12.73 0.11
-18.35 -12.75 0.11
-17.61 -12.76 0.11
-16.90 -12.78 0.11
-16.70 -13.16 0.11
-16.71 -13.72 0.11
-16.72 -14.30 0.11
-16.73 -14.91 0.11
-16.75 -15.53 0.12
-16.76 -16.18 0.12
-16.71 -16.79 0.12
-16.68 -17.45 0.12
-15.29 -16.65 0.12
-16.82 -19.07 0.13
-16.83 -19.88 0.14
-16.85 -20.73 0.14
-16.87 -21.62 0.15
-16.77 -22.41 0.15
-16.12 -22.46 0.15
-15.74 -22.89 0.15
-15.32 -23.28 0.15
-15.29 -24.28 0.16
-16.72 -27.76 0.18
-16.78 -29.18 0.19
-16.61 -30.27 0.19
-16.01 -30.63 0.19
-15.48 -31.10 0.19
-18.01 -38.10 0.24
8.17 -30.59 0.92
8.40 -29.11 0.88
8.66 -27.89 0.85
8.90 -26.76 0.82
9.18 -25.84 0.80
9.35 -24.75 0.77
9.46 -23.60 0.74
9.54 -22.48 0.71
9.62 -21.46 0.69
9.76 -20.65 0.67
9.89 -19.88 0.65
9.92 -18.98 0.63
9.95 -18.14 0.61
9.95 -17.29 0.59
9.91 -16.47 0.56
9.71 -15.42 0.54
9.53 -14.48 0.51
9.43 -13.72 0.49
9.40 -13.10 0.47
9.38 -12.54 0.46
9.38 -12.02 0.45
9.41 -11.57 0.44
9.44 -11.14 0.43
9.47 -10.73 0.42
9.49 -10.34 0.41
9.52 -9.96 0.41
9.54 -9.59 0.40
9.56 -9.23 0.39
9.57 -8.88 0.39
9.59 -8.54 0.38
9.60 -8.21 0.37
9.62 -7.90 0.37
9.65 -7.60 0.36
9.68 -7.32 0.36
9.70 -7.03 0.35
9.71 -6.75 0.35
9.73 -6.47 0.35
9.74 -6.21 0.34
9.76 -5.94 0.34
9.75 -5.67 0.33
9.75 -5.41 0.33
9.75 -5.16 0.33
9.77 -4.92 0.32
9.78 -4.68 0.32
9.79 -4.45 0.32
9.80 -4.22 0.32
9.81 -3.99 0.31
9.83 -3.77 0.31
9.85 -3.55 0.31
9.87 -3.34 0.31
9.87 -3.12 0.31
9.88 -2.91 0.30
9.88 -2.69 0.30
9.89 -2.48 0.30
9.89 -2.27 0.30
9.89 -2.06 0.30
9.90 -1.86 0.30
9.91 -1.66 0.30
9.93 -1.45 0.30
9.94 -1.25 0.30
9.97 -1.05 0.30
9.99 -0.85 0.30
10.01 -0.65 0.30
10.03 -0.45 0.30
10.05 -0.25 0.30
10.08 -0.05 0.30
10.10 0.15 0.30
10.15 0.36 0.30
10.19 0.56 0.30
10.22 0.77 0.30
10.26 0.98 0.30
10.29 1.19 0.30
10.32 1.41 0.31
10.36 1.62 0.31
10.39 1.84 0.31
10.42 2.07 0.31
10.44 2.29 0.31
10.48 2.52 0.32
10.52 2.75 0.32
10.55 2.99 0.32
10.59 3.23 0.32
10.67 3.49 0.33
10.79 3.77 0.33
10.86 4.04 0.34
10.87 4.30 0.34
10.88 4.56 0.34
10.90 4.82 0.35
10.92 5.10 0.35
10.94 5.37 0.35
10.96 5.66 0.36
10.97 5.95 0.36
10.97 6.23 0.37
10.94 6.51 0.37
10.92 6.80 0.37
10.89 7.09 0.38
10.86 7.39 0.38
10.83 7.69 0.38
10.81 8.00 0.39
10.78 8.33 0.39
10.77 8.66 0.40
10.75 9.01 0.40
10.73 9.37 0.41
10.73 9.75 0.42
10.72 10.15 0.42
10.74 10.58 0.43
10.80 11.08 0.44
10.88 11.62 0.46
10.96 12.19 0.47
10.93 12.65 0.48
10.88 13.12 0.49
10.83 13.60 0.50
10.80 14.13 0.51
10.74 14.65 0.52
10.65 15.16 0.53
10.56 15.69 0.54
10.46 16.25 0.55
10.29 16.72 0.56
10.10 17.16 0.56
9.93 17.68 0.57
9.76 18.22 0.58
9.57 18.75 0.59
9.36 19.29 0.60
9.14 19.85 0.62
8.92 20.43 0.63
8.73 21.17 0.64
8.55 21.95 0.66
8.38 22.85 0.68
8.33 24.23 0.72
8.19 25.47 0.75
8.04 26.84 0.78
7.92 28.50 0.83
7.93 30.93 0.89
7.99 33.99 0.97
8.49 39.70 1.13
8.57 44.39 1.26
-2.11 41.90 1.15
-2.75 39.01 1.07
-3.54 39.03 1.08
-6.13 40.37 1.12
-18.61 45.09 1.32
-18.59 42.58 1.26
-18.58 40.34 1.20
-18.46 38.06 1.14
-18.74 36.74 1.11
-19.24 35.91 1.10
-19.73 35.11 1.09
-19.33 32.84 1.03
-19.78 32.11 1.02
-20.21 31.39 1.01
-20.64 30.68 1.00
-21.06 29.98 0.99
-21.47 29.30 0.98
-21.88 28.63 0.97
-22.27 27.97 0.96
-22.67 27.32 0.95
-23.06 26.68 0.95
-23.44 26.05 0.94
-23.82 25.42 0.93
-24.85 25.48 0.95
-27.48 27.07 1.03
-30.60 28.96 1.13
-36.95 25.13 1.20
-37.42 24.36 1.19
-41.30 25.72 1.30
-27.68 10.94 0.80
-27.69 10.31 0.79
-27.70 9.68 0.78
-27.71 9.07 0.78
-27.70 8.45 0.77
-27.70 7.85 0.77
-27.75 7.26 0.77
-27.74 6.67 0.76
-27.76 6.08 0.76
-27.79 5.51 0.76
-27.80 4.93 0.76
-28.81 4.52 0.78
-28.89 3.94 0.78
-26.35 3.05 0.71
-26.31 2.52 0.71
-26.27 1.98 0.71
-26.24 1.45 0.71
-26.20 0.92 0.70
-25.55 0.39 0.69
-25.16 -0.13 0.68
-28.32 -0.71 0.76
-27.68 -1.25 0.75
-27.69 -1.81 0.75
-27.70 -2.37 0.75
-27.71 -2.93 0.75
-27.72 -3.50 0.75
-27.73 -4.06 0.76
-27.75 -4.64 0.76
-27.76 -5.21 0.76
-6.96 -1.45 0.19
-27.78 -6.38 0.77
-27.79 -6.97 0.77
-27.80 -7.57 0.78
-27.82 -8.18 0.79
-27.80 -8.79 0.79
-27.82 -9.41 0.80
-27.85 -10.05 0.80
-27.87 -10.69 0.81
-27.59 -11.23 0.81
-27.23 -11.72 0.81
-26.87 -12.21 0.80
-26.52 -12.70 0.80
-26.04 -13.12 0.80
-25.48 -13.49 0.79
-22.80 -12.66 0.71
-21.80 -12.68 0.69
-20.85 -12.70 0.67
-19.97 -12.72 0.65
-19.14 -12.73 0.63
-18.35 -12.75 0.61
-17.61 -12.76 0.60
-16.90 -12.78 0.58
-16.70 -13.16 0.58
-16.71 -13.72 0.60
-16.72 -14.30 0.61
-16.73 -14.91 0.62
-16.75 -15.53 0.63
-16.76 -16.18 0.64
-16.71 -16.79 0.66
-16.68 -17.45 0.67
-15.29 -16.65 0.63
-16.82 -19.07 0.71
-16.83 -19.88 0.72
-16.85 -20.73 0.74
-16.87 -21.62 0.76
-16.77 -22.41 0.78
-16.12 -22.46 0.77
-15.74 -22.89 0.78
-15.32 -23.27 0.78
-15.29 -24.28 0.80
-15.72 -26.11 0.85
-15.89 -27.63 0.89
-15.28 -27.84 0.89
-15.33 -29.32 0.93
-15.48 -31.10 0.98
-16.26 -34.39 1.07
-0.00 -48.60 2.49
0.93 -46.56 2.39
1.87 -46.50 2.39
2.80 -46.43 2.39
3.73 -46.35 2.39
4.49 -44.57 2.30
4.61 -38.14 1.98
4.71 -33.31 1.73
5.08 -31.36 1.64
5.57 -30.48 1.60
6.08 -29.89 1.57
6.71 -29.89 1.58
7.21 -29.34 1.56
7.47 -27.99 1.50
7.78 -26.95 1.45
8.09 -26.06 1.41
8.43 -25.33 1.38
8.68 -24.45 1.34
8.83 -23.36 1.29
8.94 -22.30 1.24
9.02 -21.24 1.19
9.16 -20.42 1.16
9.31 -19.70 1.13
9.41 -18.91 1.10
9.46 -18.09 1.06
9.52 -17.34 1.03
9.50 -16.52 0.99
9.31 -15.46 0.94
9.09 -14.44 0.89
9.01 -13.70 0.85
8.99 -13.07 0.82
8.97 -12.51 0.80
8.98 -12.00 0.78
9.02 -11.56 0.76
9.05 -11.14 0.75
9.09 -10.73 0.73
9.12 -10.35 0.72
9.16 -9.97 0.70
9.18 -9.61 0.69
9.21 -9.26 0.68
9.23 -8.91 0.67
9.25 -8.58 0.66
9.27 -8.26 0.65
9.29 -7.95 0.64
9.32 -7.66 0.63
9.36 -7.38 0.62
9.39 -7.10 0.61
9.42 -6.83 0.61
9.44 -6.56 0.60
9.46 -6.29 0.59
9.47 -6.03 0.59
9.48 -5.77 0.58
9.48 -5.51 0.57
9.48 -5.26 0.57
9.48 -5.02 0.56
9.49 -4.78 0.55
9.50 -4.55 0.55
9.52 -4.33 0.55
9.53 -4.10 0.54
9.55 -3.88 0.54
9.57 -3.67 0.53
9.59 -3.46 0.53
9.60 -3.25 0.53
9.62 -3.04 0.53
9.63 -2.83 0.52
9.63 -2.62 0.52
9.64 -2.42 0.52
9.64 -2.22 0.52
9.65 -2.01 0.51
9.66 -1.81 0.51
9.67 -1.62 0.51
9.68 -1.42 0.51
9.70 -1.22 0.51
9.71 -1.03 0.51
9.73 -0.83 0.51
9.76 -0.64 0.51
9.78 -0.44 0.51
9.80 -0.25 0.51
9.82 -0.05 0.51
9.84 0.15 0.51
9.89 0.35 0.51
9.93 0.55 0.52
9.98 0.75 0.52
10.01 0.96 0.52
10.04 1.16 0.52
10.07 1.37 0.53
10.10 1.58 0.53
10.13 1.80 0.53
10.16 2.02 0.54
10.19 2.23 0.54
10.19 2.45 0.54
10.21 2.67 0.55
10.25 2.90 0.55
10.28 3.14 0.56
10.32 3.38 0.56
10.35 3.62 0.57
10.39 3.87 0.57
10.43 4.12 0.58
10.43 4.37 0.58
10.44 4.62 0.59
10.44 4.87 0.60
10.45 5.14 0.60
10.46 5.40 0.61
10.47 5.68 0.61
10.48 5.96 0.62
10.48 6.24 0.63
10.49 6.53 0.64
10.47 6.82 0.64
10.46 7.11 0.65
10.44 7.41 0.66
10.42 7.72 0.67
10.40 8.03 0.68
10.40 8.37 0.69
10.41 8.73 0.70
10.41 9.08 0.71
10.40 9.45 0.72
10.38 9.83 0.73
10.37 10.22 0.75
10.36 10.62 0.76
10.38 11.08 0.78
10.41 11.57 0.80
10.44 12.08 0.82
10.43 12.57 0.83
10.39 13.06 0.85
10.36 13.56 0.87
10.32 14.09 0.89
10.26 14.61 0.91
10.17 15.13 0.93
10.07 15.65 0.95
9.97 16.19 0.97
9.81 16.67 0.98
9.61 17.10 1.00
9.40 17.56 1.01
9.19 18.02 1.03
8.99 18.53 1.05
8.78 19.08 1.07
8.58 19.67 1.09
8.37 20.28 1.11
8.20 21.05 1.14
8.01 21.85 1.18
7.81 22.71 1.21
7.68 23.87 1.27
7.54 25.18 1.33
7.33 26.38 1.38
7.19 28.06 1.46
7.10 30.22 1.57
6.98 32.63 1.68
7.41 38.39 1.97
7.28 42.27 2.16
7.47 49.28 2.51
6.18 47.14 2.39
5.24 47.28 2.39
4.29 47.40 2.39
3.34 47.50 2.39
2.39 47.59 2.39
1.49 49.71 2.49
0.50 49.75 2.49
-0.50 49.78 2.49
-1.50 49.78 2.49
-2.08 41.43 2.08
-2.73 38.82 1.95
-3.52 38.84 1.95
-4.31 38.88 1.96
-6.23 47.46 2.39
-6.12 40.34 2.04
-8.14 47.22 2.39
-9.09 47.07 2.39
-10.05 46.96 2.39
-11.00 46.77 2.39
-11.94 46.56 2.39
-12.88 46.33 2.39
-13.81 46.08 2.39
-14.74 45.82 2.39
-15.66 45.53 2.39
-16.58 45.23 2.39
-17.49 44.90 2.39
-18.39 44.56 2.39
-18.59 42.58 2.31
-18.58 40.34 2.20
-18.46 38.06 2.10
-18.74 36.73 2.04
-19.24 35.91 2.02
-19.73 35.11 2.00
-19.33 32.84 1.89
-19.78 32.11 1.87
-20.21 31.39 1.85
-20.64 30.68 1.83
-21.06 29.98 1.81
-21.47 29.30 1.80
-21.88 28.63 1.78
-22.28 27.97 1.77
-22.67 27.32 1.75
-23.06 26.68 1.74
-23.44 26.05 1.73
-23.82 25.42 1.72
-24.85 25.48 1.76
-27.49 27.07 1.90
-30.60 28.96 2.08
-35.90 32.63 2.39
-36.56 31.91 2.39
-37.19 31.17 2.39
-37.82 30.43 2.39
-38.43 29.66 2.39
-39.01 28.88 2.39
-39.59 28.10 2.39
-36.95 25.12 2.20
-37.32 24.30 2.20
-41.22 25.67 2.39
-41.73 24.84 2.39
-42.22 24.00 2.39
-42.69 23.15 2.39
-43.15 22.29 2.39
-43.59 21.42 2.39
-44.01 20.54 2.39
-44.42 19.65 2.39
-44.80 18.75 2.39
-27.68 10.94 1.47
-27.69 10.31 1.46
-27.40 9.58 1.43
-27.71 9.07 1.44
-27.70 8.45 1.43
-27.70 7.85 1.42
-27.75 7.26 1.41
-27.74 6.67 1.41
-27.76 6.08 1.40
-27.79 5.51 1.40
-27.80 4.93 1.39
-28.81 4.52 1.44
-28.89 3.94 1.44
-26.17 3.03 1.30
-26.13 2.50 1.30
-26.10 1.97 1.29
-26.06 1.44 1.29
-26.02 0.92 1.29
-25.55 0.39 1.26
-25.16 -0.13 1.24
-28.32 -0.71 1.40
-27.68 -1.25 1.37
-27.69 -1.81 1.37
-27.70 -2.37 1.38
-27.71 -2.93 1.38
-27.72 -3.50 1.38
-27.73 -4.06 1.39
-27.75 -4.64 1.39
-27.76 -5.21 1.40
-6.96 -1.45 0.35
-27.78 -6.38 1.41
-27.79 -6.97 1.42
-27.80 -7.57 1.43
-27.82 -8.18 1.44
-27.80 -8.79 1.45
-27.82 -9.41 1.46
-27.85 -10.05 1.47
-27.87 -10.69 1.48
-27.59 -11.22 1.48
-27.23 -11.72 1.48
-26.87 -12.21 1.47
-26.52 -12.70 1.46
-26.04 -13.12 1.45
-25.48 -13.49 1.44
-22.80 -12.66 1.30
-21.80 -12.68 1.26
-20.86 -12.70 1.22
-19.97 -12.72 1.18
-19.14 -12.73 1.15
-18.35 -12.75 1.12
-17.61 -12.76 1.09
-16.90 -12.78 1.06
-16.70 -13.16 1.06
-16.71 -13.72 1.08
-16.72 -14.30 1.10
-16.73 -14.90 1.12
-16.75 -15.53 1.15
-16.76 -16.18 1.17
-16.71 -16.79 1.19
-16.68 -17.45 1.21
-15.29 -16.65 1.14
-16.82 -19.07 1.28
-16.83 -19.88 1.31
-16.85 -20.73 1.35
-16.87 -21.62 1.38
-16.77 -22.41 1.41
-16.12 -22.46 1.39
-15.74 -22.89 1.40
-15.32 -23.27 1.41
-15.29 -24.27 1.45
-15.73 -26.11 1.54
-15.03 -26.13 1.52
-15.17 -27.64 1.60
-14.52 -27.77 1.59
-14.62 -29.38 1.66
-16.21 -34.27 1.92
-19.31 -43.05 2.39
-18.43 -43.40 2.39
-17.54 -43.74 2.39
-16.65 -44.06 2.39
-15.76 -44.36 2.39
-14.85 -44.64 2.39
-14.01 -45.10 2.40
-13.09 -45.34 2.40
-12.17 -45.57 2.40
-11.19 -45.53 2.39
-10.27 -45.72 2.39
-9.34 -45.89 2.39
-8.41 -46.04 2.39
-7.55 -46.59 2.41
-6.83 -48.29 2.49
-5.86 -48.40 2.49
-4.89 -48.48 2.49
-3.91 -48.54 2.49
-2.93 -48.58 2.49
-1.96 -48.61 2.49
-0.98 -48.61 2.49
-0.00 -33.73 2.49
0.67 -33.72 2.49
1.29 -32.29 2.39
1.37 -22.80 1.69
2.59 -32.19 2.39
3.23 -32.12 2.39
3.87 -32.04 2.39
4.52 -31.94 2.39
5.08 -31.36 2.36
5.56 -30.48 2.30
6.08 -29.90 2.26
6.33 -28.22 2.15
6.55 -26.66 2.04
6.84 -25.64 1.97
7.20 -24.95 1.93
7.63 -24.56 1.91
8.03 -24.15 1.89
8.21 -23.12 1.82
8.36 -22.12 1.76
8.45 -21.08 1.69
8.58 -20.21 1.63
8.75 -19.51 1.59
8.91 -18.84 1.55
8.97 -18.04 1.50
9.06 -17.33 1.46
9.09 -16.57 1.41
8.95 -15.57 1.34
8.66 -14.39 1.25
8.61 -13.67 1.20
8.59 -13.06 1.17
8.58 -12.48 1.13
8.59 -11.98 1.10
8.64 -11.54 1.08
8.68 -11.13 1.05
8.72 -10.73 1.03
8.77 -10.35 1.01
8.81 -9.99 0.99
8.84 -9.63 0.98
8.87 -9.28 0.96
8.90 -8.94 0.94
8.93 -8.62 0.93
8.95 -8.30 0.91
8.97 -7.99 0.90
9.01 -7.71 0.89
9.05 -7.43 0.87
9.09 -7.16 0.86
9.12 -6.90 0.85
9.16 -6.64 0.85
9.18 -6.38 0.84
9.20 -6.12 0.83
9.21 -5.87 0.82
9.21 -5.61 0.81
9.22 -5.36 0.80
9.22 -5.12 0.79
9.22 -4.88 0.78
9.23 -4.65 0.77
9.24 -4.43 0.77
9.26 -4.21 0.76
9.27 -3.99 0.75
9.29 -3.78 0.75
9.31 -3.57 0.75
9.33 -3.37 0.74
9.35 -3.16 0.74
9.37 -2.96 0.73
9.39 -2.76 0.73
9.40 -2.56 0.73
9.40 -2.36 0.72
9.41 -2.16 0.72
9.41 -1.96 0.72
9.42 -1.77 0.72
9.44 -1.58 0.71
9.45 -1.39 0.71
9.47 -1.19 0.71
9.48 -1.00 0.71
9.49 -0.81 0.71
9.51 -0.62 0.71
9.53 -0.43 0.71
9.56 -0.24 0.71
9.58 -0.05 0.71
9.60 0.14 0.72
9.64 0.34 0.72
9.68 0.54 0.72
9.72 0.73 0.73
9.77 0.93 0.73
9.80 1.14 0.74
9.83 1.34 0.74
9.85 1.55 0.74
9.88 1.75 0.75
9.91 1.97 0.75
9.94 2.18 0.76
9.95 2.39 0.76
9.95 2.60 0.77
9.96 2.82 0.77
9.99 3.05 0.78
10.02 3.28 0.78
10.05 3.51 0.79
10.08 3.75 0.80
10.11 4.00 0.81
10.14 4.25 0.82
10.13 4.48 0.82
10.12 4.72 0.83
10.12 4.97 0.84
10.13 5.23 0.85
10.13 5.49 0.85
10.13 5.76 0.86
10.14 6.04 0.87
10.14 6.32 0.89
10.15 6.61 0.90
10.14 6.90 0.91
10.13 7.19 0.92
10.11 7.48 0.93
10.08 7.79 0.94
10.06 8.10 0.96
10.06 8.43 0.97
10.09 8.81 0.99
10.08 9.17 1.01
10.07 9.53 1.02
10.05 9.90 1.04
10.03 10.29 1.06
10.01 10.69 1.08
9.99 11.10 1.10
10.01 11.58 1.13
10.03 12.09 1.16
10.01 12.57 1.18
9.96 13.04 1.21
9.91 13.53 1.23
9.86 14.05 1.26
9.80 14.57 1.29
9.70 15.07 1.32
9.60 15.60 1.35
9.49 16.13 1.37
9.33 16.62 1.40
9.13 17.05 1.42
8.92 17.49 1.44
8.69 17.91 1.46
8.44 18.33 1.48
8.25 18.91 1.51
8.06 19.53 1.55
7.84 20.13 1.58
7.63 20.84 1.62
7.46 21.71 1.68
7.25 22.56 1.73
7.10 23.70 1.81
6.90 24.85 1.88
6.61 25.78 1.94
6.31 26.87 2.02
6.10 28.52 2.13
5.82 30.18 2.24
5.54 32.19 2.38
4.91 32.41 2.39
4.26 32.52 2.39
3.61 32.61 2.39
2.96 32.69 2.39
2.30 32.75 2.39
1.72 34.22 2.49
1.03 34.26 2.49
0.34 34.29 2.49
-0.35 34.30 2.49
-1.04 34.30 2.49
-1.73 34.28 2.49
-2.41 34.25 2.49
-3.10 34.21 2.49
-3.79 34.15 2.49
-4.48 34.08 2.49
-5.16 34.00 2.49
-5.84 33.90 2.49
-6.26 32.39 2.39
-6.91 32.27 2.39
-7.55 32.13 2.39
-8.20 31.98 2.39
-8.84 31.82 2.39
-9.48 31.65 2.39
-10.13 31.50 2.39
-10.77 31.30 2.39
-11.40 31.09 2.39
-12.02 30.86 2.39
-12.64 30.62 2.39
-13.26 30.37 2.39
-13.87 30.11 2.39
-14.47 29.83 2.39
-15.07 29.54 2.39
-15.67 29.24 2.39
-16.25 28.92 2.39
-16.83 28.59 2.39
-17.41 28.26 2.39
-17.97 27.91 2.39
-18.53 27.55 2.39
-19.09 27.17 2.39
-19.63 26.79 2.39
-20.17 26.40 2.39
-20.70 25.99 2.39
-21.22 25.57 2.39
-21.73 25.15 2.39
-22.24 24.71 2.39
-22.73 24.26 2.39
-23.22 23.81 2.39
-23.69 23.34 2.39
-24.16 22.86 2.39
-24.62 22.37 2.39
-25.06 21.88 2.39
-25.50 21.37 2.39
-25.93 20.86 2.39
-26.34 20.34 2.39
-26.75 19.80 2.39
-27.14 19.27 2.39
-27.53 18.72 2.39
-27.90 18.16 2.39
-28.26 17.60 2.39
-28.61 17.03 2.39
-28.94 16.45 2.39
-29.27 15.87 2.39
-29.58 15.28 2.39
-29.88 14.68 2.39
-30.17 14.08 2.39
-30.45 13.47 2.39
-30.71 12.86 2.39
-27.68 10.94 2.14
-27.69 10.31 2.12
-27.40 9.58 2.09
-27.71 9.07 2.10
-27.69 8.45 2.08
-27.70 7.85 2.07
-27.75 7.26 2.06
-27.74 6.67 2.05
-27.75 6.08 2.04
-27.79 5.51 2.04
-27.80 4.93 2.03
-28.81 4.52 2.10
-28.89 3.94 2.10
-25.66 2.98 1.86
-25.62 2.45 1.85
-25.59 1.93 1.85
-25.55 1.41 1.84
-25.52 0.90 1.84
-25.55 0.39 1.84
-25.16 -0.13 1.81
-28.32 -0.71 2.04
-27.68 -1.25 2.00
-27.69 -1.81 2.00
-27.70 -2.37 2.00
-27.71 -2.93 2.01
-27.72 -3.50 2.01
-27.73 -4.06 2.02
-27.75 -4.64 2.03
-27.76 -5.21 2.04
-6.96 -1.45 0.51
-27.78 -6.38 2.06
-27.79 -6.97 2.07
-27.80 -7.57 2.08
-27.82 -8.18 2.09
-27.80 -8.79 2.11
-27.82 -9.41 2.12
-27.85 -10.05 2.14
-27.87 -10.69 2.16
-24.69 -10.04 1.93
-24.23 -10.43 1.91
-23.79 -10.81 1.89
-24.07 -11.53 1.93
-25.01 -12.60 2.03
-25.48 -13.49 2.09
-22.81 -12.66 1.89
-21.80 -12.68 1.83
-20.86 -12.70 1.77
-19.97 -12.72 1.72
-19.14 -12.73 1.67
-18.35 -12.75 1.62
-17.61 -12.76 1.58
-16.90 -12.78 1.54
-16.70 -13.16 1.55
-16.80 -13.79 1.58
-16.81 -14.38 1.61
-16.82 -14.98 1.64
-16.75 -15.53 1.66
-16.76 -16.18 1.70
-16.71 -16.79 1.73
-16.68 -17.45 1.76
-15.29 -16.65 1.65
-16.82 -19.07 1.85
-16.83 -19.88 1.90
-16.94 -20.84 1.96
-16.87 -21.62 2.00
-16.77 -22.41 2.04
-16.12 -22.46 2.02
-15.74 -22.89 2.03
-15.32 -23.27 2.04
-15.29 -24.27 2.10
-15.73 -26.11 2.23
-15.03 -26.13 2.21
-14.35 -26.14 2.18
-14.46 -27.65 2.29
-14.55 -29.24 2.39
-13.96 -29.51 2.39
-13.36 -29.78 2.39
-12.75 -30.03 2.39
-12.14 -30.26 2.39
-11.53 -30.49 2.39
-10.90 -30.67 2.39
-10.27 -30.87 2.39
-9.65 -31.06 2.39
-9.02 -31.23 2.39
-8.39 -31.40 2.39
-7.75 -31.55 2.39
-7.28 -32.40 2.45
-6.75 -33.18 2.49
-6.09 -33.29 2.49
-5.41 -33.40 2.49
-4.74 -33.49 2.49
-4.07 -33.56 2.49
-3.39 -33.63 2.49
-2.71 -33.67 2.49
-2.04 -33.71 2.49
-1.36 -33.73 2.49
-0.68 -33.74 2.49
-0.00 -25.81 2.49
0.51 -25.80 2.49
0.99 -24.71 2.39
1.37 -22.79 2.21
1.98 -24.64 2.39
2.47 -24.59 2.39
2.97 -24.53 2.39
3.46 -24.46 2.39
3.95 -24.38 2.39
4.43 -24.29 2.39
4.92 -24.19 2.39
5.49 -24.47 2.43
5.93 -24.16 2.41
6.26 -23.45 2.35
6.55 -22.70 2.29
6.89 -22.18 2.25
7.18 -21.60 2.21
7.44 -20.95 2.16
7.67 -20.29 2.10
7.94 -19.80 2.07
8.20 -19.33 2.04
8.38 -18.69 1.99
8.50 -17.98 1.93
8.60 -17.28 1.87
8.69 -16.62 1.82
8.60 -15.68 1.74
8.31 -14.44 1.62
8.19 -13.61 1.54
8.19 -13.00 1.49
8.18 -12.43 1.45
8.19 -11.91 1.41
8.26 -11.52 1.38
8.32 -11.12 1.35
8.37 -10.73 1.32
8.42 -10.36 1.30
8.46 -10.00 1.27
8.50 -9.64 1.25
8.54 -9.30 1.23
8.57 -8.97 1.21
8.61 -8.65 1.19
8.64 -8.34 1.17
8.67 -8.04 1.15
8.71 -7.76 1.14
8.75 -7.48 1.12
8.79 -7.22 1.11
8.83 -6.96 1.10
8.87 -6.71 1.08
8.91 -6.46 1.07
8.93 -6.20 1.06
8.95 -5.96 1.05
8.96 -5.71 1.03
8.96 -5.46 1.02
8.97 -5.22 1.01
8.97 -4.98 1.00
8.98 -4.75 0.99
8.98 -4.53 0.98
9.00 -4.31 0.97
9.01 -4.10 0.96
9.03 -3.89 0.96
9.05 -3.68 0.95
9.08 -3.48 0.95
9.10 -3.28 0.94
9.12 -3.08 0.94
9.14 -2.89 0.93
9.16 -2.69 0.93
9.17 -2.50 0.93
9.18 -2.30 0.92
9.18 -2.11 0.92
9.19 -1.92 0.91
9.20 -1.73 0.91
9.22 -1.54 0.91
9.23 -1.35 0.91
9.24 -1.17 0.91
9.26 -0.98 0.91
9.27 -0.79 0.91
9.28 -0.61 0.91
9.30 -0.42 0.91
9.32 -0.23 0.91
9.34 -0.05 0.91
9.36 0.14 0.91
9.40 0.33 0.92
9.44 0.52 0.92
9.48 0.72 0.92
9.52 0.91 0.93
9.56 1.11 0.94
9.59 1.31 0.94
9.62 1.51 0.95
9.65 1.71 0.95
9.67 1.92 0.96
9.70 2.13 0.96
9.71 2.33 0.97
9.71 2.54 0.98
9.72 2.75 0.98
9.72 2.97 0.99
9.74 3.19 0.99
9.76 3.41 1.00
9.79 3.65 1.01
9.82 3.88 1.02
9.85 4.12 1.04
9.85 4.36 1.04
9.84 4.59 1.05
9.82 4.83 1.06
9.81 5.07 1.07
9.81 5.32 1.08
9.81 5.58 1.09
9.81 5.84 1.11
9.81 6.11 1.12
9.81 6.39 1.13
9.81 6.68 1.15
9.82 6.97 1.16
9.81 7.26 1.18
9.78 7.55 1.19
9.76 7.85 1.21
9.73 8.16 1.23
9.73 8.50 1.25
9.75 8.87 1.27
9.77 9.25 1.30
9.75 9.61 1.32
9.73 9.98 1.34
9.70 10.36 1.37
9.67 10.75 1.39
9.64 11.16 1.42
9.62 11.60 1.45
9.63 12.09 1.49
9.60 12.57 1.52
9.54 13.03 1.55
9.48 13.50 1.59
9.42 14.00 1.62
9.35 14.52 1.66
9.24 15.01 1.70
9.13 15.53 1.73
9.02 16.06 1.77
8.87 16.56 1.81
8.64 16.95 1.83
8.41 17.33 1.85
8.16 17.73 1.87
7.91 18.13 1.90
7.67 18.58 1.93
7.49 19.25 1.98
7.31 19.96 2.04
7.09 20.63 2.09
6.90 21.46 2.16
6.61 22.06 2.21
6.31 22.74 2.26
6.06 23.67 2.34
5.71 24.32 2.39
5.22 24.43 2.39
4.73 24.54 2.39
4.24 24.64 2.39
3.75 24.72 2.39
3.25 24.80 2.39
2.75 24.87 2.39
2.25 24.93 2.39
1.83 26.05 2.49
1.31 26.09 2.49
0.78 26.12 2.49
0.26 26.14 2.49
-0.27 26.14 2.49
-0.79 26.14 2.49
-1.32 26.13 2.49
-1.84 26.10 2.49
-2.36 26.07 2.49
-2.89 26.02 2.49
-3.41 25.96 2.49
-3.93 25.90 2.49
-4.45 25.82 2.49
-4.97 25.73 2.49
-5.49 25.63 2.49
-6.00 25.52 2.49
-6.25 24.35 2.39
-6.73 24.23 2.39
-7.22 24.10 2.39
-7.71 23.95 2.39
-8.19 23.80 2.39
-8.66 23.63 2.39
-9.14 23.46 2.39
-9.61 23.28 2.39
-10.08 23.08 2.39
-10.55 22.91 2.39
-11.01 22.69 2.39
-11.47 22.47 2.39
-11.92 22.24 2.39
-12.36 22.00 2.39
-12.81 21.75 2.39
-13.24 21.50 2.39
-13.67 21.23 2.39
-14.10 20.95 2.39
-14.52 20.67 2.39
-14.93 20.38 2.39
-15.34 20.08 2.39
-15.74 19.77 2.39
-16.14 19.45 2.39
-16.53 19.13 2.39
-16.91 18.79 2.39
-17.29 18.45 2.39
-17.66 18.10 2.39
-18.02 17.75 2.39
-18.37 17.38 2.39
-18.72 17.01 2.39
-19.06 16.63 2.39
-19.39 16.25 2.39
-19.71 15.86 2.39
-20.03 15.46 2.39
-20.34 15.06 2.39
-20.64 14.65 2.39
-20.93 14.23 2.39
-21.21 13.81 2.39
-21.48 13.38 2.39
-21.75 12.95 2.39
-22.00 12.51 2.39
-18.14 9.84 1.95
-18.29 9.45 1.95
-22.72 11.16 2.39
-22.94 10.70 2.39
-23.15 10.24 2.39
-23.35 9.77 2.39
-23.54 9.30 2.39
-23.72 8.83 2.39
-23.89 8.35 2.39
-24.05 7.87 2.39
-24.21 7.38 2.39
-24.35 6.90 2.39
-24.48 6.41 2.39
-24.60 5.91 2.39
-24.72 5.42 2.39
-24.82 4.92 2.39
-24.91 4.42 2.39
-24.99 3.92 2.39
-25.06 3.42 2.39
-25.12 2.91 2.39
-25.17 2.41 2.39
-25.21 1.90 2.39
-25.25 1.40 2.39
-25.27 0.89 2.39
-25.27 0.38 2.39
-25.27 -0.13 2.39
-25.26 -0.63 2.39
-25.24 -1.14 2.39
-25.21 -1.65 2.39
-25.17 -2.15 2.39
-25.12 -2.66 2.39
-25.05 -3.16 2.39
-24.98 -3.66 2.39
-24.90 -4.16 2.39
-24.81 -4.66 2.39
-6.96 -1.45 0.67
-24.59 -5.65 2.39
-24.47 -6.14 2.39
-24.33 -6.63 2.39
-24.19 -7.11 2.39
-24.04 -7.60 2.39
-23.88 -8.07 2.39
-23.70 -8.55 2.39
-23.52 -9.02 2.39
-23.33 -9.49 2.39
-23.13 -9.95 2.39
-18.81 -8.55 1.96
-22.70 -10.87 2.39
-22.48 -11.32 2.39
-22.24 -11.77 2.39
-21.99 -12.21 2.39
-21.74 -12.64 2.39
-20.86 -12.70 2.32
-19.97 -12.72 2.25
-19.14 -12.73 2.19
-18.35 -12.75 2.13
-17.61 -12.76 2.07
-16.90 -12.78 2.02
-16.70 -13.16 2.03
-16.71 -13.72 2.06
-16.72 -14.30 2.10
-16.73 -14.90 2.14
-16.75 -15.53 2.18
-16.76 -16.18 2.22
-16.33 -16.41 2.21
-15.70 -16.42 2.17
-15.22 -16.57 2.15
-15.09 -17.11 2.18
-15.11 -17.84 2.23
-15.12 -18.60 2.29
-15.39 -19.72 2.39
-14.99 -20.02 2.39
-14.58 -20.31 2.39
-14.16 -20.59 2.39
-13.74 -20.87 2.39
-13.31 -21.13 2.39
-12.88 -21.39 2.39
-12.45 -21.64 2.39
-12.01 -21.88 2.39
-11.56 -22.11 2.39
-11.11 -22.33 2.39
-10.65 -22.51 2.39
-10.19 -22.72 2.39
-9.73 -22.91 2.39
-9.27 -23.09 2.39
-8.80 -23.27 2.39
-8.33 -23.43 2.39
-7.85 -23.59 2.39
-7.37 -23.73 2.39
-7.12 -24.66 2.47
-6.69 -25.03 2.49
-6.18 -25.15 2.49
-5.67 -25.26 2.49
-5.17 -25.37 2.49
-4.65 -25.46 2.49
-4.14 -25.54 2.49
-3.63 -25.61 2.49
-3.11 -25.67 2.49
-2.59 -25.72 2.49
-2.08 -25.76 2.49
-1.56 -25.79 2.49
-1.04 -25.81 2.49
-0.52 -25.82 2.49
-0.00 -20.89 2.49
0.42 -20.88 2.49
0.83 -20.86 2.49
1.20 -19.97 2.39
1.60 -19.94 2.39
2.00 -19.90 2.39
2.40 -19.85 2.39
2.80 -19.80 2.39
3.19 -19.73 2.39
3.59 -19.66 2.39
3.98 -19.58 2.39
4.37 -19.49 2.39
4.76 -19.40 2.39
5.43 -20.33 2.52
5.79 -20.06 2.50
6.14 -19.78 2.48
6.43 -19.32 2.44
6.70 -18.87 2.40
7.01 -18.55 2.38
7.32 -18.27 2.36
7.60 -17.90 2.33
7.84 -17.50 2.30
8.11 -17.16 2.28
8.25 -16.59 2.22
8.25 -15.77 2.13
7.56 -13.79 1.89
7.62 -13.26 1.83
7.64 -12.68 1.78
7.65 -12.14 1.72
7.68 -11.67 1.68
7.74 -11.27 1.64
7.83 -10.91 1.61
7.90 -10.56 1.58
7.98 -10.23 1.56
8.05 -9.91 1.53
8.12 -9.60 1.51
8.18 -9.28 1.49
8.23 -8.97 1.46
8.28 -8.67 1.44
8.33 -8.37 1.42
8.37 -8.08 1.40
8.41 -7.80 1.38
8.46 -7.53 1.36
8.50 -7.27 1.34
8.54 -7.02 1.33
8.59 -6.77 1.31
8.63 -6.52 1.30
8.66 -6.28 1.29
8.69 -6.04 1.27
8.71 -5.80 1.26
8.72 -5.55 1.24
8.73 -5.31 1.23
8.73 -5.08 1.21
8.74 -4.85 1.20
8.75 -4.63 1.19
8.75 -4.41 1.18
8.76 -4.20 1.17
8.78 -3.99 1.16
8.80 -3.79 1.15
8.82 -3.59 1.15
8.85 -3.39 1.14
8.87 -3.20 1.13
8.89 -3.01 1.13
8.91 -2.82 1.12
8.93 -2.63 1.12
8.95 -2.44 1.12
8.96 -2.25 1.11
8.97 -2.06 1.11
8.98 -1.87 1.10
8.99 -1.69 1.10
9.00 -1.50 1.10
9.02 -1.32 1.10
9.03 -1.14 1.09
9.04 -0.96 1.09
9.06 -0.77 1.09
9.07 -0.59 1.09
9.08 -0.41 1.09
9.10 -0.23 1.09
9.12 -0.05 1.10
9.14 0.14 1.10
9.17 0.32 1.10
9.21 0.51 1.11
9.25 0.70 1.11
9.29 0.89 1.12
9.33 1.08 1.13
9.37 1.28 1.13
9.39 1.47 1.14
9.42 1.67 1.15
9.44 1.87 1.15
9.47 2.08 1.16
9.48 2.28 1.17
9.48 2.48 1.18
9.49 2.69 1.18
9.49 2.90 1.19
9.49 3.11 1.20
9.49 3.32 1.20
9.52 3.54 1.22
9.54 3.77 1.23
9.57 4.01 1.24
9.59 4.24 1.26
9.57 4.47 1.26
9.55 4.70 1.27
9.54 4.93 1.28
9.52 5.16 1.30
9.51 5.41 1.31
9.50 5.66 1.32
9.50 5.92 1.34
9.49 6.18 1.35
9.49 6.45 1.37
9.49 6.74 1.39
9.49 7.03 1.41
9.48 7.32 1.43
9.47 7.62 1.45
9.44 7.91 1.47
9.41 8.21 1.49
9.41 8.55 1.52
9.42 8.92 1.55
9.43 9.30 1.58
9.43 9.68 1.61
9.41 10.04 1.64
9.38 10.42 1.67
9.34 10.81 1.70
9.30 11.21 1.74
9.26 11.63 1.77
9.24 12.10 1.81
9.20 12.57 1.85
9.14 13.01 1.89
9.06 13.48 1.93
8.99 13.96 1.98
8.91 14.47 2.02
8.79 14.94 2.06
8.60 15.32 2.09
8.41 15.71 2.12
8.21 16.11 2.15
8.01 16.52 2.18
7.82 16.99 2.22
7.62 17.46 2.26
7.40 17.94 2.30
7.14 18.34 2.34
6.92 18.90 2.39
6.67 19.42 2.44
6.38 19.86 2.47
5.78 19.31 2.39
5.40 19.43 2.39
5.01 19.54 2.39
4.61 19.64 2.39
4.22 19.73 2.39
3.82 19.82 2.39
3.43 19.90 2.39
3.03 19.97 2.39
2.62 20.03 2.39
2.22 20.08 2.39
1.83 20.21 2.40
1.48 21.04 2.49
1.05 21.07 2.49
0.63 21.09 2.49
0.21 21.10 2.49
-0.22 21.10 2.49
-0.64 21.10 2.49
-1.06 21.09 2.49
-1.49 21.07 2.49
-1.91 21.04 2.49
-2.33 21.00 2.49
-2.75 20.95 2.49
-3.17 20.90 2.49
-3.59 20.83 2.49
-4.01 20.76 2.49
-4.43 20.68 2.49
-4.84 20.59 2.49
-5.26 20.50 2.49
-5.67 20.39 2.49
-6.08 20.28 2.49
-6.25 19.44 2.41
-6.60 19.19 2.39
-6.99 19.06 2.39
-7.37 18.92 2.39
-7.75 18.77 2.39
-8.13 18.62 2.39
-8.50 18.45 2.39
-8.87 18.28 2.39
-9.24 18.10 2.39
-9.60 17.92 2.39
-9.96 17.72 2.39
-10.33 17.54 2.39
-10.68 17.33 2.39
-11.02 17.12 2.39
-11.37 16.89 2.39
-11.71 16.66 2.39
-12.04 16.43 2.39
-12.37 16.19 2.39
-12.69 15.94 2.39
-13.01 15.68 2.39
-13.32 15.42 2.39
-13.63 15.15 2.39
-13.93 14.87 2.39
-14.23 14.59 2.39
-14.52 14.30 2.39
-14.81 14.01 2.39
-15.09 13.71 2.39
-15.36 13.41 2.39
-15.63 13.10 2.39
-15.89 12.78 2.39
-16.14 12.46 2.39
-16.39 12.13 2.39
-16.63 11.80 2.39
-16.87 11.47 2.39
-17.09 11.13 2.39
-17.31 10.78 2.39
-17.53 10.43 2.39
-17.73 10.08 2.39
-17.51 9.49 2.34
-18.12 9.36 2.39
-18.31 9.00 2.39
-18.49 8.63 2.39
-18.65 8.25 2.39
-18.82 7.88 2.39
-18.97 7.50 2.39
-19.12 7.12 2.39
-19.26 6.73 2.39
-17.56 5.75 2.17
-18.54 5.66 2.27
-19.62 5.56 2.39
-19.73 5.16 2.39
-19.83 4.77 2.39
-19.92 4.37 2.39
-20.00 3.97 2.39
-20.08 3.56 2.39
-20.14 3.16 2.39
-20.20 2.76 2.39
-17.63 2.05 2.08
-20.29 1.94 2.39
-20.32 1.53 2.39
-20.35 1.13 2.39
-20.37 0.72 2.39
-20.37 0.31 2.39
-20.37 -0.10 2.39
-20.37 -0.51 2.39
-20.35 -0.92 2.39
-17.70 -1.15 2.08
-20.29 -1.73 2.39
-20.25 -2.14 2.39
-20.20 -2.55 2.39
-20.14 -2.95 2.39
-20.08 -3.35 2.39
-20.00 -3.76 2.39
-6.96 -1.45 0.84
-19.83 -4.55 2.39
-17.87 -4.48 2.17
-17.77 -4.84 2.17
-19.51 -5.74 2.39
-19.39 -6.13 2.39
-19.26 -6.51 2.39
-19.12 -6.90 2.39
-18.97 -7.28 2.39
-18.82 -7.66 2.39
-18.66 -8.03 2.39
-18.03 -8.19 2.33
-17.87 -8.56 2.34
-18.13 -9.13 2.39
-17.94 -9.49 2.39
-17.74 -9.85 2.39
-17.54 -10.20 2.39
-17.33 -10.55 2.39
-17.11 -10.89 2.39
-16.88 -11.23 2.39
-16.65 -11.57 2.39
-16.41 -11.90 2.39
-16.17 -12.22 2.39
-15.91 -12.54 2.39
-15.66 -12.85 2.39
-15.39 -13.16 2.39
-15.12 -13.47 2.39
-14.84 -13.76 2.39
-14.56 -14.05 2.39
-14.27 -14.34 2.39
-13.98 -14.62 2.39
-13.68 -14.90 2.39
-13.38 -15.16 2.39
-13.07 -15.43 2.39
-12.75 -15.68 2.39
-12.43 -15.93 2.39
-12.10 -16.17 2.39
-11.77 -16.41 2.39
-11.44 -16.64 2.39
-11.10 -16.86 2.39
-10.75 -17.06 2.39
-10.40 -17.26 2.39
-10.05 -17.46 2.39
-9.69 -17.66 2.39
-9.33 -17.84 2.39
-8.97 -18.02 2.39
-8.61 -18.20 2.39
-8.24 -18.36 2.39
-7.87 -18.52 2.39
-7.49 -18.67 2.39
-7.11 -18.81 2.39
-7.02 -19.76 2.49
-6.62 -19.89 2.49
-6.22 -20.02 2.49
-5.82 -20.13 2.49
-5.41 -20.24 2.49
-5.00 -20.34 2.49
-4.59 -20.43 2.49
-4.18 -20.51 2.49
-3.76 -20.59 2.49
-3.35 -20.66 2.49
-2.93 -20.71 2.49
-2.52 -20.76 2.49
-2.10 -20.81 2.49
-1.68 -20.84 2.49
-1.26 -20.86 2.49
-0.84 -20.88 2.49
-0.42 -20.89 2.49
-0.00 -17.53 2.49
0.35 -17.52 2.49
0.70 -17.50 2.49
1.05 -17.48 2.49
1.34 -16.73 2.39
1.68 -16.70 2.39
2.01 -16.66 2.39
2.35 -16.61 2.39
2.68 -16.56 2.39
3.01 -16.50 2.39
3.34 -16.43 2.39
3.67 -16.36 2.39
4.00 -16.28 2.39
4.32 -16.20 2.39
4.65 -16.10 2.39
4.97 -16.00 2.39
5.71 -17.18 2.58
6.02 -16.95 2.57
6.28 -16.61 2.53
6.51 -16.24 2.50
6.77 -15.95 2.47
7.01 -15.64 2.45
7.24 -15.33 2.42
6.90 -13.88 2.21
7.00 -13.38 2.16
7.08 -12.91 2.10
7.12 -12.38 2.04
7.15 -11.89 1.98
7.21 -11.45 1.93
7.26 -11.04 1.89
7.35 -10.69 1.85
7.43 -10.36 1.82
7.51 -10.04 1.79
7.60 -9.74 1.77
7.69 -9.46 1.74
7.76 -9.17 1.72
7.82 -8.87 1.69
7.87 -8.58 1.67
7.93 -8.30 1.64
7.98 -8.02 1.62
8.03 -7.75 1.60
8.09 -7.50 1.58
8.15 -7.26 1.56
8.22 -7.03 1.55
8.28 -6.80 1.53
8.34 -6.57 1.52
8.39 -6.35 1.51
8.43 -6.12 1.49
8.46 -5.88 1.48
8.48 -5.64 1.46
8.49 -5.41 1.44
8.50 -5.18 1.42
8.51 -4.95 1.41
8.52 -4.73 1.39
8.53 -4.51 1.38
8.53 -4.30 1.37
8.54 -4.09 1.36
8.56 -3.89 1.35
8.58 -3.69 1.34
8.61 -3.50 1.33
8.63 -3.31 1.32
8.65 -3.12 1.32
8.67 -2.93 1.31
8.69 -2.75 1.31
8.71 -2.56 1.30
8.73 -2.38 1.30
8.75 -2.20 1.29
8.76 -2.01 1.29
8.77 -1.83 1.28
8.79 -1.65 1.28
8.80 -1.47 1.28
8.81 -1.29 1.27
8.83 -1.11 1.27
8.84 -0.93 1.27
8.85 -0.76 1.27
8.86 -0.58 1.27
8.88 -0.40 1.27
8.89 -0.22 1.27
8.90 -0.04 1.27
8.92 0.14 1.28
8.96 0.32 1.28
8.99 0.50 1.29
9.03 0.68 1.29
9.06 0.87 1.30
9.10 1.06 1.31
9.14 1.25 1.32
9.17 1.44 1.33
9.20 1.63 1.34
9.22 1.83 1.34
9.25 2.03 1.35
9.26 2.23 1.36
9.27 2.43 1.37
9.27 2.63 1.38
9.27 2.83 1.38
9.27 3.03 1.39
9.27 3.24 1.40
9.26 3.45 1.41
9.28 3.67 1.42
9.30 3.89 1.44
9.32 4.12 1.45
9.32 4.35 1.47
9.30 4.57 1.48
9.28 4.80 1.49
9.26 5.02 1.50
9.24 5.26 1.52
9.22 5.49 1.53
9.20 5.73 1.55
9.19 5.99 1.56
9.18 6.25 1.58
9.18 6.52 1.60
9.17 6.79 1.63
9.17 7.08 1.65
9.16 7.37 1.67
9.15 7.67 1.70
9.13 7.97 1.72
9.09 8.27 1.75
9.09 8.61 1.78
9.10 8.97 1.82
9.10 9.34 1.85
9.11 9.73 1.89
9.09 10.11 1.93
9.05 10.48 1.97
9.01 10.87 2.01
8.97 11.27 2.05
8.92 11.68 2.09
8.87 12.11 2.13
8.82 12.56 2.18
8.72 12.96 2.22
8.57 13.31 2.25
8.41 13.66 2.28
8.25 14.02 2.31
8.08 14.39 2.34
7.91 14.77 2.38
7.73 15.16 2.41
7.54 15.56 2.45
7.34 15.95 2.49
7.13 16.34 2.53
6.92 16.77 2.57
6.68 17.16 2.61
6.40 17.48 2.63
5.49 15.97 2.39
5.17 16.08 2.39
4.85 16.19 2.39
4.52 16.29 2.39
4.19 16.38 2.39
3.87 16.46 2.39
3.53 16.54 2.39
3.20 16.61 2.39
2.87 16.67 2.39
2.53 16.73 2.39
2.20 16.78 2.39
1.86 16.83 2.39
1.59 17.59 2.49
1.24 17.62 2.49
0.88 17.65 2.49
0.53 17.67 2.49
0.17 17.68 2.49
-0.18 17.68 2.49
-0.54 17.67 2.49
-0.89 17.66 2.49
-1.24 17.65 2.49
-1.60 17.62 2.49
-1.95 17.59 2.49
-2.31 17.55 2.49
-2.66 17.50 2.49
-3.01 17.45 2.49
-3.36 17.39 2.49
-3.71 17.32 2.49
-4.06 17.24 2.49
-4.40 17.16 2.49
-4.75 17.07 2.49
-5.09 16.98 2.49
-5.43 16.87 2.49
-5.77 16.76 2.49
-6.10 16.65 2.49
-6.31 16.20 2.44
-6.51 15.77 2.40
-6.80 15.58 2.39
-7.12 15.45 2.39
-7.43 15.30 2.39
-7.73 15.15 2.39
-8.04 15.00 2.39
-8.34 14.83 2.39
-8.63 14.67 2.39
-8.93 14.49 2.39
-9.22 14.31 2.39
-9.50 14.12 2.39
-9.79 13.93 2.39
-10.06 13.73 2.39
-10.34 13.53 2.39
-10.62 13.34 2.39
-10.89 13.12 2.39
-11.15 12.90 2.39
-11.41 12.68 2.39
-11.66 12.45 2.39
-11.91 12.21 2.39
-12.15 11.97 2.39
-12.39 11.72 2.39
-9.94 9.04 1.88
-10.12 8.83 1.88
-13.08 10.96 2.39
-13.30 10.70 2.39
-13.51 10.43 2.39
-13.71 10.15 2.39
-13.92 9.88 2.39
-14.11 9.60 2.39
-14.30 9.31 2.39
-14.49 9.02 2.39
-14.67 8.73 2.39
-11.92 6.77 1.92
-12.07 6.54 1.92
-15.16 7.83 2.39
-15.32 7.53 2.39
-15.47 7.22 2.39
-15.61 6.91 2.39
-15.74 6.59 2.39
-15.87 6.27 2.39
-16.00 5.95 2.39
-16.11 5.63 2.39
-16.22 5.31 2.39
-16.32 4.98 2.39
-16.42 4.65 2.39
-16.51 4.32 2.39
-13.07 3.14 1.88
-13.13 2.88 1.88
-16.74 3.32 2.39
-16.80 2.98 2.39
-16.86 2.64 2.39
-16.90 2.31 2.39
-16.95 1.97 2.39
-16.98 1.63 2.39
-17.01 1.28 2.39
-17.03 0.94 2.39
-17.04 0.60 2.39
-17.05 0.26 2.39
-17.05 -0.08 2.39
-17.04 -0.43 2.39
-17.03 -0.77 2.39
-17.01 -1.11 2.39
-16.98 -1.45 2.39
-16.95 -1.79 2.39
-13.31 -1.68 1.88
-16.86 -2.47 2.39
-16.80 -2.81 2.39
-16.74 -3.14 2.39
-6.96 -1.45 1.00
-16.60 -3.81 2.39
-16.52 -4.14 2.39
-16.43 -4.47 2.39
-16.33 -4.80 2.39
-16.23 -5.13 2.39
-16.12 -5.45 2.39
-16.01 -5.77 2.39
-15.89 -6.09 2.39
-15.76 -6.41 2.39
-15.62 -6.72 2.39
-15.48 -7.03 2.39
-15.34 -7.34 2.39
-15.18 -7.65 2.39
-15.03 -7.95 2.39
-14.86 -8.25 2.39
-14.69 -8.54 2.39
-14.51 -8.83 2.39
-14.33 -9.12 2.39
-14.14 -9.41 2.39
-13.95 -9.69 2.39
-13.75 -9.96 2.39
-13.54 -10.23 2.39
-13.33 -10.50 2.39
-13.12 -10.77 2.39
-12.89 -11.03 2.39
-12.67 -11.28 2.39
-12.44 -11.53 2.39
-12.20 -11.77 2.39
-11.96 -12.01 2.39
-11.71 -12.25 2.39
-11.46 -12.48 2.39
-11.21 -12.71 2.39
-10.95 -12.92 2.39
-10.67 -13.12 2.39
-10.40 -13.33 2.39
-10.13 -13.54 2.39
-9.86 -13.73 2.39
-9.58 -13.93 2.39
-9.29 -14.11 2.39
-9.01 -14.29 2.39
-8.72 -14.47 2.39
-8.42 -14.64 2.39
-8.13 -14.80 2.39
-7.83 -14.96 2.39
-7.52 -15.11 2.39
-7.22 -15.25 2.39
-6.95 -15.49 2.41
-6.88 -16.19 2.49
-6.55 -16.33 2.49
-6.22 -16.45 2.49
-5.89 -16.57 2.49
-5.55 -16.68 2.49
-5.22 -16.79 2.49
-4.88 -16.88 2.49
-4.54 -16.97 2.49
-4.19 -17.06 2.49
-3.85 -17.14 2.49
-3.50 -17.21 2.49
-3.16 -17.27 2.49
-2.81 -17.33 2.49
-2.46 -17.38 2.49
-2.11 -17.42 2.49
-1.76 -17.45 2.49
-1.41 -17.48 2.49
-1.06 -17.50 2.49
-0.71 -17.52 2.49
-0.36 -17.52 2.49
-0.00 -15.08 2.49
0.30 -15.08 2.49
0.60 -15.07 2.49
0.90 -15.05 2.49
1.16 -14.40 2.39
1.44 -14.37 2.39
1.73 -14.34 2.39
2.02 -14.30 2.39
2.31 -14.25 2.39
2.59 -14.20 2.39
2.88 -14.15 2.39
3.16 -14.08 2.39
3.44 -14.02 2.39
3.72 -13.94 2.39
4.00 -13.86 2.39
4.28 -13.78 2.39
4.55 -13.69 2.39
4.82 -13.59 2.39
5.10 -13.49 2.39
5.76 -14.37 2.57
6.04 -14.23 2.56
6.25 -13.95 2.54
6.36 -13.47 2.47
6.47 -13.00 2.41
6.57 -12.56 2.35
6.63 -12.09 2.29
6.70 -11.65 2.23
6.76 -11.24 2.18
6.83 -10.84 2.13
6.89 -10.48 2.08
6.98 -10.16 2.05
7.08 -9.87 2.02
7.17 -9.59 1.99
7.27 -9.32 1.96
7.36 -9.05 1.94
7.43 -8.77 1.91
7.49 -8.49 1.88
7.55 -8.22 1.85
7.60 -7.95 1.83
7.65 -7.69 1.80
7.70 -7.44 1.78
7.76 -7.20 1.76
7.83 -6.97 1.74
7.89 -6.75 1.73
7.96 -6.53 1.71
8.02 -6.32 1.70
8.08 -6.11 1.68
8.13 -5.89 1.67
8.16 -5.67 1.65
8.18 -5.44 1.63
8.20 -5.22 1.61
8.21 -5.00 1.60
8.23 -4.79 1.58
8.24 -4.58 1.57
8.26 -4.37 1.55
8.27 -4.17 1.54
8.28 -3.97 1.53
8.30 -3.77 1.51
8.33 -3.59 1.51
8.37 -3.40 1.50
8.40 -3.22 1.50
8.44 -3.04 1.49
8.46 -2.86 1.49
8.49 -2.68 1.48
8.51 -2.50 1.47
8.53 -2.32 1.47
8.55 -2.14 1.46
8.56 -1.97 1.46
8.58 -1.79 1.46
8.59 -1.61 1.45
8.60 -1.44 1.45
8.62 -1.26 1.45
8.63 -1.09 1.45
8.64 -0.91 1.44
8.66 -0.74 1.44
8.67 -0.57 1.44
8.68 -0.39 1.44
8.69 -0.22 1.44
8.70 -0.04 1.44
8.72 0.13 1.45
8.75 0.31 1.45
8.78 0.49 1.46
8.82 0.67 1.47
8.85 0.85 1.48
8.88 1.03 1.48
8.92 1.22 1.49
8.95 1.41 1.50
8.98 1.60 1.51
9.01 1.79 1.52
9.03 1.98 1.53
9.06 2.18 1.54
9.06 2.37 1.55
9.06 2.57 1.56
9.06 2.76 1.57
9.05 2.96 1.58
9.05 3.17 1.59
9.05 3.37 1.60
9.04 3.58 1.61
9.04 3.79 1.62
9.06 4.01 1.64
9.08 4.24 1.66
9.06 4.45 1.67
9.04 4.67 1.68
9.02 4.89 1.70
8.99 5.12 1.71
8.97 5.34 1.73
8.95 5.58 1.75
8.92 5.81 1.76
8.90 6.06 1.78
8.89 6.31 1.80
8.88 6.58 1.83
8.87 6.85 1.85
8.86 7.13 1.88
8.84 7.41 1.91
8.83 7.71 1.94
8.81 8.01 1.97
8.79 8.32 2.00
8.79 8.66 2.04
8.78 9.01 2.08
8.78 9.38 2.12
8.78 9.76 2.17
8.77 10.16 2.22
8.74 10.54 2.26
8.64 10.86 2.29
8.51 11.15 2.32
8.38 11.45 2.34
8.25 11.75 2.37
8.11 12.06 2.40
7.96 12.37 2.43
7.83 12.73 2.46
7.70 13.09 2.50
7.55 13.45 2.54
7.40 13.82 2.58
7.22 14.17 2.62
7.04 14.52 2.66
6.85 14.89 2.70
6.62 15.17 2.73
5.54 13.42 2.39
5.27 13.53 2.39
4.99 13.64 2.39
4.72 13.74 2.39
4.44 13.83 2.39
4.17 13.92 2.39
3.89 14.00 2.39
3.61 14.08 2.39
3.32 14.15 2.39
3.04 14.22 2.39
2.75 14.28 2.39
2.47 14.34 2.39
2.18 14.38 2.39
1.89 14.43 2.39
1.67 15.09 2.49
1.37 15.12 2.49
1.06 15.15 2.49
0.76 15.17 2.49
0.45 15.19 2.49
0.15 15.19 2.49
-0.16 15.20 2.49
-0.46 15.19 2.49
-0.77 15.18 2.49
-1.07 15.17 2.49
-1.37 15.14 2.49
-1.68 15.12 2.49
-1.98 15.08 2.49
-2.28 15.04 2.49
-2.59 14.99 2.49
-2.89 14.94 2.49
-3.19 14.88 2.49
-3.49 14.82 2.49
-3.78 14.75 2.49
-4.08 14.67 2.49
-4.37 14.59 2.49
-4.67 14.50 2.49
-4.96 14.40 2.49
-5.24 14.30 2.49
-5.53 14.20 2.49
-5.82 14.08 2.49
-6.10 13.97 2.49
-6.36 13.80 2.49
-6.38 13.15 2.39
-6.64 13.02 2.39
-6.90 12.88 2.39
-7.16 12.74 2.39
-7.42 12.60 2.39
-7.67 12.45 2.39
-7.92 12.29 2.39
-8.16 12.13 2.39
-8.41 11.97 2.39
-8.65 11.80 2.39
-8.88 11.62 2.39
-9.11 11.44 2.39
-9.34 11.26 2.39
-9.57 11.07 2.39
-9.79 10.88 2.39
-10.01 10.68 2.39
-10.22 10.48 2.39
-10.43 10.27 2.39
-10.64 10.07 2.39
-10.84 9.86 2.39
-11.04 9.64 2.39
-11.23 9.41 2.39
-11.42 9.19 2.39
-11.60 8.96 2.39
-11.78 8.72 2.39
-11.95 8.48 2.39
-12.12 8.24 2.39
-12.28 8.00 2.39
-12.44 7.75 2.39
-12.60 7.50 2.39
-12.74 7.24 2.39
-12.89 6.99 2.39
-13.02 6.73 2.39
-13.16 6.46 2.39
-13.28 6.20 2.39
-13.41 5.93 2.39
-13.52 5.66 2.39
-13.63 5.39 2.39
-13.74 5.11 2.39
-13.84 4.84 2.39
-13.93 4.56 2.39
-14.02 4.28 2.39
-14.10 4.00 2.39
-14.18 3.71 2.39
-14.25 3.43 2.39
-14.32 3.14 2.39
-14.38 2.85 2.39
-12.25 2.17 2.03
-14.48 2.27 2.39
-14.52 1.98 2.39
-14.56 1.69 2.39
-14.59 1.40 2.39
-14.61 1.10 2.39
-14.63 0.81 2.39
-14.64 0.52 2.39
-14.65 0.22 2.39
-14.65 -0.07 2.39
-14.64 -0.37 2.39
-14.63 -0.66 2.39
-14.61 -0.95 2.39
-14.59 -1.25 2.39
-14.56 -1.54 2.39
-14.52 -1.83 2.39
-14.48 -2.12 2.39
-14.44 -2.41 2.39
-14.38 -2.70 2.39
-6.96 -1.45 1.16
-14.26 -3.27 2.39
-14.19 -3.56 2.39
-14.11 -3.84 2.39
-14.03 -4.13 2.39
-13.95 -4.41 2.39
-13.85 -4.68 2.39
-13.75 -4.96 2.39
-13.65 -5.23 2.39
-13.54 -5.51 2.39
-13.43 -5.78 2.39
-13.31 -6.04 2.39
-10.38 -4.97 1.88
-10.28 -5.17 1.88
-10.17 -5.38 1.88
-10.06 -5.58 1.88
-9.94 -5.78 1.88
-12.47 -7.59 2.39
-12.32 -7.84 2.39
-12.15 -8.08 2.39
-11.99 -8.33 2.39
-11.82 -8.56 2.39
-11.64 -8.80 2.39
-11.46 -9.03 2.39
-11.27 -9.25 2.39
-11.08 -9.48 2.39
-10.89 -9.70 2.39
-10.68 -9.90 2.39
-10.48 -10.11 2.39
-10.27 -10.32 2.39
-10.06 -10.52 2.39
-9.84 -10.72 2.39
-9.63 -10.91 2.39
-9.40 -11.10 2.39
-9.18 -11.28 2.39
-8.95 -11.46 2.39
-8.71 -11.64 2.39
-8.48 -11.81 2.39
-8.24 -11.98 2.39
-7.99 -12.14 2.39
-7.75 -12.29 2.39
-7.50 -12.44 2.39
-7.24 -12.59 2.39
-6.99 -12.73 2.39
-6.89 -13.18 2.45
-6.75 -13.56 2.49
-6.47 -13.69 2.49
-6.20 -13.81 2.49
-5.92 -13.93 2.49
-5.64 -14.04 2.49
-5.35 -14.15 2.49
-5.07 -14.25 2.49
-4.78 -14.35 2.49
-4.49 -14.44 2.49
-4.20 -14.52 2.49
-3.90 -14.60 2.49
-3.61 -14.68 2.49
-3.31 -14.74 2.49
-3.02 -14.80 2.49
-2.72 -14.86 2.49
-2.42 -14.91 2.49
-2.12 -14.95 2.49
-1.82 -14.99 2.49
-1.52 -15.02 2.49
-1.21 -15.04 2.49
-0.91 -15.06 2.49
-0.61 -15.07 2.49
-0.31 -15.08 2.49
-0.00 -13.22 2.49
0.26 -13.22 2.49
0.53 -13.21 2.49
0.79 -13.20 2.49
1.06 -13.17 2.49
1.27 -12.60 2.39
1.52 -12.57 2.39
1.77 -12.54 2.39
2.02 -12.50 2.39
2.27 -12.46 2.39
2.52 -12.41 2.39
2.77 -12.35 2.39
3.02 -12.29 2.39
3.26 -12.23 2.39
3.51 -12.16 2.39
3.75 -12.08 2.39
3.99 -12.00 2.39
4.23 -11.92 2.39
4.47 -11.83 2.39
4.71 -11.74 2.39
4.94 -11.64 2.39
5.17 -11.54 2.39
5.65 -11.97 2.50
5.89 -11.85 2.50
6.11 -11.69 2.49
6.27 -11.42 2.46
6.34 -11.03 2.41
6.41 -10.65 2.35
6.48 -10.29 2.30
6.56 -9.97 2.26
6.67 -9.70 2.23
6.77 -9.44 2.20
6.87 -9.18 2.17
6.96 -8.93 2.14
7.05 -8.68 2.12
7.12 -8.41 2.09
7.18 -8.14 2.06
7.24 -7.89 2.03
7.30 -7.64 2.00
7.35 -7.39 1.97
7.40 -7.15 1.95
7.46 -6.92 1.93
7.53 -6.71 1.91
7.59 -6.50 1.89
7.66 -6.29 1.88
7.72 -6.08 1.86
7.77 -5.88 1.85
7.80 -5.66 1.83
7.83 -5.44 1.81
7.86 -5.23 1.79
7.88 -5.02 1.77
7.90 -4.81 1.75
7.92 -4.61 1.74
7.94 -4.41 1.72
7.95 -4.21 1.70
7.97 -4.01 1.69
7.98 -3.82 1.68
8.00 -3.63 1.66
8.02 -3.45 1.65
8.05 -3.28 1.65
8.09 -3.10 1.64
8.12 -2.93 1.64
8.15 -2.76 1.63
8.19 -2.59 1.63
8.22 -2.42 1.62
8.25 -2.25 1.62
8.27 -2.08 1.62
8.30 -1.91 1.61
8.31 -1.73 1.61
8.33 -1.56 1.61
8.35 -1.40 1.60
8.38 -1.23 1.60
8.40 -1.06 1.60
8.42 -0.89 1.60
8.44 -0.72 1.60
8.46 -0.55 1.60
8.48 -0.38 1.61
8.49 -0.21 1.61
8.51 -0.04 1.61
8.52 0.13 1.61
8.55 0.30 1.62
8.58 0.48 1.63
8.61 0.65 1.63
8.64 0.83 1.64
8.68 1.01 1.65
8.71 1.19 1.66
8.74 1.37 1.67
8.77 1.56 1.69
8.80 1.75 1.70
8.83 1.94 1.71
8.85 2.13 1.72
8.85 2.32 1.73
8.85 2.51 1.74
8.85 2.70 1.75
8.85 2.90 1.76
8.84 3.09 1.77
8.84 3.29 1.78
8.84 3.49 1.80
8.83 3.70 1.81
8.82 3.91 1.82
8.83 4.12 1.84
8.82 4.34 1.86
8.80 4.55 1.87
8.78 4.76 1.89
8.76 4.98 1.90
8.73 5.20 1.92
8.71 5.43 1.94
8.68 5.66 1.96
8.65 5.89 1.98
8.61 6.12 1.99
8.55 6.34 2.01
8.52 6.58 2.03
8.48 6.83 2.05
8.44 7.08 2.08
8.40 7.34 2.10
8.35 7.60 2.13
8.30 7.86 2.16
8.25 8.13 2.18
8.19 8.41 2.21
8.13 8.69 2.24
8.07 8.98 2.27
8.03 9.30 2.31
7.99 9.63 2.36
7.94 9.97 2.40
7.89 10.33 2.45
7.77 10.61 2.48
7.65 10.90 2.51
7.53 11.20 2.54
7.40 11.49 2.57
7.26 11.80 2.61
7.11 12.09 2.64
6.95 12.39 2.67
6.81 12.72 2.71
6.62 12.99 2.74
5.55 11.44 2.39
5.32 11.55 2.39
5.09 11.66 2.39
4.85 11.76 2.39
4.61 11.86 2.39
4.38 11.95 2.39
4.14 12.04 2.39
3.89 12.12 2.39
3.65 12.20 2.39
3.41 12.27 2.39
3.16 12.34 2.39
2.91 12.40 2.39
2.66 12.46 2.39
2.41 12.51 2.39
2.16 12.56 2.39
1.91 12.60 2.39
1.68 12.79 2.42
1.46 13.22 2.49
1.20 13.25 2.49
0.93 13.27 2.49
0.66 13.29 2.49
0.40 13.30 2.49
0.13 13.31 2.49
-0.14 13.31 2.49
-0.40 13.31 2.49
-0.67 13.30 2.49
-0.94 13.29 2.49
-1.20 13.27 2.49
-1.47 13.24 2.49
-1.74 13.21 2.49
-2.00 13.18 2.49
-2.27 13.13 2.49
-2.53 13.09 2.49
-2.79 13.04 2.49
-3.05 12.98 2.49
-3.31 12.92 2.49
-3.57 12.85 2.49
-3.83 12.78 2.49
-4.09 12.70 2.49
-4.34 12.62 2.49
-4.59 12.53 2.49
-4.84 12.43 2.49
-5.09 12.34 2.49
-5.34 12.23 2.49
-5.59 12.12 2.49
-5.83 12.01 2.49
-6.07 11.89 2.49
-6.31 11.77 2.49
-6.41 11.40 2.44
-6.50 11.03 2.39
-6.72 10.90 2.39
-6.93 10.76 2.39
-7.15 10.62 2.39
-7.36 10.48 2.39
-7.57 10.33 2.39
-7.78 10.18 2.39
-7.98 10.02 2.39
-8.18 9.86 2.39
-8.38 9.69 2.39
-8.57 9.52 2.39
-8.76 9.35 2.39
-8.95 9.17 2.39
-9.13 8.99 2.39
-9.31 8.81 2.39
-9.48 8.62 2.39
-9.66 8.43 2.39
-9.82 8.23 2.39
-9.99 8.03 2.39
-10.15 7.83 2.39
-10.30 7.63 2.39
-10.45 7.42 2.39
-10.61 7.22 2.39
-10.76 7.00 2.39
-10.89 6.79 2.39
-11.03 6.57 2.39
-11.16 6.34 2.39
-11.28 6.12 2.39
-11.40 5.89 2.39
-11.52 5.66 2.39
-11.63 5.43 2.39
-11.74 5.19 2.39
-11.84 4.96 2.39
-9.40 3.72 1.88
-9.47 3.53 1.88
-9.54 3.33 1.88
-12.20 3.99 2.39
-12.28 3.75 2.39
-12.35 3.50 2.39
-12.42 3.25 2.39
-12.48 3.00 2.39
-12.53 2.75 2.39
-12.59 2.50 2.39
-12.25 2.17 2.32
-12.68 1.99 2.39
-12.71 1.73 2.39
-12.74 1.48 2.39
-12.77 1.22 2.39
-12.79 0.97 2.39
-12.81 0.71 2.39
-12.82 0.45 2.39
-12.82 0.19 2.39
-12.83 -0.06 2.39
-10.10 -0.25 1.89
-10.11 -0.46 1.89
-10.08 -0.66 1.88
-10.06 -0.86 1.88
-10.04 -1.06 1.88
-12.72 -1.60 2.39
-12.68 -1.86 2.39
-12.64 -2.11 2.39
-12.60 -2.36 2.39
-6.96 -1.45 1.33
-12.49 -2.87 2.39
-12.43 -3.12 2.39
-12.36 -3.37 2.39
-12.29 -3.61 2.39
-12.21 -3.86 2.39
-12.13 -4.10 2.39
-12.05 -4.34 2.39
-11.96 -4.58 2.39
-11.86 -4.82 2.39
-11.76 -5.06 2.39
-11.65 -5.29 2.39
-11.54 -5.53 2.39
-11.43 -5.76 2.39
-11.31 -5.98 2.39
-11.19 -6.21 2.39
-11.06 -6.43 2.39
-10.93 -6.65 2.39
-10.78 -6.86 2.39
-10.63 -7.07 2.39
-10.49 -7.28 2.39
-10.34 -7.49 2.39
-10.19 -7.70 2.39
-10.03 -7.90 2.39
-9.87 -8.10 2.39
-9.70 -8.29 2.39
-9.53 -8.48 2.39
-9.36 -8.67 2.39
-9.18 -8.86 2.39
-9.00 -9.04 2.39
-8.81 -9.22 2.39
-8.63 -9.39 2.39
-8.43 -9.56 2.39
-8.24 -9.73 2.39
-8.04 -9.89 2.39
-7.84 -10.05 2.39
-7.64 -10.20 2.39
-7.43 -10.35 2.39
-7.22 -10.49 2.39
-7.00 -10.64 2.39
-6.85 -10.88 2.41
-6.85 -11.37 2.49
-6.62 -11.51 2.49
-6.39 -11.64 2.49
-6.15 -11.76 2.49
-5.92 -11.88 2.49
-5.67 -11.99 2.49
-5.43 -12.10 2.49
-5.19 -12.21 2.49
-4.94 -12.31 2.49
-4.69 -12.40 2.49
-4.44 -12.49 2.49
-4.19 -12.58 2.49
-3.93 -12.66 2.49
-3.68 -12.73 2.49
-3.42 -12.80 2.49
-3.16 -12.86 2.49
-2.90 -12.92 2.49
-2.64 -12.98 2.49
-2.38 -13.03 2.49
-2.12 -13.07 2.49
-1.86 -13.11 2.49
-1.59 -13.14 2.49
-1.33 -13.17 2.49
-1.06 -13.19 2.49
-0.80 -13.21 2.49
-0.53 -13.22 2.49
-0.27 -13.22 2.49
-0.00 -11.76 2.49
0.23 -11.76 2.49
0.47 -11.75 2.49
0.70 -11.74 2.49
0.94 -11.72 2.49
1.17 -11.70 2.49
1.35 -11.19 2.39
1.58 -11.16 2.39
1.80 -11.12 2.39
2.02 -11.08 2.39
2.24 -11.04 2.39
2.46 -10.99 2.39
2.68 -10.94 2.39
2.90 -10.88 2.39
3.12 -10.82 2.39
3.34 -10.75 2.39
3.55 -10.68 2.39
3.76 -10.61 2.39
3.98 -10.53 2.39
4.19 -10.44 2.39
4.39 -10.36 2.39
4.60 -10.27 2.39
4.81 -10.17 2.39
5.01 -10.07 2.39
5.21 -9.97 2.39
5.55 -10.13 2.46
5.71 -9.93 2.44
5.89 -9.79 2.43
6.08 -9.65 2.43
6.27 -9.53 2.43
6.38 -9.29 2.40
6.49 -9.04 2.37
6.58 -8.80 2.34
6.68 -8.56 2.31
6.76 -8.32 2.28
6.83 -8.07 2.25
6.89 -7.82 2.22
6.96 -7.58 2.19
7.01 -7.34 2.16
7.07 -7.11 2.13
7.12 -6.88 2.11
7.18 -6.66 2.08
7.25 -6.46 2.07
7.31 -6.25 2.05
7.37 -6.06 2.03
7.43 -5.86 2.01
7.46 -5.64 1.99
7.50 -5.44 1.97
7.53 -5.23 1.95
7.56 -5.03 1.93
7.58 -4.83 1.91
7.61 -4.63 1.90
7.63 -4.44 1.88
7.65 -4.25 1.86
7.66 -4.06 1.85
7.68 -3.87 1.83
7.70 -3.69 1.82
7.72 -3.51 1.80
7.74 -3.33 1.79
7.76 -3.16 1.78
7.79 -2.99 1.78
7.82 -2.82 1.77
7.86 -2.66 1.77
7.89 -2.49 1.76
7.92 -2.33 1.76
7.95 -2.16 1.75
7.98 -2.00 1.75
8.00 -1.84 1.75
8.00 -1.67 1.74
8.00 -1.50 1.73
8.01 -1.34 1.73
8.03 -1.18 1.73
8.06 -1.02 1.73
8.08 -0.85 1.73
8.09 -0.69 1.73
8.11 -0.53 1.73
8.13 -0.37 1.73
8.14 -0.20 1.73
8.16 -0.04 1.74
8.17 0.12 1.74
8.17 0.29 1.74
8.17 0.45 1.74
8.21 0.62 1.75
8.29 0.79 1.77
8.37 0.97 1.79
8.45 1.15 1.81
8.53 1.34 1.84
8.56 1.52 1.85
8.59 1.71 1.86
8.62 1.89 1.88
8.65 2.08 1.89
8.66 2.27 1.90
8.66 2.45 1.91
8.65 2.64 1.92
8.65 2.83 1.93
8.65 3.02 1.95
8.64 3.22 1.96
8.63 3.41 1.97
8.63 3.61 1.99
8.62 3.82 2.00
8.61 4.02 2.02
8.60 4.23 2.03
8.55 4.42 2.04
8.49 4.61 2.05
8.43 4.79 2.06
8.36 4.98 2.06
8.29 5.17 2.07
8.22 5.35 2.08
8.15 5.54 2.09
8.07 5.73 2.10
7.99 5.92 2.11
7.91 6.11 2.12
7.84 6.31 2.13
7.83 6.56 2.17
7.82 6.83 2.20
7.80 7.10 2.24
7.76 7.34 2.26
7.70 7.59 2.29
7.64 7.84 2.32
