ply
format ascii 1.0
element vertex 2787
property float32 x
property float32 y
property float32 z
end_header
-20.05 6.11 -1.88
-20.27 5.74 -1.89
-20.50 5.36 -1.90
-20.72 4.97 -1.91
-20.95 4.59 -1.92
-21.18 4.19 -1.93
-21.42 3.79 -1.94
-20.46 3.20 -1.85
-20.31 2.76 -1.83
-20.64 2.39 -1.85
-20.85 1.99 -1.86
-20.56 1.54 -1.83
-20.79 1.14 -1.85
-21.03 0.73 -1.87
-21.28 0.31 -1.89
-22.01 -0.12 -1.95
-22.27 -0.57 -1.97
-22.54 -1.03 -2.00
-22.82 -1.50 -2.02
-23.11 -1.98 -2.05
-23.40 -2.48 -2.08
-23.70 -3.00 -2.11
-46.02 -16.63 -4.26
-43.34 -16.65 -4.04
-40.91 -16.67 -3.84
-39.85 -17.17 -3.77
-39.85 -18.13 -3.80
-34.53 -16.56 -3.32
-33.17 -16.73 -3.21
-31.80 -16.85 -3.11
-30.14 -16.75 -2.97
-30.05 -17.50 -3.00
-30.23 -18.43 -3.05
-29.16 -18.59 -2.97
-27.99 -18.64 -2.89
-27.99 -19.47 -2.92
-28.00 -20.32 -2.96
-27.01 -20.44 -2.90
-26.53 -20.93 -2.89
-26.63 -21.89 -2.94
-26.55 -22.73 -2.98
-26.65 -23.76 -3.04
-26.56 -24.66 -3.08
-26.69 -25.80 -3.15
-26.58 -26.74 -3.20
-26.59 -27.84 -3.26
-26.60 -29.00 -3.33
-27.43 -31.14 -3.50
-27.84 -32.92 -3.63
-27.74 -34.16 -3.70
-27.87 -35.76 -3.81
-27.76 -37.14 -3.89
-27.89 -38.92 -4.02
-27.71 -40.35 -4.10
-19.96 -42.27 -3.87
2.56 36.20 -2.38
-20.32 23.52 -2.10
-20.66 22.96 -2.08
-20.98 22.40 -2.07
-21.31 21.85 -2.06
-21.29 20.97 -2.02
-21.60 20.44 -2.01
-21.82 19.83 -1.99
-22.67 19.78 -2.03
-22.88 19.18 -2.01
-21.06 16.94 -1.82
-21.34 16.47 -1.82
-21.61 16.00 -1.81
-21.89 15.53 -1.81
-22.16 15.07 -1.81
-22.43 14.60 -1.80
-24.24 15.09 -1.92
-42.45 23.01 -3.25
-42.95 22.18 -3.25
-43.44 21.34 -3.25
-44.05 20.55 -3.27
-31.42 13.90 -2.31
-24.13 10.10 -1.76
-22.72 8.98 -1.64
-21.19 7.88 -1.52
-19.62 6.85 -1.39
-19.83 6.49 -1.40
-20.05 6.11 -1.40
-20.27 5.74 -1.41
-20.50 5.36 -1.42
-20.72 4.98 -1.42
-20.95 4.59 -1.43
-21.18 4.19 -1.44
-21.41 3.80 -1.45
-20.47 3.21 -1.38
-20.31 2.76 -1.36
-20.64 2.39 -1.38
-20.85 1.99 -1.39
-20.55 1.55 -1.37
-20.79 1.14 -1.38
-21.03 0.73 -1.39
-21.27 0.32 -1.40
-22.01 -0.12 -1.45
-22.27 -0.56 -1.47
-22.54 -1.02 -1.48
-22.82 -1.50 -1.50
-23.10 -1.98 -1.52
-23.40 -2.48 -1.54
-23.70 -3.00 -1.56
-24.01 -3.53 -1.59
-24.33 -4.07 -1.61
-46.04 -16.63 -3.15
-45.72 -17.56 -3.15
-40.93 -16.67 -2.84
-39.85 -17.17 -2.78
-39.85 -18.13 -2.80
-34.99 -16.77 -2.48
-33.17 -16.73 -2.37
-31.81 -16.85 -2.29
-30.15 -16.75 -2.19
-30.05 -17.50 -2.21
-30.23 -18.43 -2.25
-29.17 -18.59 -2.19
-27.99 -18.64 -2.13
-27.99 -19.46 -2.15
-28.00 -20.32 -2.18
-27.02 -20.44 -2.13
-26.53 -20.93 -2.12
-26.63 -21.89 -2.16
-26.55 -22.72 -2.19
-26.65 -23.75 -2.23
-26.56 -24.65 -2.26
-26.69 -25.79 -2.31
-26.64 -26.79 -2.35
-29.72 -31.12 -2.67
-28.56 -31.13 -2.61
-27.44 -31.14 -2.56
-27.73 -32.77 -2.65
-27.74 -34.15 -2.71
-27.75 -35.60 -2.77
-27.76 -37.13 -2.84
-27.77 -38.74 -2.92
-27.71 -40.35 -2.99
-22.07 -42.25 -2.88
-21.19 -42.63 -2.87
-20.14 -42.64 -2.84
-19.11 -42.65 -2.81
-18.09 -42.66 -2.78
-17.57 -43.86 -2.83
-7.00 -31.22 -1.89
-20.32 23.52 -1.40
-20.66 22.96 -1.39
-20.98 22.40 -1.38
-21.31 21.85 -1.37
-21.29 20.97 -1.34
-21.60 20.44 -1.34
-21.82 19.83 -1.32
-22.67 19.78 -1.35
-22.88 19.18 -1.34
-21.06 16.94 -1.21
-21.34 16.47 -1.21
-21.61 16.00 -1.21
-21.89 15.53 -1.20
-22.16 15.07 -1.20
-22.43 14.60 -1.20
-24.21 15.08 -1.28
-42.45 23.01 -2.16
-42.94 22.18 -2.16
-43.44 21.34 -2.16
-44.05 20.55 -2.17
-31.43 13.90 -1.53
-30.03 12.57 -1.45
-23.73 9.38 -1.14
-21.20 7.89 -1.01
-19.62 6.85 -0.92
-19.83 6.49 -0.93
-20.05 6.11 -0.93
-20.27 5.74 -0.93
-20.49 5.36 -0.94
-20.72 4.98 -0.94
-20.95 4.59 -0.95
-21.18 4.20 -0.95
-21.41 3.80 -0.96
-20.47 3.21 -0.91
-20.33 2.77 -0.90
-20.56 2.38 -0.91
-20.77 1.98 -0.91
-21.01 1.58 -0.92
-21.25 1.17 -0.93
-21.50 0.75 -0.94
-21.75 0.32 -0.94
-22.01 -0.11 -0.95
-22.27 -0.56 -0.96
-22.54 -1.02 -0.97
-22.82 -1.49 -0.99
-23.10 -1.98 -1.00
-23.40 -2.48 -1.01
-23.70 -2.99 -1.02
-24.01 -3.52 -1.04
-24.33 -4.07 -1.05
-40.94 -16.67 -1.84
-39.85 -17.16 -1.80
-39.85 -18.12 -1.81
-34.02 -16.30 -1.56
-32.36 -16.32 -1.50
-31.71 -16.79 -1.48
-30.16 -16.75 -1.42
-28.80 -16.76 -1.36
-27.97 -17.05 -1.34
-27.98 -17.83 -1.35
-27.99 -18.63 -1.37
-27.99 -19.46 -1.38
-28.00 -20.31 -1.40
-27.03 -20.44 -1.37
-26.53 -20.92 -1.36
-26.40 -21.69 -1.37
-26.13 -22.37 -1.37
-26.14 -23.29 -1.40
-26.56 -24.65 -1.44
-26.57 -25.66 -1.46
-26.58 -26.72 -1.49
-26.59 -27.83 -1.52
-26.60 -28.98 -1.55
-27.44 -31.14 -1.63
-27.84 -32.90 -1.68
-27.74 -34.14 -1.71
-27.87 -35.74 -1.76
-27.76 -37.12 -1.80
-27.89 -38.90 -1.85
-27.72 -40.35 -1.89
-24.01 -43.77 -1.90
-22.28 -42.62 -1.82
-21.20 -42.63 -1.80
-20.15 -42.64 -1.78
-19.11 -42.65 -1.76
-18.11 -42.69 -1.74
-17.10 -42.66 -1.72
-16.41 -43.44 -1.73
-16.62 -46.83 -1.85
-7.00 -31.22 -1.17
12.51 -27.90 -0.36
12.49 -26.41 -0.34
12.47 -25.05 -0.33
12.44 -23.79 -0.31
12.41 -22.61 -0.30
12.38 -21.53 -0.29
12.36 -20.52 -0.28
12.34 -19.59 -0.27
12.38 -18.80 -0.26
12.40 -18.04 -0.25
12.42 -17.32 -0.25
12.39 -16.55 -0.24
12.36 -15.85 -0.23
12.31 -15.15 -0.22
12.13 -14.33 -0.21
12.09 -13.71 -0.21
11.56 -12.59 -0.20
10.45 -10.93 -0.17
10.41 -10.46 -0.17
10.36 -10.00 -0.16
10.32 -9.57 -0.16
10.28 -9.16 -0.16
10.01 -8.56 -0.15
9.89 -8.12 -0.15
9.86 -7.77 -0.14
9.82 -7.43 -0.14
9.79 -7.10 -0.14
9.78 -6.80 -0.14
9.77 -6.50 -0.14
9.77 -6.22 -0.13
9.77 -5.95 -0.13
9.77 -5.69 -0.13
9.78 -5.43 -0.13
9.78 -5.18 -0.13
9.74 -4.91 -0.13
9.62 -4.61 -0.12
9.51 -4.32 -0.12
9.40 -4.05 -0.12
9.30 -3.78 -0.12
9.20 -3.53 -0.12
9.20 -3.32 -0.12
9.19 -3.11 -0.12
9.13 -2.88 -0.11
9.00 -2.65 -0.11
8.87 -2.42 -0.11
8.76 -2.20 -0.11
8.67 -1.99 -0.11
8.65 -1.81 -0.11
8.64 -1.62 -0.11
8.62 -1.44 -0.11
8.61 -1.26 -0.11
8.59 -1.08 -0.11
8.58 -0.91 -0.11
8.59 -0.74 -0.11
8.60 -0.56 -0.11
8.61 -0.39 -0.11
8.62 -0.22 -0.11
8.63 -0.04 -0.11
8.64 0.13 -0.11
8.65 0.30 -0.11
8.66 0.48 -0.11
8.67 0.65 -0.12
8.68 0.83 -0.12
8.69 1.01 -0.12
8.80 1.20 -0.12
8.96 1.41 -0.12
9.13 1.62 -0.13
9.31 1.84 -0.13
9.49 2.08 -0.13
9.60 2.31 -0.14
9.62 2.52 -0.14
9.63 2.73 -0.14
9.65 2.94 -0.14
9.66 3.16 -0.15
9.66 3.38 -0.15
9.66 3.60 -0.15
9.66 3.82 -0.15
9.66 4.04 -0.15
9.67 4.28 -0.16
9.68 4.52 -0.16
9.69 4.76 -0.16
9.71 5.01 -0.17
10.00 5.42 -0.17
10.24 5.82 -0.18
10.25 6.10 -0.18
10.26 6.39 -0.19
10.28 6.69 -0.19
10.30 7.00 -0.20
10.37 7.36 -0.20
10.43 7.72 -0.21
10.44 8.06 -0.21
10.46 8.41 -0.22
10.47 8.78 -0.22
10.49 9.16 -0.23
10.53 9.57 -0.24
10.55 9.98 -0.24
10.58 10.42 -0.25
10.60 10.87 -0.26
10.63 11.35 -0.26
10.67 11.85 -0.27
10.70 12.39 -0.28
10.74 12.95 -0.29
10.78 13.54 -0.30
10.80 14.13 -0.31
10.82 14.76 -0.32
10.64 38.30 -0.77
-20.31 23.51 -0.69
-20.64 22.94 -0.69
-20.97 22.38 -0.69
-21.29 21.83 -0.68
-21.61 21.29 -0.68
-21.93 20.75 -0.68
-22.24 20.22 -0.67
-22.56 19.69 -0.67
-22.86 19.16 -0.67
-21.04 16.93 -0.60
-21.32 16.46 -0.60
-21.60 15.99 -0.60
-21.87 15.52 -0.60
-22.14 15.06 -0.60
-22.42 14.59 -0.60
-25.62 15.96 -0.67
-42.45 23.02 -1.07
-42.94 22.18 -1.07
-43.44 21.34 -1.07
-43.93 20.50 -1.07
-31.78 14.06 -0.77
-30.04 12.58 -0.72
-24.00 9.48 -0.57
-21.43 7.98 -0.50
-19.64 6.86 -0.45
-19.85 6.49 -0.46
-20.07 6.12 -0.46
-20.29 5.75 -0.46
-20.51 5.37 -0.46
-20.74 4.98 -0.46
-20.97 4.59 -0.46
-21.20 4.20 -0.46
-21.43 3.80 -0.47
-20.59 3.23 -0.45
-20.33 2.77 -0.44
-20.56 2.38 -0.44
-20.79 1.99 -0.44
-21.03 1.58 -0.45
-21.27 1.17 -0.45
-21.52 0.75 -0.45
-21.77 0.33 -0.45
-22.03 -0.11 -0.46
-22.29 -0.56 -0.46
-22.56 -1.02 -0.47
-22.84 -1.49 -0.47
-23.12 -1.98 -0.48
-23.42 -2.48 -0.48
-23.72 -2.99 -0.49
-24.03 -3.52 -0.49
-24.36 -4.07 -0.50
-43.38 -16.65 -0.89
-40.95 -16.67 -0.85
-39.85 -17.16 -0.82
-39.85 -18.12 -0.83
-34.89 -16.71 -0.73
-33.19 -16.73 -0.70
-34.99 -18.53 -0.74
-33.38 -18.54 -0.71
-31.88 -18.55 -0.68
-30.47 -18.56 -0.65
-29.15 -18.57 -0.63
-27.92 -18.58 -0.61
-27.86 -19.36 -0.61
-27.87 -20.21 -0.61
-27.88 -21.08 -0.62
-27.88 -21.98 -0.63
-27.89 -22.91 -0.63
-27.90 -23.87 -0.64
-27.91 -24.86 -0.65
-29.10 -26.99 -0.68
-29.16 -28.16 -0.69
-29.12 -29.27 -0.70
-28.62 -29.95 -0.70
-28.32 -30.85 -0.70
-27.45 -31.14 -0.69
-27.69 -32.71 -0.71
-27.72 -34.11 -0.72
-27.75 -35.58 -0.74
-27.76 -37.11 -0.75
-27.78 -38.74 -0.77
-27.73 -40.35 -0.78
-27.31 -41.50 -0.79
-22.28 -42.62 -0.74
-21.21 -42.63 -0.73
-20.15 -42.64 -0.71
-19.12 -42.65 -0.70
-18.10 -42.66 -0.69
-17.11 -42.66 -0.68
-16.42 -43.46 -0.68
-16.42 -46.24 -0.72
-15.42 -46.36 -0.71
-7.01 -31.22 -0.45
9.52 -42.42 0.44
9.59 -39.03 0.41
9.70 -36.32 0.39
9.74 -33.74 0.36
9.81 -31.59 0.34
9.95 -29.91 0.33
10.17 -28.62 0.32
10.36 -27.41 0.31
10.56 -26.32 0.30
10.86 -25.58 0.30
10.97 -24.45 0.29
11.05 -23.36 0.28
10.98 -22.07 0.27
10.97 -20.99 0.26
10.97 -20.00 0.25
11.01 -19.15 0.24
11.15 -18.52 0.24
11.28 -17.91 0.23
11.33 -17.21 0.23
11.29 -16.42 0.22
11.26 -15.70 0.21
11.18 -14.94 0.21
10.85 -13.92 0.19
10.57 -13.00 0.19
10.34 -12.21 0.18
10.13 -11.48 0.17
9.90 -10.78 0.16
9.68 -10.13 0.16
9.65 -9.70 0.15
9.63 -9.30 0.15
9.49 -8.80 0.14
9.23 -8.22 0.14
9.00 -7.70 0.13
8.79 -7.22 0.13
8.79 -6.92 0.12
8.79 -6.65 0.12
8.80 -6.38 0.12
8.80 -6.12 0.12
8.81 -5.86 0.12
8.81 -5.61 0.11
8.82 -5.37 0.11
8.82 -5.13 0.11
8.78 -4.87 0.11
8.69 -4.60 0.11
8.64 -4.35 0.11
8.62 -4.13 0.10
8.60 -3.91 0.10
8.58 -3.69 0.10
8.56 -3.48 0.10
8.54 -3.27 0.10
8.52 -3.07 0.10
8.51 -2.88 0.10
8.49 -2.68 0.09
8.48 -2.49 0.09
8.47 -2.31 0.09
8.45 -2.12 0.09
8.44 -1.94 0.09
8.42 -1.76 0.09
8.41 -1.58 0.09
8.39 -1.40 0.09
8.38 -1.23 0.09
8.37 -1.06 0.08
8.36 -0.88 0.08
8.36 -0.72 0.08
8.37 -0.55 0.08
8.38 -0.38 0.08
8.39 -0.21 0.08
8.40 -0.04 0.08
8.41 0.13 0.08
8.42 0.30 0.08
8.43 0.47 0.08
8.44 0.64 0.08
8.45 0.81 0.08
8.46 0.98 0.08
8.47 1.15 0.08
8.47 1.33 0.08
8.49 1.51 0.08
8.51 1.69 0.08
8.53 1.87 0.08
8.55 2.05 0.08
8.56 2.24 0.08
8.58 2.43 0.07
8.60 2.62 0.07
8.62 2.82 0.07
8.64 3.02 0.07
8.65 3.22 0.07
8.65 3.42 0.07
8.65 3.62 0.07
8.65 3.83 0.07
8.65 4.03 0.07
8.64 4.25 0.07
8.64 4.46 0.07
8.64 4.69 0.07
8.64 4.91 0.07
8.64 5.15 0.07
8.69 5.41 0.07
8.79 5.72 0.07
9.23 6.28 0.08
9.41 6.68 0.08
9.41 6.97 0.08
9.44 7.29 0.08
9.54 7.68 0.08
9.64 8.08 0.08
9.69 8.46 0.08
9.69 8.81 0.08
9.69 9.17 0.08
9.72 9.57 0.08
9.74 9.99 0.08
9.76 10.41 0.08
9.76 10.85 0.08
9.77 11.31 0.08
9.79 11.80 0.08
9.81 12.32 0.08
9.82 12.85 0.08
9.86 13.45 0.08
9.95 14.17 0.08
9.94 14.78 0.08
10.22 15.87 0.09
10.25 16.64 0.09
10.31 17.52 0.09
10.39 18.50 0.09
10.42 19.45 0.09
10.44 20.46 0.09
10.43 21.51 0.09
10.47 22.73 0.10
10.46 23.97 0.10
10.36 25.09 0.10
10.15 26.06 0.10
10.08 27.50 0.10
10.10 29.38 0.10
10.64 38.30 0.12
-14.16 47.27 0.04
-24.51 33.45 0.01
-24.28 31.78 0.01
-24.81 31.16 0.01
-26.81 32.31 0.01
-20.32 23.52 0.01
-22.55 25.06 0.01
-20.97 22.38 0.01
-21.29 21.83 0.01
-24.18 23.82 0.01
-24.54 23.22 0.01
-24.89 22.62 0.01
-25.24 22.03 0.01
-25.58 21.44 0.01
-21.04 16.93 0.00
-23.74 18.33 0.01
-28.65 21.21 0.01
-22.42 14.60 0.01
-25.60 15.94 0.01
-42.43 23.01 0.02
-43.42 21.33 0.02
-32.26 14.27 0.02
-30.04 12.58 0.02
-25.86 10.22 0.02
-22.65 8.43 0.01
-19.63 6.86 0.01
-19.85 6.49 0.01
-28.64 8.74 0.02
-28.06 7.95 0.02
-28.36 7.42 0.03
-24.19 5.81 0.02
-28.99 6.36 0.03
-29.31 5.81 0.03
-21.63 3.84 0.02
-20.59 3.23 0.02
-20.33 2.77 0.02
-26.50 2.53 0.04
-26.43 1.99 0.04
-48.72 2.69 0.07
-23.60 0.83 0.04
-23.46 0.35 0.04
-22.03 -0.11 0.04
-22.29 -0.56 0.04
-28.57 -1.29 0.05
-28.71 -1.88 0.06
-37.93 -3.24 0.08
-26.07 -2.76 0.06
-25.56 -3.22 0.06
-24.63 -3.61 0.06
-24.35 -4.07 0.06
-45.34 -18.45 0.17
-44.42 -19.12 0.17
-42.11 -19.14 0.17
-40.00 -19.16 0.16
-38.05 -19.17 0.16
-36.25 -19.18 0.16
-34.58 -19.20 0.16
-31.89 -18.55 0.15
-31.83 -19.38 0.16
-31.64 -20.15 0.16
-27.92 -18.58 0.15
-27.86 -19.36 0.15
-27.87 -20.21 0.16
-27.88 -21.08 0.17
-27.85 -21.95 0.17
-27.89 -22.90 0.18
-27.87 -23.84 0.19
-27.91 -24.86 0.19
-29.10 -26.99 0.21
-27.84 -26.88 0.21
-26.60 -26.73 0.21
-26.38 -27.60 0.22
-26.30 -28.64 0.22
-25.94 -29.41 0.23
-27.73 -32.74 0.26
-27.74 -34.12 0.27
-27.75 -35.57 0.28
-27.76 -37.10 0.29
-27.77 -38.71 0.31
-27.79 -40.42 0.32
-27.32 -41.50 0.33
-22.29 -42.62 0.34
-21.21 -42.63 0.35
-20.16 -42.64 0.35
-19.13 -42.65 0.35
-18.11 -42.66 0.35
-17.11 -42.66 0.35
-16.60 -43.92 0.37
-16.56 -46.63 0.39
-7.01 -31.22 0.27
8.93 -48.89 1.62
8.36 -41.12 1.37
8.55 -38.11 1.28
8.78 -35.76 1.21
8.84 -33.11 1.13
9.00 -31.18 1.07
9.17 -29.52 1.02
9.45 -28.40 0.99
9.65 -27.17 0.95
9.81 -25.96 0.92
9.93 -24.77 0.88
10.03 -23.64 0.85
10.11 -22.55 0.82
10.11 -21.39 0.79
10.18 -20.47 0.76
10.21 -19.53 0.73
10.25 -18.68 0.71
10.34 -17.98 0.69
10.42 -17.31 0.68
10.43 -16.56 0.65
10.43 -15.84 0.64
10.42 -15.16 0.62
10.33 -14.40 0.59
10.24 -13.68 0.57
10.07 -12.92 0.55
9.78 -12.04 0.52
9.60 -11.34 0.50
9.39 -10.65 0.48
9.18 -10.00 0.46
9.01 -9.43 0.44
8.98 -9.02 0.43
8.75 -8.45 0.41
8.59 -7.97 0.39
8.52 -7.59 0.38
8.44 -7.22 0.37
8.40 -6.90 0.37
8.40 -6.62 0.36
8.41 -6.36 0.35
8.42 -6.10 0.35
8.42 -5.85 0.34
8.43 -5.61 0.34
8.44 -5.37 0.34
8.44 -5.14 0.33
8.43 -4.90 0.33
8.41 -4.67 0.32
8.39 -4.44 0.32
8.37 -4.22 0.31
8.35 -4.00 0.31
8.34 -3.79 0.31
8.32 -3.58 0.30
8.30 -3.38 0.30
8.28 -3.18 0.29
8.27 -2.98 0.29
8.27 -2.80 0.29
8.27 -2.61 0.29
8.25 -2.43 0.28
8.24 -2.24 0.28
8.23 -2.06 0.28
8.22 -1.89 0.28
8.20 -1.71 0.27
8.19 -1.54 0.27
8.18 -1.37 0.27
8.17 -1.20 0.27
8.15 -1.03 0.27
8.15 -0.86 0.27
8.16 -0.70 0.27
8.16 -0.53 0.26
8.16 -0.37 0.26
8.17 -0.20 0.26
8.18 -0.04 0.26
8.19 0.12 0.26
8.20 0.29 0.26
8.21 0.45 0.26
8.22 0.62 0.26
8.23 0.79 0.26
8.24 0.96 0.26
8.24 1.13 0.26
8.25 1.29 0.26
8.25 1.47 0.26
8.26 1.64 0.26
8.28 1.82 0.26
8.30 2.00 0.27
8.31 2.18 0.27
8.33 2.36 0.27
8.34 2.55 0.27
8.36 2.74 0.27
8.38 2.93 0.27
8.39 3.13 0.27
8.40 3.32 0.27
8.40 3.52 0.28
8.39 3.71 0.28
8.39 3.92 0.28
8.39 4.12 0.28
8.38 4.33 0.28
8.38 4.54 0.28
8.37 4.76 0.29
8.37 4.99 0.29
8.39 5.22 0.29
8.44 5.49 0.30
8.48 5.77 0.30
8.52 6.05 0.30
8.57 6.35 0.31
8.61 6.65 0.32
8.66 6.97 0.32
8.70 7.30 0.33
8.73 7.62 0.33
8.77 7.97 0.34
8.85 8.37 0.35
8.93 8.80 0.35
8.96 9.19 0.36
8.96 9.57 0.37
8.97 9.97 0.38
8.97 10.39 0.38
8.98 10.82 0.39
8.97 11.27 0.40
8.97 11.74 0.41
8.96 12.24 0.42
8.96 12.76 0.43
8.96 13.32 0.44
9.02 14.01 0.45
9.08 14.75 0.47
9.33 15.87 0.50
9.61 17.11 0.53
9.81 18.32 0.55
9.82 19.26 0.57
9.85 20.31 0.60
9.83 21.35 0.62
9.75 22.34 0.64
9.74 23.61 0.67
9.62 24.72 0.69
9.44 25.76 0.71
9.16 26.65 0.73
8.90 27.68 0.75
12.44 41.56 1.11
10.63 38.30 1.02
-24.28 31.78 0.91
-24.84 31.19 0.91
-25.41 30.62 0.90
-20.32 23.52 0.71
-22.55 25.06 0.77
-20.97 22.38 0.70
-21.29 21.84 0.69
-24.18 23.82 0.77
-24.54 23.22 0.77
-24.89 22.62 0.76
-25.24 22.03 0.76
-25.58 21.44 0.76
-21.04 16.93 0.61
-23.74 18.33 0.68
-28.64 21.21 0.81
-22.42 14.60 0.61
-25.57 15.93 0.69
-42.00 22.77 1.09
-42.48 21.95 1.10
-42.97 21.12 1.10
-35.17 16.41 0.89
-29.31 12.97 0.74
-30.04 12.58 0.75
-25.86 10.22 0.64
-22.65 8.43 0.56
-19.63 6.86 0.48
-19.85 6.50 0.49
-28.65 8.74 0.70
-28.06 7.95 0.68
-28.36 7.42 0.69
-24.19 5.82 0.58
-28.99 6.36 0.70
-29.31 5.81 0.70
-21.63 3.84 0.52
-20.60 3.23 0.49
-20.33 2.77 0.49
-34.70 4.03 0.83
-26.51 2.54 0.64
-26.43 2.00 0.63
-32.27 1.79 0.78
-23.61 0.83 0.57
-23.46 0.36 0.57
-22.03 -0.11 0.53
-22.29 -0.56 0.54
-28.57 -1.29 0.70
-28.71 -1.87 0.70
-28.48 -2.43 0.70
-26.08 -2.76 0.65
-25.56 -3.22 0.64
-24.63 -3.61 0.62
-24.35 -4.07 0.61
-45.35 -18.45 1.27
-44.43 -19.12 1.26
-42.13 -19.14 1.21
-40.01 -19.16 1.16
-38.06 -19.17 1.12
-36.26 -19.18 1.08
-34.59 -19.20 1.05
-31.89 -18.55 0.98
-31.83 -19.38 1.00
-31.65 -20.15 1.01
-27.93 -18.58 0.90
-27.86 -19.35 0.92
-27.87 -20.20 0.94
-27.88 -21.07 0.95
-27.86 -21.95 0.97
-27.89 -22.90 0.99
-27.88 -23.84 1.01
-27.91 -24.85 1.04
-29.10 -26.98 1.10
-27.84 -26.87 1.08
-26.61 -26.73 1.06
-26.22 -27.42 1.07
-26.14 -28.46 1.09
-25.91 -29.38 1.11
-25.35 -29.93 1.12
-27.74 -34.11 1.26
-27.75 -35.56 1.30
-27.76 -37.09 1.34
-27.70 -38.60 1.37
-27.79 -40.41 1.42
-27.32 -41.49 1.45
-22.29 -42.62 1.43
-21.22 -42.63 1.42
-20.17 -42.64 1.41
-19.13 -42.65 1.40
-18.12 -42.66 1.40
-17.12 -42.66 1.39
-16.69 -44.14 1.43
-16.57 -46.63 1.50
-7.01 -31.22 0.99
-0.01 -45.74 2.49
0.91 -45.66 2.49
1.75 -43.69 2.39
2.62 -43.58 2.39
3.49 -43.46 2.39
4.36 -43.33 2.39
5.22 -43.17 2.39
6.43 -45.54 2.53
6.66 -41.14 2.30
7.01 -38.40 2.15
7.33 -36.07 2.03
7.54 -33.61 1.90
7.79 -31.74 1.81
8.05 -30.17 1.73
8.40 -29.12 1.68
8.73 -28.13 1.64
8.96 -26.93 1.58
9.11 -25.65 1.51
9.21 -24.37 1.45
9.32 -23.24 1.39
9.45 -22.27 1.35
9.50 -21.19 1.30
9.64 -20.40 1.26
9.69 -19.48 1.22
9.72 -18.60 1.17
9.81 -17.88 1.14
9.90 -17.22 1.11
9.90 -16.45 1.08
9.92 -15.75 1.04
9.92 -15.08 1.01
9.86 -14.35 0.98
9.79 -13.65 0.94
9.64 -12.88 0.90
9.29 -11.91 0.85
9.11 -11.20 0.81
8.91 -10.52 0.77
8.72 -9.89 0.74
8.57 -9.33 0.71
8.48 -8.87 0.69
8.40 -8.45 0.67
8.33 -8.04 0.65
8.26 -7.66 0.63
8.20 -7.30 0.62
8.15 -6.97 0.60
8.14 -6.68 0.59
8.14 -6.42 0.58
8.15 -6.16 0.57
8.16 -5.92 0.57
8.17 -5.68 0.56
8.18 -5.44 0.55
8.19 -5.21 0.54
8.19 -4.99 0.54
8.17 -4.75 0.53
8.15 -4.52 0.52
8.13 -4.30 0.52
8.12 -4.09 0.51
8.10 -3.88 0.50
8.09 -3.68 0.50
8.08 -3.48 0.49
8.06 -3.28 0.49
8.05 -3.09 0.48
8.04 -2.90 0.48
8.04 -2.72 0.47
8.04 -2.54 0.47
8.04 -2.36 0.47
8.03 -2.19 0.46
8.02 -2.01 0.46
8.01 -1.84 0.46
8.00 -1.67 0.45
7.98 -1.50 0.45
7.97 -1.33 0.45
7.96 -1.17 0.44
7.95 -1.00 0.44
7.95 -0.84 0.44
7.96 -0.68 0.44
7.96 -0.52 0.44
7.96 -0.36 0.44
7.97 -0.20 0.44
7.98 -0.04 0.44
7.99 0.12 0.44
7.99 0.28 0.44
8.00 0.44 0.44
8.01 0.61 0.44
8.02 0.77 0.44
8.03 0.93 0.44
8.03 1.10 0.44
8.04 1.26 0.44
8.04 1.43 0.44
8.04 1.60 0.44
8.05 1.77 0.44
8.06 1.94 0.44
8.07 2.12 0.45
8.09 2.29 0.45
8.10 2.47 0.45
8.12 2.66 0.46
8.13 2.84 0.46
8.14 3.03 0.46
8.15 3.22 0.46
8.15 3.41 0.47
8.15 3.61 0.47
8.15 3.80 0.47
8.14 4.00 0.48
8.14 4.21 0.48
8.13 4.41 0.48
8.12 4.62 0.49
8.12 4.84 0.49
8.11 5.05 0.50
8.14 5.30 0.50
8.18 5.57 0.51
8.23 5.84 0.52
8.26 6.12 0.53
8.30 6.41 0.54
8.34 6.72 0.55
8.39 7.03 0.56
8.42 7.35 0.57
8.44 7.67 0.58
8.46 8.01 0.59
8.48 8.35 0.61
8.50 8.72 0.62
8.52 9.10 0.63
8.52 9.48 0.64
8.52 9.86 0.66
8.51 10.27 0.67
8.51 10.69 0.69
8.50 11.14 0.70
8.49 11.59 0.72
8.47 12.07 0.74
8.46 12.59 0.75
8.45 13.13 0.78
8.46 13.74 0.80
8.48 14.41 0.83
8.49 15.13 0.86
8.70 16.25 0.91
9.05 17.75 0.98
9.24 19.07 1.04
9.24 20.08 1.08
9.23 21.17 1.13
9.14 22.17 1.17
9.03 23.21 1.21
8.91 24.32 1.26
8.72 25.39 1.30
8.46 26.32 1.34
8.15 27.22 1.37
8.04 28.96 1.45
12.35 48.23 2.39
11.40 48.56 2.39
5.20 47.00 2.24
3.29 46.90 2.22
-8.10 46.99 2.21
-10.17 33.94 1.63
-10.81 33.59 1.62
-15.93 38.57 1.91
-23.69 32.33 1.82
-24.28 31.78 1.81
-19.48 24.46 1.42
-19.21 23.16 1.36
-19.25 22.28 1.33
-19.22 21.36 1.30
-19.23 20.53 1.27
-19.25 19.73 1.25
-19.20 18.91 1.22
-19.21 18.18 1.20
-19.16 17.42 1.17
-19.19 16.75 1.15
-19.22 16.11 1.13
-19.19 15.44 1.11
-19.22 14.84 1.10
-19.20 14.21 1.08
-19.20 13.63 1.07
-19.21 13.06 1.05
-19.15 12.47 1.04
-19.16 11.93 1.02
-19.16 11.41 1.01
-19.11 10.87 1.00
-19.12 10.37 0.99
-19.07 9.85 0.98
-19.06 9.37 0.97
-19.06 8.89 0.96
-19.05 8.43 0.95
-19.00 7.96 0.94
-19.07 7.54 0.94
-19.13 7.12 0.93
-19.28 6.74 0.93
-19.50 6.38 0.94
-19.71 6.02 0.94
-19.93 5.65 0.95
-20.15 5.27 0.96
-20.37 4.90 0.96
-20.59 4.52 0.97
-20.82 4.13 0.98
-19.97 3.55 0.94
-19.68 3.09 0.92
-19.90 2.72 0.93
-20.13 2.34 0.94
-20.35 1.95 0.95
-20.58 1.56 0.96
-20.82 1.15 0.97
-21.06 0.74 0.98
-21.31 0.32 1.00
-21.56 -0.10 1.01
-21.82 -0.54 1.02
-22.08 -0.99 1.04
-22.35 -1.46 1.05
-22.63 -1.93 1.07
-22.92 -2.42 1.09
-23.22 -2.92 1.11
-23.52 -3.44 1.13
-23.84 -3.98 1.15
-24.16 -4.53 1.17
-47.84 -14.06 2.39
-47.45 -14.99 2.39
-47.05 -15.90 2.39
-46.62 -16.81 2.39
-46.18 -17.71 2.39
-45.36 -18.45 2.37
-44.45 -19.12 2.35
-42.14 -19.14 2.25
-40.02 -19.16 2.16
-38.07 -19.17 2.08
-36.27 -19.18 2.01
-34.60 -19.20 1.94
-31.90 -18.55 1.82
-31.83 -19.37 1.84
-31.66 -20.15 1.85
-27.94 -18.58 1.66
-27.86 -19.35 1.68
-27.59 -19.99 1.69
-27.88 -21.07 1.74
-27.86 -21.94 1.77
-27.89 -22.89 1.81
-27.88 -23.83 1.84
-27.91 -24.84 1.88
-29.10 -26.97 2.00
-27.84 -26.86 1.95
-26.61 -26.73 1.91
-25.75 -26.93 1.89
-25.67 -27.94 1.93
-25.59 -29.00 1.97
-25.36 -29.93 2.00
-27.74 -34.11 2.25
-27.75 -35.55 2.31
-27.76 -37.08 2.38
-27.10 -37.75 2.39
-26.28 -38.21 2.39
-25.45 -38.65 2.39
-24.62 -39.07 2.39
-23.78 -39.47 2.39
-22.94 -39.86 2.39
-22.09 -40.23 2.39
-17.99 -34.38 2.03
-20.37 -40.92 2.39
-18.01 -38.07 2.21
-18.64 -41.54 2.39
-17.77 -41.82 2.39
-16.89 -42.09 2.39
-16.01 -42.34 2.39
-15.13 -42.57 2.39
-14.25 -42.78 2.39
-13.36 -42.98 2.39
-10.03 -34.72 1.92
-9.54 -35.68 1.97
-10.68 -43.42 2.39
-4.52 -20.10 1.10
-4.10 -20.10 1.10
-3.68 -20.11 1.10
-3.26 -20.11 1.10
-2.93 -20.65 1.12
-5.56 -45.83 2.49
-4.63 -45.86 2.49
-3.70 -45.87 2.49
-2.78 -45.86 2.49
-1.85 -45.84 2.49
-0.93 -45.80 2.49
-0.01 -32.33 2.49
0.64 -32.29 2.49
1.29 -32.24 2.49
1.85 -30.84 2.39
2.47 -30.77 2.39
3.08 -30.68 2.39
3.69 -30.59 2.39
4.30 -30.48 2.39
4.91 -30.36 2.39
5.72 -31.37 2.48
6.17 -30.38 2.41
6.50 -28.99 2.31
6.79 -27.65 2.22
7.26 -27.20 2.20
7.63 -26.44 2.15
7.99 -25.76 2.11
8.32 -25.02 2.06
8.51 -23.99 1.99
8.64 -22.87 1.91
8.79 -21.93 1.85
8.92 -21.02 1.79
9.08 -20.25 1.74
9.18 -19.43 1.69
9.23 -18.56 1.63
9.29 -17.78 1.58
9.39 -17.12 1.53
9.40 -16.36 1.48
9.43 -15.66 1.44
9.44 -14.99 1.39
9.40 -14.29 1.35
9.36 -13.61 1.30
9.21 -12.85 1.24
8.89 -11.89 1.17
8.63 -11.07 1.11
8.49 -10.44 1.06
8.36 -9.87 1.02
8.24 -9.35 0.98
8.17 -8.90 0.95
8.14 -8.51 0.93
8.07 -8.11 0.90
8.01 -7.74 0.88
7.96 -7.38 0.86
7.90 -7.04 0.83
7.90 -6.76 0.82
7.89 -6.48 0.80
7.89 -6.22 0.79
7.91 -5.98 0.78
7.92 -5.74 0.77
7.93 -5.51 0.76
7.94 -5.29 0.75
7.96 -5.07 0.74
7.94 -4.84 0.73
7.92 -4.61 0.72
7.91 -4.39 0.71
7.89 -4.18 0.70
7.88 -3.97 0.69
7.87 -3.77 0.69
7.86 -3.57 0.68
7.84 -3.38 0.67
7.83 -3.19 0.66
7.82 -3.00 0.66
7.82 -2.82 0.65
7.82 -2.65 0.65
7.83 -2.47 0.64
7.83 -2.30 0.64
7.83 -2.13 0.63
7.82 -1.96 0.63
7.81 -1.79 0.63
7.80 -1.63 0.62
7.79 -1.46 0.62
7.78 -1.30 0.61
7.77 -1.14 0.61
7.76 -0.98 0.61
7.76 -0.82 0.61
7.76 -0.66 0.60
7.77 -0.51 0.60
7.77 -0.35 0.60
7.78 -0.19 0.60
7.78 -0.04 0.60
7.79 0.12 0.60
7.80 0.28 0.60
7.80 0.43 0.60
7.81 0.59 0.60
7.82 0.75 0.60
7.83 0.91 0.61
7.83 1.07 0.61
7.83 1.23 0.61
7.84 1.39 0.61
7.84 1.56 0.61
7.84 1.72 0.61
7.84 1.89 0.62
7.85 2.06 0.62
7.86 2.23 0.62
7.87 2.40 0.63
7.89 2.58 0.63
7.90 2.76 0.63
7.91 2.95 0.64
7.92 3.13 0.64
7.92 3.32 0.65
7.92 3.51 0.65
7.91 3.70 0.66
7.91 3.89 0.66
7.90 4.09 0.67
7.90 4.29 0.67
7.89 4.49 0.68
7.88 4.69 0.69
7.87 4.91 0.69
7.86 5.12 0.70
7.89 5.37 0.71
7.94 5.64 0.72
7.98 5.91 0.74
8.01 6.19 0.75
8.04 6.48 0.76
8.08 6.78 0.78
8.11 7.09 0.80
8.13 7.40 0.81
8.15 7.72 0.83
8.16 8.05 0.84
8.18 8.39 0.86
8.19 8.75 0.88
8.20 9.12 0.90
8.20 9.49 0.92
8.18 9.87 0.94
8.17 10.27 0.96
8.16 10.69 0.98
8.14 11.13 1.00
8.12 11.57 1.02
8.08 12.03 1.05
8.06 12.53 1.08
8.04 13.06 1.11
8.03 13.66 1.14
8.03 14.31 1.18
8.03 15.01 1.22
8.09 15.87 1.28
8.38 17.29 1.38
8.43 18.32 1.44
8.56 19.63 1.53
8.51 20.65 1.59
8.42 21.64 1.65
8.22 22.46 1.70
8.02 23.34 1.75
7.89 24.55 1.83
7.66 25.61 1.89
7.44 26.83 1.97
7.20 28.15 2.05
7.21 30.74 2.23
9.03 42.30 3.05
8.15 42.31 3.03
5.77 33.54 2.39
5.10 33.69 2.39
4.43 33.83 2.39
3.75 33.95 2.39
3.07 34.06 2.39
2.39 34.16 2.39
1.78 35.72 2.49
1.07 35.79 2.49
0.35 35.85 2.49
-0.37 35.89 2.49
-1.09 35.91 2.49
-1.81 35.92 2.49
-2.54 35.92 2.49
-3.26 35.90 2.49
-3.99 35.86 2.49
-4.71 35.81 2.49
-5.43 35.75 2.49
-6.15 35.66 2.49
-6.59 34.09 2.39
-7.28 33.99 2.39
-7.97 33.86 2.39
-8.65 33.73 2.39
-9.34 33.57 2.39
-10.01 33.41 2.39
-10.71 33.27 2.39
-11.38 33.07 2.39
-12.05 32.86 2.39
-12.72 32.64 2.39
-13.38 32.40 2.39
-14.03 32.14 2.39
-14.68 31.87 2.39
-15.33 31.59 2.39
-15.97 31.29 2.39
-16.60 30.98 2.39
-17.23 30.66 2.39
-17.85 30.32 2.39
-18.46 29.97 2.39
-19.07 29.60 2.39
-19.66 29.22 2.39
-20.25 28.83 2.39
-20.83 28.43 2.39
-21.41 28.01 2.39
-19.48 24.46 2.12
-19.21 23.16 2.04
-19.25 22.28 2.00
-19.22 21.36 1.95
-19.23 20.53 1.91
-19.25 19.73 1.87
-19.20 18.91 1.83
-19.21 18.18 1.79
-19.16 17.42 1.76
-19.19 16.75 1.73
-19.22 16.11 1.70
-19.19 15.44 1.67
-19.22 14.84 1.65
-19.20 14.21 1.62
-19.20 13.63 1.60
-19.21 13.06 1.58
-19.15 12.47 1.55
-19.16 11.93 1.53
-19.16 11.41 1.52
-19.11 10.87 1.50
-19.12 10.37 1.48
-19.07 9.85 1.46
-19.06 9.37 1.45
-19.06 8.90 1.43
-19.05 8.43 1.42
-19.00 7.96 1.41
-19.07 7.54 1.40
-19.13 7.12 1.39
-19.28 6.74 1.40
-19.50 6.38 1.40
-19.71 6.02 1.41
-19.93 5.65 1.42
-20.15 5.28 1.43
-20.37 4.90 1.44
-20.59 4.52 1.45
-20.82 4.13 1.46
-19.97 3.55 1.39
-19.68 3.09 1.37
-19.90 2.72 1.38
-20.12 2.34 1.40
-20.35 1.95 1.41
-20.58 1.56 1.43
-20.82 1.16 1.44
-21.06 0.75 1.46
-21.31 0.33 1.48
-21.56 -0.10 1.50
-21.82 -0.54 1.52
-22.08 -0.99 1.54
-22.35 -1.45 1.56
-22.63 -1.93 1.58
-22.92 -2.42 1.61
-23.22 -2.92 1.63
-23.52 -3.44 1.66
-23.84 -3.98 1.69
-24.16 -4.53 1.72
-33.36 -6.95 2.39
-33.17 -7.61 2.39
-32.97 -8.26 2.39
-32.75 -8.91 2.39
-32.52 -9.55 2.39
-32.28 -10.19 2.39
-32.03 -10.82 2.39
-31.76 -11.45 2.39
-31.48 -12.06 2.39
-31.19 -12.68 2.39
-30.88 -13.28 2.39
-30.56 -13.88 2.39
-30.24 -14.47 2.39
-29.90 -15.05 2.39
-29.55 -15.62 2.39
-29.18 -16.19 2.39
-28.81 -16.75 2.39
-28.43 -17.30 2.39
-28.03 -17.84 2.39
-27.63 -18.37 2.39
-27.21 -18.89 2.39
-26.79 -19.40 2.39
-26.35 -19.91 2.39
-25.91 -20.40 2.39
-25.45 -20.89 2.39
-24.99 -21.36 2.39
-24.52 -21.83 2.39
-24.04 -22.28 2.39
-23.56 -22.72 2.39
-23.06 -23.16 2.39
-22.56 -23.58 2.39
-18.40 -20.03 2.00
-17.68 -20.03 1.97
-21.00 -24.78 2.39
-20.47 -25.16 2.39
-18.62 -23.85 2.24
-17.86 -23.85 2.20
-18.83 -26.23 2.39
-18.28 -26.56 2.39
-17.71 -26.89 2.39
-17.14 -27.20 2.39
-16.57 -27.50 2.39
-12.77 -22.19 1.91
-12.42 -22.61 1.93
-14.82 -28.32 2.39
-14.23 -28.57 2.39
-13.64 -28.81 2.39
-13.04 -29.04 2.39
-12.43 -29.26 2.39
-11.83 -29.46 2.39
-11.22 -29.65 2.39
-10.59 -29.80 2.39
-9.98 -29.96 2.39
-9.37 -30.12 2.39
-8.75 -30.26 2.39
-8.13 -30.39 2.39
-4.70 -19.11 1.50
-4.31 -19.16 1.50
-3.91 -19.21 1.49
-3.52 -19.25 1.49
-3.13 -19.28 1.49
-2.93 -20.64 1.60
-3.92 -32.30 2.49
-3.27 -32.34 2.49
-2.61 -32.36 2.49
-1.96 -32.37 2.49
-1.31 -32.37 2.49
-0.66 -32.35 2.49
-0.01 -24.98 2.49
0.49 -24.95 2.49
0.99 -24.92 2.49
1.43 -23.84 2.39
1.91 -23.79 2.39
2.38 -23.73 2.39
2.86 -23.66 2.39
3.33 -23.58 2.39
3.80 -23.50 2.39
4.27 -23.40 2.39
4.73 -23.30 2.39
5.20 -23.18 2.39
5.79 -23.59 2.44
6.16 -23.10 2.41
6.58 -22.81 2.39
6.96 -22.43 2.37
7.33 -22.05 2.34
7.62 -21.48 2.30
7.90 -20.92 2.26
8.21 -20.47 2.23
8.52 -20.08 2.20
8.68 -19.37 2.15
8.75 -18.52 2.07
8.81 -17.72 2.00
8.89 -17.01 1.94
8.92 -16.27 1.88
8.95 -15.57 1.82
8.97 -14.90 1.76
8.95 -14.22 1.70
8.93 -13.57 1.65
8.80 -12.81 1.58
8.47 -11.81 1.47
8.20 -10.96 1.39
8.14 -10.44 1.34
8.03 -9.88 1.29
7.92 -9.36 1.24
7.86 -8.92 1.21
7.85 -8.55 1.18
7.82 -8.18 1.15
7.77 -7.81 1.12
7.72 -7.45 1.09
7.67 -7.11 1.06
7.66 -6.82 1.04
7.66 -6.55 1.02
7.66 -6.29 1.01
7.66 -6.04 0.99
7.68 -5.80 0.98
7.69 -5.58 0.96
7.71 -5.35 0.95
7.72 -5.14 0.94
7.72 -4.92 0.93
7.71 -4.69 0.91
7.69 -4.47 0.90
7.68 -4.26 0.89
7.66 -4.05 0.88
7.65 -3.85 0.87
7.64 -3.66 0.86
7.64 -3.47 0.85
7.63 -3.28 0.84
7.62 -3.10 0.83
7.61 -2.92 0.82
7.62 -2.75 0.82
7.62 -2.58 0.81
7.62 -2.41 0.81
7.62 -2.24 0.80
7.63 -2.08 0.80
7.63 -1.91 0.79
7.62 -1.75 0.79
7.61 -1.59 0.78
7.60 -1.43 0.78
7.59 -1.27 0.77
7.58 -1.11 0.77
7.57 -0.95 0.77
7.58 -0.80 0.76
7.58 -0.65 0.76
7.59 -0.49 0.76
7.59 -0.34 0.76
7.59 -0.19 0.76
7.60 -0.04 0.76
7.60 0.12 0.76
7.61 0.27 0.76
7.61 0.42 0.76
7.62 0.58 0.76
7.63 0.73 0.76
7.63 0.89 0.76
7.64 1.04 0.77
7.64 1.20 0.77
7.64 1.36 0.77
7.64 1.52 0.77
7.64 1.68 0.78
7.64 1.84 0.78
7.64 2.00 0.78
7.65 2.17 0.79
7.66 2.34 0.79
7.67 2.51 0.80
7.68 2.69 0.80
7.69 2.86 0.81
7.69 3.05 0.81
7.70 3.23 0.82
7.69 3.41 0.83
7.69 3.59 0.83
7.68 3.78 0.84
7.68 3.97 0.85
7.67 4.17 0.85
7.66 4.36 0.86
7.65 4.56 0.87
7.64 4.76 0.88
7.63 4.97 0.89
7.62 5.19 0.90
7.66 5.44 0.91
7.70 5.70 0.93
7.73 5.98 0.95
7.77 6.25 0.96
7.79 6.54 0.98
7.82 6.83 1.00
7.85 7.14 1.02
7.86 7.45 1.04
7.87 7.76 1.06
7.88 8.09 1.08
7.88 8.42 1.11
7.89 8.78 1.13
7.90 9.15 1.16
7.88 9.51 1.18
7.86 9.88 1.21
7.84 10.27 1.23
7.82 10.68 1.26
7.80 11.11 1.29
7.76 11.55 1.32
7.72 12.00 1.35
7.67 12.47 1.39
7.64 12.99 1.43
7.61 13.57 1.47
7.60 14.21 1.52
7.59 14.89 1.58
7.61 15.70 1.64
7.72 16.78 1.74
7.77 17.82 1.83
7.73 18.75 1.91
7.72 19.84 2.00
7.57 20.68 2.07
7.43 21.65 2.14
7.20 22.43 2.20
6.95 23.25 2.27
6.71 24.18 2.34
6.36 24.86 2.39
5.99 25.54 2.45
5.36 25.11 2.39
4.86 25.24 2.39
4.36 25.35 2.39
3.85 25.46 2.39
3.34 25.56 2.39
2.83 25.65 2.39
2.32 25.72 2.39
1.80 25.79 2.39
1.34 26.96 2.49
0.80 27.00 2.49
0.26 27.04 2.49
-0.28 27.06 2.49
-0.83 27.07 2.49
-1.37 27.07 2.49
-1.91 27.06 2.49
-2.46 27.04 2.49
-3.00 27.00 2.49
-3.55 26.96 2.49
-4.09 26.90 2.49
-4.63 26.84 2.49
-5.17 26.76 2.49
-5.71 26.66 2.49
-6.25 26.56 2.49
-6.51 25.35 2.39
-7.02 25.23 2.39
-7.53 25.10 2.39
-8.03 24.96 2.39
-8.54 24.81 2.39
-9.04 24.65 2.39
-9.54 24.47 2.39
-10.03 24.29 2.39
-10.54 24.13 2.39
-11.02 23.92 2.39
-11.51 23.71 2.39
-11.98 23.48 2.39
-12.46 23.24 2.39
-12.93 23.00 2.39
-13.39 22.74 2.39
-13.85 22.48 2.39
-14.30 22.20 2.39
-14.75 21.92 2.39
-15.19 21.62 2.39
-15.62 21.32 2.39
-16.05 21.00 2.39
-16.47 20.68 2.39
-16.88 20.35 2.39
-17.29 20.01 2.39
-17.69 19.66 2.39
-18.08 19.30 2.39
-18.47 18.94 2.39
-18.84 18.56 2.39
-19.21 18.18 2.39
-19.16 17.42 2.34
-19.19 16.75 2.31
-19.22 16.11 2.27
-19.19 15.44 2.23
-19.22 14.84 2.20
-19.20 14.21 2.16
-19.20 13.63 2.13
-19.21 13.06 2.10
-19.15 12.47 2.07
-19.16 11.94 2.05
-19.16 11.41 2.02
-19.11 10.87 1.99
-19.12 10.37 1.97
-19.07 9.85 1.95
-19.06 9.37 1.93
-19.06 8.90 1.91
-19.05 8.43 1.89
-19.00 7.96 1.87
-19.07 7.54 1.86
-19.13 7.13 1.86
-19.28 6.74 1.86
-19.50 6.38 1.87
-19.71 6.02 1.88
-19.93 5.65 1.89
-20.15 5.28 1.90
-20.37 4.90 1.91
-20.59 4.52 1.92
-20.82 4.13 1.94
-19.97 3.55 1.85
-19.68 3.09 1.82
-19.90 2.72 1.84
-20.12 2.34 1.86
-20.35 1.95 1.87
-20.58 1.56 1.89
-20.82 1.16 1.91
-21.06 0.75 1.94
-21.31 0.33 1.96
-21.56 -0.10 1.98
-21.82 -0.54 2.01
-22.08 -0.99 2.04
-22.35 -1.45 2.07
-22.63 -1.93 2.10
-22.92 -2.42 2.13
-23.21 -2.92 2.17
-23.52 -3.44 2.20
-23.83 -3.97 2.24
-24.16 -4.53 2.28
-25.22 -5.25 2.39
-25.09 -5.75 2.39
-24.94 -6.25 2.39
-24.78 -6.74 2.39
-24.62 -7.23 2.39
-24.44 -7.71 2.39
-24.26 -8.19 2.39
-24.06 -8.67 2.39
-23.86 -9.14 2.39
-23.65 -9.61 2.39
-23.42 -10.07 2.39
-23.19 -10.53 2.39
-22.95 -10.98 2.39
-22.70 -11.42 2.39
-22.44 -11.86 2.39
-22.17 -12.30 2.39
-21.90 -12.73 2.39
-21.61 -13.15 2.39
-21.32 -13.56 2.39
-21.02 -13.97 2.39
-20.71 -14.38 2.39
-20.40 -14.77 2.39
-20.07 -15.16 2.39
-19.74 -15.54 2.39
-19.40 -15.92 2.39
-19.06 -16.28 2.39
-18.70 -16.64 2.39
-18.35 -17.00 2.39
-17.98 -17.34 2.39
-17.61 -17.68 2.39
-17.23 -18.01 2.39
-16.85 -18.33 2.39
-16.46 -18.64 2.39
-16.06 -18.95 2.39
-15.66 -19.24 2.39
-15.25 -19.53 2.39
-14.84 -19.81 2.39
-14.42 -20.08 2.39
-14.00 -20.34 2.39
-13.57 -20.60 2.39
-13.14 -20.84 2.39
-12.71 -21.08 2.39
-12.27 -21.31 2.39
-11.82 -21.52 2.39
-11.38 -21.73 2.39
-10.93 -21.93 2.39
-10.46 -22.10 2.39
-10.01 -22.28 2.39
-9.55 -22.45 2.39
-9.08 -22.62 2.39
-8.62 -22.77 2.39
-8.15 -22.92 2.39
-7.68 -23.05 2.39
-7.21 -23.18 2.39
-6.74 -23.29 2.39
-6.53 -24.41 2.49
-4.67 -18.99 1.93
-4.27 -18.99 1.92
-3.87 -19.00 1.92
-3.48 -19.00 1.91
-3.09 -19.00 1.91
-2.86 -20.16 2.02
-2.81 -23.13 2.31
-2.52 -24.95 2.49
-2.02 -24.98 2.49
-1.52 -24.99 2.49
-1.01 -25.00 2.49
-0.51 -24.99 2.49
-0.01 -20.33 2.49
0.40 -20.32 2.49
0.81 -20.29 2.49
1.21 -20.26 2.49
1.55 -19.38 2.39
1.94 -19.33 2.39
2.33 -19.28 2.39
2.71 -19.22 2.39
3.09 -19.15 2.39
3.48 -19.07 2.39
3.86 -18.99 2.39
4.24 -18.90 2.39
4.61 -18.80 2.39
4.99 -18.70 2.39
5.36 -18.58 2.39
6.34 -20.44 2.65
6.66 -20.03 2.61
6.94 -19.56 2.57
7.25 -19.19 2.54
7.50 -18.73 2.50
7.74 -18.23 2.45
7.91 -17.66 2.40
8.09 -17.12 2.35
8.24 -16.57 2.30
8.33 -15.95 2.23
8.42 -15.35 2.17
8.45 -14.71 2.11
8.44 -14.03 2.03
8.43 -13.40 1.97
8.30 -12.61 1.88
7.91 -11.51 1.74
7.77 -10.84 1.66
7.77 -10.39 1.61
7.70 -9.88 1.56
7.61 -9.37 1.50
7.56 -8.93 1.45
7.55 -8.57 1.42
7.55 -8.22 1.39
7.53 -7.88 1.35
7.48 -7.52 1.32
7.44 -7.19 1.29
7.43 -6.89 1.26
7.43 -6.62 1.24
7.44 -6.36 1.22
7.44 -6.11 1.20
7.44 -5.86 1.18
7.46 -5.64 1.16
7.48 -5.42 1.15
7.49 -5.20 1.13
7.51 -4.99 1.12
7.49 -4.77 1.10
7.48 -4.56 1.09
7.47 -4.35 1.07
7.46 -4.14 1.06
7.45 -3.94 1.05
7.44 -3.75 1.03
7.43 -3.56 1.02
7.43 -3.37 1.01
7.42 -3.19 1.00
7.41 -3.01 0.99
7.42 -2.84 0.98
7.42 -2.68 0.98
7.42 -2.51 0.97
7.43 -2.35 0.96
7.43 -2.18 0.96
7.43 -2.02 0.95
7.44 -1.86 0.95
7.44 -1.71 0.94
7.43 -1.55 0.94
7.42 -1.39 0.93
7.41 -1.24 0.93
7.40 -1.08 0.92
7.40 -0.93 0.92
7.40 -0.78 0.92
7.41 -0.63 0.92
7.41 -0.48 0.91
7.42 -0.33 0.91
7.42 -0.18 0.91
7.42 -0.03 0.91
7.42 0.12 0.91
7.43 0.26 0.91
7.43 0.41 0.91
7.44 0.56 0.91
7.45 0.72 0.92
7.45 0.87 0.92
7.46 1.02 0.92
7.46 1.17 0.92
7.46 1.33 0.92
7.46 1.48 0.93
7.46 1.64 0.93
7.46 1.80 0.93
7.46 1.96 0.94
7.46 2.12 0.94
7.45 2.28 0.95
7.46 2.44 0.95
7.47 2.61 0.96
7.47 2.79 0.97
7.48 2.96 0.97
7.49 3.14 0.98
7.48 3.31 0.99
7.47 3.49 1.00
7.47 3.68 1.00
7.46 3.86 1.01
7.45 4.05 1.02
7.45 4.24 1.03
7.44 4.43 1.04
7.42 4.63 1.05
7.41 4.83 1.06
7.39 5.04 1.07
7.40 5.26 1.09
7.43 5.51 1.11
7.46 5.77 1.13
7.49 6.04 1.15
7.53 6.32 1.17
7.55 6.60 1.20
7.57 6.89 1.22
7.59 7.19 1.24
7.59 7.49 1.27
7.60 7.80 1.29
7.60 8.12 1.32
7.60 8.46 1.35
7.60 8.80 1.38
7.60 9.17 1.41
7.57 9.52 1.44
7.55 9.89 1.47
7.52 10.27 1.50
7.49 10.68 1.54
7.45 11.10 1.58
7.41 11.52 1.61
7.36 11.97 1.65
7.30 12.43 1.69
7.25 12.92 1.74
7.21 13.48 1.79
7.18 14.10 1.85
7.16 14.78 1.92
7.14 15.53 2.00
7.18 16.48 2.10
7.23 17.56 2.22
7.13 18.33 2.29
7.01 19.16 2.38
6.88 20.04 2.47
6.61 20.60 2.52
6.28 21.00 2.55
5.50 19.83 2.39
5.10 19.95 2.39
4.70 20.07 2.39
4.30 20.17 2.39
3.90 20.27 2.39
3.50 20.36 2.39
3.09 20.45 2.39
2.68 20.52 2.39
2.27 20.59 2.39
1.86 20.64 2.39
1.51 21.59 2.49
1.08 21.63 2.49
0.64 21.66 2.49
0.21 21.68 2.49
-0.23 21.70 2.49
-0.66 21.70 2.49
-1.10 21.70 2.49
-1.54 21.69 2.49
-1.97 21.67 2.49
-2.41 21.64 2.49
-2.84 21.60 2.49
-3.28 21.55 2.49
-3.71 21.49 2.49
-4.14 21.43 2.49
-4.58 21.35 2.49
-5.01 21.27 2.49
-5.43 21.17 2.49
-5.86 21.07 2.49
-6.29 20.96 2.49
-6.43 19.98 2.39
-6.83 19.85 2.39
-7.23 19.72 2.39
-7.63 19.58 2.39
-8.03 19.43 2.39
-8.42 19.27 2.39
-8.80 19.11 2.39
-9.19 18.93 2.39
-9.57 18.75 2.39
-9.95 18.56 2.39
-10.32 18.36 2.39
-10.70 18.18 2.39
-11.07 17.97 2.39
-11.43 17.75 2.39
-11.79 17.52 2.39
-12.14 17.28 2.39
-12.48 17.04 2.39
-12.83 16.78 2.39
-13.16 16.53 2.39
-13.49 16.26 2.39
-13.82 15.99 2.39
-14.14 15.71 2.39
-14.45 15.42 2.39
-14.76 15.13 2.39
-15.06 14.83 2.39
-15.35 14.53 2.39
-15.64 14.22 2.39
-15.92 13.90 2.39
-16.20 13.58 2.39
-16.46 13.25 2.39
-16.73 12.91 2.39
-16.98 12.57 2.39
-17.23 12.23 2.39
-17.46 11.88 2.39
-17.70 11.52 2.39
-17.92 11.16 2.39
-18.14 10.80 2.39
-18.35 10.43 2.39
-18.55 10.06 2.39
-18.74 9.68 2.39
-18.92 9.30 2.39
-19.10 8.92 2.39
-19.05 8.43 2.37
-19.00 7.96 2.34
-19.07 7.54 2.33
-19.13 7.13 2.32
-19.28 6.75 2.32
-19.50 6.38 2.33
-19.71 6.02 2.35
-19.93 5.65 2.36
-20.15 5.28 2.37
-20.37 4.90 2.39
-20.50 4.50 2.39
-20.57 4.09 2.39
-19.98 3.55 2.32
-19.68 3.09 2.28
-19.90 2.72 2.30
-20.12 2.34 2.32
-20.35 1.95 2.34
-20.58 1.56 2.36
-20.82 1.16 2.39
-20.86 0.74 2.39
-20.86 0.32 2.39
-20.85 -0.10 2.39
-20.83 -0.51 2.39
-20.80 -0.93 2.39
-20.76 -1.35 2.39
-20.71 -1.76 2.39
-20.66 -2.17 2.39
-20.59 -2.59 2.39
-20.52 -3.00 2.39
-20.44 -3.41 2.39
-20.35 -3.81 2.39
-20.26 -4.22 2.39
-20.15 -4.62 2.39
-20.04 -5.02 2.39
-19.92 -5.41 2.39
-19.79 -5.81 2.39
-19.65 -6.20 2.39
-19.51 -6.59 2.39
-19.35 -6.97 2.39
-19.19 -7.35 2.39
-19.03 -7.73 2.39
-18.85 -8.10 2.39
-18.67 -8.47 2.39
-18.48 -8.84 2.39
-18.28 -9.20 2.39
-18.08 -9.55 2.39
-17.86 -9.90 2.39
-17.65 -10.25 2.39
-17.42 -10.59 2.39
-17.19 -10.93 2.39
-16.95 -11.26 2.39
-16.70 -11.59 2.39
-16.45 -11.91 2.39
-16.20 -12.23 2.39
-15.93 -12.54 2.39
-15.66 -12.85 2.39
-15.39 -13.15 2.39
-15.11 -13.44 2.39
-14.82 -13.73 2.39
-14.53 -14.01 2.39
-14.23 -14.28 2.39
-13.93 -14.55 2.39
-13.62 -14.82 2.39
-13.31 -15.07 2.39
-12.99 -15.32 2.39
-12.67 -15.56 2.39
-12.34 -15.80 2.39
-12.01 -16.03 2.39
-11.68 -16.25 2.39
-11.34 -16.47 2.39
-10.99 -16.68 2.39
-10.65 -16.88 2.39
-10.29 -17.06 2.39
-9.93 -17.24 2.39
-9.57 -17.42 2.39
-9.21 -17.60 2.39
-8.85 -17.76 2.39
-8.49 -17.92 2.39
-8.12 -18.07 2.39
-7.75 -18.22 2.39
-7.37 -18.35 2.39
-7.00 -18.48 2.39
-6.62 -18.60 2.39
-6.51 -19.52 2.49
-6.11 -19.63 2.49
-5.71 -19.74 2.49
-5.31 -19.83 2.49
-4.90 -19.92 2.49
-4.50 -20.00 2.49
-4.09 -20.07 2.49
-3.69 -20.13 2.49
-3.28 -20.18 2.49
-2.87 -20.23 2.49
-2.46 -20.27 2.49
-2.05 -20.30 2.49
-1.65 -20.32 2.49
-1.24 -20.34 2.49
-0.83 -20.34 2.49
-0.42 -20.34 2.49
-0.01 -17.13 2.49
0.33 -17.12 2.49
0.68 -17.10 2.49
1.02 -17.07 2.49
1.36 -17.04 2.49
1.63 -16.30 2.39
1.96 -16.25 2.39
2.28 -16.20 2.39
2.61 -16.15 2.39
1.92 -10.54 1.57
3.25 -16.01 2.39
3.57 -15.94 2.39
3.89 -15.86 2.39
4.20 -15.77 2.39
4.52 -15.67 2.39
4.83 -15.57 2.39
5.14 -15.47 2.39
5.45 -15.36 2.39
6.55 -17.34 2.72
6.77 -16.89 2.67
6.98 -16.46 2.63
7.19 -16.04 2.58
7.33 -15.52 2.52
7.44 -14.97 2.46
7.55 -14.44 2.39
7.61 -13.87 2.33
7.63 -13.27 2.25
7.68 -12.75 2.19
7.72 -12.26 2.13
7.39 -11.23 1.98
7.37 -10.72 1.91
7.38 -10.29 1.86
7.39 -9.87 1.81
7.31 -9.37 1.75
7.26 -8.94 1.70
7.27 -8.58 1.66
7.27 -8.24 1.62
7.27 -7.92 1.58
7.25 -7.59 1.55
7.22 -7.26 1.51
7.20 -6.95 1.47
7.21 -6.68 1.45
7.22 -6.43 1.42
7.22 -6.18 1.40
7.23 -5.94 1.38
7.23 -5.70 1.36
7.25 -5.48 1.34
7.27 -5.27 1.32
7.29 -5.06 1.31
7.29 -4.85 1.29
7.28 -4.63 1.27
7.27 -4.43 1.25
7.26 -4.22 1.24
7.25 -4.03 1.22
7.25 -3.83 1.21
7.24 -3.64 1.19
7.23 -3.46 1.18
7.23 -3.28 1.17
7.22 -3.11 1.16
7.22 -2.94 1.14
7.23 -2.77 1.14
7.23 -2.61 1.13
7.24 -2.45 1.12
7.24 -2.29 1.11
7.25 -2.13 1.11
7.25 -1.97 1.10
7.25 -1.82 1.10
7.26 -1.66 1.09
7.25 -1.51 1.09
7.25 -1.36 1.08
7.24 -1.21 1.07
7.23 -1.06 1.07
7.23 -0.91 1.07
7.24 -0.76 1.06
7.24 -0.62 1.06
7.24 -0.47 1.06
7.25 -0.32 1.06
7.25 -0.18 1.06
7.25 -0.03 1.06
7.26 0.11 1.06
7.26 0.26 1.06
7.26 0.41 1.06
7.26 0.55 1.06
7.27 0.70 1.06
7.28 0.85 1.06
7.28 1.00 1.07
7.28 1.15 1.07
7.28 1.30 1.07
7.28 1.45 1.08
7.28 1.60 1.08
7.28 1.75 1.08
7.28 1.91 1.09
7.27 2.07 1.09
7.27 2.22 1.10
7.27 2.38 1.10
7.27 2.55 1.11
7.27 2.71 1.12
7.28 2.88 1.13
7.28 3.05 1.14
7.28 3.23 1.14
7.27 3.40 1.15
7.26 3.58 1.16
7.26 3.75 1.17
7.25 3.94 1.18
7.24 4.12 1.19
7.23 4.31 1.20
7.22 4.50 1.22
7.20 4.70 1.23
7.18 4.89 1.24
7.17 5.10 1.26
7.18 5.33 1.28
7.21 5.57 1.30
7.23 5.83 1.32
7.26 6.09 1.35
7.28 6.37 1.38
7.31 6.65 1.40
7.32 6.94 1.43
7.34 7.24 1.46
7.33 7.53 1.49
7.33 7.84 1.52
7.32 8.15 1.55
7.32 8.48 1.58
7.31 8.83 1.62
7.30 9.19 1.66
7.27 9.53 1.69
7.24 9.90 1.73
7.20 10.27 1.77
7.16 10.67 1.81
7.12 11.08 1.85
7.07 11.50 1.90
7.01 11.93 1.94
6.95 12.39 1.99
6.88 12.86 2.04
6.81 13.38 2.10
6.78 13.99 2.18
6.68 14.52 2.24
6.55 15.04 2.29
6.42 15.58 2.35
6.42 16.52 2.47
6.38 17.45 2.59
5.57 16.22 2.39
5.24 16.35 2.39
4.92 16.46 2.39
4.59 16.57 2.39
4.26 16.67 2.39
3.93 16.76 2.39
3.59 16.85 2.39
3.26 16.93 2.39
2.92 17.00 2.39
2.58 17.07 2.39
2.24 17.13 2.39
1.89 17.18 2.39
1.62 17.97 2.49
1.26 18.01 2.49
0.90 18.04 2.49
0.53 18.07 2.49
0.17 18.09 2.49
-0.19 18.10 2.49
-0.55 18.10 2.49
-0.92 18.09 2.49
-1.28 18.08 2.49
-1.65 18.06 2.49
-2.01 18.03 2.49
-2.37 18.00 2.49
-2.73 17.96 2.49
-3.09 17.91 2.49
-3.45 17.85 2.49
-3.81 17.79 2.49
-4.17 17.71 2.49
-4.53 17.63 2.49
-4.88 17.55 2.49
-5.24 17.45 2.49
-5.59 17.35 2.49
-5.94 17.24 2.49
-6.28 17.13 2.49
-6.35 16.30 2.39
-6.68 16.17 2.39
-7.01 16.04 2.39
-7.33 15.90 2.39
-7.65 15.76 2.39
-7.97 15.61 2.39
-8.28 15.45 2.39
-8.59 15.28 2.39
-8.90 15.11 2.39
-9.20 14.93 2.39
-9.50 14.75 2.39
-9.80 14.56 2.39
-10.09 14.36 2.39
-10.39 14.17 2.39
-10.67 13.97 2.39
-10.95 13.75 2.39
-11.23 13.53 2.39
-11.50 13.30 2.39
-11.76 13.07 2.39
-12.02 12.83 2.39
-12.28 12.59 2.39
-12.53 12.34 2.39
-12.77 12.09 2.39
-13.01 11.83 2.39
-13.25 11.56 2.39
-13.48 11.30 2.39
-13.70 11.02 2.39
-13.92 10.74 2.39
-14.13 10.46 2.39
-14.33 10.18 2.39
-14.53 9.88 2.39
-14.72 9.59 2.39
-14.91 9.29 2.39
-15.09 8.99 2.39
-15.27 8.68 2.39
-15.43 8.37 2.39
-15.60 8.06 2.39
-15.75 7.74 2.39
-15.90 7.42 2.39
-16.04 7.10 2.39
-16.17 6.78 2.39
-16.30 6.45 2.39
-16.42 6.12 2.39
-16.54 5.79 2.39
-16.64 5.45 2.39
-16.74 5.11 2.39
-16.84 4.78 2.39
-16.92 4.43 2.39
-17.00 4.09 2.39
-17.07 3.75 2.39
-17.14 3.40 2.39
-17.19 3.06 2.39
-17.24 2.71 2.39
-17.29 2.36 2.39
-17.32 2.02 2.39
-17.35 1.67 2.39
-17.37 1.32 2.39
-17.39 0.97 2.39
-17.39 0.62 2.39
-17.39 0.27 2.39
-17.38 -0.08 2.39
-17.37 -0.43 2.39
-17.35 -0.77 2.39
-17.31 -1.12 2.39
-17.28 -1.47 2.39
-17.23 -1.81 2.39
-17.18 -2.16 2.39
-17.13 -2.50 2.39
-17.06 -2.84 2.39
-16.99 -3.18 2.39
-16.91 -3.52 2.39
-16.83 -3.85 2.39
-16.73 -4.19 2.39
-16.63 -4.52 2.39
-16.53 -4.85 2.39
-16.42 -5.18 2.39
-16.30 -5.50 2.39
-16.17 -5.82 2.39
-16.04 -6.14 2.39
-15.90 -6.46 2.39
-15.76 -6.77 2.39
-15.61 -7.08 2.39
-15.45 -7.39 2.39
-15.29 -7.69 2.39
-15.12 -7.99 2.39
-14.94 -8.28 2.39
-14.76 -8.58 2.39
-14.58 -8.86 2.39
-14.39 -9.15 2.39
-14.19 -9.43 2.39
-13.99 -9.70 2.39
-13.78 -9.97 2.39
-13.56 -10.24 2.39
-13.34 -10.50 2.39
-13.12 -10.76 2.39
-12.89 -11.01 2.39
-12.66 -11.26 2.39
-12.42 -11.50 2.39
-12.18 -11.74 2.39
-11.93 -11.97 2.39
-11.68 -12.20 2.39
-11.42 -12.42 2.39
-11.16 -12.64 2.39
-10.90 -12.85 2.39
-10.63 -13.06 2.39
-10.34 -13.24 2.39
-10.07 -13.44 2.39
-9.79 -13.62 2.39
-9.51 -13.81 2.39
-9.22 -13.98 2.39
-8.93 -14.16 2.39
-8.64 -14.32 2.39
-8.34 -14.48 2.39
-8.04 -14.63 2.39
-7.74 -14.78 2.39
-7.44 -14.92 2.39
-7.13 -15.06 2.39
-6.82 -15.19 2.39
-6.58 -15.47 2.41
-6.47 -16.09 2.49
-6.14 -16.21 2.49
-5.81 -16.31 2.49
-5.47 -16.42 2.49
-5.14 -16.51 2.49
-4.80 -16.60 2.49
-4.47 -16.68 2.49
-4.13 -16.76 2.49
-3.79 -16.82 2.49
-3.45 -16.89 2.49
-3.11 -16.94 2.49
-2.76 -16.99 2.49
-2.42 -17.03 2.49
-2.08 -17.07 2.49
-1.73 -17.09 2.49
-1.39 -17.11 2.49
-1.04 -17.13 2.49
-0.70 -17.14 2.49
-0.35 -17.14 2.49
-0.01 -14.79 2.49
0.29 -14.78 2.49
0.58 -14.76 2.49
0.88 -14.74 2.49
1.17 -14.71 2.49
1.47 -14.68 2.49
1.70 -14.07 2.40
1.97 -13.99 2.39
2.25 -13.94 2.39
1.92 -10.54 1.81
2.81 -13.83 2.39
3.08 -13.77 2.39
3.36 -13.70 2.39
3.63 -13.62 2.39
3.90 -13.54 2.39
4.17 -13.46 2.39
4.44 -13.37 2.39
4.71 -13.27 2.39
4.97 -13.17 2.39
5.23 -13.06 2.39
5.49 -12.95 2.39
6.54 -14.59 2.72
6.66 -14.11 2.65
6.78 -13.64 2.59
6.86 -13.13 2.52
6.94 -12.65 2.45
7.01 -12.20 2.39
7.08 -11.76 2.34
6.95 -11.04 2.22
6.97 -10.60 2.16
7.00 -10.18 2.10
7.02 -9.79 2.05
7.01 -9.37 1.99
6.98 -8.95 1.93
6.99 -8.60 1.89
6.99 -8.26 1.84
7.00 -7.94 1.80
7.01 -7.63 1.76
7.00 -7.32 1.73
6.98 -7.01 1.68
6.99 -6.75 1.65
7.00 -6.49 1.63
7.01 -6.24 1.60
7.02 -6.00 1.57
7.03 -5.77 1.55
7.04 -5.54 1.53
7.05 -5.33 1.51
7.07 -5.13 1.49
7.08 -4.92 1.47
7.08 -4.71 1.45
7.08 -4.50 1.43
7.07 -4.30 1.41
7.06 -4.11 1.39
7.06 -3.92 1.37
7.05 -3.73 1.36
7.05 -3.55 1.34
7.04 -3.37 1.33
7.04 -3.20 1.31
7.03 -3.03 1.30
7.04 -2.86 1.29
7.05 -2.70 1.28
7.05 -2.54 1.27
7.06 -2.38 1.27
7.06 -2.23 1.26
7.07 -2.08 1.25
7.07 -1.92 1.24
7.08 -1.77 1.24
7.08 -1.62 1.23
7.08 -1.47 1.23
7.08 -1.33 1.22
7.08 -1.18 1.22
7.07 -1.03 1.21
7.07 -0.89 1.21
7.07 -0.74 1.20
7.08 -0.60 1.20
7.08 -0.46 1.20
7.09 -0.32 1.20
7.09 -0.17 1.20
7.09 -0.03 1.20
7.10 0.11 1.20
7.10 0.25 1.20
7.10 0.40 1.20
7.10 0.54 1.20
7.10 0.68 1.20
7.11 0.83 1.20
7.11 0.97 1.21
7.11 1.12 1.21
7.11 1.27 1.21
7.11 1.42 1.22
7.11 1.56 1.22
7.11 1.71 1.23
7.10 1.87 1.23
7.10 2.02 1.24
7.10 2.17 1.24
7.09 2.33 1.25
7.09 2.48 1.26
7.08 2.64 1.26
7.08 2.81 1.27
7.09 2.97 1.28
7.09 3.14 1.29
7.08 3.31 1.30
7.07 3.48 1.31
7.06 3.65 1.32
7.05 3.83 1.34
7.04 4.01 1.35
7.02 4.19 1.36
7.01 4.38 1.37
7.00 4.57 1.39
6.98 4.76 1.40
6.97 4.95 1.42
6.95 5.15 1.43
6.97 5.39 1.46
6.99 5.63 1.48
7.01 5.88 1.51
7.03 6.15 1.54
7.05 6.42 1.57
7.07 6.70 1.61
7.08 6.99 1.64
7.09 7.28 1.67
7.08 7.57 1.71
7.07 7.87 1.74
7.06 8.18 1.78
7.04 8.51 1.82
7.03 8.85 1.86
7.02 9.20 1.90
6.98 9.54 1.94
6.94 9.90 1.98
6.89 10.27 2.03
6.85 10.65 2.07
6.80 11.06 2.12
6.73 11.46 2.17
6.58 11.74 2.20
6.43 12.03 2.23
6.28 12.33 2.26
6.11 12.63 2.29
5.94 12.93 2.32
5.77 13.24 2.35
5.59 13.59 2.39
5.32 13.70 2.39
5.05 13.82 2.39
4.78 13.92 2.39
4.50 14.03 2.39
4.22 14.12 2.39
3.94 14.21 2.39
3.65 14.30 2.39
3.37 14.38 2.39
3.08 14.45 2.39
2.79 14.52 2.39
2.50 14.58 2.39
2.21 14.63 2.39
1.92 14.72 2.40
1.69 15.36 2.49
1.38 15.40 2.49
1.08 15.44 2.49
0.77 15.46 2.49
0.46 15.48 2.49
0.15 15.50 2.49
-0.17 15.50 2.49
-0.48 15.51 2.49
-0.79 15.50 2.49
-1.10 15.49 2.49
-1.41 15.47 2.49
-1.72 15.45 2.49
-2.03 15.42 2.49
-2.34 15.38 2.49
-2.65 15.34 2.49
-2.96 15.29 2.49
-3.27 15.23 2.49
-3.57 15.17 2.49
-3.88 15.10 2.49
-4.18 15.02 2.49
-4.48 14.94 2.49
-4.78 14.85 2.49
-5.08 14.76 2.49
-5.38 14.66 2.49
-5.67 14.55 2.49
-5.97 14.44 2.49
-6.26 14.32 2.49
-6.35 13.77 2.42
-6.55 13.48 2.39
-6.82 13.35 2.39
-7.09 13.22 2.39
-7.35 13.07 2.39
-7.61 12.93 2.39
-7.87 12.77 2.39
-8.13 12.62 2.39
-8.38 12.45 2.39
-8.63 12.28 2.39
-8.88 12.11 2.39
-9.12 11.93 2.39
-9.36 11.75 2.39
-9.59 11.56 2.39
-9.82 11.36 2.39
-10.05 11.16 2.39
-10.27 10.96 2.39
-10.50 10.77 2.39
-10.72 10.56 2.39
-10.93 10.34 2.39
-11.13 10.12 2.39
-11.33 9.89 2.39
-11.53 9.66 2.39
-11.72 9.43 2.39
-11.90 9.19 2.39
-12.08 8.95 2.39
-12.26 8.70 2.39
-12.43 8.46 2.39
-12.60 8.20 2.39
-12.76 7.95 2.39
-12.91 7.69 2.39
-13.06 7.43 2.39
-13.20 7.16 2.39
-13.34 6.90 2.39
-13.48 6.63 2.39
-13.60 6.35 2.39
-13.72 6.08 2.39
-13.84 5.80 2.39
-13.95 5.52 2.39
-14.05 5.24 2.39
-14.15 4.95 2.39
-14.24 4.67 2.39
-14.33 4.38 2.39
-14.41 4.09 2.39
-14.49 3.80 2.39
-14.55 3.50 2.39
-14.62 3.21 2.39
-14.67 2.92 2.39
-14.72 2.62 2.39
-14.77 2.32 2.39
-14.80 2.03 2.39
-14.83 1.73 2.39
-14.86 1.43 2.39
-14.88 1.13 2.39
-14.89 0.83 2.39
-14.90 0.53 2.39
-14.90 0.23 2.39
-14.89 -0.07 2.39
-14.88 -0.36 2.39
-14.86 -0.66 2.39
-14.84 -0.96 2.39
-14.81 -1.26 2.39
-14.77 -1.55 2.39
-14.73 -1.85 2.39
-14.68 -2.14 2.39
-14.63 -2.43 2.39
-14.57 -2.73 2.39
-14.50 -3.02 2.39
-14.43 -3.30 2.39
-14.35 -3.59 2.39
-14.27 -3.88 2.39
-14.18 -4.16 2.39
-14.08 -4.44 2.39
-13.98 -4.72 2.39
-13.88 -4.99 2.39
-13.77 -5.27 2.39
-13.65 -5.54 2.39
-13.53 -5.81 2.39
-13.40 -6.08 2.39
-13.27 -6.34 2.39
-13.13 -6.60 2.39
-12.98 -6.86 2.39
-12.83 -7.11 2.39
-12.68 -7.36 2.39
-12.52 -7.61 2.39
-12.36 -7.86 2.39
-12.19 -8.10 2.39
-12.02 -8.33 2.39
-11.84 -8.57 2.39
-11.66 -8.80 2.39
-11.47 -9.02 2.39
-11.28 -9.25 2.39
-11.08 -9.46 2.39
-10.88 -9.68 2.39
-10.68 -9.89 2.39
-10.46 -10.08 2.39
-10.25 -10.28 2.39
-10.03 -10.48 2.39
-9.82 -10.67 2.39
-9.59 -10.86 2.39
-9.37 -11.04 2.39
-9.14 -11.22 2.39
-8.90 -11.39 2.39
-8.67 -11.56 2.39
-8.43 -11.73 2.39
-8.18 -11.88 2.39
-7.94 -12.04 2.39
-7.69 -12.19 2.39
-7.44 -12.33 2.39
-7.19 -12.47 2.39
-6.93 -12.60 2.39
-6.67 -12.73 2.39
-6.56 -13.15 2.44
-6.41 -13.53 2.49
-6.13 -13.65 2.49
-5.86 -13.76 2.49
-5.57 -13.87 2.49
-5.29 -13.97 2.49
-5.01 -14.06 2.49
-4.72 -14.15 2.49
-4.43 -14.23 2.49
-4.14 -14.31 2.49
-3.85 -14.38 2.49
-3.56 -14.45 2.49
-3.27 -14.51 2.49
-2.97 -14.56 2.49
-2.68 -14.61 2.49
-2.39 -14.65 2.49
-2.09 -14.69 2.49
-1.79 -14.72 2.49
-1.50 -14.75 2.49
-1.20 -14.77 2.49
-0.90 -14.78 2.49
-0.60 -14.79 2.49
-0.31 -14.79 2.49
-0.01 -12.99 2.49
0.25 -12.99 2.49
0.51 -12.97 2.49
0.77 -12.96 2.49
1.03 -12.93 2.49
1.29 -12.90 2.49
1.50 -12.48 2.42
1.73 -12.30 2.39
1.98 -12.26 2.39
1.92 -10.54 2.06
2.47 -12.16 2.39
2.71 -12.10 2.39
2.95 -12.04 2.39
3.19 -11.98 2.39
3.43 -11.91 2.39
3.67 -11.83 2.39
3.90 -11.75 2.39
4.14 -11.67 2.39
4.37 -11.58 2.39
4.60 -11.49 2.39
4.83 -11.39 2.39
5.06 -11.29 2.39
5.28 -11.18 2.39
5.50 -11.07 2.39
6.23 -11.92 2.60
6.35 -11.58 2.55
6.46 -11.24 2.51
6.55 -10.89 2.46
6.60 -10.48 2.40
6.63 -10.08 2.33
6.66 -9.70 2.28
6.69 -9.33 2.22
6.69 -8.95 2.16
6.71 -8.60 2.11
6.72 -8.28 2.06
6.74 -7.96 2.02
6.75 -7.66 1.98
6.76 -7.36 1.94
6.76 -7.07 1.89
6.77 -6.80 1.86
6.79 -6.55 1.83
6.80 -6.31 1.80
6.81 -6.07 1.77
6.83 -5.84 1.74
6.84 -5.61 1.71
6.85 -5.40 1.69
6.86 -5.19 1.67
6.88 -4.99 1.65
6.88 -4.78 1.62
6.88 -4.58 1.60
6.88 -4.38 1.58
6.88 -4.19 1.56
6.87 -4.00 1.54
6.87 -3.81 1.52
6.87 -3.63 1.50
6.86 -3.45 1.49
6.86 -3.28 1.47
6.85 -3.11 1.46
6.86 -2.95 1.44
6.86 -2.79 1.43
6.87 -2.63 1.42
6.88 -2.48 1.41
6.89 -2.33 1.40
6.89 -2.18 1.40
6.90 -2.03 1.39
6.90 -1.88 1.38
6.91 -1.73 1.37
6.91 -1.58 1.37
6.92 -1.44 1.36
