ply
format ascii 1.0
element vertex 2887
property float32 x
property float32 y
property float32 z
end_header
9.94 -40.54 1.72
10.17 -38.14 1.64
10.26 -35.59 1.54
10.40 -33.54 1.47
10.49 -31.59 1.40
10.59 -29.88 1.34
10.54 -27.94 1.27
9.22 -23.05 1.06
8.62 -20.34 0.95
8.46 -18.91 0.90
8.48 -17.97 0.86
8.37 -16.85 0.82
8.28 -15.87 0.79
8.27 -15.10 0.76
8.23 -14.34 0.74
8.19 -13.64 0.72
8.21 -13.06 0.70
8.23 -12.53 0.69
8.26 -12.04 0.67
8.28 -11.57 0.66
8.29 -11.11 0.65
8.31 -10.69 0.64
8.35 -10.30 0.63
8.39 -9.93 0.62
8.41 -9.57 0.62
8.42 -9.20 0.61
8.43 -8.84 0.60
8.42 -8.49 0.60
8.42 -8.15 0.59
8.42 -7.83 0.58
8.44 -7.54 0.58
8.49 -7.29 0.58
8.54 -7.04 0.58
8.58 -6.78 0.58
8.62 -6.54 0.58
8.65 -6.30 0.58
8.69 -6.06 0.58
8.72 -5.83 0.58
8.75 -5.60 0.58
8.77 -5.36 0.58
8.79 -5.14 0.58
8.81 -4.91 0.58
8.82 -4.69 0.58
8.84 -4.47 0.58
8.85 -4.26 0.58
8.87 -4.05 0.58
8.88 -3.84 0.58
8.89 -3.64 0.58
8.89 -3.43 0.58
8.89 -3.23 0.59
8.89 -3.03 0.59
8.89 -2.83 0.59
8.89 -2.64 0.59
8.89 -2.44 0.59
8.89 -2.25 0.60
8.88 -2.06 0.60
8.88 -1.87 0.60
8.88 -1.69 0.61
8.87 -1.50 0.61
8.87 -1.32 0.61
8.86 -1.14 0.62
8.85 -0.96 0.62
8.85 -0.78 0.62
8.84 -0.60 0.63
8.84 -0.42 0.63
8.83 -0.24 0.64
8.82 -0.07 0.64
8.82 0.11 0.65
8.81 0.29 0.65
8.80 0.46 0.66
8.80 0.64 0.67
8.80 0.82 0.67
8.80 1.00 0.68
8.80 1.18 0.69
8.80 1.36 0.70
8.80 1.54 0.70
8.80 1.72 0.71
8.80 1.91 0.72
8.80 2.09 0.73
8.79 2.28 0.74
8.79 2.47 0.75
8.80 2.66 0.76
8.84 2.87 0.78
8.88 3.08 0.79
8.93 3.30 0.81
8.98 3.52 0.82
9.05 3.76 0.84
9.12 4.01 0.86
9.19 4.26 0.88
9.18 4.48 0.90
9.19 4.72 0.91
9.22 4.97 0.93
9.24 5.22 0.95
9.27 5.49 0.97
9.29 5.76 0.99
9.32 6.04 1.01
9.32 6.30 1.03
9.29 6.57 1.05
9.28 6.84 1.07
9.26 7.12 1.09
9.24 7.40 1.11
9.22 7.70 1.13
9.20 8.00 1.16
9.18 8.31 1.18
9.15 8.62 1.21
9.10 8.92 1.23
9.04 9.24 1.25
8.99 9.56 1.28
8.93 9.88 1.30
8.87 10.22 1.33
8.80 10.56 1.36
8.71 10.90 1.38
8.62 11.24 1.41
8.52 11.59 1.44
8.42 11.95 1.47
8.32 12.33 1.50
8.21 12.71 1.53
8.11 13.13 1.56
7.99 13.52 1.60
7.83 13.89 1.63
7.67 14.26 1.66
7.50 14.65 1.69
7.44 15.29 1.75
7.39 15.98 1.82
7.30 16.67 1.88
7.27 17.55 1.97
7.60 19.46 2.17
10.01 27.23 3.03
9.44 27.35 3.03
7.02 21.75 2.39
6.57 21.85 2.39
6.11 21.94 2.39
5.66 22.02 2.39
5.21 22.09 2.39
4.76 22.16 2.39
4.30 22.22 2.39
3.85 22.28 2.39
3.40 22.33 2.39
2.95 22.37 2.39
2.49 22.41 2.39
2.13 23.41 2.50
1.65 23.43 2.50
1.18 23.45 2.50
0.71 23.47 2.50
0.24 23.47 2.50
-0.24 23.47 2.50
-0.71 23.46 2.50
-1.18 23.45 2.50
-1.65 23.43 2.50
-2.13 23.40 2.50
-2.60 23.37 2.50
-3.07 23.33 2.50
-3.54 23.28 2.50
-4.01 23.23 2.50
-4.49 23.17 2.50
-4.96 23.10 2.50
-5.43 23.03 2.50
-5.90 22.95 2.50
-6.37 22.86 2.50
-6.84 22.77 2.50
-7.31 22.67 2.50
-6.74 19.54 2.16
-6.71 18.26 2.03
-8.36 21.40 2.39
-8.81 21.28 2.39
-9.26 21.15 2.39
-9.71 21.02 2.39
-10.16 20.87 2.39
-10.61 20.72 2.39
-11.07 20.60 2.40
-11.52 20.43 2.40
-11.96 20.26 2.40
-12.41 20.08 2.40
-12.86 19.90 2.40
-13.30 19.71 2.40
-13.75 19.51 2.40
-14.19 19.30 2.40
-14.64 19.09 2.40
-15.08 18.87 2.40
-15.52 18.64 2.40
-15.96 18.40 2.40
-16.40 18.16 2.40
-16.84 17.91 2.40
-17.28 17.65 2.40
-17.71 17.38 2.40
-18.15 17.11 2.40
-18.58 16.82 2.40
-19.02 16.53 2.40
-19.45 16.23 2.40
-19.88 15.92 2.40
-20.31 15.61 2.40
-20.73 15.28 2.40
-21.16 14.95 2.40
-21.50 14.55 2.39
-20.94 13.57 2.28
-20.25 12.55 2.17
-19.78 11.71 2.08
-19.58 11.07 2.02
-19.39 10.45 1.96
-19.24 9.88 1.92
-19.25 9.40 1.89
-19.26 8.93 1.86
-19.28 8.47 1.83
-19.29 8.02 1.80
-19.21 7.54 1.77
-19.20 7.09 1.74
-19.20 6.66 1.71
-19.20 6.23 1.69
-19.13 5.78 1.66
-19.13 5.37 1.64
-19.12 4.95 1.62
-19.12 4.55 1.60
-19.12 4.14 1.58
-19.06 3.73 1.55
-19.06 3.34 1.53
-19.07 2.94 1.52
-19.08 2.55 1.50
-19.03 2.16 1.48
-19.04 1.77 1.46
-19.05 1.39 1.45
-19.06 1.01 1.44
-19.01 0.62 1.42
-19.00 0.24 1.41
-18.99 -0.14 1.39
-18.99 -0.52 1.38
-18.92 -0.90 1.36
-18.92 -1.28 1.35
-18.91 -1.66 1.34
-18.91 -2.04 1.33
-18.85 -2.42 1.32
-18.84 -2.81 1.31
-18.83 -3.19 1.30
-18.83 -3.58 1.29
-18.76 -3.96 1.28
-18.74 -4.35 1.27
-18.73 -4.75 1.26
-18.72 -5.14 1.26
-18.66 -5.53 1.25
-18.72 -5.96 1.25
-18.77 -6.39 1.25
-19.00 -6.90 1.26
-6.39 -2.47 0.42
-19.62 -8.03 1.29
-19.96 -8.64 1.31
-20.32 -9.28 1.34
-20.06 -9.65 1.32
-19.59 -9.92 1.29
-19.13 -10.17 1.26
-19.47 -10.86 1.28
-19.89 -11.62 1.31
-20.35 -12.44 1.34
-20.83 -13.32 1.38
-21.36 -14.27 1.42
-21.93 -15.29 1.46
-22.54 -16.40 1.51
-23.22 -17.61 1.56
-35.46 -28.04 2.40
-35.23 -29.03 2.40
-34.98 -30.02 2.40
-34.71 -31.01 2.40
-34.41 -32.00 2.40
-34.08 -33.00 2.40
-32.79 -33.05 2.33
-30.83 -32.34 2.22
-30.79 -33.63 2.24
-29.84 -33.93 2.20
-27.26 -32.28 2.04
-26.83 -33.10 2.04
-26.51 -34.08 2.05
-26.75 -35.84 2.10
-26.74 -37.36 2.14
-26.73 -38.98 2.19
-26.65 -40.59 2.23
-25.42 -40.46 2.18
-24.82 -41.31 2.18
-24.64 -42.95 2.22
-17.36 -40.97 1.92
-16.71 -44.31 2.02
-11.92 -44.72 1.92
-11.10 -45.29 1.93
-3.77 -46.90 1.91
-2.77 -45.96 1.86
-1.84 -45.95 1.86
0.00 -39.66 2.50
0.79 -39.65 2.50
1.59 -39.62 2.50
2.38 -39.56 2.50
3.04 -37.85 2.39
3.79 -37.74 2.39
2.83 -23.40 1.49
5.29 -37.47 2.39
6.03 -37.30 2.39
6.89 -37.82 2.44
7.44 -36.66 2.38
7.99 -35.71 2.33
8.57 -35.00 2.30
9.01 -33.84 2.24
9.50 -33.01 2.21
9.71 -31.35 2.11
9.75 -29.39 2.00
9.68 -27.33 1.88
8.28 -21.98 1.53
8.05 -20.14 1.42
7.96 -18.81 1.34
7.98 -17.84 1.29
7.87 -16.70 1.22
7.81 -15.74 1.17
7.82 -14.99 1.13
7.82 -14.30 1.09
7.80 -13.61 1.06
7.83 -13.04 1.03
7.85 -12.51 1.00
7.89 -12.02 0.98
7.92 -11.56 0.96
7.94 -11.11 0.94
7.96 -10.68 0.92
8.00 -10.29 0.91
8.04 -9.92 0.90
8.07 -9.57 0.88
8.09 -9.20 0.87
8.10 -8.86 0.86
8.11 -8.52 0.85
8.12 -8.19 0.84
8.12 -7.87 0.82
8.14 -7.58 0.82
8.19 -7.33 0.81
8.25 -7.08 0.81
8.30 -6.84 0.81
8.34 -6.60 0.80
8.38 -6.36 0.80
8.41 -6.13 0.80
8.45 -5.90 0.79
8.49 -5.68 0.79
8.51 -5.45 0.79
8.53 -5.22 0.79
8.55 -5.00 0.78
8.57 -4.79 0.78
8.59 -4.57 0.78
8.60 -4.36 0.78
8.62 -4.16 0.78
8.63 -3.95 0.78
8.65 -3.75 0.78
8.66 -3.55 0.78
8.66 -3.35 0.78
8.66 -3.15 0.78
8.66 -2.96 0.78
8.66 -2.77 0.78
8.66 -2.57 0.78
8.66 -2.39 0.78
8.66 -2.20 0.78
8.66 -2.02 0.79
8.66 -1.83 0.79
8.66 -1.65 0.79
8.65 -1.47 0.79
8.64 -1.29 0.80
8.64 -1.12 0.80
8.63 -0.94 0.80
8.63 -0.76 0.81
8.62 -0.59 0.81
8.61 -0.42 0.81
8.61 -0.24 0.82
8.60 -0.07 0.82
8.59 0.10 0.83
8.59 0.27 0.83
8.58 0.45 0.84
8.58 0.62 0.85
8.58 0.79 0.85
8.58 0.97 0.86
8.58 1.14 0.87
8.58 1.32 0.88
8.58 1.49 0.88
8.58 1.67 0.89
8.57 1.85 0.90
8.57 2.03 0.91
8.57 2.21 0.92
8.56 2.40 0.93
8.57 2.58 0.94
8.58 2.78 0.96
8.61 2.98 0.97
8.64 3.19 0.99
8.68 3.40 1.01
8.72 3.62 1.03
8.76 3.84 1.04
8.79 4.07 1.06
8.83 4.31 1.09
8.87 4.55 1.11
8.88 4.78 1.13
8.91 5.03 1.15
8.93 5.28 1.17
8.95 5.54 1.19
8.97 5.80 1.22
8.99 6.07 1.24
9.01 6.36 1.27
9.00 6.62 1.29
8.98 6.89 1.31
8.96 7.17 1.34
8.94 7.45 1.36
8.91 7.74 1.39
8.89 8.04 1.42
8.86 8.34 1.44
8.82 8.64 1.47
8.74 8.91 1.49
8.65 9.19 1.52
8.56 9.47 1.54
8.47 9.76 1.56
8.38 10.05 1.59
8.28 10.35 1.62
8.19 10.67 1.64
8.12 11.04 1.68
8.05 11.41 1.72
7.95 11.76 1.75
7.84 12.12 1.79
7.72 12.49 1.82
7.61 12.88 1.86
7.50 13.29 1.90
7.38 13.71 1.95
7.25 14.15 2.00
7.08 14.53 2.03
6.97 15.08 2.09
6.90 15.75 2.17
6.82 16.47 2.26
6.76 17.29 2.36
6.71 18.24 2.47
6.58 19.05 2.57
6.19 19.18 2.57
5.40 17.94 2.39
5.03 18.02 2.39
4.66 18.09 2.39
4.29 18.16 2.39
3.91 18.22 2.39
3.54 18.28 2.39
3.17 18.33 2.39
2.80 18.37 2.39
2.43 18.41 2.39
2.05 18.45 2.39
1.68 18.47 2.39
1.36 19.29 2.50
0.97 19.31 2.50
0.58 19.32 2.50
0.19 19.32 2.50
-0.19 19.32 2.50
-0.58 19.32 2.50
-0.97 19.31 2.50
-1.36 19.29 2.50
-1.75 19.26 2.50
-2.14 19.23 2.50
-2.53 19.20 2.50
-2.92 19.16 2.50
-3.30 19.11 2.50
-3.69 19.06 2.50
-4.08 19.00 2.50
-4.47 18.93 2.50
-4.85 18.86 2.50
-5.24 18.79 2.50
-5.62 18.70 2.50
-6.01 18.61 2.50
-6.39 18.52 2.50
-6.50 17.66 2.39
-6.86 17.56 2.39
-7.23 17.45 2.39
-7.60 17.33 2.39
-7.96 17.22 2.39
-8.32 17.09 2.39
-8.69 16.96 2.39
-9.05 16.82 2.39
-9.41 16.68 2.39
-9.77 16.53 2.39
-10.13 16.37 2.39
-10.50 16.24 2.40
-10.86 16.07 2.40
-11.21 15.90 2.40
-11.57 15.72 2.40
-11.92 15.53 2.40
-12.27 15.34 2.40
-12.62 15.14 2.40
-12.97 14.94 2.40
-13.31 14.73 2.40
-13.66 14.51 2.40
-14.00 14.29 2.40
-14.34 14.06 2.40
-14.68 13.82 2.40
-15.02 13.58 2.40
-15.35 13.33 2.40
-15.69 13.08 2.40
-16.02 12.81 2.40
-16.34 12.54 2.40
-16.67 12.27 2.40
-16.99 11.99 2.40
-17.31 11.70 2.40
-17.63 11.40 2.40
-17.94 11.10 2.40
-18.25 10.79 2.40
-18.56 10.48 2.40
-18.86 10.16 2.40
-19.17 9.83 2.40
-19.25 9.39 2.37
-19.27 8.92 2.34
-19.28 8.46 2.31
-19.29 8.00 2.27
-19.21 7.52 2.23
-19.20 7.08 2.20
-19.20 6.64 2.17
-19.20 6.21 2.15
-19.13 5.77 2.11
-19.13 5.35 2.09
-19.12 4.94 2.06
-19.12 4.53 2.04
-19.12 4.13 2.02
-19.06 3.72 1.99
-19.06 3.32 1.97
-19.07 2.93 1.95
-19.08 2.54 1.94
-19.03 2.14 1.91
-19.04 1.76 1.90
-19.05 1.38 1.88
-19.06 0.99 1.87
-19.01 0.61 1.85
-19.00 0.23 1.84
-18.99 -0.16 1.82
-18.99 -0.54 1.81
-18.92 -0.91 1.79
-18.92 -1.30 1.78
-18.91 -1.68 1.77
-18.91 -2.06 1.76
-18.85 -2.44 1.75
-18.84 -2.82 1.74
-18.83 -3.21 1.73
-18.83 -3.60 1.73
-18.76 -3.97 1.71
-18.74 -4.36 1.71
-18.73 -4.76 1.70
-18.72 -5.16 1.70
-18.66 -5.55 1.69
-18.72 -5.98 1.69
-18.77 -6.41 1.70
-19.01 -6.92 1.72
-6.39 -2.47 0.58
-19.64 -8.05 1.78
-19.97 -8.66 1.81
-20.33 -9.31 1.84
-20.04 -9.66 1.82
-19.57 -9.92 1.78
-19.11 -10.18 1.75
-19.48 -10.88 1.79
-19.91 -11.65 1.83
-20.36 -12.47 1.88
-20.85 -13.35 1.94
-21.38 -14.30 2.00
-21.95 -15.32 2.07
-22.56 -16.44 2.14
-23.24 -17.65 2.22
-24.85 -19.67 2.40
-24.62 -20.31 2.40
-24.37 -20.94 2.40
-24.11 -21.57 2.40
-23.83 -22.19 2.40
-23.54 -22.81 2.40
-23.22 -23.43 2.40
-22.90 -24.05 2.40
-22.55 -24.65 2.40
-22.19 -25.26 2.40
-21.81 -25.85 2.40
-21.42 -26.44 2.40
-21.01 -27.03 2.40
-20.58 -27.60 2.40
-20.14 -28.17 2.40
-19.68 -28.72 2.40
-19.20 -29.27 2.40
-18.71 -29.81 2.40
-18.21 -30.33 2.40
-17.68 -30.84 2.40
-17.14 -31.34 2.40
-16.59 -31.83 2.40
-16.02 -32.30 2.40
-15.44 -32.76 2.40
-14.84 -33.20 2.40
-14.23 -33.63 2.40
-13.61 -34.04 2.40
-12.97 -34.43 2.40
-12.33 -34.81 2.40
-11.67 -35.16 2.40
-10.99 -35.50 2.40
-10.31 -35.82 2.40
-9.12 -34.24 2.27
-8.91 -36.36 2.39
-8.20 -36.62 2.39
-7.48 -36.86 2.39
-6.75 -37.08 2.39
-6.02 -37.27 2.39
-5.47 -38.81 2.48
-4.73 -39.22 2.50
-3.95 -39.35 2.50
-3.17 -39.46 2.50
-2.38 -39.55 2.50
-1.59 -39.61 2.50
-0.79 -39.65 2.50
0.00 -29.17 2.50
0.58 -29.16 2.50
1.17 -29.14 2.50
1.75 -29.10 2.50
2.33 -29.05 2.50
2.79 -27.78 2.39
2.82 -23.40 2.02
3.89 -27.59 2.39
4.44 -27.48 2.39
4.98 -27.35 2.39
5.52 -27.21 2.39
6.05 -27.05 2.39
7.48 -30.55 2.72
7.85 -29.50 2.65
8.14 -28.30 2.56
8.19 -26.47 2.41
7.79 -23.50 2.16
7.62 -21.53 2.00
7.51 -19.94 1.87
7.48 -18.72 1.77
7.47 -17.66 1.69
7.39 -16.54 1.60
7.35 -15.61 1.53
7.38 -14.89 1.48
7.40 -14.21 1.43
7.42 -13.58 1.39
7.46 -13.02 1.35
7.49 -12.50 1.32
7.53 -12.00 1.28
7.57 -11.55 1.26
7.60 -11.10 1.23
7.63 -10.68 1.20
7.66 -10.28 1.18
7.70 -9.92 1.16
7.74 -9.56 1.14
7.76 -9.21 1.12
7.78 -8.87 1.11
7.80 -8.54 1.09
7.82 -8.22 1.07
7.83 -7.91 1.06
7.85 -7.62 1.05
7.91 -7.37 1.04
7.96 -7.13 1.03
8.01 -6.89 1.03
8.07 -6.66 1.02
8.11 -6.43 1.01
8.15 -6.20 1.01
8.19 -5.97 1.00
8.23 -5.75 1.00
8.26 -5.53 1.00
8.28 -5.31 0.99
8.30 -5.09 0.99
8.32 -4.88 0.98
8.34 -4.67 0.98
8.36 -4.46 0.98
8.38 -4.26 0.97
8.40 -4.06 0.97
8.41 -3.86 0.97
8.43 -3.66 0.97
8.44 -3.47 0.97
8.44 -3.27 0.97
8.44 -3.08 0.96
8.44 -2.89 0.96
8.45 -2.70 0.96
8.45 -2.52 0.96
8.45 -2.33 0.96
8.45 -2.15 0.96
8.45 -1.97 0.96
8.45 -1.80 0.97
8.45 -1.62 0.97
8.44 -1.44 0.97
8.43 -1.27 0.97
8.42 -1.09 0.97
8.42 -0.92 0.97
8.41 -0.75 0.98
8.41 -0.58 0.98
8.40 -0.41 0.98
8.40 -0.24 0.99
8.39 -0.07 0.99
8.38 0.09 1.00
8.38 0.26 1.00
8.37 0.43 1.01
8.37 0.60 1.02
8.37 0.77 1.02
8.37 0.94 1.03
8.37 1.11 1.04
8.37 1.28 1.05
8.37 1.45 1.06
8.36 1.62 1.07
8.36 1.80 1.07
8.36 1.97 1.08
8.35 2.15 1.10
8.35 2.33 1.11
8.34 2.51 1.12
8.35 2.70 1.13
8.36 2.89 1.15
8.37 3.08 1.16
8.41 3.29 1.18
8.44 3.50 1.20
8.47 3.71 1.22
8.51 3.93 1.24
8.54 4.16 1.27
8.58 4.39 1.29
8.59 4.61 1.31
8.56 4.82 1.33
8.56 5.05 1.35
8.58 5.30 1.37
8.60 5.55 1.40
8.61 5.81 1.43
8.63 6.08 1.46
8.65 6.36 1.49
8.65 6.63 1.51
8.60 6.87 1.54
8.56 7.13 1.56
8.53 7.39 1.59
8.49 7.67 1.61
8.45 7.94 1.64
8.41 8.23 1.67
8.36 8.52 1.70
8.28 8.79 1.73
8.19 9.05 1.75
8.09 9.31 1.78
8.00 9.59 1.80
7.90 9.87 1.83
7.80 10.16 1.86
7.70 10.45 1.89
7.61 10.77 1.93
7.53 11.14 1.97
7.45 11.51 2.01
7.37 11.90 2.06
7.26 12.27 2.10
7.14 12.64 2.15
7.02 13.03 2.19
6.89 13.44 2.24
6.76 13.86 2.29
6.54 14.13 2.32
6.30 14.36 2.34
6.05 14.60 2.36
5.83 14.90 2.40
5.51 14.97 2.39
5.20 15.05 2.39
4.89 15.13 2.39
4.58 15.21 2.39
4.27 15.28 2.39
3.95 15.34 2.39
3.64 15.40 2.39
3.32 15.46 2.39
3.01 15.51 2.39
2.69 15.55 2.39
2.38 15.59 2.39
2.06 15.63 2.39
1.74 15.66 2.39
1.49 16.36 2.50
1.16 16.38 2.50
0.83 16.39 2.50
0.50 16.40 2.50
0.17 16.41 2.50
-0.17 16.41 2.50
-0.50 16.40 2.50
-0.83 16.39 2.50
-1.16 16.38 2.50
-1.49 16.35 2.50
-1.82 16.33 2.50
-2.15 16.30 2.50
-2.48 16.26 2.50
-2.81 16.22 2.50
-3.14 16.17 2.50
-3.46 16.12 2.50
-3.79 16.06 2.50
-4.12 16.00 2.50
-4.45 15.93 2.50
-4.77 15.86 2.50
-5.10 15.78 2.50
-5.42 15.69 2.50
-5.75 15.60 2.50
-6.07 15.51 2.50
-6.39 15.41 2.50
-6.43 14.67 2.39
-6.74 14.57 2.39
-7.05 14.45 2.39
-7.35 14.34 2.39
-7.65 14.22 2.39
-7.96 14.09 2.39
-8.26 13.96 2.39
-8.56 13.82 2.39
-8.85 13.68 2.39
-9.15 13.53 2.39
-9.45 13.38 2.39
-9.74 13.22 2.39
-10.03 13.06 2.39
-10.32 12.89 2.39
-10.63 12.74 2.40
-10.91 12.56 2.40
-11.20 12.37 2.40
-11.48 12.18 2.40
-11.76 11.99 2.40
-12.04 11.79 2.40
-12.32 11.58 2.40
-12.59 11.37 2.40
-12.86 11.16 2.40
-13.13 10.93 2.40
-13.40 10.71 2.40
-13.66 10.48 2.40
-13.93 10.24 2.40
-14.18 9.99 2.40
-14.44 9.75 2.40
-14.69 9.49 2.40
-14.94 9.23 2.40
-15.19 8.97 2.40
-15.43 8.70 2.40
-15.67 8.42 2.40
-15.91 8.14 2.40
-16.14 7.86 2.40
-16.37 7.56 2.40
-16.59 7.27 2.40
-16.81 6.96 2.40
-17.03 6.66 2.40
-17.24 6.34 2.40
-17.45 6.02 2.40
-17.65 5.70 2.40
-17.85 5.37 2.40
-18.05 5.04 2.40
-18.24 4.70 2.40
-18.42 4.35 2.40
-18.60 4.00 2.40
-18.78 3.65 2.40
-18.94 3.29 2.40
-19.11 2.92 2.40
-19.08 2.52 2.37
-19.03 2.13 2.35
-19.04 1.75 2.33
-19.05 1.36 2.32
-19.06 0.98 2.30
-19.01 0.59 2.28
-19.00 0.21 2.27
-18.99 -0.17 2.26
-18.99 -0.55 2.24
-18.92 -0.93 2.22
-18.92 -1.31 2.21
-18.91 -1.69 2.20
-18.91 -2.07 2.19
-18.85 -2.45 2.18
-18.84 -2.83 2.17
-18.83 -3.22 2.17
-18.83 -3.61 2.16
-18.76 -3.99 2.15
-18.74 -4.38 2.15
-18.73 -4.77 2.14
-18.71 -5.17 2.14
-18.67 -5.56 2.13
-18.72 -5.99 2.14
-18.78 -6.43 2.15
-19.02 -6.94 2.18
-6.39 -2.48 0.73
-19.65 -8.07 2.26
-19.99 -8.68 2.30
-20.34 -9.33 2.35
-20.02 -9.67 2.32
-19.56 -9.93 2.28
-19.10 -10.19 2.24
-19.49 -10.91 2.30
-19.92 -11.67 2.36
-20.12 -12.34 2.40
-19.98 -12.81 2.40
-19.83 -13.28 2.40
-19.66 -13.75 2.40
-19.49 -14.22 2.40
-19.30 -14.68 2.40
-19.11 -15.15 2.40
-18.90 -15.61 2.40
-18.68 -16.07 2.40
-18.45 -16.52 2.40
-18.21 -16.98 2.40
-17.96 -17.42 2.40
-17.69 -17.87 2.40
-17.41 -18.31 2.40
-17.13 -18.74 2.40
-16.83 -19.17 2.40
-16.52 -19.60 2.40
-16.20 -20.01 2.40
-15.86 -20.43 2.40
-15.52 -20.83 2.40
-15.16 -21.23 2.40
-14.80 -21.62 2.40
-14.42 -22.00 2.40
-14.03 -22.37 2.40
-13.63 -22.73 2.40
-13.23 -23.09 2.40
-12.81 -23.43 2.40
-12.38 -23.77 2.40
-11.94 -24.09 2.40
-11.50 -24.41 2.40
-11.04 -24.71 2.40
-10.58 -25.00 2.40
-10.10 -25.28 2.40
-9.61 -25.52 2.39
-9.12 -25.78 2.39
-8.63 -26.02 2.39
-8.12 -26.25 2.39
-7.61 -26.46 2.39
-7.10 -26.67 2.39
-6.57 -26.86 2.39
-6.05 -27.03 2.39
-5.66 -27.92 2.46
-5.19 -28.51 2.50
-4.62 -28.65 2.50
-4.06 -28.77 2.50
-3.48 -28.87 2.50
-2.91 -28.96 2.50
-2.33 -29.04 2.50
-1.75 -29.10 2.50
-1.17 -29.14 2.50
-0.58 -29.16 2.50
0.00 -23.05 2.50
0.46 -23.05 2.50
0.92 -23.03 2.50
1.38 -23.00 2.50
1.84 -22.96 2.50
2.30 -22.90 2.50
2.64 -21.90 2.39
3.07 -21.82 2.39
3.51 -21.74 2.39
3.94 -21.64 2.39
4.36 -21.53 2.39
4.79 -21.41 2.39
5.21 -21.29 2.39
5.62 -21.15 2.39
6.04 -21.00 2.39
6.62 -21.40 2.46
6.59 -19.89 2.30
6.72 -19.01 2.22
6.75 -17.95 2.12
6.81 -17.06 2.03
6.75 -15.97 1.92
6.81 -15.26 1.86
6.87 -14.61 1.80
6.93 -13.99 1.74
6.98 -13.41 1.69
7.05 -12.92 1.65
7.12 -12.45 1.62
7.19 -11.99 1.58
7.23 -11.53 1.54
7.27 -11.10 1.51
7.30 -10.68 1.48
7.34 -10.28 1.45
7.37 -9.91 1.42
7.42 -9.56 1.39
7.45 -9.21 1.37
7.48 -8.88 1.35
7.50 -8.56 1.33
7.53 -8.25 1.31
7.55 -7.94 1.29
7.57 -7.65 1.27
7.63 -7.41 1.26
7.68 -7.17 1.25
7.74 -6.94 1.24
7.79 -6.71 1.23
7.85 -6.49 1.22
7.89 -6.26 1.22
7.93 -6.04 1.21
7.97 -5.82 1.20
8.01 -5.61 1.20
8.04 -5.39 1.19
8.06 -5.17 1.18
8.08 -4.96 1.18
8.11 -4.76 1.17
8.13 -4.55 1.17
8.15 -4.35 1.16
8.17 -4.16 1.16
8.19 -3.96 1.16
8.20 -3.77 1.15
8.22 -3.58 1.15
8.22 -3.39 1.15
8.23 -3.20 1.14
8.23 -3.01 1.14
8.23 -2.82 1.14
8.24 -2.64 1.14
8.24 -2.46 1.14
8.24 -2.28 1.13
8.24 -2.11 1.13
8.24 -1.93 1.13
8.24 -1.76 1.13
8.24 -1.59 1.14
8.24 -1.41 1.14
8.23 -1.24 1.14
8.22 -1.08 1.14
8.22 -0.91 1.14
8.21 -0.74 1.14
8.20 -0.57 1.15
8.20 -0.41 1.15
8.19 -0.24 1.15
8.19 -0.08 1.16
8.18 0.09 1.16
8.17 0.25 1.17
8.17 0.41 1.17
8.17 0.58 1.18
8.17 0.74 1.19
8.17 0.91 1.19
8.17 1.07 1.20
8.17 1.24 1.21
8.16 1.41 1.22
8.16 1.58 1.23
8.16 1.75 1.24
8.15 1.92 1.25
8.15 2.09 1.26
8.14 2.27 1.27
8.13 2.44 1.28
8.14 2.62 1.30
8.15 2.81 1.31
8.15 2.99 1.33
8.16 3.18 1.35
8.18 3.38 1.37
8.21 3.59 1.39
8.24 3.80 1.41
8.27 4.02 1.44
8.30 4.24 1.46
8.33 4.47 1.49
8.31 4.68 1.51
8.28 4.88 1.53
8.25 5.09 1.54
8.24 5.32 1.57
8.25 5.56 1.60
8.26 5.82 1.63
8.27 6.08 1.66
8.28 6.34 1.69
8.28 6.61 1.72
8.23 6.84 1.74
8.17 7.08 1.77
8.11 7.32 1.79
8.07 7.58 1.82
8.02 7.84 1.85
7.97 8.12 1.88
7.92 8.40 1.92
7.86 8.67 1.95
7.76 8.92 1.97
7.66 9.18 2.00
7.56 9.44 2.03
7.46 9.70 2.06
7.35 9.97 2.09
7.24 10.25 2.12
7.13 10.54 2.16
7.04 10.87 2.20
6.95 11.22 2.25
6.86 11.59 2.30
6.76 11.96 2.35
6.57 12.20 2.37
6.38 12.43 2.40
6.18 12.66 2.42
5.96 12.86 2.44
5.58 12.72 2.39
5.32 12.81 2.39
5.05 12.89 2.39
4.78 12.97 2.39
4.51 13.05 2.39
4.24 13.12 2.39
3.97 13.19 2.39
3.70 13.25 2.39
3.43 13.31 2.39
3.16 13.36 2.39
2.89 13.41 2.39
2.61 13.46 2.39
2.34 13.50 2.39
2.06 13.53 2.39
1.79 13.56 2.39
1.58 14.18 2.50
1.29 14.20 2.50
1.01 14.22 2.50
0.72 14.23 2.50
0.43 14.24 2.50
0.14 14.24 2.50
-0.14 14.24 2.50
-0.43 14.24 2.50
-0.72 14.23 2.50
-1.01 14.22 2.50
-1.29 14.20 2.50
-1.58 14.17 2.50
-1.87 14.14 2.50
-2.15 14.11 2.50
-2.44 14.07 2.50
-2.72 14.03 2.50
-3.01 13.98 2.50
-3.29 13.93 2.50
-3.58 13.88 2.50
-3.86 13.81 2.50
-4.14 13.75 2.50
-4.42 13.68 2.50
-4.70 13.60 2.50
-4.98 13.52 2.50
-5.26 13.44 2.50
-5.54 13.35 2.50
-5.82 13.25 2.50
-6.09 13.15 2.50
-6.37 13.05 2.50
-6.37 12.42 2.40
-6.63 12.30 2.39
-6.89 12.19 2.39
-7.14 12.07 2.39
-7.40 11.95 2.39
-7.66 11.82 2.39
-7.91 11.69 2.39
-8.16 11.55 2.39
-8.41 11.41 2.39
-8.66 11.27 2.39
-8.91 11.12 2.39
-9.16 10.96 2.39
-9.40 10.81 2.39
-9.64 10.64 2.39
-9.88 10.47 2.39
-10.12 10.30 2.39
-10.37 10.14 2.40
-10.60 9.96 2.40
-10.83 9.77 2.40
-11.06 9.58 2.40
-11.29 9.39 2.40
-11.51 9.19 2.40
-11.73 8.98 2.40
-11.95 8.77 2.40
-12.16 8.56 2.40
-12.38 8.34 2.40
-12.59 8.12 2.40
-12.79 7.89 2.40
-13.00 7.66 2.40
-13.20 7.43 2.40
-13.39 7.19 2.40
-13.58 6.94 2.40
-13.77 6.69 2.40
-13.96 6.44 2.40
-14.14 6.18 2.40
-14.32 5.92 2.40
-14.50 5.65 2.40
-14.67 5.38 2.40
-14.83 5.11 2.40
-15.00 4.83 2.40
-15.15 4.55 2.40
-15.31 4.26 2.40
-15.46 3.97 2.40
-15.60 3.67 2.40
-15.74 3.37 2.40
-15.87 3.07 2.40
-16.00 2.76 2.40
-16.13 2.45 2.40
-16.25 2.14 2.40
-16.36 1.82 2.40
-16.47 1.50 2.40
-16.58 1.17 2.40
-16.67 0.84 2.40
-16.77 0.51 2.40
-16.85 0.18 2.40
-16.93 -0.16 2.40
-17.01 -0.51 2.40
-17.07 -0.85 2.40
-17.13 -1.20 2.40
-17.19 -1.55 2.40
-17.24 -1.90 2.40
-17.28 -2.26 2.40
-17.31 -2.62 2.40
-17.34 -2.98 2.40
-17.36 -3.34 2.40
-17.38 -3.71 2.40
-17.38 -4.07 2.40
-17.38 -4.44 2.40
-17.38 -4.81 2.40
-17.36 -5.19 2.40
-17.34 -5.56 2.40
-17.30 -5.94 2.40
-17.27 -6.31 2.40
-6.39 -2.48 0.89
-17.16 -7.07 2.40
-17.10 -7.44 2.40
-17.03 -7.82 2.40
-16.95 -8.20 2.40
-16.86 -8.58 2.40
-16.76 -8.96 2.40
-16.66 -9.33 2.40
-16.55 -9.71 2.40
-16.42 -10.09 2.40
-16.29 -10.46 2.40
-16.15 -10.83 2.40
-16.01 -11.21 2.40
-15.85 -11.58 2.40
-15.68 -11.94 2.40
-15.51 -12.31 2.40
-15.32 -12.67 2.40
-15.13 -13.03 2.40
-14.93 -13.39 2.40
-14.72 -13.74 2.40
-14.50 -14.09 2.40
-14.28 -14.43 2.40
-14.04 -14.77 2.40
-13.79 -15.11 2.40
-13.54 -15.44 2.40
-13.28 -15.77 2.40
-13.01 -16.09 2.40
-12.73 -16.41 2.40
-12.44 -16.72 2.40
-12.15 -17.02 2.40
-11.84 -17.32 2.40
-11.53 -17.61 2.40
-11.21 -17.89 2.40
-10.89 -18.17 2.40
-10.55 -18.44 2.40
-10.21 -18.70 2.40
-9.86 -18.95 2.40
-9.50 -19.18 2.39
-9.14 -19.42 2.39
-8.77 -19.64 2.39
-8.39 -19.86 2.39
-8.01 -20.07 2.39
-7.63 -20.27 2.39
-7.24 -20.47 2.39
-6.84 -20.65 2.39
-6.44 -20.82 2.39
-6.03 -20.98 2.39
-5.77 -21.69 2.46
-5.43 -22.19 2.50
-4.99 -22.32 2.50
-4.55 -22.45 2.50
-4.10 -22.56 2.50
-3.66 -22.66 2.50
-3.20 -22.75 2.50
-2.75 -22.83 2.50
-2.30 -22.90 2.50
-1.84 -22.95 2.50
-1.38 -23.00 2.50
-0.92 -23.03 2.50
-0.46 -23.04 2.50
0.00 -19.04 2.50
0.38 -19.03 2.50
0.76 -19.02 2.50
1.14 -19.00 2.50
1.52 -18.96 2.50
1.90 -18.92 2.50
2.22 -18.46 2.44
2.54 -18.03 2.39
2.90 -17.96 2.39
3.25 -17.89 2.39
3.60 -17.80 2.39
3.96 -17.71 2.39
4.30 -17.61 2.39
4.65 -17.49 2.39
4.99 -17.37 2.39
5.33 -17.25 2.39
5.66 -17.11 2.39
6.00 -16.97 2.39
6.11 -16.25 2.31
6.17 -15.46 2.22
6.28 -14.86 2.16
6.35 -14.24 2.09
6.42 -13.65 2.03
6.47 -13.07 1.96
6.55 -12.60 1.92
6.64 -12.16 1.87
6.71 -11.73 1.83
6.77 -11.30 1.79
6.84 -10.92 1.76
6.91 -10.56 1.72
6.97 -10.20 1.69
7.03 -9.86 1.66
7.09 -9.53 1.64
7.14 -9.21 1.61
7.18 -8.88 1.58
7.21 -8.57 1.56
7.24 -8.26 1.53
7.27 -7.97 1.51
7.29 -7.68 1.49
7.35 -7.44 1.47
7.41 -7.21 1.46
7.47 -6.98 1.45
7.53 -6.76 1.44
7.58 -6.54 1.43
7.64 -6.32 1.42
7.68 -6.10 1.41
7.73 -5.89 1.40
7.77 -5.68 1.39
7.80 -5.47 1.38
7.82 -5.25 1.38
7.85 -5.05 1.37
7.88 -4.84 1.36
7.90 -4.64 1.35
7.92 -4.45 1.35
7.94 -4.25 1.34
7.96 -4.06 1.34
7.98 -3.87 1.33
8.00 -3.68 1.33
8.01 -3.49 1.32
8.02 -3.31 1.32
8.03 -3.12 1.31
8.03 -2.94 1.31
8.03 -2.76 1.31
8.04 -2.58 1.30
8.04 -2.41 1.30
8.04 -2.24 1.30
8.05 -2.06 1.30
8.05 -1.89 1.30
8.05 -1.72 1.30
8.05 -1.56 1.30
8.04 -1.39 1.30
8.04 -1.22 1.30
8.03 -1.06 1.30
8.02 -0.89 1.30
8.02 -0.73 1.30
8.01 -0.57 1.30
8.00 -0.40 1.31
8.00 -0.24 1.31
7.99 -0.08 1.31
7.99 0.08 1.32
7.98 0.24 1.32
7.97 0.40 1.33
7.97 0.56 1.33
7.97 0.72 1.34
7.97 0.88 1.35
7.97 1.04 1.36
7.97 1.21 1.37
7.97 1.37 1.38
7.96 1.53 1.39
7.96 1.70 1.40
7.95 1.87 1.41
7.95 2.03 1.42
7.94 2.20 1.43
7.94 2.37 1.44
7.93 2.55 1.46
7.94 2.73 1.47
7.95 2.91 1.49
7.95 3.09 1.51
7.96 3.28 1.53
7.96 3.47 1.55
7.99 3.68 1.57
8.01 3.89 1.60
8.04 4.10 1.62
8.06 4.32 1.65
8.08 4.54 1.68
8.05 4.74 1.70
8.02 4.94 1.72
7.98 5.14 1.74
7.95 5.35 1.76
7.92 5.57 1.78
7.93 5.81 1.82
7.93 6.07 1.85
7.94 6.33 1.89
7.93 6.59 1.92
7.87 6.81 1.94
7.81 7.04 1.97
7.75 7.27 2.00
7.69 7.51 2.02
7.62 7.75 2.05
7.56 8.01 2.09
7.51 8.28 2.12
7.45 8.56 2.16
7.36 8.80 2.19
7.26 9.04 2.22
7.15 9.29 2.25
7.05 9.55 2.28
6.94 9.81 2.31
6.82 10.07 2.34
6.65 10.26 2.36
6.46 10.42 2.37
6.27 10.58 2.38
6.10 10.78 2.40
5.92 10.98 2.43
5.61 10.93 2.39
5.38 11.03 2.39
5.15 11.12 2.39
4.92 11.20 2.39
4.69 11.28 2.39
4.45 11.36 2.39
4.22 11.43 2.39
3.98 11.50 2.39
3.74 11.57 2.39
3.51 11.63 2.39
3.27 11.69 2.39
3.03 11.74 2.39
2.79 11.79 2.39
2.55 11.83 2.39
2.31 11.87 2.39
2.06 11.91 2.39
1.82 11.94 2.39
1.65 12.48 2.50
1.40 12.51 2.50
1.14 12.53 2.50
0.89 12.55 2.50
0.63 12.56 2.50
0.38 12.57 2.50
0.13 12.57 2.50
-0.13 12.57 2.50
-0.38 12.57 2.50
-0.63 12.56 2.50
-0.89 12.55 2.50
-1.14 12.53 2.50
-1.39 12.51 2.50
-1.65 12.48 2.50
-1.90 12.45 2.50
-2.15 12.42 2.50
-2.40 12.38 2.50
-2.66 12.34 2.50
-2.91 12.29 2.50
-3.16 12.24 2.50
-3.41 12.18 2.50
-3.65 12.12 2.50
-3.90 12.06 2.50
-4.15 11.99 2.50
-4.40 11.92 2.50
-4.64 11.84 2.50
-4.89 11.76 2.50
-5.13 11.68 2.50
-5.37 11.59 2.50
-5.61 11.49 2.50
-5.85 11.40 2.50
-6.09 11.29 2.50
-6.33 11.19 2.50
-6.34 10.70 2.41
-6.54 10.55 2.40
-6.74 10.39 2.39
-6.96 10.28 2.39
-7.18 10.15 2.39
-7.40 10.03 2.39
-7.62 9.90 2.39
-7.83 9.76 2.39
-8.05 9.62 2.39
-8.26 9.48 2.39
-8.47 9.34 2.39
-8.67 9.19 2.39
-8.88 9.03 2.39
-9.08 8.87 2.39
-9.28 8.71 2.39
-9.48 8.55 2.39
-9.68 8.38 2.39
-9.87 8.20 2.39
-10.07 8.02 2.39
-10.25 7.84 2.39
-10.46 7.67 2.40
-10.64 7.48 2.40
-10.82 7.28 2.40
-11.00 7.09 2.40
-11.17 6.88 2.40
-11.35 6.68 2.40
-11.52 6.47 2.40
-11.68 6.26 2.40
-11.84 6.04 2.40
-12.00 5.82 2.40
-12.16 5.60 2.40
-12.31 5.37 2.40
-12.46 5.14 2.40
-12.61 4.91 2.40
-12.75 4.67 2.40
-12.89 4.43 2.40
-13.02 4.18 2.40
-13.15 3.94 2.40
-13.28 3.68 2.40
-13.40 3.43 2.40
-13.52 3.17 2.40
-13.63 2.91 2.40
-13.74 2.65 2.40
-13.84 2.38 2.40
-13.94 2.11 2.40
-14.04 1.84 2.40
-14.13 1.56 2.40
-14.21 1.28 2.40
-14.29 1.00 2.40
-14.37 0.72 2.40
-14.44 0.43 2.40
-14.50 0.14 2.40
-14.56 -0.15 2.40
-14.62 -0.45 2.40
-14.67 -0.74 2.40
-14.71 -1.04 2.40
-14.75 -1.34 2.40
-14.78 -1.64 2.40
-14.80 -1.95 2.40
-14.82 -2.25 2.40
-14.84 -2.56 2.40
-14.84 -2.87 2.40
-14.85 -3.18 2.40
-14.84 -3.49 2.40
-14.83 -3.80 2.40
-14.81 -4.12 2.40
-14.79 -4.43 2.40
-14.76 -4.75 2.40
-14.72 -5.06 2.40
-14.68 -5.38 2.40
-6.39 -2.49 1.05
-14.57 -6.01 2.40
-14.51 -6.33 2.40
-14.43 -6.64 2.40
-14.36 -6.96 2.40
-14.27 -7.27 2.40
-14.18 -7.59 2.40
-14.08 -7.90 2.40
-13.98 -8.21 2.40
-13.86 -8.53 2.40
-13.74 -8.84 2.40
-13.62 -9.14 2.40
-13.48 -9.45 2.40
-13.34 -9.76 2.40
-13.19 -10.06 2.40
-13.04 -10.36 2.40
-12.87 -10.66 2.40
-12.70 -10.95 2.40
-12.53 -11.24 2.40
-12.34 -11.53 2.40
-12.15 -11.82 2.40
-11.95 -12.10 2.40
-11.75 -12.37 2.40
-11.53 -12.65 2.40
-11.32 -12.92 2.40
-11.09 -13.18 2.40
-10.86 -13.44 2.40
-10.62 -13.70 2.40
-10.37 -13.95 2.40
-10.12 -14.20 2.40
-9.85 -14.42 2.39
-9.59 -14.65 2.39
-9.32 -14.88 2.39
-9.04 -15.10 2.39
-8.76 -15.32 2.39
-8.47 -15.53 2.39
-8.18 -15.73 2.39
-7.88 -15.93 2.39
-7.58 -16.12 2.39
-7.27 -16.30 2.39
-6.96 -16.47 2.39
-6.64 -16.64 2.39
-6.32 -16.80 2.39
-5.99 -16.95 2.39
-5.84 -17.64 2.47
-5.55 -17.98 2.50
-5.20 -18.11 2.50
-4.85 -18.24 2.50
-4.49 -18.35 2.50
-4.12 -18.46 2.50
-3.76 -18.56 2.50
-3.39 -18.65 2.50
-3.02 -18.73 2.50
-2.65 -18.80 2.50
-2.27 -18.86 2.50
-1.90 -18.92 2.50
-1.52 -18.96 2.50
-1.14 -18.99 2.50
-0.76 -19.02 2.50
-0.38 -19.03 2.50
0.00 -16.20 2.50
0.32 -16.20 2.50
0.65 -16.18 2.50
0.97 -16.17 2.50
1.29 -16.14 2.50
1.61 -16.10 2.50
1.93 -16.06 2.50
2.18 -15.49 2.42
2.46 -15.29 2.39
2.77 -15.23 2.39
3.07 -15.16 2.39
3.37 -15.08 2.39
3.66 -15.00 2.39
3.96 -14.90 2.39
4.25 -14.81 2.39
4.54 -14.70 2.39
4.83 -14.59 2.39
5.11 -14.47 2.39
5.39 -14.34 2.39
5.67 -14.21 2.39
5.86 -13.89 2.36
5.93 -13.31 2.29
6.00 -12.76 2.22
6.08 -12.31 2.16
6.18 -11.89 2.12
6.25 -11.46 2.07
6.32 -11.05 2.02
6.39 -10.68 1.98
6.47 -10.34 1.94
6.54 -10.00 1.91
6.61 -9.68 1.87
6.67 -9.36 1.84
6.73 -9.06 1.81
6.79 -8.76 1.79
6.84 -8.48 1.76
6.89 -8.20 1.74
6.94 -7.93 1.71
6.99 -7.67 1.69
7.08 -7.47 1.68
7.15 -7.24 1.67
7.21 -7.02 1.65
7.27 -6.80 1.64
7.33 -6.58 1.63
7.38 -6.37 1.62
7.44 -6.16 1.61
7.48 -5.95 1.60
7.53 -5.75 1.58
7.56 -5.54 1.57
7.59 -5.33 1.56
7.62 -5.13 1.55
7.65 -4.93 1.54
7.68 -4.73 1.53
7.70 -4.53 1.53
7.73 -4.34 1.52
7.75 -4.15 1.51
7.77 -3.97 1.50
7.79 -3.78 1.50
7.81 -3.60 1.49
7.82 -3.42 1.49
7.82 -3.23 1.48
7.83 -3.05 1.48
7.84 -2.88 1.47
7.84 -2.70 1.47
7.85 -2.53 1.46
7.85 -2.36 1.46
7.85 -2.19 1.46
7.86 -2.02 1.46
7.86 -1.85 1.45
7.86 -1.69 1.45
7.86 -1.53 1.45
7.86 -1.36 1.45
7.85 -1.20 1.45
7.85 -1.04 1.45
7.84 -0.88 1.45
7.83 -0.72 1.45
7.83 -0.56 1.46
7.82 -0.40 1.46
7.81 -0.24 1.46
7.81 -0.09 1.46
7.80 0.07 1.47
7.80 0.23 1.47
7.79 0.38 1.48
7.79 0.54 1.48
7.79 0.70 1.49
7.78 0.85 1.50
7.78 1.01 1.51
7.78 1.17 1.52
7.78 1.33 1.53
7.78 1.49 1.54
7.77 1.65 1.55
7.77 1.82 1.56
7.76 1.98 1.57
7.75 2.14 1.58
7.74 2.31 1.60
7.74 2.48 1.61
7.74 2.65 1.63
7.74 2.83 1.65
7.75 3.01 1.66
7.75 3.19 1.68
7.75 3.38 1.70
7.76 3.56 1.73
7.77 3.76 1.75
7.79 3.97 1.78
7.81 4.18 1.81
7.83 4.39 1.84
7.83 4.60 1.86
7.79 4.80 1.88
7.76 4.99 1.90
7.72 5.19 1.93
7.69 5.39 1.95
7.65 5.60 1.97
7.61 5.81 2.00
7.61 6.06 2.03
7.60 6.31 2.07
7.60 6.56 2.11
7.54 6.78 2.14
7.47 7.00 2.16
7.41 7.23 2.19
7.34 7.46 2.22
7.27 7.69 2.25
7.20 7.93 2.28
7.13 8.17 2.32
7.05 8.43 2.35
6.97 8.68 2.39
6.87 8.92 2.42
6.73 9.12 2.44
6.56 9.27 2.45
6.39 9.42 2.46
6.21 9.57 2.47
6.04 9.72 2.48
5.62 9.48 2.39
5.42 9.57 2.39
5.22 9.67 2.39
5.01 9.76 2.39
4.81 9.84 2.39
4.60 9.92 2.39
4.40 10.00 2.39
4.19 10.07 2.39
3.98 10.14 2.39
3.77 10.21 2.39
3.56 10.27 2.39
3.35 10.33 2.39
3.13 10.39 2.39
2.92 10.44 2.39
2.71 10.49 2.39
2.49 10.53 2.39
2.28 10.57 2.39
2.06 10.61 2.39
1.85 10.65 2.39
1.70 11.13 2.50
1.48 11.16 2.50
1.25 11.18 2.50
1.02 11.20 2.50
0.80 11.22 2.50
0.57 11.23 2.50
0.34 11.24 2.50
0.11 11.24 2.50
-0.11 11.24 2.50
-0.34 11.24 2.50
-0.57 11.23 2.50
-0.79 11.22 2.50
-1.02 11.20 2.50
-1.25 11.18 2.50
-1.47 11.16 2.50
-1.70 11.13 2.50
-1.93 11.10 2.50
-2.15 11.07 2.50
-2.38 11.03 2.50
-2.60 10.98 2.50
-2.82 10.94 2.50
-3.05 10.89 2.50
-3.27 10.83 2.50
-3.49 10.77 2.50
-3.71 10.71 2.50
-3.93 10.65 2.50
-4.15 10.58 2.50
-4.37 10.50 2.50
-4.58 10.42 2.50
-4.80 10.34 2.50
-5.01 10.26 2.50
-5.23 10.17 2.50
-5.44 10.08 2.50
-5.65 9.98 2.50
-5.86 9.88 2.50
-6.07 9.77 2.50
-6.27 9.67 2.50
-6.31 9.31 2.43
-6.41 9.05 2.39
-6.60 8.93 2.39
-6.79 8.82 2.39
-6.98 8.69 2.39
-7.17 8.57 2.39
-7.36 8.44 2.39
-7.54 8.31 2.39
-7.72 8.17 2.39
-7.91 8.03 2.39
-8.08 7.89 2.39
-8.26 7.74 2.39
-8.44 7.59 2.39
-8.61 7.44 2.39
-8.78 7.28 2.39
-8.95 7.12 2.39
-9.11 6.96 2.39
-9.27 6.79 2.39
-9.43 6.62 2.39
-9.59 6.45 2.39
-9.75 6.27 2.39
-9.90 6.09 2.39
-10.05 5.91 2.39
-10.19 5.72 2.39
-10.35 5.54 2.40
-10.49 5.34 2.40
-10.63 5.15 2.40
-10.76 4.95 2.40
-10.89 4.74 2.40
-11.02 4.54 2.40
-11.15 4.33 2.40
-11.27 4.12 2.40
-11.38 3.90 2.40
-11.50 3.68 2.40
-11.61 3.46 2.40
-11.71 3.24 2.40
-11.82 3.01 2.40
-11.91 2.79 2.40
-12.01 2.56 2.40
-12.10 2.32 2.40
-12.18 2.08 2.40
-12.27 1.85 2.40
-12.34 1.61 2.40
-12.42 1.36 2.40
-12.49 1.12 2.40
-12.55 0.87 2.40
-12.61 0.62 2.40
-12.67 0.37 2.40
-12.72 0.11 2.40
-12.76 -0.14 2.40
-12.80 -0.40 2.40
-12.84 -0.66 2.40
-12.87 -0.92 2.40
-12.90 -1.18 2.40
-12.92 -1.45 2.40
-12.93 -1.71 2.40
-12.95 -1.98 2.40
-12.95 -2.24 2.40
-12.95 -2.51 2.40
-12.95 -2.78 2.40
-12.93 -3.05 2.40
-12.92 -3.32 2.40
-12.90 -3.59 2.40
-12.87 -3.87 2.40
-12.83 -4.14 2.40
-12.80 -4.41 2.40
-12.75 -4.68 2.40
-6.38 -2.49 1.21
-12.64 -5.23 2.40
-12.58 -5.50 2.40
-12.51 -5.77 2.40
-12.44 -6.04 2.40
-12.36 -6.31 2.40
-12.27 -6.58 2.40
-12.18 -6.85 2.40
-12.08 -7.11 2.40
-11.98 -7.38 2.40
-11.87 -7.64 2.40
-11.75 -7.91 2.40
-11.63 -8.17 2.40
-11.50 -8.42 2.40
-11.37 -8.68 2.40
-11.23 -8.94 2.40
-11.08 -9.19 2.40
-10.93 -9.44 2.40
-10.78 -9.68 2.40
-10.61 -9.93 2.40
-10.44 -10.17 2.40
-10.27 -10.40 2.40
-10.09 -10.64 2.40
-9.89 -10.85 2.39
-9.69 -11.08 2.39
-9.50 -11.30 2.39
-9.29 -11.52 2.39
-9.09 -11.73 2.39
-8.87 -11.94 2.39
-8.65 -12.15 2.39
-8.43 -12.35 2.39
-8.20 -12.54 2.39
-7.97 -12.73 2.39
-7.73 -12.92 2.39
-7.48 -13.10 2.39
-7.24 -13.27 2.39
-6.98 -13.44 2.39
-6.73 -13.61 2.39
-6.47 -13.76 2.39
-6.20 -13.92 2.39
-5.93 -14.06 2.39
-5.89 -14.77 2.49
-5.62 -14.95 2.50
-5.32 -15.08 2.50
-5.03 -15.21 2.50
-4.73 -15.32 2.50
-4.43 -15.44 2.50
-4.13 -15.54 2.50
-3.82 -15.64 2.50
-3.51 -15.72 2.50
-3.20 -15.81 2.50
-2.88 -15.88 2.50
-2.57 -15.95 2.50
-2.25 -16.01 2.50
-1.93 -16.06 2.50
-1.61 -16.10 2.50
-1.29 -16.14 2.50
-0.97 -16.16 2.50
-0.65 -16.18 2.50
-0.32 -16.20 2.50
0.00 -14.09 2.50
0.28 -14.08 2.50
0.56 -14.07 2.50
0.84 -14.06 2.50
1.12 -14.03 2.50
1.40 -14.00 2.50
1.68 -13.97 2.50
1.96 -13.92 2.50
2.15 -13.34 2.40
2.40 -13.25 2.39
2.67 -13.19 2.39
2.93 -13.12 2.39
3.19 -13.05 2.39
3.44 -12.97 2.39
3.70 -12.89 2.39
3.95 -12.80 2.39
4.20 -12.70 2.39
4.45 -12.60 2.39
4.69 -12.49 2.39
4.93 -12.38 2.39
5.17 -12.26 2.39
5.41 -12.14 2.39
5.64 -12.01 2.39
5.74 -11.61 2.34
5.82 -11.20 2.29
5.89 -10.81 2.23
5.97 -10.45 2.19
6.05 -10.12 2.15
6.13 -9.81 2.11
6.20 -9.49 2.07
6.27 -9.19 2.04
6.33 -8.90 2.00
6.40 -8.62 1.97
6.46 -8.35 1.95
6.52 -8.09 1.92
6.57 -7.83 1.89
6.62 -7.57 1.87
6.66 -7.31 1.84
6.75 -7.13 1.83
6.86 -6.96 1.83
6.97 -6.79 1.82
7.07 -6.62 1.82
7.13 -6.42 1.81
7.19 -6.21 1.80
7.24 -6.01 1.78
7.29 -5.81 1.77
7.34 -5.61 1.76
7.37 -5.40 1.75
7.40 -5.20 1.73
7.43 -5.00 1.72
7.46 -4.81 1.71
7.49 -4.62 1.70
7.51 -4.43 1.69
7.54 -4.24 1.68
7.56 -4.06 1.67
7.58 -3.88 1.67
7.60 -3.70 1.66
7.62 -3.52 1.65
7.63 -3.34 1.65
7.64 -3.16 1.64
7.64 -2.99 1.63
7.65 -2.82 1.63
7.66 -2.65 1.62
7.66 -2.48 1.62
7.67 -2.31 1.61
7.67 -2.14 1.61
7.68 -1.98 1.61
7.68 -1.82 1.61
7.68 -1.66 1.60
7.68 -1.50 1.60
7.68 -1.34 1.60
7.67 -1.18 1.60
7.67 -1.02 1.60
7.66 -0.86 1.60
7.66 -0.71 1.60
7.65 -0.55 1.60
7.64 -0.40 1.60
7.63 -0.24 1.61
7.63 -0.09 1.61
7.62 0.06 1.61
7.62 0.21 1.62
7.61 0.37 1.62
7.61 0.52 1.63
7.61 0.67 1.64
7.60 0.83 1.64
7.60 0.98 1.65
7.60 1.14 1.66
7.60 1.29 1.67
7.59 1.45 1.68
7.59 1.61 1.69
7.58 1.77 1.71
7.58 1.93 1.72
7.57 2.09 1.73
7.56 2.25 1.74
7.55 2.41 1.76
7.55 2.58 1.77
7.55 2.75 1.79
7.55 2.93 1.81
7.56 3.10 1.83
7.56 3.28 1.85
7.56 3.47 1.88
7.56 3.65 1.90
7.55 3.84 1.92
7.57 4.04 1.95
7.59 4.25 1.98
7.60 4.46 2.02
7.58 4.66 2.04
7.55 4.85 2.06
7.51 5.04 2.08
7.47 5.24 2.11
7.43 5.44 2.13
7.39 5.64 2.16
7.35 5.84 2.19
7.30 6.05 2.21
7.28 6.29 2.25
7.27 6.54 2.29
7.21 6.75 2.32
7.15 6.97 2.35
7.08 7.18 2.38
7.01 7.41 2.41
6.94 7.63 2.44
6.86 7.86 2.48
6.75 8.05 2.50
6.60 8.22 2.51
6.46 8.38 2.52
6.31 8.54 2.54
5.78 8.16 2.39
5.61 8.26 2.39
5.43 8.36 2.39
5.25 8.45 2.39
5.07 8.54 2.39
4.89 8.63 2.39
4.71 8.72 2.39
4.53 8.80 2.39
4.34 8.88 2.39
4.16 8.95 2.39
3.97 9.02 2.39
3.78 9.09 2.39
3.59 9.15 2.39
3.40 9.22 2.39
3.21 9.27 2.39
3.02 9.33 2.39
2.83 9.38 2.39
2.64 9.43 2.39
2.45 9.47 2.39
2.25 9.51 2.39
2.06 9.55 2.39
1.86 9.58 2.39
1.73 9.95 2.48
1.54 10.06 2.50
1.33 10.08 2.50
1.13 10.10 2.50
0.92 10.12 2.50
0.72 10.14 2.50
0.51 10.15 2.50
0.31 10.15 2.50
0.10 10.16 2.50
-0.10 10.16 2.50
-0.31 10.15 2.50
-0.51 10.14 2.50
-0.72 10.13 2.50
-0.92 10.12 2.50
-1.13 10.10 2.50
-1.33 10.08 2.50
-1.54 10.05 2.50
-1.74 10.03 2.50
-1.94 9.99 2.50
-2.15 9.96 2.50
-2.35 9.92 2.50
-2.55 9.88 2.50
-2.75 9.83 2.50
-2.95 9.78 2.50
-3.15 9.73 2.50
-3.35 9.67 2.50
-3.55 9.61 2.50
-3.75 9.54 2.50
-3.94 9.48 2.50
-4.14 9.41 2.50
-4.33 9.33 2.50
-4.53 9.25 2.50
-4.72 9.17 2.50
-4.91 9.09 2.50
-5.10 9.00 2.50
-5.29 8.91 2.50
-5.47 8.81 2.50
-5.66 8.71 2.50
-5.84 8.61 2.50
-6.03 8.50 2.50
-6.21 8.39 2.50
-6.28 8.14 2.46
-6.29 7.83 2.39
-6.47 7.72 2.40
-6.63 7.60 2.39
-6.79 7.48 2.39
-6.96 7.35 2.39
-7.12 7.22 2.39
-7.28 7.09 2.39
-7.43 6.96 2.39
-7.59 6.82 2.39
-7.74 6.68 2.39
-7.89 6.54 2.39
-8.04 6.40 2.39
-8.19 6.25 2.39
-8.33 6.10 2.39
-8.48 5.94 2.39
-8.61 5.78 2.39
-8.75 5.62 2.39
-8.88 5.46 2.39
-9.02 5.29 2.39
-9.15 5.12 2.39
-9.27 4.95 2.39
-9.39 4.78 2.39
-9.51 4.60 2.39
-9.63 4.42 2.39
-9.75 4.24 2.39
-9.86 4.05 2.39
-9.96 3.86 2.39
-10.07 3.67 2.39
-10.17 3.48 2.39
-10.28 3.29 2.40
-10.38 3.09 2.40
-10.47 2.89 2.40
-10.56 2.69 2.40
-10.64 2.48 2.40
-10.72 2.27 2.40
-10.80 2.06 2.40
-10.87 1.85 2.40
-10.94 1.64 2.40
-11.01 1.42 2.40
-11.07 1.21 2.40
-11.12 0.99 2.40
-11.18 0.76 2.40
-11.23 0.54 2.40
-11.27 0.32 2.40
-11.31 0.09 2.40
-11.35 -0.14 2.40
-11.38 -0.36 2.40
-11.41 -0.59 2.40
-11.43 -0.83 2.40
-11.45 -1.06 2.40
-11.46 -1.29 2.40
-11.47 -1.53 2.40
-11.48 -1.76 2.40
-11.48 -2.00 2.40
-11.47 -2.24 2.40
-11.46 -2.47 2.40
-11.45 -2.71 2.40
-11.43 -2.95 2.40
-11.41 -3.19 2.40
-11.38 -3.43 2.40
-11.34 -3.67 2.40
-11.31 -3.91 2.40
-11.26 -4.14 2.40
-6.36 -2.49 1.36
-11.16 -4.62 2.40
-11.10 -4.86 2.40
-11.03 -5.10 2.40
-10.96 -5.33 2.40
-10.89 -5.57 2.40
-10.81 -5.80 2.40
-10.72 -6.04 2.40
-10.63 -6.27 2.40
-10.54 -6.50 2.40
-10.44 -6.73 2.40
-10.33 -6.96 2.40
-10.22 -7.18 2.40
-10.10 -7.41 2.40
-9.97 -7.62 2.39
-9.84 -7.84 2.39
-9.71 -8.06 2.39
-9.57 -8.27 2.39
-9.43 -8.49 2.39
-9.29 -8.70 2.39
-9.13 -8.90 2.39
-8.98 -9.11 2.39
-8.82 -9.31 2.39
-8.65 -9.51 2.39
-8.48 -9.70 2.39
-8.30 -9.89 2.39
-8.12 -10.08 2.39
-7.94 -10.26 2.39
-7.75 -10.44 2.39
-7.56 -10.62 2.39
-7.36 -10.79 2.39
-7.16 -10.96 2.39
-6.95 -11.12 2.39
-6.74 -11.28 2.39
-6.53 -11.43 2.39
-6.31 -11.58 2.39
-6.09 -11.73 2.39
-5.94 -12.02 2.43
-5.88 -12.52 2.50
-5.63 -12.65 2.50
-5.39 -12.78 2.50
-5.14 -12.91 2.50
-4.89 -13.02 2.50
-4.63 -13.14 2.50
-4.38 -13.24 2.50
-4.12 -13.34 2.50
-3.85 -13.44 2.50
-3.59 -13.52 2.50
-3.32 -13.61 2.50
-3.05 -13.68 2.50
-2.78 -13.75 2.50
-2.51 -13.81 2.50
-2.23 -13.87 2.50
-1.96 -13.92 2.50
-1.68 -13.96 2.50
-1.40 -14.00 2.50
-1.12 -14.03 2.50
-0.84 -14.06 2.50
-0.56 -14.07 2.50
-0.28 -14.08 2.50
0.00 -12.45 2.50
0.25 -12.45 2.50
0.50 -12.44 2.50
0.74 -12.42 2.50
0.99 -12.40 2.50
1.24 -12.38 2.50
1.48 -12.35 2.50
1.73 -12.31 2.50
1.97 -12.27 2.50
2.12 -11.71 2.39
2.36 -11.66 2.39
2.59 -11.60 2.39
2.81 -11.54 2.39
3.04 -11.47 2.39
3.27 -11.40 2.39
3.49 -11.32 2.39
3.71 -11.24 2.39
3.93 -11.15 2.39
4.15 -11.06 2.39
4.36 -10.96 2.39
4.57 -10.86 2.39
4.78 -10.75 2.39
4.99 -10.64 2.39
5.19 -10.52 2.39
5.39 -10.40 2.39
5.57 -10.23 2.38
5.66 -9.92 2.34
5.74 -9.61 2.30
5.82 -9.32 2.26
5.89 -9.03 2.22
5.96 -8.75 2.19
6.03 -8.48 2.15
6.10 -8.22 2.12
6.16 -7.97 2.09
6.22 -7.72 2.06
6.27 -7.47 2.03
6.31 -7.23 2.01
6.35 -6.99 1.98
6.45 -6.82 1.97
6.56 -6.66 1.97
6.66 -6.50 1.96
6.76 -6.34 1.96
6.86 -6.18 1.96
6.96 -6.02 1.95
7.05 -5.86 1.95
7.11 -5.67 1.94
7.15 -5.47 1.93
7.18 -5.27 1.91
7.21 -5.08 1.90
7.24 -4.88 1.88
7.27 -4.70 1.87
7.30 -4.51 1.86
7.33 -4.33 1.85
7.35 -4.15 1.84
7.38 -3.97 1.83
7.40 -3.79 1.82
7.42 -3.62 1.82
7.44 -3.44 1.81
7.45 -3.27 1.80
7.46 -3.09 1.79
7.46 -2.92 1.78
7.47 -2.76 1.78
7.48 -2.59 1.77
7.49 -2.43 1.77
7.49 -2.26 1.76
7.50 -2.10 1.76
7.50 -1.94 1.75
7.51 -1.78 1.75
7.51 -1.63 1.75
7.51 -1.47 1.75
7.50 -1.31 1.74
7.50 -1.16 1.74
7.50 -1.00 1.74
7.49 -0.85 1.74
7.49 -0.70 1.74
7.48 -0.55 1.74
7.47 -0.40 1.74
7.46 -0.24 1.75
7.46 -0.09 1.75
7.45 0.05 1.75
7.44 0.20 1.76
7.44 0.35 1.76
7.43 0.50 1.77
7.43 0.65 1.78
7.43 0.80 1.78
7.43 0.95 1.79
7.43 1.11 1.80
7.42 1.26 1.81
7.42 1.41 1.82
7.41 1.57 1.83
7.41 1.72 1.85
7.40 1.88 1.86
7.39 2.03 1.87
7.38 2.19 1.89
7.37 2.35 1.90
7.37 2.51 1.92
7.37 2.68 1.94
7.37 2.85 1.96
7.37 3.02 1.98
7.37 3.20 2.00
7.37 3.37 2.02
7.36 3.55 2.04
7.36 3.74 2.07
7.36 3.92 2.10
7.36 4.11 2.12
7.37 4.32 2.16
7.38 4.53 2.19
7.34 4.71 2.21
7.30 4.90 2.24
7.27 5.09 2.26
7.23 5.28 2.29
7.18 5.47 2.31
7.14 5.67 2.34
7.10 5.87 2.37
7.05 6.08 2.40
7.00 6.29 2.43
6.96 6.51 2.47
6.90 6.72 2.50
6.82 6.91 2.52
6.69 7.07 2.53
6.57 7.22 2.54
6.44 7.37 2.56
6.31 7.52 2.57
5.73 7.12 2.39
5.57 7.22 2.39
5.42 7.32 2.39
5.26 7.41 2.39
5.10 7.51 2.39
4.94 7.60 2.39
4.78 7.68 2.39
4.62 7.77 2.39
4.45 7.85 2.39
4.29 7.93 2.39
4.12 8.00 2.39
3.95 8.08 2.39
3.79 8.14 2.39
3.62 8.21 2.39
3.45 8.27 2.39
3.27 8.33 2.39
3.10 8.39 2.39
2.93 8.44 2.39
2.76 8.49 2.39
2.58 8.54 2.39
2.41 8.58 2.39
2.23 8.62 2.39
2.05 8.66 2.39
1.88 8.70 2.39
1.75 9.00 2.47
1.59 9.13 2.50
1.40 9.16 2.50
1.22 9.18 2.50
1.03 9.20 2.50
0.84 9.22 2.50
0.66 9.23 2.50
0.47 9.24 2.50
0.28 9.25 2.50
0.09 9.25 2.50
-0.09 9.25 2.50
-0.28 9.25 2.50
-0.47 9.24 2.50
-0.65 9.23 2.50
-0.84 9.22 2.50
-1.03 9.20 2.50
-1.21 9.18 2.50
-1.40 9.16 2.50
-1.59 9.13 2.50
-1.77 9.10 2.50
-1.96 9.07 2.50
-2.14 9.03 2.50
-2.32 8.99 2.50
-2.51 8.95 2.50
-2.69 8.90 2.50
-2.87 8.86 2.50
-3.05 8.80 2.50
-3.23 8.75 2.50
-3.41 8.69 2.50
-3.59 8.63 2.50
-3.77 8.56 2.50
-3.95 8.49 2.50
-4.12 8.42 2.50
-4.30 8.34 2.50
-4.47 8.27 2.50
-4.64 8.18 2.50
-4.81 8.10 2.50
-4.98 8.01 2.50
-5.15 7.92 2.50
-5.32 7.83 2.50
-5.48 7.73 2.50
-5.65 7.63 2.50
-5.81 7.52 2.50
-5.97 7.42 2.50
-6.13 7.31 2.50
-6.26 7.17 2.49
-6.26 6.88 2.43
-6.32 6.67 2.39
-6.47 6.56 2.39
-6.61 6.44 2.39
-6.75 6.31 2.39
-6.89 6.19 2.39
-7.03 6.06 2.39
-7.17 5.93 2.39
-7.30 5.80 2.39
-7.43 5.66 2.39
-7.56 5.52 2.39
-7.69 5.38 2.39
-7.81 5.24 2.39
-7.93 5.09 2.39
-8.05 4.94 2.39
-8.17 4.79 2.39
-8.28 4.63 2.39
-8.40 4.48 2.39
-8.51 4.32 2.39
-8.61 4.16 2.39
-8.72 3.99 2.39
-8.82 3.82 2.39
-8.92 3.66 2.39
-9.01 3.49 2.39
-9.10 3.31 2.39
-9.19 3.14 2.39
-9.28 2.96 2.39
-9.36 2.78 2.39
-9.44 2.60 2.39
-9.52 2.41 2.39
-9.59 2.23 2.39
-9.66 2.04 2.39
-9.73 1.85 2.39
-9.79 1.66 2.39
-9.85 1.47 2.39
-9.91 1.27 2.39
-9.96 1.08 2.39
-10.01 0.88 2.39
-10.05 0.68 2.39
-10.09 0.48 2.39
-10.13 0.28 2.39
-10.18 0.07 2.40
-10.21 -0.13 2.40
-10.23 -0.34 2.40
-10.25 -0.54 2.40
-10.27 -0.75 2.40
-10.29 -0.96 2.40
-10.29 -1.17 2.40
-10.30 -1.38 2.40
-10.30 -1.59 2.40
-10.30 -1.80 2.40
-10.29 -2.01 2.40
-10.28 -2.23 2.40
-10.26 -2.44 2.40
-10.24 -2.65 2.40
-10.22 -2.86 2.40
-10.19 -3.08 2.40
-10.15 -3.29 2.40
-10.12 -3.50 2.40
-10.06 -3.71 2.39
-6.35 -2.49 1.52
-9.96 -4.13 2.39
-9.90 -4.34 2.39
-9.84 -4.55 2.39
-9.78 -4.76 2.39
-9.71 -4.97 2.39
-9.63 -5.18 2.39
-9.55 -5.39 2.39
-9.47 -5.59 2.39
-9.38 -5.80 2.39
-9.29 -6.00 2.39
-9.19 -6.20 2.39
-9.09 -6.40 2.39
-8.98 -6.60 2.39
-8.87 -6.79 2.39
-8.76 -6.99 2.39
-8.64 -7.18 2.39
-8.52 -7.37 2.39
-8.39 -7.55 2.39
-8.25 -7.74 2.39
-8.12 -7.92 2.39
-7.98 -8.10 2.39
-7.83 -8.28 2.39
-7.68 -8.45 2.39
-7.53 -8.62 2.39
-7.37 -8.79 2.39
-7.21 -8.95 2.39
-7.04 -9.11 2.39
-6.87 -9.27 2.39
-6.70 -9.42 2.39
-6.52 -9.57 2.39
-6.34 -9.72 2.39
-6.16 -9.87 2.40
-5.98 -10.01 2.40
-5.96 -10.45 2.47
-5.83 -10.71 2.50
-5.62 -10.84 2.50
-5.41 -10.96 2.50
-5.20 -11.09 2.50
-4.98 -11.20 2.50
-4.77 -11.32 2.50
-4.55 -11.42 2.50
-4.32 -11.53 2.50
-4.10 -11.62 2.50
-3.87 -11.72 2.50
-3.64 -11.80 2.50
-3.41 -11.89 2.50
-3.17 -11.96 2.50
-2.93 -12.03 2.50
-2.70 -12.10 2.50
-2.46 -12.16 2.50
-2.21 -12.21 2.50
-1.97 -12.26 2.50
-1.73 -12.31 2.50
-1.48 -12.34 2.50
-1.24 -12.38 2.50
-0.99 -12.40 2.50
-0.74 -12.42 2.50
-0.50 -12.44 2.50
-0.25 -12.45 2.50
0.00 -11.14 2.50
0.22 -11.14 2.50
0.44 -11.13 2.50
0.67 -11.12 2.50
0.89 -11.10 2.50
1.11 -11.08 2.50
1.33 -11.05 2.50
1.55 -11.02 2.50
1.76 -10.98 2.50
1.98 -10.94 2.50
2.11 -10.44 2.39
2.31 -10.39 2.39
2.52 -10.33 2.39
2.72 -10.27 2.39
2.92 -10.21 2.39
3.12 -10.14 2.39
3.32 -10.07 2.39
3.52 -9.99 2.39
3.71 -9.91 2.39
3.91 -9.82 2.39
4.10 -9.73 2.39
4.28 -9.63 2.39
4.47 -9.53 2.39
4.65 -9.43 2.39
4.83 -9.32 2.39
5.01 -9.21 2.39
5.18 -9.10 2.39
5.36 -8.98 2.39
5.53 -8.86 2.39
5.61 -8.60 2.36
5.68 -8.35 2.32
5.75 -8.10 2.29
5.82 -7.86 2.26
5.88 -7.62 2.23
5.93 -7.37 2.19
5.98 -7.14 2.16
6.03 -6.91 2.13
6.07 -6.69 2.11
6.18 -6.53 2.10
6.28 -6.38 2.10
6.38 -6.23 2.09
6.47 -6.08 2.09
6.57 -5.92 2.08
6.66 -5.77 2.08
6.74 -5.61 2.07
6.78 -5.41 2.06
6.85 -5.25 2.05
6.93 -5.09 2.05
7.01 -4.94 2.05
7.07 -4.77 2.04
7.10 -4.59 2.03
7.13 -4.41 2.02
7.15 -4.23 2.00
7.18 -4.05 1.99
7.21 -3.88 1.98
7.23 -3.71 1.97
7.25 -3.54 1.96
7.26 -3.37 1.95
7.27 -3.20 1.94
7.28 -3.03 1.94
7.29 -2.86 1.93
7.30 -2.70 1.92
7.31 -2.54 1.91
7.32 -2.38 1.91
7.32 -2.22 1.90
7.33 -2.06 1.90
7.33 -1.90 1.89
7.34 -1.75 1.89
7.34 -1.60 1.89
7.34 -1.44 1.89
7.34 -1.29 1.88
7.33 -1.14 1.88
7.33 -0.99 1.88
7.33 -0.84 1.88
7.32 -0.69 1.88
7.31 -0.54 1.88
7.31 -0.39 1.88
7.30 -0.25 1.88
7.29 -0.10 1.88
7.28 0.05 1.89
7.28 0.19 1.89
7.27 0.34 1.90
7.27 0.49 1.90
7.26 0.63 1.91
7.26 0.78 1.92
7.26 0.93 1.93
7.26 1.08 1.94
7.25 1.22 1.95
7.25 1.37 1.96
7.24 1.52 1.97
7.24 1.68 1.98
7.23 1.83 1.99
7.22 1.98 2.01
7.21 2.14 2.02
7.20 2.29 2.04
7.19 2.45 2.05
7.19 2.61 2.07
7.19 2.77 2.09
7.19 2.94 2.11
7.19 3.11 2.14
7.18 3.28 2.16
7.18 3.46 2.18
7.17 3.63 2.21
7.17 3.81 2.24
7.16 4.00 2.26
7.15 4.19 2.29
7.16 4.38 2.33
7.15 4.58 2.36
7.11 4.76 2.38
7.07 4.94 2.41
7.03 5.13 2.43
6.99 5.31 2.46
6.94 5.51 2.49
6.90 5.70 2.52
6.83 5.88 2.54
6.73 6.03 2.55
6.63 6.19 2.57
6.52 6.34 2.58
6.42 6.50 2.59
5.79 6.11 2.39
5.66 6.21 2.39
5.52 6.32 2.39
5.38 6.42 2.39
5.25 6.51 2.39
5.11 6.61 2.39
4.96 6.70 2.39
4.82 6.79 2.39
4.67 6.87 2.39
4.53 6.96 2.39
4.38 7.04 2.39
4.23 7.12 2.39
4.08 7.19 2.39
3.93 7.26 2.39
3.78 7.33 2.39
3.63 7.40 2.39
3.47 7.46 2.39
3.32 7.52 2.39
3.16 7.58 2.39
3.00 7.64 2.39
2.85 7.69 2.39
2.69 7.74 2.39
2.53 7.79 2.39
2.37 7.83 2.39
2.21 7.87 2.39
2.05 7.91 2.39
1.89 7.94 2.39
1.77 8.18 2.46
1.63 8.35 2.50
1.46 8.38 2.50
1.29 8.40 2.50
1.12 8.42 2.50
0.94 8.44 2.50
0.77 8.46 2.50
0.60 8.47 2.50
0.43 8.48 2.50
0.26 8.48 2.50
0.09 8.49 2.50
-0.09 8.49 2.50
-0.26 8.48 2.50
-0.43 8.48 2.50
-0.60 8.47 2.50
-0.77 8.46 2.50
-0.94 8.44 2.50
-1.12 8.42 2.50
-1.29 8.40 2.50
-1.46 8.38 2.50
-1.63 8.35 2.50
-1.80 8.32 2.50
-1.97 8.28 2.50
-2.13 8.25 2.50
-2.30 8.21 2.50
-2.47 8.17 2.50
-2.64 8.12 2.50
-2.80 8.07 2.50
-2.97 8.02 2.50
-3.13 7.96 2.50
-3.29 7.91 2.50
-3.46 7.85 2.50
-3.62 7.78 2.50
-3.78 7.71 2.50
-3.94 7.65 2.50
-4.10 7.57 2.50
-4.26 7.50 2.50
-4.41 7.42 2.50
-4.57 7.34 2.50
-4.72 7.25 2.50
-4.87 7.17 2.50
-5.02 7.08 2.50
-5.17 6.98 2.50
-5.32 6.89 2.50
-5.47 6.79 2.50
-5.61 6.69 2.50
-5.76 6.58 2.50
-5.90 6.48 2.50
-6.04 6.37 2.50
-6.17 6.25 2.50
-6.24 6.07 2.47
-6.25 5.83 2.42
-6.31 5.66 2.39
-6.43 5.54 2.39
-6.55 5.42 2.39
-6.68 5.30 2.39
-6.79 5.17 2.39
-6.91 5.04 2.39
-7.03 4.91 2.39
-7.14 4.78 2.39
-7.25 4.64 2.39
-7.36 4.51 2.39
-7.46 4.37 2.39
-7.57 4.22 2.39
-7.67 4.08 2.39
-7.76 3.93 2.39
-7.86 3.79 2.39
-7.95 3.64 2.39
-8.04 3.48 2.39
-8.13 3.33 2.39
-8.22 3.17 2.39
-8.30 3.01 2.39
-8.38 2.85 2.39
-8.46 2.69 2.39
-8.53 2.52 2.39
-8.60 2.36 2.39
-8.67 2.19 2.39
-8.73 2.02 2.39
-8.79 1.85 2.39
-8.85 1.68 2.39
-8.91 1.50 2.39
-8.96 1.33 2.39
-9.01 1.15 2.39
-9.05 0.97 2.39
-9.10 0.79 2.39
-9.13 0.61 2.39
-9.17 0.43 2.39
-9.20 0.24 2.39
-9.23 0.06 2.39
-9.25 -0.13 2.39
-9.27 -0.31 2.39
-9.29 -0.50 2.39
-9.30 -0.69 2.39
-9.31 -0.88 2.39
-9.32 -1.07 2.39
-9.32 -1.26 2.39
-9.32 -1.45 2.39
-9.32 -1.64 2.39
-9.31 -1.83 2.39
-9.29 -2.02 2.39
-9.28 -2.21 2.39
-9.25 -2.40 2.39
-9.23 -2.59 2.39
-9.20 -2.79 2.39
-9.17 -2.98 2.39
-9.13 -3.17 2.39
-9.09 -3.36 2.39
-6.35 -2.49 1.68
-9.00 -3.74 2.39
-8.94 -3.93 2.39
-8.88 -4.12 2.39
-8.82 -4.31 2.39
-8.76 -4.49 2.39
-8.69 -4.68 2.39
-8.62 -4.87 2.39
-8.54 -5.05 2.39
-8.46 -5.23 2.39
-8.37 -5.41 2.39
-8.28 -5.59 2.39
-8.19 -5.77 2.39
-8.09 -5.95 2.39
-7.99 -6.12 2.39
-7.88 -6.29 2.39
-7.77 -6.47 2.39
-7.66 -6.63 2.39
-7.54 -6.80 2.39
-7.42 -6.96 2.39
-7.30 -7.13 2.39
-7.17 -7.29 2.39
-7.04 -7.44 2.39
-6.90 -7.60 2.39
-6.76 -7.75 2.39
-6.62 -7.90 2.39
-6.47 -8.04 2.39
-6.32 -8.19 2.39
-6.19 -8.35 2.40
-6.01 -8.46 2.39
-5.99 -8.80 2.45
-5.93 -9.10 2.50
-5.76 -9.23 2.50
-5.58 -9.36 2.50
-5.40 -9.48 2.50
-5.22 -9.60 2.50
-5.04 -9.72 2.50
-4.85 -9.83 2.50
-4.66 -9.94 2.50
-4.46 -10.04 2.50
-4.27 -10.14 2.50
-4.07 -10.24 2.50
-3.87 -10.33 2.50
-3.67 -10.41 2.50
-3.46 -10.50 2.50
-3.26 -10.57 2.50
-3.05 -10.65 2.50
-2.84 -10.71 2.50
-2.63 -10.78 2.50
-2.41 -10.83 2.50
-2.20 -10.89 2.50
-1.98 -10.93 2.50
-1.76 -10.98 2.50
-1.55 -11.02 2.50
-1.33 -11.05 2.50
-1.11 -11.08 2.50
-0.89 -11.10 2.50
-0.66 -11.12 2.50
-0.44 -11.13 2.50
-0.22 -11.14 2.50
0.00 -10.07 2.50
0.20 -10.07 2.50
0.40 -10.06 2.50
0.60 -10.05 2.50
0.80 -10.04 2.50
1.00 -10.02 2.50
1.20 -9.99 2.50
1.40 -9.96 2.50
1.59 -9.93 2.50
1.79 -9.89 2.50
1.99 -9.85 2.50
2.09 -9.40 2.39
2.28 -9.36 2.40
2.46 -9.29 2.39
2.64 -9.24 2.39
2.82 -9.17 2.39
3.00 -9.11 2.39
3.18 -9.04 2.39
3.36 -8.96 2.39
3.53 -8.89 2.39
3.70 -8.81 2.39
3.87 -8.72 2.39
4.04 -8.63 2.39
4.21 -8.54 2.39
4.37 -8.44 2.39
4.53 -8.34 2.39
4.69 -8.24 2.39
4.85 -8.14 2.39
5.00 -8.03 2.39
5.15 -7.91 2.39
5.30 -7.80 2.39
5.45 -7.68 2.39
5.56 -7.51 2.38
5.61 -7.28 2.34
5.67 -7.05 2.31
5.72 -6.83 2.28
5.76 -6.61 2.25
5.82 -6.41 2.23
5.92 -6.27 2.22
6.02 -6.12 2.21
6.11 -5.98 2.21
6.21 -5.83 2.21
6.30 -5.69 2.20
6.35 -5.51 2.18
6.39 -5.32 2.17
6.43 -5.14 2.15
6.49 -4.98 2.14
6.56 -4.83 2.14
6.64 -4.68 2.13
6.71 -4.54 2.13
6.78 -4.39 2.13
6.85 -4.24 2.13
6.91 -4.09 2.13
6.98 -3.95 2.13
7.04 -3.80 2.13
7.06 -3.63 2.12
7.08 -3.46 2.11
7.09 -3.29 2.10
7.10 -3.13 2.09
7.11 -2.96 2.08
7.12 -2.80 2.07
7.13 -2.64 2.06
7.14 -2.49 2.05
7.15 -2.33 2.05
7.16 -2.17 2.04
7.16 -2.02 2.04
7.17 -1.87 2.03
7.17 -1.72 2.03
7.18 -1.57 2.02
7.18 -1.42 2.02
7.18 -1.27 2.02
7.17 -1.12 2.02
7.17 -0.97 2.01
7.17 -0.82 2.01
7.16 -0.68 2.01
7.16 -0.53 2.01
7.15 -0.39 2.01
7.14 -0.25 2.01
7.14 -0.10 2.02
7.13 0.04 2.02
7.12 0.18 2.02
7.11 0.33 2.03
7.10 0.47 2.03
7.10 0.61 2.04
7.10 0.76 2.05
7.10 0.90 2.06
7.09 1.05 2.07
7.09 1.19 2.08
7.09 1.34 2.09
7.08 1.48 2.10
7.07 1.63 2.11
7.07 1.78 2.13
7.06 1.93 2.14
7.05 2.08 2.15
7.04 2.23 2.17
7.03 2.39 2.19
7.02 2.54 2.20
7.02 2.70 2.22
7.01 2.86 2.25
7.01 3.03 2.27
