ply
format ascii 1.0
element vertex 2973
property float32 x
property float32 y
property float32 z
end_header
8.28 -2.99 1.66
8.30 -2.81 1.65
8.37 -2.64 1.66
8.47 -2.49 1.67
8.57 -2.33 1.68
8.67 -2.17 1.69
8.77 -2.01 1.70
8.82 -1.84 1.70
8.88 -1.67 1.70
8.93 -1.49 1.71
8.98 -1.31 1.71
8.98 -1.13 1.71
8.99 -0.95 1.71
9.01 -0.77 1.70
9.02 -0.59 1.70
9.03 -0.41 1.70
9.04 -0.23 1.70
2.14 -0.01 0.40
2.10 0.03 0.40
2.10 0.07 0.40
2.14 0.12 0.40
9.08 0.69 1.72
9.07 0.87 1.72
9.07 1.05 1.72
9.06 1.24 1.72
9.06 1.42 1.73
9.05 1.61 1.73
9.04 1.79 1.74
9.03 1.98 1.74
9.02 2.17 1.75
9.01 2.36 1.75
9.00 2.55 1.76
9.00 2.75 1.77
9.01 2.95 1.78
9.02 3.15 1.80
9.03 3.36 1.81
9.04 3.57 1.83
9.05 3.79 1.85
9.06 4.01 1.86
9.07 4.23 1.88
9.08 4.46 1.90
9.07 4.69 1.92
9.05 4.91 1.94
9.03 5.14 1.95
9.01 5.37 1.97
9.00 5.61 1.99
8.98 5.85 2.01
8.96 6.09 2.04
8.94 6.35 2.06
8.92 6.60 2.09
8.88 6.86 2.11
8.81 7.09 2.13
8.72 7.31 2.14
8.60 7.51 2.15
8.46 7.69 2.15
8.32 7.87 2.15
8.17 8.05 2.16
8.03 8.23 2.16
7.88 8.41 2.17
7.73 8.60 2.17
7.58 8.78 2.18
7.43 8.96 2.19
7.34 9.22 2.21
7.25 9.50 2.24
7.17 9.78 2.28
7.07 10.08 2.31
6.98 10.38 2.35
6.88 10.69 2.39
6.77 10.99 2.42
6.66 11.32 2.46
6.48 11.54 2.48
6.26 11.70 2.49
6.04 11.85 2.50
5.56 11.47 2.39
5.33 11.58 2.39
5.10 11.68 2.39
4.86 11.78 2.39
4.63 11.88 2.39
4.39 11.97 2.39
4.15 12.06 2.39
3.90 12.14 2.39
3.66 12.22 2.39
3.41 12.29 2.39
3.17 12.36 2.39
2.92 12.42 2.39
2.67 12.48 2.39
2.42 12.53 2.39
2.17 12.57 2.39
1.91 12.62 2.39
1.66 12.65 2.39
1.47 13.23 2.49
1.20 13.26 2.49
0.93 13.28 2.49
0.67 13.30 2.49
0.40 13.31 2.49
0.13 13.32 2.49
-0.13 13.32 2.49
-0.40 13.31 2.49
-0.67 13.30 2.49
-0.94 13.29 2.49
-1.20 13.27 2.49
-1.47 13.24 2.49
-1.73 13.21 2.49
-2.00 13.17 2.49
-2.26 13.13 2.49
-2.53 13.08 2.49
-2.79 13.03 2.49
-3.05 12.97 2.49
-3.31 12.91 2.49
-3.57 12.84 2.49
-3.83 12.77 2.49
-4.08 12.69 2.49
-4.33 12.60 2.49
-4.59 12.51 2.49
-4.84 12.42 2.49
-5.09 12.32 2.49
-5.33 12.22 2.49
-5.58 12.11 2.49
-5.82 11.99 2.49
-6.06 11.87 2.49
-6.30 11.75 2.49
-6.49 11.55 2.48
-6.50 11.04 2.40
-6.70 10.88 2.39
-6.92 10.74 2.39
-7.13 10.60 2.39
-7.34 10.46 2.39
-7.55 10.31 2.39
-7.76 10.16 2.39
-7.96 10.00 2.39
-8.16 9.84 2.39
-8.36 9.67 2.39
-8.55 9.50 2.39
-8.74 9.33 2.39
-8.92 9.15 2.39
-9.10 8.97 2.39
-9.28 8.78 2.39
-9.46 8.60 2.39
-9.63 8.40 2.39
-9.79 8.21 2.39
-9.96 8.01 2.39
-10.11 7.81 2.39
-10.27 7.60 2.39
-10.42 7.40 2.39
-10.58 7.19 2.39
-10.72 6.98 2.39
-10.86 6.76 2.39
-10.99 6.54 2.39
-11.12 6.32 2.39
-11.24 6.10 2.39
-11.36 5.87 2.39
-11.48 5.64 2.39
-11.59 5.41 2.39
-11.69 5.17 2.39
-11.79 4.94 2.39
-11.89 4.70 2.39
-11.98 4.46 2.39
-12.07 4.22 2.39
-12.15 3.98 2.39
-12.23 3.73 2.39
-12.30 3.48 2.39
-12.37 3.24 2.39
-12.43 2.99 2.39
-12.48 2.74 2.39
-12.54 2.49 2.39
-12.58 2.23 2.39
-12.62 1.98 2.39
-12.66 1.73 2.39
-12.69 1.47 2.39
-12.72 1.22 2.39
-12.74 0.96 2.39
-12.75 0.71 2.39
-12.76 0.45 2.39
-12.77 0.19 2.39
-12.77 -0.06 2.39
-12.77 -0.32 2.39
-12.76 -0.57 2.39
-12.74 -0.83 2.39
-12.72 -1.09 2.39
-12.70 -1.34 2.39
-12.66 -1.60 2.39
-12.63 -1.85 2.39
-12.59 -2.10 2.39
-12.54 -2.35 2.39
-12.49 -2.61 2.39
-12.44 -2.86 2.39
-12.37 -3.10 2.39
-12.31 -3.35 2.39
-12.24 -3.60 2.39
-12.16 -3.84 2.39
-12.08 -4.09 2.39
-12.00 -4.33 2.39
-11.91 -4.57 2.39
-11.81 -4.80 2.39
-11.71 -5.04 2.39
-11.61 -5.27 2.39
-11.50 -5.50 2.39
-11.38 -5.73 2.39
-11.26 -5.96 2.39
-11.14 -6.18 2.39
-11.01 -6.41 2.39
-10.88 -6.63 2.39
-10.75 -6.84 2.39
-10.61 -7.06 2.39
-10.46 -7.27 2.39
-10.30 -7.47 2.39
-10.15 -7.67 2.39
-9.99 -7.87 2.39
-9.83 -8.07 2.39
-9.67 -8.26 2.39
-9.50 -8.46 2.39
-9.32 -8.64 2.39
-9.15 -8.83 2.39
-8.97 -9.01 2.39
-8.78 -9.19 2.39
-8.60 -9.36 2.39
-8.41 -9.53 2.39
-8.21 -9.70 2.39
-8.02 -9.86 2.39
-7.82 -10.02 2.39
-7.61 -10.17 2.39
-7.41 -10.32 2.39
-7.20 -10.47 2.39
-6.98 -10.61 2.39
-6.77 -10.74 2.39
-6.55 -10.88 2.39
-6.33 -11.01 2.39
-6.29 -11.46 2.46
-6.14 -11.73 2.49
-5.90 -11.85 2.49
-5.66 -11.97 2.49
-5.42 -12.08 2.49
-5.17 -12.18 2.49
-4.93 -12.28 2.49
-4.68 -12.38 2.49
-4.43 -12.47 2.49
-4.18 -12.56 2.49
-3.93 -12.64 2.49
-3.67 -12.71 2.49
-3.42 -12.78 2.49
-3.16 -12.85 2.49
-2.90 -12.91 2.49
-2.64 -12.96 2.49
-2.38 -13.01 2.49
-2.12 -13.06 2.49
-1.85 -13.09 2.49
-1.59 -13.13 2.49
-1.33 -13.16 2.49
-1.06 -13.18 2.49
-0.80 -13.20 2.49
-0.53 -13.21 2.49
-0.27 -13.22 2.49
-0.00 -11.76 2.49
0.23 -11.76 2.49
0.47 -11.75 2.49
0.71 -11.74 2.49
0.94 -11.72 2.49
1.18 -11.70 2.49
1.41 -11.67 2.49
1.65 -11.64 2.49
1.80 -11.12 2.39
2.02 -11.08 2.39
2.25 -11.04 2.39
2.47 -10.99 2.39
2.69 -10.94 2.39
2.91 -10.88 2.39
3.12 -10.82 2.39
3.34 -10.76 2.39
3.56 -10.69 2.39
3.77 -10.62 2.39
3.98 -10.54 2.39
4.19 -10.45 2.39
4.40 -10.37 2.39
4.61 -10.28 2.39
4.81 -10.18 2.39
5.02 -10.08 2.39
5.22 -9.98 2.39
5.42 -9.87 2.39
5.61 -9.76 2.39
5.69 -9.45 2.34
5.70 -9.05 2.27
5.80 -8.81 2.24
5.91 -8.59 2.21
6.01 -8.38 2.19
6.12 -8.18 2.17
6.22 -7.98 2.15
6.32 -7.78 2.13
6.42 -7.59 2.11
6.52 -7.40 2.09
6.62 -7.21 2.08
6.71 -7.02 2.06
6.87 -6.90 2.07
7.14 -6.89 2.11
7.27 -6.74 2.10
7.30 -6.50 2.07
7.32 -6.26 2.05
7.35 -6.03 2.02
7.38 -5.81 1.99
7.43 -5.62 1.98
7.48 -5.42 1.96
7.53 -5.23 1.95
7.56 -5.03 1.93
7.58 -4.83 1.91
7.61 -4.63 1.89
7.63 -4.44 1.87
7.65 -4.25 1.86
7.68 -4.06 1.84
7.73 -3.90 1.84
7.78 -3.73 1.83
7.83 -3.56 1.82
7.88 -3.39 1.82
7.92 -3.22 1.81
7.95 -3.05 1.81
7.98 -2.88 1.80
8.00 -2.71 1.79
8.03 -2.54 1.79
8.09 -2.38 1.79
8.18 -2.23 1.80
8.27 -2.08 1.81
8.37 -1.92 1.82
8.46 -1.76 1.83
8.55 -1.60 1.84
8.64 -1.44 1.86
8.73 -1.28 1.87
8.78 -1.11 1.88
8.79 -0.93 1.87
8.81 -0.75 1.87
8.82 -0.57 1.87
8.83 -0.40 1.87
8.84 -0.22 1.87
2.14 -0.01 0.45
2.10 0.03 0.44
2.10 0.07 0.44
2.14 0.12 0.46
8.88 0.67 1.89
8.88 0.85 1.89
8.87 1.03 1.89
8.87 1.21 1.90
8.86 1.39 1.90
8.85 1.57 1.90
8.84 1.75 1.91
8.83 1.94 1.92
8.82 2.12 1.92
8.81 2.31 1.93
8.80 2.49 1.94
8.79 2.68 1.95
8.78 2.87 1.96
8.79 3.07 1.97
8.80 3.28 1.99
8.80 3.48 2.00
8.81 3.69 2.02
8.82 3.90 2.04
8.82 4.12 2.06
8.83 4.34 2.08
8.83 4.56 2.10
8.84 4.79 2.13
8.82 5.01 2.15
8.80 5.24 2.17
8.78 5.47 2.19
8.76 5.71 2.21
8.74 5.94 2.23
8.71 6.19 2.26
8.68 6.43 2.28
8.61 6.65 2.30
8.53 6.87 2.31
8.44 7.08 2.33
8.35 7.29 2.34
8.22 7.47 2.35
8.08 7.65 2.35
7.94 7.82 2.35
7.80 8.00 2.36
7.65 8.17 2.37
7.51 8.35 2.37
7.36 8.52 2.38
7.21 8.70 2.39
7.07 8.88 2.40
6.94 9.08 2.41
6.85 9.35 2.45
6.76 9.63 2.48
6.66 9.91 2.52
6.49 10.08 2.53
6.28 10.20 2.53
6.07 10.31 2.52
5.55 9.88 2.39
5.35 9.99 2.39
5.15 10.09 2.39
4.94 10.20 2.39
4.74 10.29 2.39
4.53 10.39 2.39
4.32 10.48 2.39
4.11 10.56 2.39
3.90 10.64 2.39
3.68 10.72 2.39
3.47 10.79 2.39
3.25 10.86 2.39
3.03 10.92 2.39
2.81 10.98 2.39
2.59 11.04 2.39
2.37 11.09 2.39
2.15 11.14 2.39
1.92 11.18 2.39
1.70 11.21 2.39
1.54 11.73 2.49
1.30 11.76 2.49
1.07 11.79 2.49
0.83 11.81 2.49
0.59 11.82 2.49
0.35 11.83 2.49
0.12 11.84 2.49
-0.12 11.84 2.49
-0.36 11.83 2.49
-0.60 11.82 2.49
-0.83 11.81 2.49
-1.07 11.79 2.49
-1.31 11.77 2.49
-1.54 11.74 2.49
-1.78 11.71 2.49
-2.01 11.67 2.49
-2.25 11.63 2.49
-2.48 11.58 2.49
-2.71 11.53 2.49
-2.94 11.47 2.49
-3.17 11.41 2.49
-3.40 11.35 2.49
-3.63 11.28 2.49
-3.85 11.20 2.49
-4.08 11.12 2.49
-4.30 11.04 2.49
-4.52 10.95 2.49
-4.74 10.86 2.49
-4.96 10.76 2.49
-5.17 10.66 2.49
-5.38 10.55 2.49
-5.60 10.44 2.49
-5.80 10.33 2.49
-6.01 10.21 2.49
-6.21 10.09 2.49
-6.41 9.96 2.49
-6.47 9.62 2.44
-6.53 9.30 2.39
-6.71 9.16 2.39
-6.90 9.03 2.39
-7.08 8.89 2.39
-7.25 8.74 2.39
-7.43 8.59 2.39
-7.60 8.44 2.39
-7.77 8.29 2.39
-7.93 8.13 2.39
-8.09 7.97 2.39
-8.25 7.81 2.39
-8.40 7.64 2.39
-8.56 7.47 2.39
-8.70 7.30 2.39
-8.85 7.12 2.39
-8.99 6.94 2.39
-9.13 6.76 2.39
-9.26 6.57 2.39
-9.39 6.39 2.39
-9.52 6.20 2.39
-9.64 6.00 2.39
-9.76 5.81 2.39
-9.87 5.61 2.39
-9.98 5.41 2.39
-10.09 5.21 2.39
-10.19 5.01 2.39
-10.29 4.80 2.39
-10.38 4.59 2.39
-10.48 4.39 2.39
-10.57 4.18 2.39
-10.65 3.97 2.39
-10.73 3.75 2.39
-10.80 3.53 2.39
-10.87 3.32 2.39
-10.93 3.10 2.39
-10.99 2.88 2.39
-11.05 2.66 2.39
-11.10 2.43 2.39
-11.14 2.21 2.39
-11.18 1.99 2.39
-11.22 1.76 2.39
-11.25 1.54 2.39
-11.28 1.31 2.39
-11.30 1.08 2.39
-11.32 0.86 2.39
-11.34 0.63 2.39
-11.35 0.40 2.39
-11.35 0.17 2.39
-11.35 -0.06 2.39
-11.35 -0.28 2.39
-11.34 -0.51 2.39
-11.33 -0.74 2.39
-11.31 -0.97 2.39
-11.29 -1.19 2.39
-11.26 -1.42 2.39
-11.23 -1.64 2.39
-11.19 -1.87 2.39
-11.15 -2.09 2.39
-11.11 -2.32 2.39
-11.06 -2.54 2.39
-11.00 -2.76 2.39
-10.94 -2.98 2.39
-10.88 -3.20 2.39
-10.81 -3.42 2.39
-10.74 -3.63 2.39
-10.67 -3.85 2.39
-10.59 -4.06 2.39
-10.50 -4.27 2.39
-10.41 -4.48 2.39
-10.31 -4.68 2.39
-10.21 -4.89 2.39
-10.11 -5.09 2.39
-10.01 -5.29 2.39
-9.90 -5.49 2.39
-9.78 -5.69 2.39
-9.67 -5.88 2.39
-9.54 -6.08 2.39
-9.42 -6.27 2.39
-9.29 -6.45 2.39
-9.16 -6.64 2.39
-9.02 -6.82 2.39
-8.88 -7.00 2.39
-8.74 -7.18 2.39
-8.59 -7.35 2.39
-8.44 -7.52 2.39
-8.29 -7.69 2.39
-8.13 -7.85 2.39
-7.97 -8.01 2.39
-7.81 -8.17 2.39
-7.65 -8.32 2.39
-7.48 -8.48 2.39
-7.30 -8.62 2.39
-7.13 -8.77 2.39
-6.95 -8.91 2.39
-6.77 -9.04 2.39
-6.59 -9.18 2.39
-6.40 -9.31 2.39
-6.31 -9.58 2.43
-6.28 -9.97 2.49
-6.08 -10.09 2.49
-5.87 -10.21 2.49
-5.67 -10.33 2.49
-5.46 -10.44 2.49
-5.25 -10.54 2.49
-5.03 -10.65 2.49
-4.82 -10.74 2.49
-4.60 -10.84 2.49
-4.38 -10.93 2.49
-4.16 -11.01 2.49
-3.94 -11.09 2.49
-3.72 -11.17 2.49
-3.49 -11.24 2.49
-3.27 -11.31 2.49
-3.04 -11.37 2.49
-2.81 -11.43 2.49
-2.58 -11.48 2.49
-2.35 -11.53 2.49
-2.12 -11.57 2.49
-1.88 -11.61 2.49
-1.65 -11.65 2.49
-1.41 -11.68 2.49
-1.18 -11.70 2.49
-0.94 -11.72 2.49
-0.71 -11.74 2.49
-0.47 -11.75 2.49
-0.24 -11.76 2.49
-0.00 -10.58 2.49
0.21 -10.58 2.49
0.42 -10.57 2.49
0.64 -10.56 2.49
0.85 -10.54 2.49
1.06 -10.52 2.49
1.27 -10.50 2.49
1.48 -10.47 2.49
1.69 -10.44 2.49
1.82 -9.97 2.39
2.02 -9.93 2.39
2.22 -9.89 2.39
2.42 -9.84 2.39
2.61 -9.79 2.39
2.81 -9.74 2.39
3.01 -9.68 2.39
3.20 -9.62 2.39
3.39 -9.55 2.39
3.58 -9.48 2.39
3.77 -9.41 2.39
3.96 -9.33 2.39
4.15 -9.25 2.39
4.33 -9.16 2.39
4.51 -9.07 2.39
4.70 -8.98 2.39
4.87 -8.88 2.39
5.05 -8.78 2.39
5.23 -8.68 2.39
5.40 -8.57 2.39
5.57 -8.46 2.39
5.74 -8.35 2.39
6.01 -8.38 2.43
6.12 -8.18 2.41
6.22 -7.98 2.39
6.32 -7.78 2.37
6.42 -7.59 2.35
6.52 -7.40 2.33
6.62 -7.21 2.31
6.71 -7.02 2.29
6.87 -6.90 2.30
6.99 -6.75 2.29
7.02 -6.51 2.26
7.05 -6.28 2.23
7.08 -6.06 2.20
7.11 -5.84 2.17
7.14 -5.63 2.14
7.19 -5.44 2.13
7.24 -5.25 2.11
7.27 -5.05 2.09
7.30 -4.86 2.07
7.33 -4.67 2.05
7.35 -4.48 2.03
7.38 -4.29 2.01
7.40 -4.11 2.00
7.42 -3.93 1.98
7.47 -3.76 1.97
7.51 -3.60 1.96
7.56 -3.44 1.96
7.61 -3.27 1.95
7.64 -3.11 1.95
7.67 -2.94 1.94
7.70 -2.78 1.93
7.72 -2.61 1.92
7.75 -2.45 1.92
7.77 -2.28 1.91
7.82 -2.13 1.91
7.91 -1.98 1.92
8.00 -1.84 1.93
8.08 -1.69 1.95
8.17 -1.53 1.96
8.25 -1.38 1.97
8.34 -1.22 1.99
8.38 -1.06 1.99
8.39 -0.89 1.99
8.41 -0.72 1.99
8.44 -0.55 1.99
8.46 -0.38 2.00
8.49 -0.21 2.00
2.14 -0.01 0.51
2.10 0.03 0.49
2.10 0.07 0.49
2.15 0.12 0.51
8.59 0.65 2.03
8.60 0.82 2.03
8.60 1.00 2.04
8.59 1.17 2.04
8.58 1.35 2.04
8.56 1.52 2.05
8.54 1.70 2.05
8.52 1.87 2.05
8.50 2.04 2.06
8.48 2.22 2.06
8.45 2.40 2.07
8.42 2.57 2.07
8.39 2.75 2.08
8.37 2.93 2.09
8.35 3.11 2.10
8.34 3.30 2.11
8.36 3.50 2.13
8.37 3.71 2.15
8.38 3.91 2.18
8.39 4.13 2.20
8.40 4.34 2.22
8.40 4.56 2.25
8.41 4.78 2.27
8.39 4.99 2.29
8.31 5.18 2.30
8.24 5.37 2.31
8.17 5.56 2.32
8.11 5.76 2.34
8.04 5.95 2.35
7.97 6.15 2.37
7.89 6.35 2.38
7.81 6.55 2.39
7.73 6.75 2.41
7.64 6.95 2.43
7.54 7.14 2.44
7.44 7.33 2.45
7.33 7.52 2.47
7.22 7.72 2.48
7.11 7.91 2.50
7.00 8.10 2.51
6.88 8.29 2.53
6.75 8.48 2.55
6.62 8.67 2.56
6.45 8.81 2.56
6.29 8.95 2.57
6.10 9.08 2.57
5.51 8.56 2.39
5.34 8.67 2.39
5.17 8.78 2.39
4.99 8.88 2.39
4.81 8.98 2.39
4.63 9.08 2.39
4.45 9.17 2.39
4.26 9.26 2.39
4.07 9.34 2.39
3.89 9.42 2.39
3.70 9.50 2.39
3.51 9.57 2.39
3.31 9.64 2.39
3.12 9.71 2.39
2.92 9.77 2.39
2.73 9.82 2.39
2.53 9.88 2.39
2.33 9.93 2.39
2.13 9.97 2.39
1.93 10.01 2.39
1.73 10.05 2.39
1.57 10.33 2.45
1.38 10.55 2.49
1.17 10.58 2.49
0.96 10.60 2.49
0.75 10.62 2.49
0.53 10.63 2.49
0.32 10.64 2.49
0.11 10.64 2.49
-0.11 10.64 2.49
-0.32 10.64 2.49
-0.54 10.63 2.49
-0.75 10.62 2.49
-0.96 10.60 2.49
-1.17 10.58 2.49
-1.39 10.56 2.49
-1.60 10.53 2.49
-1.81 10.49 2.49
-2.02 10.45 2.49
-2.23 10.41 2.49
-2.44 10.37 2.49
-2.64 10.32 2.49
-2.85 10.26 2.49
-3.06 10.20 2.49
-3.26 10.14 2.49
-3.46 10.07 2.49
-3.67 10.00 2.49
-3.87 9.92 2.49
-4.06 9.84 2.49
-4.26 9.76 2.49
-4.46 9.67 2.49
-4.65 9.58 2.49
-4.84 9.49 2.49
-5.03 9.39 2.49
-5.22 9.29 2.49
-5.40 9.18 2.49
-5.59 9.07 2.49
-5.77 8.96 2.49
-5.95 8.84 2.49
-6.12 8.72 2.49
-6.30 8.59 2.49
-6.46 8.46 2.49
-6.46 8.12 2.43
-6.52 7.86 2.39
-6.68 7.73 2.39
-6.83 7.59 2.39
-6.98 7.45 2.39
-7.13 7.31 2.39
-7.27 7.17 2.39
-7.42 7.02 2.39
-7.56 6.87 2.39
-7.69 6.72 2.39
-7.83 6.56 2.39
-7.96 6.40 2.39
-8.08 6.24 2.39
-8.21 6.08 2.39
-8.33 5.91 2.39
-8.44 5.74 2.39
-8.56 5.57 2.39
-8.67 5.40 2.39
-8.77 5.22 2.39
-8.87 5.05 2.39
-8.97 4.87 2.39
-9.07 4.69 2.39
-9.16 4.50 2.39
-9.25 4.32 2.39
-9.33 4.13 2.39
-9.41 3.94 2.39
-9.49 3.75 2.39
-9.56 3.56 2.39
-9.63 3.37 2.39
-9.70 3.17 2.39
-9.76 2.98 2.39
-9.82 2.78 2.39
-9.87 2.58 2.39
-9.92 2.39 2.39
-9.97 2.19 2.39
-10.01 1.99 2.39
-10.04 1.78 2.39
-10.08 1.58 2.39
-10.11 1.38 2.39
-10.13 1.18 2.39
-10.15 0.97 2.39
-10.17 0.77 2.39
-10.18 0.56 2.39
-10.19 0.36 2.39
-10.20 0.16 2.39
-10.20 -0.05 2.39
-10.19 -0.25 2.39
-10.19 -0.46 2.39
-10.17 -0.66 2.39
-10.16 -0.87 2.39
-10.14 -1.07 2.39
-10.11 -1.27 2.39
-10.08 -1.48 2.39
-10.05 -1.68 2.39
-10.02 -1.88 2.39
-9.98 -2.08 2.39
-9.93 -2.28 2.39
-9.88 -2.48 2.39
-9.83 -2.68 2.39
-9.77 -2.87 2.39
-9.71 -3.07 2.39
-9.65 -3.26 2.39
-9.58 -3.45 2.39
-9.51 -3.65 2.39
-9.43 -3.84 2.39
-9.35 -4.02 2.39
-9.27 -4.21 2.39
-9.18 -4.40 2.39
-9.09 -4.58 2.39
-9.00 -4.76 2.39
-8.90 -4.94 2.39
-8.80 -5.12 2.39
-8.69 -5.29 2.39
-8.58 -5.46 2.39
-8.47 -5.64 2.39
-8.36 -5.80 2.39
-8.24 -5.97 2.39
-8.12 -6.13 2.39
-7.99 -6.30 2.39
-7.86 -6.45 2.39
-7.73 -6.61 2.39
-7.60 -6.76 2.39
-7.46 -6.91 2.39
-7.32 -7.06 2.39
-7.17 -7.21 2.39
-7.03 -7.35 2.39
-6.88 -7.49 2.39
-6.72 -7.62 2.39
-6.57 -7.76 2.39
-6.41 -7.89 2.39
-6.33 -8.11 2.42
-6.32 -8.44 2.48
-6.18 -8.61 2.49
-6.01 -8.73 2.49
-5.83 -8.85 2.49
-5.65 -8.97 2.49
-5.47 -9.08 2.49
-5.28 -9.18 2.49
-5.10 -9.29 2.49
-4.91 -9.39 2.49
-4.72 -9.48 2.49
-4.53 -9.58 2.49
-4.34 -9.66 2.49
-4.14 -9.75 2.49
-3.94 -9.83 2.49
-3.75 -9.91 2.49
-3.55 -9.98 2.49
-3.34 -10.05 2.49
-3.14 -10.11 2.49
-2.94 -10.17 2.49
-2.73 -10.23 2.49
-2.53 -10.28 2.49
-2.32 -10.33 2.49
-2.11 -10.37 2.49
-1.90 -10.41 2.49
-1.69 -10.45 2.49
-1.48 -10.48 2.49
-1.27 -10.51 2.49
-1.06 -10.53 2.49
-0.85 -10.55 2.49
-0.64 -10.56 2.49
-0.43 -10.57 2.49
-0.21 -10.58 2.49
-0.00 -9.61 2.49
0.19 -9.60 2.49
0.38 -9.60 2.49
0.58 -9.59 2.49
0.77 -9.57 2.49
0.96 -9.56 2.49
1.15 -9.53 2.49
1.34 -9.51 2.49
1.53 -9.48 2.49
1.72 -9.45 2.49
1.83 -9.02 2.39
2.02 -8.98 2.39
2.19 -8.94 2.39
2.37 -8.89 2.39
2.55 -8.84 2.39
2.73 -8.79 2.39
2.90 -8.73 2.39
3.08 -8.67 2.39
3.25 -8.61 2.39
3.42 -8.54 2.39
3.60 -8.47 2.39
3.76 -8.40 2.39
3.93 -8.32 2.39
4.10 -8.24 2.39
4.26 -8.15 2.39
4.43 -8.07 2.39
4.59 -7.98 2.39
4.75 -7.88 2.39
4.90 -7.79 2.39
5.06 -7.69 2.39
5.21 -7.58 2.39
5.36 -7.48 2.39
5.51 -7.37 2.39
5.66 -7.25 2.39
6.25 -7.68 2.57
6.34 -7.49 2.55
6.44 -7.30 2.53
6.49 -7.07 2.49
6.57 -6.87 2.47
6.65 -6.69 2.45
6.74 -6.50 2.43
6.79 -6.30 2.41
6.83 -6.08 2.37
6.86 -5.87 2.34
6.89 -5.66 2.32
6.92 -5.45 2.29
6.96 -5.26 2.27
7.00 -5.07 2.25
7.03 -4.88 2.22
7.06 -4.70 2.20
7.09 -4.51 2.18
7.12 -4.33 2.16
7.14 -4.15 2.15
7.17 -3.98 2.13
7.19 -3.80 2.11
7.21 -3.63 2.10
7.26 -3.48 2.09
7.31 -3.32 2.08
7.35 -3.16 2.08
7.38 -3.00 2.07
7.41 -2.84 2.06
7.43 -2.68 2.05
7.46 -2.52 2.04
7.48 -2.36 2.04
7.50 -2.21 2.03
7.52 -2.05 2.02
7.57 -1.90 2.03
7.65 -1.76 2.04
7.73 -1.61 2.05
7.81 -1.47 2.06
7.89 -1.32 2.08
7.97 -1.17 2.09
7.99 -1.01 2.09
8.00 -0.84 2.09
8.01 -0.68 2.09
8.02 -0.52 2.09
8.03 -0.36 2.09
8.06 -0.20 2.09
2.14 -0.01 0.56
2.10 0.03 0.54
2.10 0.07 0.54
2.15 0.12 0.56
8.14 0.62 2.12
8.16 0.78 2.13
8.16 0.95 2.13
8.16 1.11 2.14
8.15 1.28 2.14
8.14 1.45 2.14
8.13 1.61 2.15
8.11 1.78 2.15
8.08 1.94 2.16
8.06 2.11 2.16
8.04 2.28 2.17
8.01 2.45 2.17
7.98 2.61 2.18
7.95 2.78 2.18
7.92 2.95 2.19
7.91 3.13 2.20
7.89 3.30 2.22
7.87 3.48 2.23
7.84 3.66 2.24
7.83 3.85 2.26
7.83 4.05 2.28
7.83 4.25 2.31
7.82 4.45 2.33
7.82 4.66 2.36
7.81 4.87 2.38
7.76 5.05 2.40
7.68 5.23 2.41
7.61 5.40 2.42
7.53 5.58 2.43
7.45 5.75 2.44
7.36 5.93 2.45
7.28 6.10 2.46
7.19 6.28 2.47
7.10 6.45 2.48
7.00 6.63 2.50
6.91 6.81 2.51
6.82 6.99 2.53
6.71 7.17 2.54
6.59 7.33 2.55
6.45 7.47 2.55
6.31 7.61 2.56
6.16 7.75 2.56
5.61 7.34 2.39
5.46 7.46 2.39
5.31 7.56 2.39
5.16 7.67 2.39
5.00 7.77 2.39
4.85 7.87 2.39
4.69 7.97 2.39
4.53 8.06 2.39
4.36 8.15 2.39
4.20 8.24 2.39
4.03 8.32 2.39
3.87 8.40 2.39
3.70 8.48 2.39
3.53 8.55 2.39
3.36 8.62 2.39
3.18 8.69 2.39
3.01 8.75 2.39
2.83 8.81 2.39
2.65 8.86 2.39
2.48 8.92 2.39
2.30 8.96 2.39
2.12 9.01 2.39
1.93 9.05 2.39
1.75 9.09 2.39
1.58 9.20 2.41
1.45 9.55 2.49
1.25 9.57 2.49
1.06 9.60 2.49
0.87 9.62 2.49
0.68 9.63 2.49
0.48 9.65 2.49
0.29 9.65 2.49
0.10 9.66 2.49
-0.10 9.66 2.49
-0.29 9.66 2.49
-0.49 9.65 2.49
-0.68 9.64 2.49
-0.87 9.62 2.49
-1.07 9.60 2.49
-1.26 9.58 2.49
-1.45 9.55 2.49
-1.64 9.52 2.49
-1.83 9.49 2.49
-2.02 9.45 2.49
-2.21 9.41 2.49
-2.40 9.36 2.49
-2.59 9.31 2.49
-2.77 9.26 2.49
-2.96 9.20 2.49
-3.14 9.14 2.49
-3.33 9.07 2.49
-3.51 9.01 2.49
-3.69 8.93 2.49
-3.87 8.86 2.49
-4.04 8.78 2.49
-4.22 8.70 2.49
-4.39 8.61 2.49
-4.56 8.52 2.49
-4.73 8.43 2.49
-4.90 8.33 2.49
-5.07 8.23 2.49
-5.23 8.13 2.49
-5.40 8.02 2.49
-5.56 7.91 2.49
-5.71 7.80 2.49
-5.87 7.68 2.49
-6.02 7.56 2.49
-6.17 7.44 2.49
-6.32 7.31 2.49
-6.45 7.17 2.49
-6.45 6.89 2.43
-6.47 6.63 2.39
-6.60 6.50 2.39
-6.73 6.37 2.39
-6.86 6.23 2.39
-6.98 6.09 2.39
-7.10 5.95 2.39
-7.22 5.81 2.39
-7.33 5.66 2.39
-7.45 5.51 2.39
-7.56 5.36 2.39
-7.66 5.21 2.39
-7.76 5.06 2.39
-7.86 4.90 2.39
-7.96 4.74 2.39
-8.05 4.58 2.39
-8.14 4.42 2.39
-8.23 4.25 2.39
-8.31 4.09 2.39
-8.39 3.92 2.39
-8.47 3.75 2.39
-8.54 3.58 2.39
-8.61 3.41 2.39
-8.68 3.23 2.39
-8.74 3.06 2.39
-8.80 2.88 2.39
-8.86 2.70 2.39
-8.91 2.52 2.39
-8.96 2.35 2.39
-9.00 2.17 2.39
-9.04 1.98 2.39
-9.08 1.80 2.39
-9.12 1.62 2.39
-9.15 1.44 2.39
-9.17 1.25 2.39
-9.20 1.07 2.39
-9.21 0.88 2.39
-9.23 0.70 2.39
-9.24 0.51 2.39
-9.25 0.33 2.39
-9.25 0.14 2.39
-9.25 -0.04 2.39
-9.25 -0.23 2.39
-9.24 -0.42 2.39
-9.23 -0.60 2.39
-9.22 -0.79 2.39
-9.20 -0.97 2.39
-9.18 -1.16 2.39
-9.15 -1.34 2.39
-9.12 -1.52 2.39
-9.09 -1.71 2.39
-9.05 -1.89 2.39
-9.01 -2.07 2.39
-8.97 -2.25 2.39
-8.92 -2.43 2.39
-8.87 -2.61 2.39
-8.82 -2.78 2.39
-8.76 -2.96 2.39
-8.70 -3.14 2.39
-8.63 -3.31 2.39
-8.56 -3.48 2.39
-8.49 -3.65 2.39
-8.41 -3.82 2.39
-8.34 -3.99 2.39
-8.25 -4.16 2.39
-8.17 -4.32 2.39
-8.08 -4.48 2.39
-7.99 -4.64 2.39
-7.89 -4.80 2.39
-7.79 -4.96 2.39
-7.69 -5.12 2.39
-7.59 -5.27 2.39
-7.48 -5.42 2.39
-7.37 -5.57 2.39
-7.25 -5.71 2.39
-7.14 -5.86 2.39
-7.02 -6.00 2.39
-6.89 -6.14 2.39
-6.77 -6.28 2.39
-6.64 -6.41 2.39
-6.53 -6.56 2.40
-6.38 -6.67 2.39
-6.34 -6.90 2.43
-6.33 -7.17 2.48
-6.22 -7.34 2.49
-6.07 -7.47 2.49
-5.92 -7.59 2.49
-5.77 -7.70 2.49
-5.61 -7.82 2.49
-5.45 -7.93 2.49
-5.29 -8.04 2.49
-5.13 -8.14 2.49
-4.96 -8.24 2.49
-4.80 -8.34 2.49
-4.63 -8.43 2.49
-4.46 -8.52 2.49
-4.29 -8.61 2.49
-4.11 -8.69 2.49
-3.94 -8.77 2.49
-3.76 -8.85 2.49
-3.58 -8.92 2.49
-3.40 -8.99 2.49
-3.22 -9.06 2.49
-3.04 -9.12 2.49
-2.85 -9.18 2.49
-2.67 -9.23 2.49
-2.48 -9.29 2.49
-2.29 -9.33 2.49
-2.11 -9.38 2.49
-1.92 -9.42 2.49
-1.73 -9.45 2.49
-1.54 -9.49 2.49
-1.35 -9.51 2.49
-1.16 -9.54 2.49
-0.96 -9.56 2.49
-0.77 -9.58 2.49
-0.58 -9.59 2.49
-0.39 -9.60 2.49
-0.19 -9.60 2.49
-0.00 -8.79 2.49
0.18 -8.78 2.49
0.35 -8.78 2.49
0.53 -8.77 2.49
0.70 -8.76 2.49
0.88 -8.74 2.49
1.05 -8.72 2.49
1.23 -8.70 2.49
1.40 -8.67 2.49
1.58 -8.64 2.49
1.73 -8.50 2.46
1.84 -8.22 2.39
2.01 -8.18 2.39
2.17 -8.13 2.39
2.33 -8.09 2.39
2.50 -8.04 2.39
2.66 -7.99 2.39
2.82 -7.93 2.39
2.98 -7.88 2.39
3.13 -7.81 2.39
3.29 -7.75 2.39
3.44 -7.68 2.39
3.60 -7.61 2.39
3.75 -7.54 2.39
3.90 -7.46 2.39
4.05 -7.38 2.39
4.20 -7.30 2.39
4.34 -7.21 2.39
4.49 -7.12 2.39
4.63 -7.03 2.39
4.77 -6.94 2.39
4.91 -6.84 2.39
5.04 -6.74 2.39
5.18 -6.64 2.39
5.31 -6.53 2.39
5.44 -6.42 2.39
5.57 -6.31 2.39
5.69 -6.20 2.39
6.13 -6.41 2.52
6.21 -6.24 2.50
6.29 -6.07 2.48
6.37 -5.90 2.47
6.44 -5.74 2.45
6.51 -5.57 2.43
6.58 -5.40 2.42
6.64 -5.23 2.40
6.70 -5.07 2.39
6.77 -4.91 2.37
6.80 -4.72 2.35
6.83 -4.55 2.33
6.86 -4.37 2.31
6.89 -4.19 2.29
6.92 -4.02 2.27
6.94 -3.85 2.25
6.96 -3.69 2.24
6.99 -3.52 2.22
7.02 -3.36 2.21
7.07 -3.21 2.20
7.10 -3.06 2.19
7.13 -2.90 2.18
7.16 -2.74 2.18
7.18 -2.59 2.17
7.21 -2.44 2.16
7.23 -2.28 2.15
7.25 -2.13 2.15
7.27 -1.98 2.14
7.29 -1.83 2.13
7.34 -1.68 2.14
7.41 -1.55 2.15
7.49 -1.40 2.16
7.56 -1.26 2.17
7.61 -1.11 2.18
7.63 -0.96 2.18
7.64 -0.81 2.18
7.65 -0.65 2.18
7.66 -0.50 2.18
7.66 -0.35 2.18
7.67 -0.19 2.18
2.14 -0.01 0.61
2.10 0.03 0.60
2.10 0.07 0.60
2.15 0.12 0.61
7.74 0.59 2.20
7.75 0.74 2.21
7.76 0.90 2.21
7.75 1.06 2.22
7.74 1.22 2.22
7.74 1.37 2.23
7.73 1.53 2.23
7.71 1.69 2.24
7.70 1.85 2.25
7.68 2.01 2.25
7.66 2.17 2.26
7.63 2.33 2.26
7.60 2.49 2.27
7.57 2.65 2.27
7.54 2.81 2.28
7.51 2.97 2.29
7.49 3.14 2.30
7.47 3.31 2.31
7.45 3.48 2.33
7.42 3.65 2.34
7.39 3.82 2.36
7.36 3.99 2.37
7.33 4.17 2.39
7.30 4.35 2.41
7.29 4.54 2.43
7.27 4.74 2.46
7.25 4.93 2.48
7.18 5.10 2.49
7.10 5.26 2.50
7.02 5.43 2.51
6.94 5.59 2.52
6.86 5.75 2.53
6.77 5.92 2.55
6.69 6.08 2.56
6.57 6.22 2.56
6.46 6.36 2.57
6.33 6.50 2.57
6.21 6.63 2.57
6.08 6.77 2.57
5.52 6.40 2.39
5.39 6.51 2.39
5.26 6.61 2.39
5.13 6.72 2.39
4.99 6.82 2.39
4.86 6.92 2.39
4.72 7.02 2.39
4.58 7.11 2.39
4.43 7.20 2.39
4.29 7.29 2.39
4.14 7.37 2.39
3.99 7.45 2.39
3.84 7.53 2.39
3.69 7.61 2.39
3.54 7.68 2.39
3.38 7.75 2.39
3.23 7.82 2.39
3.07 7.88 2.39
2.91 7.94 2.39
2.75 8.00 2.39
2.59 8.05 2.39
2.43 8.11 2.39
2.26 8.15 2.39
2.10 8.20 2.39
1.93 8.24 2.39
1.77 8.28 2.39
1.60 8.31 2.39
1.50 8.70 2.49
1.32 8.73 2.49
1.15 8.75 2.49
0.97 8.78 2.49
0.80 8.79 2.49
0.62 8.81 2.49
0.44 8.82 2.49
0.26 8.83 2.49
0.09 8.83 2.49
-0.09 8.83 2.49
-0.27 8.83 2.49
-0.44 8.82 2.49
-0.62 8.81 2.49
-0.80 8.80 2.49
-0.97 8.78 2.49
-1.15 8.76 2.49
-1.33 8.73 2.49
-1.50 8.71 2.49
-1.68 8.67 2.49
-1.85 8.64 2.49
-2.02 8.60 2.49
-2.19 8.56 2.49
-2.37 8.51 2.49
-2.54 8.46 2.49
-2.71 8.41 2.49
-2.87 8.36 2.49
-3.04 8.30 2.49
-3.21 8.23 2.49
-3.37 8.17 2.49
-3.54 8.10 2.49
-3.70 8.03 2.49
-3.86 7.95 2.49
-4.02 7.87 2.49
-4.17 7.79 2.49
-4.33 7.71 2.49
-4.48 7.62 2.49
-4.64 7.53 2.49
-4.79 7.43 2.49
-4.93 7.33 2.49
-5.08 7.23 2.49
-5.22 7.13 2.49
-5.37 7.02 2.49
-5.51 6.91 2.49
-5.64 6.80 2.49
-5.78 6.69 2.49
-5.91 6.57 2.49
-6.04 6.45 2.49
-6.17 6.33 2.49
-6.30 6.20 2.49
-6.42 6.07 2.49
-6.44 5.86 2.46
-6.45 5.63 2.41
-6.49 5.44 2.39
-6.60 5.31 2.39
-6.71 5.18 2.39
-6.81 5.04 2.39
-6.91 4.90 2.39
-7.00 4.76 2.39
-7.10 4.62 2.39
-7.19 4.48 2.39
-7.28 4.33 2.39
-7.36 4.19 2.39
-7.45 4.04 2.39
-7.53 3.89 2.39
-7.60 3.74 2.39
-7.68 3.58 2.39
-7.75 3.43 2.39
-7.81 3.27 2.39
-7.88 3.11 2.39
-7.94 2.96 2.39
-7.99 2.80 2.39
-8.05 2.63 2.39
-8.10 2.47 2.39
-8.15 2.31 2.39
-8.19 2.14 2.39
-8.23 1.98 2.39
-8.27 1.81 2.39
-8.30 1.65 2.39
-8.34 1.48 2.39
-8.36 1.31 2.39
-8.39 1.14 2.39
-8.41 0.98 2.39
-8.43 0.81 2.39
-8.44 0.64 2.39
-8.45 0.47 2.39
-8.46 0.30 2.39
-8.46 0.13 2.39
-8.46 -0.04 2.39
-8.46 -0.21 2.39
-8.45 -0.38 2.39
-8.44 -0.55 2.39
-8.43 -0.72 2.39
-8.41 -0.89 2.39
-8.39 -1.06 2.39
-8.37 -1.22 2.39
-8.34 -1.39 2.39
-8.31 -1.56 2.39
-8.28 -1.73 2.39
-8.24 -1.89 2.39
-8.20 -2.06 2.39
-8.16 -2.22 2.39
-8.11 -2.38 2.39
-8.06 -2.55 2.39
-8.01 -2.71 2.39
-7.95 -2.87 2.39
-7.89 -3.03 2.39
-7.83 -3.18 2.39
-7.76 -3.34 2.39
-7.70 -3.50 2.39
-7.62 -3.65 2.39
-7.55 -3.80 2.39
-7.47 -3.95 2.39
-7.39 -4.10 2.39
-7.30 -4.25 2.39
-7.22 -4.39 2.39
-7.13 -4.54 2.39
-7.03 -4.68 2.39
-6.94 -4.82 2.39
-6.84 -4.96 2.39
-6.74 -5.09 2.39
-6.63 -5.23 2.39
-6.54 -5.37 2.39
-6.42 -5.49 2.39
-6.35 -5.65 2.41
-6.34 -5.88 2.45
-6.34 -6.12 2.49
-6.21 -6.24 2.49
-6.09 -6.36 2.49
-5.96 -6.48 2.49
-5.82 -6.60 2.49
-5.69 -6.72 2.49
-5.55 -6.83 2.49
-5.42 -6.94 2.49
-5.27 -7.05 2.49
-5.13 -7.15 2.49
-4.99 -7.25 2.49
-4.84 -7.35 2.49
-4.69 -7.44 2.49
-4.54 -7.54 2.49
-4.39 -7.63 2.49
-4.23 -7.71 2.49
-4.08 -7.80 2.49
-3.92 -7.88 2.49
-3.76 -7.95 2.49
-3.60 -8.03 2.49
-3.44 -8.10 2.49
-3.28 -8.16 2.49
-3.11 -8.23 2.49
-2.94 -8.29 2.49
-2.78 -8.34 2.49
-2.61 -8.40 2.49
-2.44 -8.45 2.49
-2.27 -8.49 2.49
-2.10 -8.54 2.49
-1.93 -8.58 2.49
-1.75 -8.61 2.49
-1.58 -8.65 2.49
-1.41 -8.68 2.49
-1.23 -8.70 2.49
-1.06 -8.73 2.49
-0.88 -8.74 2.49
-0.71 -8.76 2.49
-0.53 -8.77 2.49
-0.35 -8.78 2.49
-0.18 -8.79 2.49
-0.00 -8.09 2.49
0.16 -8.09 2.49
0.32 -8.08 2.49
0.49 -8.07 2.49
0.65 -8.06 2.49
0.81 -8.05 2.49
0.97 -8.03 2.49
1.13 -8.01 2.49
1.29 -7.98 2.49
1.45 -7.95 2.49
1.61 -7.92 2.49
1.72 -7.68 2.43
1.85 -7.53 2.39
2.00 -7.49 2.39
2.15 -7.45 2.39
2.30 -7.40 2.39
2.45 -7.35 2.39
2.59 -7.30 2.39
2.74 -7.25 2.39
2.88 -7.19 2.39
3.03 -7.13 2.39
3.17 -7.07 2.39
3.31 -7.01 2.39
3.45 -6.94 2.39
3.59 -6.87 2.39
3.73 -6.79 2.39
3.86 -6.72 2.39
4.00 -6.64 2.39
4.13 -6.56 2.39
4.26 -6.47 2.39
4.39 -6.39 2.39
4.52 -6.30 2.39
4.64 -6.20 2.39
4.77 -6.11 2.39
4.89 -6.01 2.39
5.01 -5.91 2.39
5.13 -5.81 2.39
5.24 -5.71 2.39
5.35 -5.60 2.39
5.47 -5.49 2.39
5.58 -5.38 2.39
5.68 -5.27 2.39
6.04 -5.38 2.50
6.11 -5.22 2.48
6.16 -5.06 2.46
6.21 -4.90 2.44
6.26 -4.73 2.42
6.33 -4.59 2.41
6.40 -4.45 2.40
6.47 -4.30 2.40
6.53 -4.16 2.39
6.59 -4.01 2.38
6.65 -3.87 2.37
6.70 -3.72 2.36
6.75 -3.57 2.36
6.77 -3.41 2.34
6.80 -3.25 2.32
6.83 -3.10 2.31
6.86 -2.95 2.30
6.89 -2.80 2.29
6.92 -2.65 2.29
6.95 -2.51 2.28
6.97 -2.36 2.27
6.99 -2.21 2.26
7.02 -2.06 2.26
7.04 -1.92 2.25
7.06 -1.77 2.24
7.08 -1.62 2.24
7.11 -1.48 2.24
7.18 -1.35 2.25
7.25 -1.21 2.27
7.28 -1.07 2.27
7.29 -0.92 2.27
7.30 -0.77 2.26
7.31 -0.62 2.26
7.32 -0.48 2.26
7.33 -0.33 2.26
7.34 -0.18 2.26
2.14 -0.01 0.66
2.10 0.03 0.65
2.10 0.07 0.65
2.15 0.12 0.66
7.37 0.56 2.28
7.38 0.71 2.28
7.38 0.86 2.29
7.38 1.01 2.29
7.37 1.16 2.30
7.36 1.31 2.30
7.35 1.46 2.31
7.34 1.61 2.31
7.33 1.76 2.32
7.31 1.92 2.33
7.29 2.07 2.33
7.27 2.22 2.34
7.25 2.37 2.35
7.22 2.53 2.36
7.19 2.68 2.36
7.16 2.83 2.37
7.13 2.99 2.38
7.11 3.15 2.39
7.08 3.31 2.41
7.06 3.47 2.42
7.03 3.63 2.43
7.00 3.80 2.45
6.96 3.96 2.46
6.93 4.13 2.48
6.89 4.29 2.50
6.85 4.46 2.52
6.81 4.63 2.53
6.76 4.80 2.55
6.72 4.98 2.57
6.63 5.12 2.58
6.53 5.26 2.58
6.43 5.39 2.58
6.33 5.53 2.58
6.22 5.66 2.59
6.11 5.79 2.59
5.54 5.46 2.39
5.43 5.57 2.39
5.31 5.68 2.39
5.20 5.78 2.39
5.08 5.89 2.39
4.96 5.99 2.39
4.84 6.09 2.39
4.72 6.18 2.39
4.60 6.28 2.39
4.47 6.37 2.39
4.34 6.46 2.39
4.21 6.54 2.39
4.08 6.63 2.39
3.95 6.71 2.39
3.81 6.79 2.39
3.67 6.86 2.39
3.54 6.93 2.39
3.40 7.00 2.39
3.25 7.07 2.39
3.11 7.13 2.39
2.97 7.20 2.39
2.82 7.25 2.39
2.68 7.31 2.39
2.53 7.36 2.39
2.38 7.41 2.39
2.23 7.46 2.39
2.08 7.50 2.39
1.93 7.54 2.39
1.80 7.65 2.41
1.63 7.62 2.39
1.54 7.98 2.49
1.38 8.01 2.49
1.22 8.03 2.49
1.06 8.06 2.49
0.89 8.08 2.49
0.73 8.09 2.49
0.57 8.11 2.49
0.41 8.12 2.49
0.24 8.12 2.49
0.08 8.13 2.49
-0.08 8.13 2.49
-0.25 8.12 2.49
-0.41 8.12 2.49
-0.57 8.11 2.49
-0.73 8.10 2.49
-0.90 8.08 2.49
-1.06 8.06 2.49
-1.22 8.04 2.49
-1.38 8.01 2.49
-1.54 7.98 2.49
-1.70 7.95 2.49
-1.86 7.91 2.49
-2.02 7.88 2.49
-2.18 7.83 2.49
-2.33 7.79 2.49
-2.49 7.74 2.49
-2.65 7.69 2.49
-2.80 7.63 2.49
-2.95 7.58 2.49
-3.10 7.52 2.49
-3.25 7.45 2.49
-3.40 7.39 2.49
-3.55 7.32 2.49
-3.70 7.24 2.49
-3.84 7.17 2.49
-3.98 7.09 2.49
-4.13 7.01 2.49
-4.27 6.92 2.49
-4.40 6.84 2.49
-4.54 6.75 2.49
-4.67 6.66 2.49
-4.81 6.56 2.49
-4.94 6.46 2.49
-5.07 6.36 2.49
-5.19 6.26 2.49
-5.32 6.15 2.49
-5.44 6.05 2.49
-5.56 5.94 2.49
-5.68 5.82 2.49
-5.79 5.71 2.49
-5.91 5.59 2.49
-6.02 5.47 2.49
-6.13 5.35 2.49
-6.23 5.22 2.49
-6.34 5.10 2.49
-6.43 4.97 2.49
-6.43 4.76 2.45
-6.44 4.57 2.42
-6.45 4.38 2.39
-6.53 4.25 2.39
-6.62 4.12 2.39
-6.70 3.99 2.39
-6.78 3.85 2.39
-6.85 3.72 2.39
-6.93 3.58 2.39
-7.00 3.44 2.39
-7.06 3.30 2.39
-7.13 3.15 2.39
-7.19 3.01 2.39
-7.25 2.87 2.39
-7.30 2.72 2.39
-7.36 2.57 2.39
-7.41 2.42 2.39
-7.45 2.27 2.39
-7.50 2.12 2.39
-7.54 1.97 2.39
-7.58 1.82 2.39
-7.61 1.67 2.39
-7.64 1.52 2.39
-7.67 1.36 2.39
-7.70 1.21 2.39
-7.72 1.05 2.39
-7.74 0.90 2.39
-7.75 0.74 2.39
-7.77 0.59 2.39
-7.78 0.43 2.39
-7.78 0.28 2.39
-7.79 0.12 2.39
-7.79 -0.04 2.39
-7.78 -0.19 2.39
-7.78 -0.35 2.39
-7.77 -0.51 2.39
-7.76 -0.66 2.39
-7.74 -0.82 2.39
-7.72 -0.97 2.39
-7.70 -1.13 2.39
-7.68 -1.28 2.39
-7.65 -1.44 2.39
-7.62 -1.59 2.39
-7.59 -1.74 2.39
-7.55 -1.89 2.39
-7.51 -2.04 2.39
-7.47 -2.19 2.39
-7.42 -2.34 2.39
-7.37 -2.49 2.39
-7.32 -2.64 2.39
-7.26 -2.79 2.39
-7.21 -2.93 2.39
-7.15 -3.07 2.39
-7.08 -3.22 2.39
-7.02 -3.36 2.39
-6.95 -3.50 2.39
-6.87 -3.64 2.39
-6.80 -3.77 2.39
-6.72 -3.91 2.39
-6.64 -4.04 2.39
-6.56 -4.18 2.39
-6.47 -4.31 2.39
-6.39 -4.43 2.39
-6.36 -4.61 2.41
-6.35 -4.80 2.45
-6.35 -5.00 2.49
-6.27 -5.14 2.49
-6.16 -5.27 2.49
-6.05 -5.39 2.49
-5.94 -5.51 2.49
-5.83 -5.63 2.49
-5.72 -5.74 2.49
-5.60 -5.86 2.49
-5.48 -5.97 2.49
-5.36 -6.08 2.49
-5.24 -6.18 2.49
-5.11 -6.29 2.49
-4.98 -6.39 2.49
-4.86 -6.49 2.49
-4.72 -6.58 2.49
-4.59 -6.67 2.49
-4.46 -6.76 2.49
-4.32 -6.85 2.49
-4.18 -6.94 2.49
-4.04 -7.02 2.49
-3.90 -7.10 2.49
-3.75 -7.18 2.49
-3.61 -7.25 2.49
-3.46 -7.32 2.49
-3.31 -7.39 2.49
-3.17 -7.45 2.49
-3.02 -7.51 2.49
-2.86 -7.57 2.49
-2.71 -7.63 2.49
-2.56 -7.68 2.49
-2.40 -7.73 2.49
-2.25 -7.78 2.49
-2.09 -7.82 2.49
-1.93 -7.86 2.49
-1.77 -7.90 2.49
-1.62 -7.93 2.49
-1.46 -7.96 2.49
-1.30 -7.99 2.49
-1.13 -8.01 2.49
-0.97 -8.03 2.49
-0.81 -8.05 2.49
-0.65 -8.06 2.49
-0.49 -8.07 2.49
-0.33 -8.08 2.49
-0.16 -8.09 2.49
-0.00 -7.49 2.49
0.15 -7.48 2.49
0.30 -7.48 2.49
0.45 -7.47 2.49
0.60 -7.46 2.49
0.75 -7.45 2.49
0.90 -7.43 2.49
1.05 -7.41 2.49
1.20 -7.39 2.49
1.34 -7.36 2.49
1.49 -7.33 2.49
1.64 -7.30 2.49
1.72 -7.02 2.41
1.85 -6.93 2.39
1.99 -6.89 2.39
2.13 -6.85 2.39
2.26 -6.81 2.39
2.40 -6.76 2.39
2.54 -6.71 2.39
2.67 -6.66 2.39
2.80 -6.60 2.39
2.93 -6.54 2.39
3.06 -6.48 2.39
3.19 -6.42 2.39
3.32 -6.36 2.39
3.45 -6.29 2.39
3.58 -6.22 2.39
3.70 -6.14 2.39
3.82 -6.07 2.39
3.94 -5.99 2.39
4.06 -5.91 2.39
4.18 -5.83 2.39
4.30 -5.74 2.39
4.41 -5.65 2.39
4.52 -5.56 2.39
4.63 -5.47 2.39
4.74 -5.38 2.39
4.85 -5.28 2.39
4.96 -5.18 2.39
5.06 -5.08 2.39
5.16 -4.98 2.39
5.26 -4.88 2.39
5.36 -4.77 2.39
5.45 -4.66 2.39
5.54 -4.55 2.39
5.63 -4.44 2.39
5.88 -4.44 2.46
5.94 -4.30 2.44
6.00 -4.17 2.44
6.06 -4.04 2.43
6.13 -3.90 2.42
6.18 -3.76 2.41
6.24 -3.63 2.41
6.29 -3.49 2.40
6.34 -3.36 2.39
6.39 -3.22 2.38
6.44 -3.08 2.38
6.49 -2.95 2.37
6.55 -2.82 2.37
6.60 -2.68 2.37
6.65 -2.55 2.37
6.71 -2.42 2.38
6.75 -2.28 2.37
6.77 -2.14 2.37
6.79 -2.00 2.36
6.81 -1.85 2.35
6.83 -1.71 2.35
6.85 -1.57 2.34
6.87 -1.43 2.34
6.90 -1.29 2.34
6.96 -1.16 2.35
6.97 -1.02 2.35
6.98 -0.88 2.34
7.00 -0.74 2.34
7.01 -0.60 2.34
7.01 -0.46 2.34
7.02 -0.32 2.34
7.03 -0.17 2.34
2.14 -0.01 0.71
2.10 0.03 0.70
2.10 0.07 0.70
2.15 0.12 0.72
7.03 0.53 2.35
7.03 0.67 2.35
7.04 0.82 2.36
7.04 0.96 2.36
7.03 1.10 2.37
7.02 1.25 2.37
7.01 1.39 2.38
7.00 1.54 2.38
6.98 1.68 2.39
6.97 1.83 2.40
6.95 1.97 2.40
6.93 2.12 2.41
6.91 2.26 2.42
6.88 2.41 2.43
6.86 2.56 2.44
6.83 2.70 2.44
6.80 2.85 2.45
6.77 3.00 2.46
6.75 3.15 2.48
6.72 3.30 2.49
6.69 3.46 2.50
6.65 3.61 2.51
6.60 3.75 2.52
6.55 3.90 2.53
6.49 4.05 2.54
6.44 4.19 2.55
6.38 4.34 2.56
6.31 4.48 2.57
6.25 4.63 2.58
6.18 4.77 2.59
5.60 4.51 2.39
5.51 4.62 2.39
5.42 4.73 2.39
5.32 4.84 2.39
5.22 4.95 2.39
5.12 5.05 2.39
5.02 5.15 2.39
4.92 5.25 2.39
4.81 5.35 2.39
4.70 5.45 2.39
4.59 5.54 2.39
4.48 5.63 2.39
4.37 5.72 2.39
4.25 5.81 2.39
4.14 5.89 2.39
4.02 5.97 2.39
3.90 6.05 2.39
3.77 6.13 2.39
3.65 6.21 2.39
3.53 6.28 2.39
3.40 6.35 2.39
3.27 6.42 2.39
3.14 6.48 2.39
3.01 6.54 2.39
2.88 6.60 2.39
2.75 6.66 2.39
2.61 6.71 2.39
2.48 6.76 2.39
2.34 6.81 2.39
2.20 6.86 2.39
2.07 6.90 2.39
1.93 6.94 2.39
1.80 7.04 2.41
1.65 7.01 2.39
1.57 7.35 2.49
1.42 7.38 2.49
1.27 7.41 2.49
1.13 7.43 2.49
0.98 7.45 2.49
0.83 7.47 2.49
0.68 7.49 2.49
0.53 7.50 2.49
0.38 7.51 2.49
0.23 7.52 2.49
0.07 7.52 2.49
-0.08 7.52 2.49
-0.23 7.52 2.49
-0.38 7.51 2.49
-0.53 7.50 2.49
-0.68 7.49 2.49
-0.83 7.48 2.49
-0.98 7.46 2.49
-1.13 7.44 2.49
-1.28 7.41 2.49
-1.43 7.39 2.49
-1.57 7.36 2.49
-1.72 7.32 2.49
-1.87 7.29 2.49
-2.01 7.25 2.49
-2.16 7.21 2.49
-2.30 7.16 2.49
-2.45 7.11 2.49
-2.59 7.06 2.49
-2.73 7.01 2.49
-2.87 6.95 2.49
-3.01 6.90 2.49
-3.15 6.83 2.49
-3.28 6.77 2.49
-3.42 6.70 2.49
-3.55 6.63 2.49
-3.69 6.56 2.49
-3.82 6.48 2.49
-3.95 6.41 2.49
-4.07 6.33 2.49
-4.20 6.24 2.49
-4.32 6.16 2.49
-4.45 6.07 2.49
-4.57 5.98 2.49
-4.69 5.89 2.49
-4.80 5.79 2.49
-4.92 5.69 2.49
-5.03 5.59 2.49
-5.14 5.49 2.49
-5.25 5.39 2.49
-5.36 5.28 2.49
-5.46 5.17 2.49
-5.57 5.06 2.49
-5.67 4.95 2.49
-5.77 4.83 2.49
-5.86 4.72 2.49
-5.95 4.60 2.49
-6.05 4.48 2.49
-6.13 4.36 2.49
-6.22 4.23 2.49
-6.30 4.11 2.49
-6.39 3.98 2.49
-6.42 3.83 2.48
-6.42 3.65 2.45
-6.43 3.48 2.42
-6.43 3.32 2.40
-6.47 3.18 2.39
-6.53 3.05 2.39
-6.61 2.92 2.40
-6.65 2.79 2.39
-6.71 2.65 2.39
-6.76 2.52 2.39
-6.81 2.38 2.39
-6.85 2.24 2.39
-6.90 2.10 2.39
-6.94 1.97 2.39
-6.97 1.83 2.39
-7.01 1.69 2.39
-7.04 1.54 2.39
-7.07 1.40 2.39
-7.10 1.26 2.39
-7.12 1.12 2.39
-7.14 0.98 2.39
-7.16 0.83 2.39
-7.17 0.69 2.39
-7.19 0.54 2.39
-7.19 0.40 2.39
-7.20 0.25 2.39
-7.20 0.11 2.39
-7.21 -0.03 2.39
-7.20 -0.18 2.39
-7.20 -0.32 2.39
-7.19 -0.47 2.39
-7.18 -0.61 2.39
-7.16 -0.76 2.39
-7.15 -0.90 2.39
-7.13 -1.04 2.39
-7.10 -1.19 2.39
-7.08 -1.33 2.39
-7.05 -1.47 2.39
-7.02 -1.61 2.39
-6.98 -1.75 2.39
-6.95 -1.89 2.39
-6.91 -2.03 2.39
-6.87 -2.17 2.39
-6.82 -2.31 2.39
-6.77 -2.44 2.39
-6.72 -2.58 2.39
-6.67 -2.71 2.39
-6.61 -2.84 2.39
-6.56 -2.98 2.39
-6.49 -3.11 2.39
-6.43 -3.24 2.39
-6.37 -3.37 2.40
-6.37 -3.53 2.42
-6.36 -3.70 2.44
-6.36 -3.87 2.47
-6.33 -4.03 2.49
-6.25 -4.16 2.49
-6.16 -4.28 2.49
-6.08 -4.40 2.49
-5.99 -4.52 2.49
-5.89 -4.64 2.49
-5.80 -4.76 2.49
-5.70 -4.87 2.49
-5.60 -4.99 2.49
-5.50 -5.10 2.49
-5.40 -5.21 2.49
-5.29 -5.32 2.49
-5.18 -5.42 2.49
-5.07 -5.52 2.49
-4.96 -5.62 2.49
-4.85 -5.72 2.49
-4.73 -5.82 2.49
-4.61 -5.91 2.49
-4.49 -6.00 2.49
-4.37 -6.09 2.49
-4.25 -6.18 2.49
-4.12 -6.26 2.49
-4.00 -6.34 2.49
-3.87 -6.42 2.49
-3.74 -6.50 2.49
-3.61 -6.57 2.49
-3.47 -6.64 2.49
-3.34 -6.71 2.49
-3.20 -6.77 2.49
-3.07 -6.84 2.49
-2.93 -6.90 2.49
-2.79 -6.95 2.49
-2.65 -7.01 2.49
-2.51 -7.06 2.49
-2.37 -7.11 2.49
-2.22 -7.15 2.49
-2.08 -7.20 2.49
-1.93 -7.24 2.49
-1.79 -7.27 2.49
-1.64 -7.31 2.49
-1.49 -7.34 2.49
-1.35 -7.37 2.49
-1.20 -7.39 2.49
-1.05 -7.41 2.49
-0.90 -7.43 2.49
-0.75 -7.45 2.49
-0.60 -7.46 2.49
-0.45 -7.47 2.49
-0.30 -7.48 2.49
-0.15 -7.48 2.49
-0.00 -6.96 2.49
0.14 -6.96 2.49
0.28 -6.95 2.49
0.42 -6.95 2.49
0.56 -6.94 2.49
0.70 -6.92 2.49
0.83 -6.91 2.49
0.97 -6.89 2.49
1.11 -6.87 2.49
1.25 -6.84 2.49
1.39 -6.82 2.49
1.52 -6.79 2.49
1.66 -6.76 2.49
1.72 -6.45 2.39
1.85 -6.41 2.39
1.98 -6.37 2.39
2.10 -6.33 2.39
2.23 -6.28 2.39
2.36 -6.24 2.39
2.48 -6.19 2.39
2.61 -6.14 2.39
2.73 -6.08 2.39
2.85 -6.03 2.39
2.97 -5.97 2.39
3.09 -5.91 2.39
3.21 -5.85 2.39
3.32 -5.78 2.39
3.44 -5.71 2.39
3.55 -5.64 2.39
3.67 -5.57 2.39
3.78 -5.49 2.39
3.89 -5.42 2.39
3.99 -5.34 2.39
4.10 -5.26 2.39
4.21 -5.17 2.39
4.31 -5.09 2.39
4.41 -5.00 2.39
4.51 -4.91 2.39
4.61 -4.82 2.39
4.70 -4.73 2.39
4.80 -4.63 2.39
4.89 -4.53 2.39
4.98 -4.43 2.39
5.07 -4.33 2.39
5.15 -4.23 2.39
5.24 -4.13 2.39
5.32 -4.02 2.39
5.40 -3.91 2.39
5.48 -3.80 2.39
5.55 -3.69 2.39
5.62 -3.58 2.39
5.70 -3.47 2.39
5.87 -3.42 2.44
5.92 -3.29 2.43
5.97 -3.16 2.42
6.02 -3.03 2.42
6.07 -2.91 2.41
6.12 -2.78 2.41
6.16 -2.65 2.40
6.21 -2.53 2.40
6.26 -2.40 2.40
6.31 -2.27 2.40
6.35 -2.15 2.40
6.40 -2.02 2.40
6.44 -1.89 2.41
6.48 -1.76 2.41
6.52 -1.63 2.41
6.55 -1.50 2.41
6.58 -1.37 2.41
6.62 -1.24 2.41
6.64 -1.11 2.41
6.66 -0.98 2.41
6.68 -0.84 2.41
6.70 -0.71 2.41
6.71 -0.57 2.41
6.72 -0.44 2.41
6.73 -0.30 2.41
6.74 -0.17 2.41
2.14 -0.01 0.77
2.10 0.03 0.75
2.10 0.07 0.75
2.15 0.12 0.77
6.74 0.51 2.42
6.73 0.65 2.42
6.73 0.78 2.43
6.72 0.92 2.43
6.71 1.05 2.43
6.70 1.19 2.44
6.69 1.33 2.44
6.67 1.46 2.45
6.66 1.60 2.45
6.64 1.74 2.46
6.61 1.87 2.46
6.59 2.01 2.47
6.56 2.15 2.47
6.53 2.28 2.48
6.50 2.42 2.48
6.46 2.56 2.49
6.42 2.69 2.49
6.38 2.83 2.50
6.34 2.96 2.50
6.30 3.10 2.51
6.25 3.23 2.52
6.20 3.36 2.52
6.15 3.50 2.53
6.10 3.64 2.54
6.05 3.77 2.55
5.60 3.65 2.39
5.53 3.76 2.39
5.45 3.87 2.39
5.37 3.98 2.39
5.29 4.09 2.39
5.21 4.19 2.39
5.12 4.30 2.39
5.04 4.40 2.39
4.95 4.50 2.39
4.86 4.60 2.39
4.76 4.69 2.39
4.67 4.79 2.39
4.57 4.88 2.39
4.47 4.97 2.39
4.37 5.06 2.39
4.27 5.15 2.39
4.17 5.23 2.39
4.06 5.32 2.39
3.95 5.40 2.39
3.84 5.48 2.39
3.73 5.55 2.39
3.62 5.63 2.39
3.51 5.70 2.39
3.39 5.77 2.39
3.28 5.84 2.39
3.16 5.90 2.39
3.04 5.96 2.39
2.92 6.02 2.39
2.80 6.08 2.39
2.68 6.14 2.39
2.55 6.19 2.39
2.43 6.24 2.39
2.30 6.29 2.39
2.18 6.33 2.39
2.05 6.37 2.39
1.92 6.41 2.39
1.81 6.51 2.41
1.66 6.49 2.39
1.60 6.80 2.49
1.46 6.83 2.49
1.32 6.86 2.49
1.18 6.89 2.49
1.05 6.91 2.49
0.91 6.93 2.49
0.77 6.95 2.49
0.63 6.96 2.49
0.49 6.97 2.49
0.35 6.98 2.49
0.21 6.99 2.49
0.07 6.99 2.49
-0.07 6.99 2.49
-0.21 6.99 2.49
-0.35 6.98 2.49
-0.49 6.97 2.49
-0.63 6.96 2.49
-0.77 6.95 2.49
-0.91 6.93 2.49
-1.05 6.91 2.49
-1.19 6.89 2.49
-1.33 6.86 2.49
-1.46 6.84 2.49
-1.60 6.81 2.49
-1.74 6.77 2.49
-1.87 6.74 2.49
-2.01 6.70 2.49
-2.14 6.66 2.49
-2.27 6.61 2.49
-2.41 6.56 2.49
-2.54 6.52 2.49
-2.67 6.46 2.49
-2.80 6.41 2.49
-2.93 6.35 2.49
-3.05 6.29 2.49
-3.18 6.23 2.49
-3.30 6.16 2.49
-3.43 6.10 2.49
-3.55 6.03 2.49
-3.67 5.95 2.49
-3.79 5.88 2.49
-3.90 5.80 2.49
-4.02 5.72 2.49
-4.13 5.64 2.49
-4.25 5.56 2.49
-4.36 5.47 2.49
-4.46 5.38 2.49
-4.57 5.29 2.49
-4.68 5.20 2.49
-4.78 5.10 2.49
-4.88 5.01 2.49
-4.98 4.91 2.49
-5.08 4.81 2.49
-5.17 4.70 2.49
-5.27 4.60 2.49
-5.36 4.49 2.49
-5.45 4.38 2.49
-5.53 4.27 2.49
-5.62 4.16 2.49
-5.70 4.05 2.49
-5.78 3.93 2.49
-5.86 3.82 2.49
-5.93 3.70 2.49
-6.01 3.58 2.49
-6.08 3.46 2.49
-6.15 3.33 2.49
-6.21 3.21 2.49
-6.27 3.08 2.49
-6.33 2.96 2.49
-6.39 2.83 2.49
-6.41 2.69 2.48
-6.41 2.54 2.46
-6.41 2.39 2.44
-6.41 2.24 2.42
-6.42 2.10 2.41
-6.42 1.96 2.39
-6.45 1.83 2.39
-6.48 1.70 2.39
-6.51 1.57 2.39
-6.54 1.44 2.39
-6.57 1.30 2.39
-6.60 1.17 2.39
-6.62 1.04 2.39
-6.64 0.91 2.39
-6.65 0.77 2.39
-6.67 0.64 2.39
-6.68 0.51 2.39
-6.69 0.37 2.39
-6.69 0.24 2.39
-6.70 0.10 2.39
-6.70 -0.03 2.39
-6.69 -0.17 2.39
-6.69 -0.30 2.39
-6.68 -0.43 2.39
-6.67 -0.57 2.39
-6.66 -0.70 2.39
-6.64 -0.84 2.39
-6.62 -0.97 2.39
-6.60 -1.10 2.39
-6.58 -1.23 2.39
-6.57 -1.37 2.40
-6.52 -1.50 2.39
-6.49 -1.63 2.39
-6.46 -1.76 2.39
-6.42 -1.89 2.39
-6.39 -2.02 2.39
-6.38 -2.16 2.41
-6.38 -2.30 2.42
-6.37 -2.44 2.44
-6.37 -2.59 2.46
-6.37 -2.74 2.48
-6.35 -2.89 2.49
-6.29 -3.01 2.49
-6.23 -3.14 2.49
-6.17 -3.26 2.49
-6.10 -3.39 2.49
-6.03 -3.51 2.49
-5.96 -3.63 2.49
-5.88 -3.75 2.49
-5.81 -3.86 2.49
-5.73 -3.98 2.49
-5.65 -4.09 2.49
-5.56 -4.20 2.49
-5.48 -4.32 2.49
-5.39 -4.42 2.49
-5.30 -4.53 2.49
-5.21 -4.64 2.49
-5.11 -4.74 2.49
-5.02 -4.84 2.49
-4.92 -4.94 2.49
-4.82 -5.04 2.49
-4.72 -5.13 2.49
-4.61 -5.23 2.49
-4.51 -5.32 2.49
-4.40 -5.41 2.49
-4.29 -5.49 2.49
-4.18 -5.58 2.49
-4.06 -5.66 2.49
-3.95 -5.74 2.49
-3.83 -5.82 2.49
-3.71 -5.89 2.49
-3.60 -5.97 2.49
-3.48 -6.04 2.49
-3.35 -6.11 2.49
-3.23 -6.17 2.49
-3.10 -6.24 2.49
-2.98 -6.30 2.49
-2.85 -6.35 2.49
-2.72 -6.41 2.49
-2.59 -6.46 2.49
-2.46 -6.51 2.49
-2.33 -6.56 2.49
-2.20 -6.61 2.49
-2.07 -6.65 2.49
-1.93 -6.69 2.49
-1.80 -6.73 2.49
-1.66 -6.76 2.49
-1.53 -6.79 2.49
-1.39 -6.82 2.49
-1.25 -6.85 2.49
-1.11 -6.87 2.49
-0.98 -6.89 2.49
-0.84 -6.91 2.49
-0.70 -6.93 2.49
-0.56 -6.94 2.49
-0.42 -6.95 2.49
-0.28 -6.95 2.49
-0.14 -6.96 2.49
-0.00 -6.49 2.49
0.13 -6.49 2.49
0.26 -6.49 2.49
0.39 -6.48 2.49
0.52 -6.47 2.49
0.65 -6.46 2.49
0.78 -6.45 2.49
0.91 -6.43 2.49
1.04 -6.41 2.49
1.17 -6.39 2.49
1.29 -6.36 2.49
1.42 -6.34 2.49
1.55 -6.31 2.49
1.67 -6.27 2.49
1.73 -5.98 2.39
1.85 -5.94 2.39
1.96 -5.91 2.39
2.08 -5.86 2.39
2.20 -5.82 2.39
2.32 -5.78 2.39
2.43 -5.73 2.39
2.55 -5.68 2.39
2.66 -5.63 2.39
2.77 -5.57 2.39
2.88 -5.51 2.39
2.99 -5.46 2.39
3.10 -5.39 2.39
3.21 -5.33 2.39
3.32 -5.27 2.39
3.42 -5.20 2.39
3.52 -5.13 2.39
3.63 -5.06 2.39
3.73 -4.98 2.39
3.83 -4.91 2.39
3.92 -4.83 2.39
4.02 -4.75 2.39
4.12 -4.67 2.39
4.21 -4.58 2.39
4.30 -4.50 2.39
4.39 -4.41 2.39
4.48 -4.32 2.39
4.56 -4.23 2.39
4.65 -4.14 2.39
4.73 -4.04 2.39
4.81 -3.95 2.39
4.89 -3.85 2.39
4.96 -3.75 2.39
5.04 -3.65 2.39
5.11 -3.55 2.39
5.18 -3.45 2.39
5.25 -3.34 2.39
5.32 -3.24 2.39
5.38 -3.13 2.39
5.44 -3.02 2.39
5.50 -2.91 2.39
5.56 -2.80 2.39
5.61 -2.69 2.39
5.67 -2.57 2.39
5.82 -2.50 2.43
5.86 -2.38 2.43
5.90 -2.26 2.43
5.95 -2.15 2.43
5.99 -2.03 2.43
6.03 -1.91 2.43
6.07 -1.79 2.43
6.11 -1.66 2.43
6.15 -1.54 2.43
6.18 -1.42 2.43
6.21 -1.29 2.44
6.24 -1.17 2.44
6.26 -1.04 2.44
6.28 -0.92 2.44
6.30 -0.79 2.44
6.31 -0.67 2.44
6.33 -0.54 2.44
6.34 -0.41 2.44
6.35 -0.29 2.44
6.35 -0.16 2.44
2.14 -0.01 0.82
2.10 0.03 0.81
2.10 0.07 0.81
2.15 0.12 0.82
6.36 0.48 2.45
6.35 0.61 2.45
6.34 0.74 2.45
6.33 0.87 2.45
6.33 0.99 2.46
6.32 1.12 2.46
6.31 1.25 2.47
6.29 1.38 2.47
6.28 1.51 2.48
6.26 1.64 2.48
6.23 1.77 2.49
6.21 1.90 2.49
6.18 2.02 2.50
6.15 2.15 2.50
6.12 2.28 2.51
6.09 2.41 2.51
6.05 2.54 2.52
6.01 2.66 2.52
5.65 2.64 2.39
5.60 2.75 2.39
5.54 2.86 2.39
5.48 2.97 2.39
5.42 3.08 2.39
5.36 3.19 2.39
5.29 3.30 2.39
5.23 3.40 2.39
5.16 3.51 2.39
5.09 3.61 2.39
5.01 3.71 2.39
4.94 3.81 2.39
4.86 3.91 2.39
4.78 4.01 2.39
4.70 4.10 2.39
4.62 4.20 2.39
4.53 4.29 2.39
4.44 4.38 2.39
4.36 4.47 2.39
4.27 4.56 2.39
4.17 4.64 2.39
4.08 4.72 2.39
3.98 4.81 2.39
3.89 4.88 2.39
3.79 4.96 2.39
3.69 5.04 2.39
3.59 5.11 2.39
3.48 5.18 2.39
3.38 5.25 2.39
3.27 5.32 2.39
3.17 5.38 2.39
3.06 5.45 2.39
2.95 5.51 2.39
2.84 5.56 2.39
2.72 5.62 2.39
2.61 5.67 2.39
2.50 5.73 2.39
2.38 5.77 2.39
2.27 5.82 2.39
2.15 5.87 2.39
2.03 5.91 2.39
1.91 5.95 2.39
1.81 6.05 2.42
1.67 6.02 2.39
1.60 6.25 2.47
1.49 6.35 2.49
1.36 6.37 2.49
1.23 6.40 2.49
1.11 6.42 2.49
0.98 6.45 2.49
0.85 6.46 2.49
0.72 6.48 2.49
0.59 6.49 2.49
0.46 6.50 2.49
0.33 6.51 2.49
0.19 6.52 2.49
0.06 6.52 2.49
-0.07 6.52 2.49
-0.20 6.52 2.49
-0.33 6.51 2.49
-0.46 6.51 2.49
-0.59 6.50 2.49
-0.72 6.48 2.49
-0.85 6.47 2.49
-0.98 6.45 2.49
-1.11 6.43 2.49
-1.24 6.40 2.49
-1.37 6.38 2.49
-1.49 6.35 2.49
-1.62 6.32 2.49
-1.75 6.28 2.49
-1.87 6.25 2.49
-2.00 6.21 2.49
-2.12 6.17 2.49
-2.25 6.13 2.49
-2.37 6.08 2.49
-2.49 6.03 2.49
-2.61 5.98 2.49
-2.73 5.93 2.49
-2.85 5.87 2.49
-2.97 5.81 2.49
-3.08 5.75 2.49
-3.20 5.69 2.49
-3.31 5.62 2.49
-3.42 5.56 2.49
-3.53 5.49 2.49
-3.64 5.41 2.49
-3.75 5.34 2.49
-3.86 5.26 2.49
-3.96 5.18 2.49
-4.06 5.10 2.49
-4.17 5.02 2.49
-4.27 4.94 2.49
-4.36 4.85 2.49
-4.46 4.76 2.49
-4.56 4.67 2.49
-4.65 4.58 2.49
-4.74 4.48 2.49
-4.83 4.39 2.49
-4.91 4.29 2.49
-5.00 4.19 2.49
-5.08 4.09 2.49
-5.16 3.99 2.49
-5.24 3.88 2.49
-5.32 3.78 2.49
-5.39 3.67 2.49
-5.47 3.56 2.49
-5.54 3.45 2.49
-5.60 3.34 2.49
-5.67 3.22 2.49
-5.73 3.11 2.49
-5.80 2.99 2.49
-5.85 2.88 2.49
-5.91 2.76 2.49
-5.96 2.64 2.49
-6.02 2.52 2.49
-6.07 2.40 2.49
-6.11 2.28 2.49
-6.16 2.15 2.49
-6.20 2.03 2.49
-6.24 1.90 2.49
-6.27 1.78 2.49
-6.31 1.65 2.49
-6.34 1.53 2.49
-6.37 1.40 2.49
-6.40 1.27 2.49
-6.40 1.14 2.49
-6.40 1.01 2.48
-6.40 0.87 2.47
-6.40 0.74 2.46
-6.40 0.61 2.46
-6.40 0.48 2.45
-6.39 0.35 2.45
-6.39 0.23 2.45
-6.39 0.10 2.45
-6.39 -0.03 2.45
-6.39 -0.16 2.45
-6.39 -0.29 2.45
-6.39 -0.42 2.45
-6.39 -0.54 2.45
-6.39 -0.67 2.46
-6.38 -0.80 2.46
-6.38 -0.93 2.47
-6.38 -1.06 2.48
-6.38 -1.20 2.49
-6.38 -1.33 2.49
-6.35 -1.46 2.49
-6.32 -1.58 2.49
-6.29 -1.71 2.49
-6.25 -1.84 2.49
-6.21 -1.96 2.49
-6.17 -2.09 2.49
-6.13 -2.21 2.49
-6.08 -2.33 2.49
-6.03 -2.45 2.49
-5.98 -2.57 2.49
-5.93 -2.69 2.49
-5.87 -2.81 2.49
-5.82 -2.93 2.49
-5.76 -3.04 2.49
-5.69 -3.16 2.49
-5.63 -3.27 2.49
-5.56 -3.38 2.49
-5.49 -3.49 2.49
-5.42 -3.60 2.49
-5.35 -3.71 2.49
-5.27 -3.82 2.49
-5.19 -3.92 2.49
-5.11 -4.03 2.49
-5.03 -4.13 2.49
-4.95 -4.23 2.49
-4.86 -4.33 2.49
-4.77 -4.42 2.49
-4.68 -4.52 2.49
-4.59 -4.61 2.49
-4.50 -4.70 2.49
-4.40 -4.79 2.49
-4.30 -4.88 2.49
-4.20 -4.96 2.49
-4.10 -5.05 2.49
-4.00 -5.13 2.49
-3.90 -5.21 2.49
-3.79 -5.28 2.49
-3.69 -5.36 2.49
-3.58 -5.43 2.49
-3.47 -5.50 2.49
-3.36 -5.57 2.49
-3.24 -5.63 2.49
-3.13 -5.70 2.49
-3.01 -5.76 2.49
-2.90 -5.82 2.49
-2.78 -5.88 2.49
-2.66 -5.93 2.49
-2.54 -5.98 2.49
-2.42 -6.03 2.49
-2.30 -6.08 2.49
-2.18 -6.12 2.49
-2.05 -6.17 2.49
-1.93 -6.21 2.49
-1.80 -6.24 2.49
-1.68 -6.28 2.49
-1.55 -6.31 2.49
-1.42 -6.34 2.49
-1.30 -6.37 2.49
-1.17 -6.39 2.49
-1.04 -6.41 2.49
-0.91 -6.43 2.49
-0.78 -6.45 2.49
-0.65 -6.46 2.49
-0.52 -6.47 2.49
-0.39 -6.48 2.49
-0.26 -6.49 2.49
-0.13 -6.49 2.49
-0.00 -6.08 2.49
0.12 -6.08 2.49
0.24 -6.08 2.49
0.36 -6.07 2.49
0.49 -6.06 2.49
0.61 -6.05 2.49
0.73 -6.04 2.49
0.85 -6.02 2.49
0.97 -6.00 2.49
1.09 -5.98 2.49
1.21 -5.96 2.49
1.33 -5.93 2.49
1.45 -5.90 2.49
1.57 -5.87 2.49
1.69 -5.84 2.49
1.73 -5.57 2.39
1.84 -5.53 2.39
1.95 -5.49 2.39
2.06 -5.45 2.39
2.17 -5.41 2.39
2.28 -5.36 2.39
2.38 -5.32 2.39
2.49 -5.27 2.39
2.60 -5.22 2.39
2.70 -5.16 2.39
2.80 -5.11 2.39
2.90 -5.05 2.39
3.01 -4.99 2.39
3.11 -4.93 2.39
3.20 -4.87 2.39
3.30 -4.80 2.39
3.40 -4.73 2.39
3.49 -4.67 2.39
3.58 -4.59 2.39
3.68 -4.52 2.39
3.77 -4.45 2.39
3.85 -4.37 2.39
3.94 -4.29 2.39
4.03 -4.21 2.39
4.11 -4.13 2.39
4.19 -4.05 2.39
4.27 -3.96 2.39
4.35 -3.88 2.39
4.43 -3.79 2.39
4.50 -3.70 2.39
4.58 -3.61 2.39
4.65 -3.51 2.39
4.72 -3.42 2.39
4.79 -3.32 2.39
4.85 -3.23 2.39
4.92 -3.13 2.39
4.98 -3.03 2.39
5.04 -2.93 2.39
5.10 -2.83 2.39
5.15 -2.73 2.39
5.21 -2.62 2.39
5.26 -2.52 2.39
5.31 -2.41 2.39
5.35 -2.30 2.39
5.40 -2.20 2.39
5.44 -2.09 2.39
5.48 -1.98 2.39
5.52 -1.87 2.39
5.56 -1.76 2.39
5.59 -1.64 2.39
5.63 -1.53 2.39
5.65 -1.42 2.39
5.68 -1.30 2.39
5.87 -1.22 2.46
5.89 -1.11 2.46
5.91 -0.99 2.46
5.93 -0.87 2.46
5.95 -0.75 2.46
5.96 -0.63 2.46
5.97 -0.51 2.46
5.98 -0.39 2.46
5.99 -0.27 2.46
6.00 -0.15 2.46
2.14 -0.01 0.88
2.10 0.03 0.86
2.10 0.07 0.86
2.15 0.12 0.88
6.00 0.45 2.47
6.00 0.58 2.47
5.99 0.70 2.47
5.98 0.82 2.47
5.97 0.94 2.48
5.96 1.06 2.48
5.95 1.18 2.49
5.94 1.30 2.49
5.93 1.43 2.50
5.64 1.48 2.39
5.61 1.59 2.39
5.58 1.70 2.39
5.55 1.82 2.39
5.51 1.93 2.39
5.47 2.04 2.39
5.43 2.15 2.39
5.38 2.26 2.39
5.34 2.36 2.39
5.29 2.47 2.39
5.24 2.58 2.39
5.19 2.68 2.39
5.13 2.78 2.39
5.08 2.89 2.39
5.02 2.99 2.39
4.96 3.09 2.39
4.89 3.19 2.39
4.83 3.29 2.39
4.76 3.38 2.39
4.69 3.48 2.39
4.62 3.57 2.39
4.55 3.66 2.39
4.48 3.75 2.39
4.40 3.84 2.39
4.32 3.93 2.39
4.24 4.02 2.39
4.16 4.10 2.39
4.08 4.18 2.39
3.99 4.27 2.39
3.91 4.35 2.39
3.82 4.42 2.39
3.73 4.50 2.39
3.64 4.57 2.39
3.55 4.65 2.39
3.45 4.72 2.39
3.36 4.78 2.39
3.26 4.85 2.39
3.16 4.92 2.39
3.06 4.98 2.39
2.96 5.04 2.39
2.86 5.10 2.39
2.76 5.15 2.39
2.66 5.21 2.39
2.55 5.26 2.39
2.44 5.31 2.39
2.34 5.36 2.39
2.23 5.41 2.39
2.12 5.45 2.39
2.01 5.49 2.39
1.90 5.53 2.39
1.79 5.57 2.39
1.68 5.60 2.39
1.61 5.78 2.45
1.51 5.91 2.49
1.39 5.94 2.49
1.28 5.97 2.49
1.16 5.99 2.49
1.03 6.02 2.49
0.91 6.03 2.49
0.79 6.05 2.49
0.67 6.07 2.49
0.55 6.08 2.49
0.43 6.09 2.49
0.30 6.10 2.49
0.18 6.10 2.49
0.06 6.10 2.49
-0.06 6.11 2.49
-0.19 6.10 2.49
-0.31 6.10 2.49
-0.43 6.09 2.49
-0.55 6.08 2.49
-0.67 6.07 2.49
-0.80 6.05 2.49
-0.92 6.04 2.49
-1.04 6.02 2.49
-1.16 6.00 2.49
-1.28 5.97 2.49
-1.40 5.94 2.49
-1.52 5.92 2.49
-1.64 5.88 2.49
-1.75 5.85 2.49
-1.87 5.81 2.49
-1.99 5.78 2.49
-2.10 5.73 2.49
-2.22 5.69 2.49
-2.33 5.65 2.49
-2.44 5.60 2.49
-2.56 5.55 2.49
-2.67 5.50 2.49
-2.78 5.44 2.49
-2.88 5.38 2.49
-2.99 5.33 2.49
-3.10 5.26 2.49
-3.20 5.20 2.49
-3.31 5.14 2.49
-3.41 5.07 2.49
-3.51 5.00 2.49
-3.61 4.93 2.49
-3.71 4.85 2.49
-3.81 4.78 2.49
-3.90 4.70 2.49
-3.99 4.62 2.49
-4.09 4.54 2.49
-4.18 4.46 2.49
-4.26 4.37 2.49
-4.35 4.29 2.49
-4.44 4.20 2.49
-4.52 4.11 2.49
-4.60 4.02 2.49
-4.68 3.92 2.49
-4.76 3.83 2.49
-4.83 3.73 2.49
-4.91 3.64 2.49
-4.98 3.54 2.49
-5.05 3.44 2.49
-5.12 3.33 2.49
-5.18 3.23 2.49
-5.25 3.12 2.49
-5.31 3.02 2.49
-5.37 2.91 2.49
-5.43 2.80 2.49
-5.48 2.69 2.49
-5.53 2.58 2.49
-5.58 2.47 2.49
-5.63 2.36 2.49
-5.68 2.25 2.49
