ply
format ascii 1.0
element vertex 2773
property float32 x
property float32 y
property float32 z
end_header
-21.13 -0.97 -2.88
-21.48 -1.42 -2.92
-21.74 -1.87 -2.96
-22.01 -2.34 -3.00
-22.18 -2.81 -3.03
-22.62 -3.33 -3.10
-22.92 -3.85 -3.15
-23.23 -4.38 -3.20
-23.39 -4.90 -3.23
-24.32 -5.61 -3.37
-24.22 -6.10 -3.37
-24.42 -6.67 -3.41
-44.34 -19.13 -6.47
-42.01 -19.14 -6.18
-39.88 -19.14 -5.91
-39.72 -20.06 -5.94
-39.55 -20.98 -5.97
-34.62 -19.26 -5.28
-32.86 -19.16 -5.06
-31.58 -19.27 -4.92
-30.03 -19.16 -4.73
-28.74 -19.16 -4.58
-27.85 -19.39 -4.50
-27.85 -20.23 -4.56
-27.86 -21.10 -4.62
-27.86 -22.00 -4.69
-27.75 -22.83 -4.74
-26.64 -22.83 -4.62
-26.48 -23.63 -4.67
-26.48 -24.61 -4.75
-26.49 -25.62 -4.84
-26.39 -26.58 -4.91
-26.52 -27.80 -5.03
-26.52 -28.94 -5.14
-29.50 -33.52 -5.84
-28.33 -33.53 -5.73
-27.22 -33.55 -5.63
-26.75 -34.36 -5.67
-26.70 -35.75 -5.81
-27.22 -38.03 -6.08
2.07 -12.72 -1.31
-6.70 8.42 -1.23
-20.21 21.58 -3.39
-20.52 21.04 -3.37
-20.82 20.51 -3.36
-21.13 19.99 -3.34
-21.42 19.48 -3.33
-21.82 19.05 -3.33
-22.11 18.54 -3.31
-22.41 18.03 -3.30
-22.70 17.52 -3.29
-22.99 17.02 -3.29
-20.97 14.88 -2.95
-21.23 14.43 -2.95
-21.49 13.99 -2.94
-21.75 13.54 -2.94
-24.32 14.48 -3.25
-24.61 13.99 -3.25
-24.89 13.49 -3.25
-42.88 20.00 -5.43
-43.36 19.17 -5.44
-43.95 18.39 -5.46
-44.44 17.55 -5.47
-32.58 12.12 -3.98
-29.91 10.45 -3.63
-30.24 9.88 -3.64
-25.09 7.65 -3.00
-23.25 6.58 -2.76
-21.41 5.59 -2.53
-21.64 5.19 -2.54
-22.05 4.83 -2.58
-22.29 4.41 -2.59
-22.08 3.91 -2.56
-21.00 3.29 -2.42
-20.62 2.80 -2.37
-20.85 2.41 -2.39
-21.09 2.01 -2.41
-21.32 1.60 -2.43
-21.27 1.17 -2.42
-20.20 0.70 -2.29
-20.38 0.30 -2.31
-20.72 -0.11 -2.35
-20.97 -0.54 -2.37
-21.13 -0.97 -2.39
-21.48 -1.41 -2.43
-21.74 -1.87 -2.46
-22.01 -2.34 -2.50
-22.18 -2.81 -2.52
-22.62 -3.33 -2.57
-22.92 -3.85 -2.61
-23.23 -4.38 -2.66
-23.39 -4.90 -2.68
-25.68 -5.92 -2.96
-42.03 -19.14 -5.12
-39.89 -19.14 -4.90
-39.72 -20.05 -4.92
-39.56 -20.98 -4.95
-33.68 -18.73 -4.25
-32.15 -18.74 -4.10
-31.59 -19.27 -4.07
-30.04 -19.16 -3.92
-28.75 -19.16 -3.79
-27.85 -19.38 -3.72
-27.85 -20.23 -3.77
-27.86 -21.10 -3.82
-27.86 -21.99 -3.88
-27.76 -22.83 -3.92
-26.65 -22.83 -3.82
-26.48 -23.63 -3.86
-25.98 -24.13 -3.85
-25.98 -25.12 -3.92
-26.39 -26.57 -4.06
-26.40 -27.66 -4.14
-26.40 -28.80 -4.22
-26.40 -29.99 -4.31
-26.40 -31.23 -4.41
-27.22 -33.54 -4.65
-27.19 -34.92 -4.75
-27.22 -36.44 -4.88
-27.22 -38.01 -5.01
-27.11 -39.51 -5.13
-27.15 -41.32 -5.28
2.07 -12.72 -1.02
-6.70 8.41 -0.99
-20.21 21.58 -2.72
-20.52 21.04 -2.70
-20.82 20.51 -2.69
-21.13 19.99 -2.68
-21.43 19.48 -2.67
-21.82 19.05 -2.67
-22.11 18.54 -2.66
-22.41 18.03 -2.65
-22.70 17.52 -2.64
-22.99 17.02 -2.64
-20.97 14.88 -2.37
-21.23 14.43 -2.36
-21.49 13.99 -2.36
-21.74 13.54 -2.36
-24.51 14.59 -2.63
-24.80 14.09 -2.63
-24.89 13.49 -2.61
-42.88 20.00 -4.35
-43.36 19.17 -4.36
-43.95 18.39 -4.38
-43.89 17.34 -4.33
-32.59 12.12 -3.19
-29.91 10.45 -2.91
-30.24 9.88 -2.92
-25.10 7.65 -2.40
-23.25 6.58 -2.21
-21.27 5.56 -2.01
-19.94 4.79 -1.88
-19.74 4.32 -1.85
-19.96 3.95 -1.86
-20.18 3.57 -1.87
-20.40 3.19 -1.88
-20.62 2.80 -1.90
-20.85 2.41 -1.91
-21.08 2.01 -1.93
-21.32 1.60 -1.94
-20.98 1.15 -1.91
-20.20 0.70 -1.83
-20.38 0.30 -1.85
-20.72 -0.11 -1.88
-20.56 -0.52 -1.86
-20.62 -0.94 -1.87
-21.15 -1.39 -1.91
-21.12 -1.82 -1.91
-22.01 -2.34 -1.99
-22.18 -2.81 -2.01
-22.46 -3.30 -2.04
-22.76 -3.82 -2.07
-23.07 -4.35 -2.10
-23.39 -4.89 -2.14
-25.68 -5.91 -2.36
-44.38 -19.13 -4.27
-42.05 -19.14 -4.07
-39.91 -19.14 -3.90
-39.72 -20.04 -3.91
-39.57 -20.98 -3.93
-34.42 -19.14 -3.45
-32.88 -19.16 -3.33
-31.15 -19.00 -3.19
-30.05 -19.16 -3.11
-29.93 -19.94 -3.13
-29.76 -20.71 -3.15
-28.92 -21.00 -3.10
-27.86 -21.09 -3.03
-27.86 -21.98 -3.07
-27.77 -22.83 -3.10
-26.66 -22.83 -3.03
-26.48 -23.62 -3.05
-26.48 -24.59 -3.10
-26.42 -25.54 -3.15
-26.23 -26.40 -3.19
-26.40 -27.65 -3.27
-26.40 -28.79 -3.33
-26.40 -29.98 -3.40
-26.40 -31.22 -3.48
-27.22 -33.53 -3.66
-27.63 -35.47 -3.81
-27.52 -36.82 -3.89
-27.64 -38.57 -4.01
-27.52 -40.09 -4.10
2.06 -12.72 -0.73
-9.04 35.33 -2.47
-6.70 8.41 -0.74
-20.21 21.57 -2.05
-20.52 21.04 -2.04
-20.82 20.51 -2.03
-21.13 19.99 -2.02
-21.43 19.48 -2.01
-21.37 18.66 -1.97
-21.66 18.16 -1.96
-21.85 17.58 -1.95
-22.13 17.09 -1.94
-22.99 17.02 -1.99
-20.97 14.88 -1.79
-21.23 14.43 -1.78
-21.49 13.99 -1.78
-21.74 13.54 -1.78
-22.00 13.10 -1.78
-22.26 12.65 -1.78
-22.52 12.21 -1.78
-42.87 20.00 -3.28
-43.35 19.17 -3.28
-43.84 18.34 -3.29
-44.44 17.56 -3.30
-32.60 12.13 -2.40
-29.91 10.45 -2.19
-30.24 9.89 -2.20
-22.87 6.97 -1.65
-22.83 6.46 -1.63
-21.28 5.56 -1.51
-19.94 4.79 -1.41
-19.74 4.32 -1.39
-19.96 3.95 -1.40
-20.18 3.58 -1.41
-20.40 3.19 -1.42
-20.62 2.81 -1.42
-20.85 2.41 -1.44
-21.08 2.01 -1.45
-21.32 1.60 -1.46
-20.98 1.15 -1.43
-20.21 0.70 -1.38
-20.37 0.30 -1.39
-20.72 -0.11 -1.41
-20.57 -0.52 -1.39
-20.62 -0.94 -1.40
-21.15 -1.39 -1.43
-21.12 -1.81 -1.43
-22.01 -2.34 -1.49
-22.17 -2.80 -1.50
-22.46 -3.30 -1.53
-22.76 -3.81 -1.55
-23.07 -4.34 -1.57
-23.38 -4.89 -1.60
-23.71 -5.46 -1.62
-24.06 -6.05 -1.65
-24.41 -6.66 -1.68
-44.40 -19.13 -3.17
-42.06 -19.14 -3.03
-39.93 -19.14 -2.89
-39.72 -20.04 -2.90
-39.59 -20.98 -2.92
-34.66 -19.26 -2.58
-32.89 -19.16 -2.47
-31.61 -19.27 -2.39
-30.06 -19.16 -2.30
-30.10 -20.05 -2.33
-29.98 -20.85 -2.35
-28.93 -21.00 -2.29
-27.86 -21.08 -2.24
-27.86 -21.98 -2.27
-27.78 -22.83 -2.29
-26.67 -22.83 -2.23
-26.48 -23.61 -2.25
-26.48 -24.58 -2.29
-26.49 -25.59 -2.32
-26.39 -26.55 -2.36
-26.52 -27.77 -2.41
-26.52 -28.91 -2.46
-29.53 -33.52 -2.79
-28.36 -33.53 -2.74
-27.23 -33.53 -2.69
-27.51 -35.31 -2.78
-27.52 -36.81 -2.85
-27.52 -38.40 -2.92
-27.52 -40.08 -3.00
-21.24 -44.99 -3.01
-20.15 -44.99 -2.97
-19.08 -44.99 -2.94
-18.02 -44.99 -2.91
-17.62 -46.69 -2.99
-6.80 -33.49 -2.01
2.06 -12.72 -0.44
-6.70 8.41 -0.50
-20.21 21.57 -1.38
-20.52 21.04 -1.37
-20.82 20.51 -1.37
-21.13 19.99 -1.36
-21.43 19.47 -1.36
-21.37 18.66 -1.33
-21.66 18.16 -1.32
-21.85 17.58 -1.31
-22.13 17.09 -1.31
-22.99 17.02 -1.34
-20.97 14.88 -1.20
-21.23 14.43 -1.20
-21.49 13.99 -1.20
-21.74 13.54 -1.20
-22.00 13.10 -1.20
-22.26 12.65 -1.20
-22.52 12.21 -1.20
-42.87 20.00 -2.21
-43.35 19.18 -2.21
-43.83 18.35 -2.21
-44.44 17.56 -2.22
-32.61 12.13 -1.62
-29.91 10.45 -1.47
-30.24 9.89 -1.48
-24.64 7.51 -1.19
-22.83 6.46 -1.10
-21.28 5.57 -1.02
-19.95 4.79 -0.95
-19.74 4.32 -0.93
-19.96 3.95 -0.94
-20.18 3.58 -0.94
-20.40 3.20 -0.95
-20.62 2.81 -0.95
-20.85 2.41 -0.96
-21.08 2.01 -0.97
-21.32 1.60 -0.98
-20.99 1.16 -0.96
-20.21 0.71 -0.92
-20.37 0.30 -0.92
-20.61 -0.11 -0.93
-20.85 -0.53 -0.94
-21.10 -0.96 -0.95
-21.36 -1.40 -0.96
-21.62 -1.85 -0.97
-21.89 -2.32 -0.99
-22.17 -2.80 -1.00
-22.46 -3.30 -1.01
-22.76 -3.81 -1.03
-23.06 -4.34 -1.04
-23.38 -4.89 -1.06
-23.71 -5.45 -1.07
-24.05 -6.04 -1.09
-24.41 -6.66 -1.11
-42.08 -19.14 -1.98
-39.94 -19.14 -1.89
-39.72 -20.03 -1.90
-39.60 -20.98 -1.91
-33.72 -18.73 -1.63
-32.18 -18.74 -1.57
-31.59 -19.25 -1.56
-30.07 -19.16 -1.50
-28.78 -19.16 -1.45
-27.85 -19.36 -1.41
-27.85 -20.21 -1.43
-27.86 -21.07 -1.45
-27.86 -21.97 -1.46
-27.79 -22.83 -1.48
-26.68 -22.83 -1.44
-26.48 -23.60 -1.45
-25.98 -24.11 -1.44
-26.00 -25.12 -1.46
-26.39 -26.54 -1.51
-26.40 -27.63 -1.54
-26.40 -28.77 -1.56
-26.40 -29.96 -1.59
-26.40 -31.20 -1.63
-27.24 -33.53 -1.71
-27.63 -35.44 -1.77
-27.52 -36.80 -1.81
-27.64 -38.55 -1.86
-27.52 -40.06 -1.90
-21.25 -44.99 -1.88
-20.16 -44.99 -1.86
-19.08 -44.99 -1.84
-18.03 -44.99 -1.81
-16.99 -44.99 -1.79
-16.32 -45.99 -1.81
-6.80 -33.49 -1.24
2.06 -12.72 -0.15
12.67 -31.58 -0.36
12.61 -29.69 -0.34
12.60 -28.10 -0.32
12.57 -26.59 -0.30
12.52 -25.17 -0.29
12.49 -23.89 -0.27
12.45 -22.69 -0.26
12.43 -21.60 -0.25
12.48 -20.72 -0.24
12.50 -19.84 -0.23
12.48 -18.95 -0.22
12.44 -18.10 -0.22
12.35 -17.21 -0.21
12.17 -16.26 -0.20
12.11 -15.53 -0.19
10.49 -12.91 -0.16
10.44 -12.32 -0.16
10.38 -11.77 -0.15
10.30 -11.22 -0.15
9.93 -10.39 -0.14
9.88 -9.93 -0.13
9.84 -9.50 -0.13
9.81 -9.10 -0.13
9.79 -8.72 -0.12
9.78 -8.36 -0.12
9.78 -8.03 -0.12
9.78 -7.71 -0.12
9.78 -7.40 -0.12
9.72 -7.05 -0.11
9.56 -6.64 -0.11
9.40 -6.26 -0.11
9.26 -5.90 -0.10
9.15 -5.57 -0.10
9.14 -5.32 -0.10
9.05 -5.02 -0.10
8.86 -4.69 -0.10
8.70 -4.39 -0.09
8.68 -4.16 -0.09
8.66 -3.94 -0.09
8.64 -3.72 -0.09
8.62 -3.51 -0.09
8.60 -3.30 -0.09
8.59 -3.10 -0.09
8.59 -2.91 -0.09
8.60 -2.72 -0.09
8.61 -2.53 -0.09
8.62 -2.35 -0.09
8.63 -2.17 -0.09
8.64 -1.98 -0.09
8.65 -1.80 -0.09
8.65 -1.63 -0.09
8.66 -1.45 -0.09
8.67 -1.27 -0.09
8.68 -1.10 -0.09
8.70 -0.92 -0.09
8.72 -0.75 -0.09
8.84 -0.58 -0.10
8.97 -0.41 -0.10
9.10 -0.23 -0.10
9.23 -0.05 -0.10
9.37 0.14 -0.10
9.43 0.33 -0.11
9.44 0.52 -0.11
9.45 0.71 -0.11
9.46 0.90 -0.11
9.46 1.10 -0.11
9.45 1.29 -0.11
9.45 1.48 -0.11
9.44 1.68 -0.11
9.44 1.87 -0.12
9.44 2.07 -0.12
9.43 2.27 -0.12
9.44 2.47 -0.12
9.45 2.68 -0.12
9.46 2.88 -0.12
9.65 3.16 -0.13
9.95 3.48 -0.14
10.09 3.75 -0.14
10.10 3.99 -0.14
10.11 4.23 -0.14
10.12 4.47 -0.15
10.13 4.72 -0.15
10.14 4.98 -0.15
10.23 5.28 -0.16
10.28 5.57 -0.16
10.29 5.85 -0.17
10.30 6.13 -0.17
10.32 6.42 -0.17
10.33 6.72 -0.18
10.34 7.03 -0.18
10.37 7.36 -0.19
10.39 7.69 -0.19
10.40 8.03 -0.20
10.42 8.38 -0.20
10.44 8.75 -0.21
10.46 9.13 -0.21
10.49 9.53 -0.22
10.51 9.95 -0.23
10.54 10.38 -0.23
10.57 10.83 -0.24
10.61 11.33 -0.25
10.62 11.80 -0.26
10.64 12.31 -0.27
10.65 12.83 -0.28
10.71 13.44 -0.29
10.73 14.05 -0.30
10.76 14.69 -0.31
-6.70 8.41 -0.26
-20.19 21.56 -0.71
-20.50 21.03 -0.71
-20.81 20.50 -0.71
-21.11 19.98 -0.71
-21.41 19.46 -0.70
-21.71 18.95 -0.70
-22.00 18.44 -0.70
-22.29 17.94 -0.70
-22.59 17.44 -0.69
-22.87 16.94 -0.69
-20.95 14.87 -0.62
-21.21 14.42 -0.62
-21.47 13.98 -0.62
-21.73 13.53 -0.62
-21.99 13.09 -0.62
-22.24 12.64 -0.62
-22.50 12.20 -0.62
-42.87 20.00 -1.14
-43.35 19.18 -1.14
-43.83 18.35 -1.14
-44.32 17.51 -1.14
-32.85 12.23 -0.84
-29.93 10.46 -0.76
-30.25 9.90 -0.76
-24.83 7.57 -0.62
-23.00 6.51 -0.57
-21.45 5.61 -0.53
-20.10 4.83 -0.49
-19.76 4.33 -0.48
-19.98 3.96 -0.48
-20.20 3.58 -0.48
-20.42 3.20 -0.48
-20.64 2.81 -0.49
-20.87 2.42 -0.49
-21.10 2.02 -0.49
-21.34 1.61 -0.49
-21.08 1.16 -0.49
-20.31 0.71 -0.47
-20.39 0.31 -0.47
-20.63 -0.11 -0.47
-20.88 -0.53 -0.47
-21.13 -0.96 -0.48
-21.38 -1.40 -0.48
-21.65 -1.85 -0.49
-21.92 -2.32 -0.49
-22.20 -2.80 -0.50
-22.48 -3.30 -0.50
-22.78 -3.81 -0.51
-23.09 -4.34 -0.51
-23.41 -4.89 -0.52
-23.74 -5.46 -0.53
-24.08 -6.05 -0.53
-24.43 -6.66 -0.54
-44.43 -19.13 -0.99
-42.10 -19.14 -0.94
-39.96 -19.14 -0.90
-39.72 -20.02 -0.89
-39.62 -20.98 -0.90
-34.48 -19.15 -0.78
-32.91 -19.16 -0.75
-31.45 -19.16 -0.72
-30.08 -19.16 -0.69
-31.50 -20.97 -0.73
-30.18 -20.97 -0.70
-28.92 -20.98 -0.68
-27.74 -20.98 -0.66
-27.73 -21.86 -0.66
-27.73 -22.78 -0.67
-27.73 -23.73 -0.67
-27.73 -24.71 -0.68
-27.74 -25.73 -0.69
-27.74 -26.79 -0.69
-27.97 -28.11 -0.71
-27.62 -28.91 -0.71
-27.27 -29.71 -0.71
-26.40 -29.95 -0.69
-26.40 -31.19 -0.70
-26.10 -32.11 -0.71
-26.10 -33.47 -0.72
-27.51 -36.78 -0.77
-27.54 -38.40 -0.79
-27.52 -40.05 -0.80
-21.26 -44.99 -0.76
-20.17 -44.99 -0.75
-19.09 -44.99 -0.73
-18.04 -44.99 -0.72
-17.00 -44.99 -0.71
-16.22 -45.69 -0.71
-6.81 -33.49 -0.47
2.06 -12.72 0.14
9.68 -43.15 0.50
9.77 -39.78 0.47
9.85 -36.89 0.44
9.94 -34.44 0.42
10.05 -32.35 0.40
10.27 -30.88 0.38
10.48 -29.50 0.37
10.67 -28.24 0.36
10.92 -27.22 0.35
11.04 -26.01 0.34
11.01 -24.56 0.33
10.97 -23.21 0.31
10.97 -22.04 0.30
11.04 -21.12 0.29
11.20 -20.41 0.29
11.31 -19.66 0.28
11.29 -18.75 0.27
11.24 -17.85 0.27
11.07 -16.81 0.25
10.69 -15.55 0.24
10.39 -14.49 0.23
10.10 -13.50 0.22
9.75 -12.50 0.20
9.63 -11.85 0.20
9.60 -11.34 0.19
9.25 -10.49 0.18
8.89 -9.69 0.17
8.70 -9.10 0.16
8.70 -8.75 0.16
8.71 -8.41 0.16
8.72 -8.08 0.15
8.72 -7.77 0.15
8.73 -7.47 0.15
8.72 -7.16 0.15
8.67 -6.84 0.14
8.64 -6.53 0.14
8.61 -6.24 0.14
8.59 -5.97 0.14
8.56 -5.70 0.13
8.53 -5.43 0.13
8.51 -5.18 0.13
8.50 -4.94 0.13
8.48 -4.71 0.13
8.46 -4.48 0.12
8.44 -4.25 0.12
8.43 -4.03 0.12
8.41 -3.82 0.12
8.39 -3.61 0.12
8.37 -3.41 0.12
8.36 -3.21 0.11
8.35 -3.01 0.11
8.36 -2.83 0.11
8.37 -2.64 0.11
8.38 -2.46 0.11
8.39 -2.28 0.11
8.40 -2.11 0.11
8.40 -1.93 0.11
8.41 -1.76 0.11
8.42 -1.58 0.10
8.43 -1.41 0.10
8.44 -1.24 0.10
8.45 -1.07 0.10
8.45 -0.89 0.10
8.47 -0.72 0.10
8.48 -0.55 0.10
8.50 -0.38 0.10
8.52 -0.21 0.10
8.53 -0.04 0.10
8.55 0.13 0.10
8.56 0.30 0.10
8.58 0.47 0.10
8.60 0.65 0.10
8.61 0.82 0.10
8.62 1.00 0.10
8.62 1.18 0.09
8.62 1.35 0.09
8.62 1.53 0.09
8.62 1.71 0.09
8.62 1.89 0.09
8.62 2.07 0.09
8.61 2.25 0.09
8.61 2.44 0.09
8.61 2.63 0.09
8.61 2.82 0.09
8.62 3.01 0.09
8.66 3.22 0.09
8.69 3.44 0.09
8.79 3.68 0.09
9.04 4.00 0.09
9.31 4.35 0.09
9.33 4.59 0.09
9.34 4.82 0.09
9.36 5.08 0.09
9.43 5.36 0.09
9.51 5.66 0.09
9.58 5.97 0.09
9.62 6.27 0.09
9.62 6.54 0.09
9.62 6.83 0.09
9.63 7.13 0.09
9.65 7.45 0.09
9.67 7.78 0.09
9.68 8.12 0.09
9.69 8.46 0.09
9.69 8.81 0.09
9.70 9.18 0.09
9.71 9.57 0.09
9.72 9.97 0.09
9.73 10.39 0.09
9.74 10.83 0.09
9.78 11.32 0.09
9.86 11.88 0.09
9.86 12.39 0.09
9.86 12.90 0.09
10.15 13.85 0.09
10.16 14.47 0.09
10.17 15.12 0.09
10.29 15.98 0.10
10.31 16.74 0.10
10.33 17.56 0.10
10.33 18.40 0.10
10.33 19.28 0.10
10.33 20.26 0.10
10.38 21.39 0.10
10.29 22.34 0.10
10.18 23.33 0.10
9.95 24.11 0.10
9.94 25.54 0.10
9.96 27.17 0.10
10.80 36.05 0.11
11.41 48.57 0.13
10.39 48.57 0.12
9.37 48.57 0.11
8.37 48.57 0.11
7.37 48.57 0.10
6.37 48.58 0.09
5.38 48.58 0.09
4.40 48.58 0.08
3.42 48.58 0.08
2.44 48.58 0.07
1.46 48.58 0.06
0.49 48.57 0.06
-0.49 48.59 0.05
-1.47 48.59 0.05
-2.44 48.59 0.04
-3.42 48.52 0.03
-4.40 48.60 0.03
-5.39 48.60 0.02
-6.38 48.60 0.02
-7.37 48.55 0.01
-8.38 48.60 0.01
-9.38 48.61 0.00
-10.40 48.61 -0.00
-11.41 48.54 -0.01
-14.46 44.95 -0.02
-6.69 8.41 -0.02
-24.42 29.43 -0.06
-24.92 28.84 -0.06
-26.76 29.74 -0.07
-20.20 21.56 -0.05
-20.90 21.43 -0.05
-22.99 22.64 -0.06
-21.11 19.98 -0.05
-21.48 19.52 -0.05
-24.39 21.29 -0.06
-24.73 20.72 -0.06
-25.05 20.16 -0.06
-25.38 19.59 -0.06
-25.71 19.03 -0.06
-20.95 14.87 -0.05
-21.35 14.52 -0.05
-30.05 19.56 -0.06
-22.50 12.20 -0.04
-32.86 12.23 -0.05
-29.93 10.46 -0.04
-45.77 14.97 -0.07
-25.87 7.89 -0.04
-23.01 6.52 -0.03
-22.74 5.95 -0.03
-20.10 4.83 -0.02
-19.76 4.33 -0.02
-28.07 5.57 -0.03
-28.38 5.04 -0.03
-24.32 3.81 -0.02
-24.28 3.31 -0.02
-29.33 3.40 -0.02
-29.66 2.84 -0.02
-21.93 1.65 -0.01
-21.58 1.19 -0.01
-20.31 0.71 -0.01
-20.39 0.31 -0.01
-26.27 -0.13 -0.01
-44.91 -2.03 -0.00
-23.59 -1.54 0.00
-23.43 -2.00 0.00
-22.19 -2.35 0.01
-22.19 -2.80 0.01
-28.63 -4.20 0.01
-37.25 -6.23 0.02
-36.66 -6.89 0.03
-25.67 -5.36 0.02
-25.70 -5.90 0.02
-24.36 -6.11 0.03
-24.43 -6.66 0.03
-44.64 -21.38 0.11
-42.90 -21.62 0.12
-40.85 -21.62 0.12
-38.95 -21.62 0.12
-37.17 -21.63 0.12
-35.52 -21.63 0.12
-33.97 -21.63 0.12
-31.69 -21.09 0.12
-31.70 -22.02 0.13
-31.13 -22.57 0.14
-27.75 -20.98 0.13
-27.73 -21.85 0.13
-27.73 -22.77 0.14
-27.71 -23.70 0.15
-27.73 -24.70 0.16
-27.71 -25.70 0.17
-27.74 -26.78 0.17
-28.87 -29.02 0.19
-28.13 -29.42 0.20
-26.76 -29.15 0.20
-26.22 -29.73 0.20
-26.12 -30.85 0.21
-25.81 -31.75 0.22
-27.51 -35.27 0.25
-27.51 -36.77 0.26
-27.52 -38.36 0.28
-27.52 -40.03 0.29
-21.27 -44.99 0.36
-20.18 -44.99 0.36
-19.10 -44.99 0.37
-18.05 -44.99 0.37
-17.01 -44.99 0.37
-16.32 -45.94 0.39
-6.81 -33.48 0.30
2.06 -12.72 0.43
8.53 -41.95 1.44
8.76 -39.05 1.35
8.88 -36.15 1.26
9.05 -33.89 1.19
9.20 -31.90 1.13
9.50 -30.60 1.10
9.72 -29.21 1.06
9.90 -27.88 1.02
10.00 -26.46 0.97
10.11 -25.21 0.94
10.14 -23.88 0.90
10.21 -22.78 0.87
10.24 -21.66 0.83
10.28 -20.67 0.80
10.38 -19.86 0.78
10.43 -19.01 0.76
10.43 -18.13 0.73
10.42 -17.30 0.71
10.30 -16.35 0.68
10.18 -15.47 0.65
9.74 -14.17 0.61
9.48 -13.22 0.57
9.16 -12.25 0.54
8.91 -11.43 0.51
8.69 -10.69 0.49
8.57 -10.12 0.47
8.47 -9.60 0.45
8.39 -9.14 0.44
8.38 -8.77 0.43
8.39 -8.43 0.42
8.40 -8.11 0.41
8.40 -7.79 0.41
8.41 -7.49 0.40
8.42 -7.20 0.39
8.38 -6.88 0.39
8.36 -6.59 0.38
8.33 -6.30 0.37
8.31 -6.03 0.37
8.29 -5.76 0.36
8.27 -5.50 0.35
8.25 -5.25 0.35
8.24 -5.02 0.34
8.24 -4.79 0.34
8.23 -4.57 0.33
8.21 -4.35 0.33
8.20 -4.13 0.33
8.18 -3.92 0.32
8.17 -3.71 0.32
8.15 -3.51 0.31
8.14 -3.31 0.31
8.13 -3.12 0.31
8.13 -2.93 0.30
8.14 -2.75 0.30
8.14 -2.57 0.30
8.15 -2.40 0.30
8.16 -2.22 0.30
8.17 -2.05 0.29
8.18 -1.88 0.29
8.19 -1.71 0.29
8.20 -1.54 0.29
8.21 -1.37 0.29
8.22 -1.20 0.29
8.23 -1.04 0.29
8.23 -0.87 0.29
8.24 -0.70 0.28
8.25 -0.54 0.28
8.26 -0.37 0.28
8.28 -0.21 0.28
8.30 -0.04 0.28
8.31 0.13 0.28
8.33 0.29 0.28
8.34 0.46 0.28
8.36 0.63 0.28
8.37 0.80 0.28
8.38 0.97 0.28
8.39 1.14 0.28
8.39 1.32 0.28
8.39 1.49 0.28
8.38 1.66 0.28
8.38 1.84 0.28
8.38 2.02 0.28
8.38 2.19 0.28
8.37 2.37 0.28
8.37 2.56 0.28
8.37 2.74 0.28
8.36 2.93 0.29
8.40 3.13 0.29
8.44 3.34 0.29
8.47 3.55 0.29
8.50 3.76 0.29
8.54 3.99 0.30
8.57 4.21 0.30
8.61 4.45 0.30
8.64 4.69 0.31
8.68 4.94 0.31
8.70 5.18 0.31
8.72 5.44 0.32
8.78 5.72 0.32
8.84 6.01 0.33
8.90 6.32 0.33
8.96 6.64 0.34
8.98 6.93 0.34
8.98 7.23 0.34
8.98 7.53 0.35
8.99 7.85 0.35
8.99 8.18 0.36
9.00 8.52 0.36
9.00 8.87 0.37
8.99 9.22 0.37
8.99 9.60 0.38
8.99 9.99 0.39
8.98 10.40 0.39
8.98 10.82 0.40
8.99 11.29 0.41
9.04 11.83 0.42
9.09 12.41 0.43
9.10 12.97 0.44
9.56 14.22 0.47
9.59 14.89 0.49
9.71 15.76 0.51
9.78 16.62 0.53
9.78 17.42 0.54
9.79 18.29 0.56
9.77 19.17 0.58
9.70 20.01 0.59
9.70 21.06 0.61
9.61 22.04 0.63
9.50 23.02 0.65
9.28 23.85 0.67
9.03 24.66 0.68
8.84 25.72 0.70
11.41 48.57 1.25
10.38 48.57 1.24
9.37 48.57 1.23
8.36 48.57 1.22
7.36 48.57 1.21
6.37 48.58 1.20
5.38 48.58 1.19
4.39 48.58 1.18
3.41 48.58 1.17
2.43 48.58 1.16
1.46 48.58 1.16
0.48 48.58 1.15
-0.50 48.59 1.15
-1.47 48.59 1.14
-2.45 48.59 1.14
-3.42 48.52 1.13
-4.41 48.60 1.13
-5.39 48.60 1.13
-6.38 48.60 1.12
-7.37 48.54 1.12
-8.38 48.60 1.12
-9.39 48.61 1.12
-10.41 48.61 1.12
-11.42 48.54 1.12
-27.29 38.85 1.00
-27.82 37.96 0.99
-29.00 37.95 1.00
-6.69 8.41 0.23
-24.42 29.43 0.80
-24.95 28.87 0.80
-26.77 29.74 0.84
-20.20 21.56 0.62
-20.91 21.44 0.62
-22.99 22.64 0.67
-21.11 19.98 0.60
-21.48 19.52 0.60
-24.39 21.29 0.67
-24.73 20.72 0.67
-25.05 20.16 0.67
-25.38 19.59 0.67
-25.71 19.03 0.66
-20.95 14.87 0.53
-21.35 14.52 0.54
-30.04 19.56 0.74
-22.50 12.20 0.53
-41.93 20.60 0.98
-42.40 19.79 0.98
-42.88 18.97 0.98
-43.35 18.15 0.99
-35.01 13.84 0.79
-31.13 11.59 0.70
-29.93 10.46 0.67
-36.55 11.96 0.81
-25.87 7.89 0.57
-23.01 6.52 0.51
-22.74 5.95 0.50
-20.11 4.83 0.44
-19.76 4.33 0.43
-28.07 5.57 0.62
-28.38 5.04 0.62
-24.33 3.82 0.53
-24.28 3.31 0.53
-29.33 3.40 0.64
-29.65 2.84 0.65
-21.93 1.66 0.48
-21.58 1.19 0.48
-20.31 0.72 0.45
-20.39 0.31 0.45
-26.27 -0.13 0.59
-32.36 -0.81 0.72
-32.74 -1.48 0.74
-23.59 -1.54 0.53
-23.43 -2.00 0.53
-22.20 -2.35 0.51
-22.19 -2.80 0.51
-28.63 -4.19 0.67
-28.55 -4.77 0.67
-27.81 -5.22 0.66
-25.67 -5.35 0.61
-25.69 -5.90 0.62
-24.37 -6.11 0.59
-24.43 -6.65 0.60
-44.64 -21.37 1.23
-42.92 -21.62 1.20
-40.87 -21.62 1.16
-38.96 -21.62 1.12
-37.19 -21.63 1.09
-35.53 -21.63 1.06
-33.98 -21.63 1.03
-31.69 -21.08 0.98
-31.70 -22.01 1.00
-31.14 -22.57 1.00
-27.75 -20.98 0.91
-27.73 -21.84 0.93
-27.73 -22.76 0.95
-27.70 -23.69 0.97
-27.73 -24.69 0.99
-27.72 -25.70 1.02
-27.74 -26.77 1.04
-28.87 -29.01 1.11
-28.14 -29.43 1.11
-26.77 -29.15 1.09
-26.06 -29.54 1.09
-25.96 -30.65 1.12
-25.82 -31.75 1.14
-25.19 -32.28 1.15
-27.51 -36.76 1.30
-27.52 -38.34 1.34
-27.52 -40.02 1.39
-21.28 -44.99 1.48
-20.19 -44.99 1.47
-19.11 -44.99 1.47
-18.05 -44.99 1.46
-17.01 -44.99 1.46
-16.41 -46.17 1.49
-6.82 -33.48 1.07
-0.01 -45.14 2.49
0.89 -45.03 2.49
1.72 -43.05 2.39
2.58 -42.92 2.39
3.43 -42.78 2.39
4.28 -42.62 2.39
5.12 -42.44 2.39
6.31 -44.71 2.53
2.06 -12.72 0.72
7.14 -39.16 2.24
7.44 -36.59 2.10
7.63 -34.02 1.97
7.89 -32.14 1.87
8.25 -30.91 1.81
8.74 -30.30 1.79
8.98 -28.93 1.72
9.15 -27.53 1.65
9.21 -25.95 1.57
9.36 -24.78 1.51
9.45 -23.57 1.45
9.60 -22.62 1.41
9.67 -21.58 1.35
9.71 -20.54 1.30
9.81 -19.73 1.26
9.86 -18.86 1.22
9.87 -17.99 1.18
9.86 -17.15 1.14
9.78 -16.25 1.09
9.69 -15.39 1.05
9.18 -13.95 0.96
8.89 -12.93 0.91
8.63 -12.03 0.86
8.44 -11.29 0.82
8.37 -10.73 0.79
8.27 -10.17 0.76
8.17 -9.66 0.73
8.10 -9.18 0.71
8.08 -8.81 0.69
8.08 -8.46 0.68
8.10 -8.14 0.67
8.11 -7.83 0.65
8.12 -7.53 0.64
8.14 -7.25 0.63
8.11 -6.94 0.62
8.08 -6.64 0.61
8.06 -6.36 0.60
8.05 -6.08 0.59
8.03 -5.82 0.58
8.01 -5.57 0.57
8.00 -5.32 0.56
7.99 -5.09 0.55
7.99 -4.86 0.54
7.99 -4.65 0.54
7.99 -4.44 0.53
7.98 -4.22 0.52
7.97 -4.01 0.52
7.95 -3.81 0.51
7.94 -3.61 0.51
7.93 -3.41 0.50
7.92 -3.22 0.49
7.92 -3.04 0.49
7.93 -2.86 0.49
7.93 -2.68 0.48
7.94 -2.51 0.48
7.94 -2.33 0.48
7.95 -2.17 0.47
7.97 -2.00 0.47
7.98 -1.83 0.47
7.99 -1.67 0.47
8.00 -1.50 0.47
8.01 -1.34 0.46
8.02 -1.17 0.46
8.02 -1.01 0.46
8.03 -0.85 0.46
8.03 -0.68 0.46
8.03 -0.52 0.46
8.04 -0.36 0.46
8.06 -0.20 0.46
8.07 -0.04 0.46
8.09 0.12 0.46
8.10 0.29 0.46
8.12 0.45 0.46
8.13 0.62 0.46
8.14 0.78 0.46
8.16 0.95 0.46
8.16 1.11 0.46
8.16 1.28 0.46
8.16 1.45 0.46
8.16 1.62 0.46
8.16 1.79 0.46
8.15 1.96 0.46
8.15 2.14 0.47
8.15 2.31 0.47
8.14 2.49 0.47
8.14 2.67 0.47
8.13 2.85 0.47
8.14 3.03 0.48
8.18 3.24 0.48
8.22 3.44 0.48
8.25 3.65 0.49
8.28 3.87 0.49
8.31 4.09 0.50
8.34 4.31 0.51
8.37 4.54 0.51
8.40 4.78 0.52
8.43 5.03 0.52
8.45 5.27 0.53
8.47 5.52 0.54
8.48 5.77 0.54
8.50 6.04 0.55
8.52 6.31 0.56
8.53 6.59 0.57
8.55 6.88 0.58
8.55 7.18 0.58
8.55 7.47 0.59
8.55 7.78 0.60
8.55 8.09 0.61
8.54 8.42 0.62
8.54 8.76 0.63
8.53 9.11 0.64
8.52 9.47 0.65
8.51 9.85 0.67
8.50 10.25 0.68
8.49 10.67 0.69
8.48 11.11 0.71
8.49 11.60 0.73
8.50 12.12 0.75
8.51 12.67 0.77
8.54 13.28 0.79
8.84 14.36 0.84
9.06 15.40 0.89
9.22 16.43 0.94
9.25 17.28 0.97
9.25 18.14 1.01
9.23 19.05 1.04
9.15 19.88 1.07
9.05 20.76 1.11
8.96 21.74 1.15
8.83 22.70 1.18
8.64 23.60 1.22
8.37 24.37 1.25
8.09 25.18 1.28
8.02 26.79 1.34
13.33 48.05 2.39
4.94 44.68 2.11
2.22 44.54 2.07
1.33 44.54 2.07
0.43 44.53 2.06
-0.46 44.53 2.05
-1.35 44.53 2.05
-2.25 44.52 2.05
-3.15 44.52 2.04
-4.05 44.52 2.04
-4.95 44.53 2.04
-5.86 44.53 2.04
-6.77 44.53 2.04
-7.68 44.53 2.05
-8.61 44.54 2.05
-9.54 44.54 2.05
-11.42 48.54 2.24
-12.47 36.24 1.71
-27.30 38.86 2.07
-27.82 37.97 2.05
-29.01 37.96 2.08
-6.69 8.40 0.47
-24.42 29.43 1.66
-19.84 22.96 1.32
-19.46 21.63 1.26
-19.34 20.64 1.23
-19.37 19.86 1.20
-19.32 19.03 1.18
-19.33 18.29 1.15
-19.34 17.58 1.13
-19.28 16.83 1.11
-19.29 16.17 1.09
-19.30 15.53 1.07
-19.25 14.86 1.05
-19.27 14.27 1.04
-19.29 13.70 1.02
-19.26 13.10 1.01
-19.29 12.56 1.00
-19.26 12.00 0.98
-19.26 11.47 0.97
-19.26 10.95 0.96
-19.26 10.45 0.95
-19.21 9.92 0.94
-19.21 9.44 0.93
-19.21 8.97 0.92
-19.16 8.48 0.91
-19.16 8.02 0.90
-19.16 7.57 0.90
-19.10 7.11 0.89
-19.09 6.67 0.88
-25.58 8.37 1.18
-23.53 7.18 1.08
-21.80 6.18 0.99
-20.32 5.32 0.92
-19.18 4.61 0.87
-19.39 4.25 0.87
-19.60 3.89 0.88
-19.81 3.52 0.89
-20.03 3.14 0.90
-20.25 2.76 0.90
-20.47 2.38 0.91
-20.70 1.98 0.92
-20.58 1.56 0.92
-19.79 1.10 0.88
-19.71 0.70 0.88
-19.93 0.30 0.89
-20.17 -0.10 0.90
-20.40 -0.51 0.92
-20.65 -0.93 0.93
-20.90 -1.36 0.95
-21.16 -1.80 0.96
-21.42 -2.26 0.98
-21.69 -2.73 0.99
-21.97 -3.22 1.01
-22.26 -3.72 1.03
-22.56 -4.23 1.05
-22.88 -4.77 1.07
-23.20 -5.32 1.09
-23.53 -5.90 1.12
-23.88 -6.50 1.14
-24.24 -7.12 1.17
-44.64 -21.36 2.34
-42.94 -21.62 2.28
-40.88 -21.62 2.20
-38.97 -21.62 2.13
-37.20 -21.63 2.06
-35.54 -21.63 2.00
-33.99 -21.63 1.94
-31.69 -21.08 1.84
-31.70 -22.01 1.87
-31.15 -22.57 1.87
-27.76 -20.98 1.70
-27.73 -21.84 1.73
-27.43 -22.51 1.74
-27.70 -23.68 1.79
-27.73 -24.69 1.83
-27.71 -25.68 1.87
-27.74 -26.76 1.91
-28.87 -29.00 2.04
-28.16 -29.44 2.03
-26.78 -29.15 1.98
-25.70 -29.12 1.95
-25.50 -30.10 1.99
-25.41 -31.23 2.03
-25.19 -32.27 2.07
-27.51 -36.75 2.33
-27.39 -38.15 2.39
-26.54 -38.58 2.39
-25.68 -38.99 2.39
-24.82 -39.38 2.39
-23.96 -39.76 2.39
-23.09 -40.11 2.39
-18.23 -33.20 1.96
-17.53 -33.50 1.97
-18.29 -36.72 2.14
-17.54 -37.06 2.14
-18.15 -40.43 2.32
-17.80 -41.89 2.39
-16.91 -42.12 2.39
-12.74 -33.68 1.90
-12.21 -34.33 1.93
-14.23 -42.72 2.39
-12.19 -39.22 2.19
-12.44 -43.03 2.39
-11.54 -43.16 2.39
-10.65 -43.27 2.39
-9.74 -43.32 2.39
-6.82 -33.45 1.84
-4.66 -25.46 1.40
-4.13 -25.46 1.40
-3.61 -25.46 1.40
-3.09 -25.47 1.40
-2.79 -27.65 1.52
-3.67 -45.39 2.49
-2.75 -45.35 2.49
-1.83 -45.30 2.49
-0.92 -45.23 2.49
-0.01 -32.02 2.49
0.63 -31.97 2.49
1.27 -31.90 2.49
1.83 -30.51 2.39
2.44 -30.42 2.39
3.04 -30.32 2.39
3.64 -30.21 2.39
4.25 -30.09 2.39
2.06 -12.72 1.01
5.44 -29.82 2.39
5.99 -29.51 2.38
6.49 -28.98 2.35
6.92 -28.22 2.30
7.32 -27.44 2.25
7.66 -26.57 2.19
7.91 -25.50 2.12
8.32 -25.02 2.10
8.63 -24.32 2.05
8.81 -23.32 1.99
8.99 -22.43 1.93
9.12 -21.50 1.86
9.18 -20.48 1.79
9.26 -19.60 1.73
9.31 -18.71 1.67
9.32 -17.84 1.61
9.33 -17.00 1.55
9.28 -16.14 1.49
9.20 -15.29 1.43
8.71 -13.84 1.31
8.41 -12.79 1.23
8.23 -11.98 1.17
8.07 -11.25 1.11
8.04 -10.75 1.08
7.97 -10.22 1.04
7.89 -9.71 1.01
7.81 -9.23 0.97
7.81 -8.85 0.95
7.80 -8.50 0.93
7.81 -8.17 0.91
7.83 -7.87 0.90
7.84 -7.57 0.88
7.86 -7.29 0.87
7.85 -6.99 0.85
7.83 -6.70 0.83
7.81 -6.41 0.82
7.79 -6.14 0.80
7.78 -5.88 0.79
7.77 -5.63 0.77
7.75 -5.39 0.76
7.74 -5.15 0.75
7.75 -4.93 0.74
7.75 -4.72 0.73
7.76 -4.51 0.72
7.76 -4.31 0.72
7.76 -4.10 0.71
7.75 -3.90 0.70
7.74 -3.70 0.69
7.73 -3.51 0.68
7.72 -3.32 0.68
7.71 -3.14 0.67
7.72 -2.96 0.67
7.73 -2.79 0.66
7.73 -2.61 0.66
7.74 -2.44 0.65
7.75 -2.28 0.65
7.75 -2.11 0.64
7.77 -1.95 0.64
7.78 -1.78 0.64
7.79 -1.62 0.64
7.80 -1.46 0.63
7.81 -1.30 0.63
7.82 -1.14 0.63
7.82 -0.98 0.63
7.83 -0.83 0.63
7.83 -0.67 0.63
7.84 -0.51 0.62
7.84 -0.35 0.62
7.85 -0.19 0.62
7.86 -0.04 0.62
7.87 0.12 0.62
7.89 0.28 0.62
7.90 0.44 0.62
7.91 0.60 0.63
7.93 0.76 0.63
7.94 0.92 0.63
7.94 1.09 0.63
7.94 1.25 0.63
7.94 1.41 0.63
7.94 1.58 0.63
7.94 1.74 0.64
7.94 1.91 0.64
7.93 2.08 0.64
7.93 2.25 0.64
7.92 2.42 0.64
7.92 2.59 0.65
7.91 2.77 0.65
7.91 2.95 0.65
7.94 3.14 0.66
7.97 3.34 0.67
8.01 3.55 0.67
8.04 3.76 0.68
8.06 3.97 0.69
8.09 4.18 0.70
8.12 4.41 0.71
8.14 4.64 0.71
8.17 4.87 0.72
8.19 5.11 0.73
8.21 5.35 0.74
8.22 5.59 0.75
8.23 5.85 0.76
8.24 6.11 0.77
8.25 6.38 0.78
8.26 6.66 0.80
8.28 6.94 0.81
8.27 7.23 0.82
8.26 7.52 0.83
8.26 7.82 0.85
8.25 8.13 0.86
8.24 8.46 0.88
8.23 8.79 0.89
8.21 9.14 0.91
8.19 9.49 0.92
8.17 9.86 0.94
8.15 10.25 0.96
8.13 10.65 0.98
8.11 11.08 1.00
8.11 11.57 1.03
8.11 12.08 1.06
8.11 12.62 1.09
8.12 13.20 1.12
8.23 14.01 1.18
8.47 15.09 1.25
8.53 15.95 1.30
8.71 17.10 1.38
8.69 17.94 1.43
8.66 18.82 1.48
8.54 19.61 1.53
8.38 20.33 1.57
8.20 21.09 1.61
8.07 22.06 1.67
7.88 22.96 1.72
7.69 23.95 1.78
7.44 24.87 1.83
7.26 26.17 1.92
7.24 28.29 2.06
7.77 33.12 2.39
7.11 33.33 2.39
6.46 33.53 2.39
5.79 33.72 2.39
5.13 33.89 2.39
4.45 34.05 2.39
3.78 34.20 2.39
3.23 35.81 2.49
2.51 35.94 2.49
1.79 36.04 2.49
1.07 36.14 2.49
0.35 36.21 2.49
-0.38 36.27 2.49
-1.11 36.32 2.49
-1.84 36.35 2.49
-2.57 36.37 2.49
-3.31 36.37 2.49
-4.04 36.35 2.49
-4.78 36.32 2.49
-5.52 36.27 2.49
-6.25 36.21 2.49
-6.99 36.13 2.49
-7.72 36.03 2.49
-8.07 34.30 2.38
-8.81 34.31 2.39
-9.51 34.18 2.39
-10.20 34.02 2.39
-10.90 33.85 2.39
-11.59 33.67 2.39
-12.28 33.47 2.39
-12.96 33.26 2.39
-13.64 33.03 2.39
-14.32 32.78 2.39
-13.70 29.72 2.18
-15.68 32.30 2.39
-16.34 32.01 2.39
-16.99 31.70 2.39
-17.64 31.38 2.39
-18.28 31.05 2.39
-18.92 30.70 2.39
-19.54 30.34 2.39
-20.16 29.96 2.39
-20.78 29.57 2.39
-21.38 29.17 2.39
-21.97 28.75 2.39
-6.69 8.40 0.71
-23.13 27.88 2.39
-19.84 22.96 2.00
-19.46 21.62 1.92
-19.34 20.64 1.87
-19.37 19.86 1.83
-19.32 19.03 1.79
-19.33 18.29 1.75
-19.34 17.58 1.72
-19.28 16.83 1.69
-19.29 16.17 1.66
-19.30 15.53 1.63
-19.25 14.86 1.60
-19.27 14.27 1.58
-19.29 13.70 1.56
-19.26 13.10 1.54
-19.29 12.56 1.52
-19.26 12.00 1.50
-19.26 11.47 1.48
-19.26 10.95 1.46
-19.26 10.45 1.45
-19.21 9.92 1.43
-19.21 9.44 1.41
-19.21 8.97 1.40
-19.16 8.48 1.38
-19.16 8.02 1.37
-19.16 7.58 1.36
-19.10 7.11 1.35
-19.09 6.68 1.34
-19.08 6.25 1.33
-19.00 5.80 1.32
-19.06 5.40 1.32
-19.12 5.01 1.31
-19.18 4.61 1.31
-19.39 4.25 1.32
-19.60 3.89 1.33
-19.81 3.52 1.34
-20.03 3.15 1.35
-20.25 2.77 1.37
-20.47 2.38 1.38
-20.70 1.99 1.39
-20.58 1.56 1.39
-19.80 1.10 1.33
-19.71 0.70 1.33
-19.93 0.31 1.34
-20.17 -0.10 1.36
-20.40 -0.51 1.38
-20.65 -0.93 1.40
-20.90 -1.36 1.42
-21.15 -1.80 1.44
-21.42 -2.26 1.46
-21.69 -2.73 1.49
-21.97 -3.21 1.51
-22.26 -3.71 1.54
-22.56 -4.23 1.57
-22.87 -4.76 1.60
-23.19 -5.32 1.63
-23.53 -5.90 1.67
-23.88 -6.49 1.70
-24.24 -7.12 1.74
-33.04 -10.43 2.39
-32.77 -11.07 2.39
-32.48 -11.70 2.39
-32.18 -12.33 2.39
-31.87 -12.95 2.39
-31.54 -13.56 2.39
-31.21 -14.17 2.39
-30.86 -14.76 2.39
-30.50 -15.35 2.39
-30.12 -15.93 2.39
-29.74 -16.49 2.39
-29.35 -17.05 2.39
-28.94 -17.61 2.39
-28.52 -18.15 2.39
-28.10 -18.68 2.39
-27.66 -19.20 2.39
-27.22 -19.71 2.39
-26.76 -20.21 2.39
-26.30 -20.70 2.39
-25.82 -21.19 2.39
-25.34 -21.66 2.39
-24.85 -22.11 2.39
-24.35 -22.56 2.39
-23.85 -23.00 2.39
-23.33 -23.43 2.39
-22.81 -23.84 2.39
-22.28 -24.24 2.39
-21.75 -24.64 2.39
-21.20 -25.02 2.39
-18.20 -22.37 2.11
-17.51 -22.42 2.08
-19.54 -26.09 2.39
-18.97 -26.42 2.39
-18.04 -26.21 2.35
-17.83 -27.05 2.39
-17.25 -27.35 2.39
-16.66 -27.63 2.39
-16.07 -27.91 2.39
-15.47 -28.17 2.39
-14.88 -28.42 2.39
-14.28 -28.65 2.39
-13.67 -28.88 2.39
-13.06 -29.09 2.39
-9.84 -23.14 1.89
-9.47 -23.58 1.91
-9.10 -24.03 1.94
-10.61 -29.81 2.39
-9.98 -29.93 2.39
-9.35 -30.07 2.39
-8.73 -30.20 2.39
-8.11 -30.31 2.39
-7.49 -30.41 2.39
-6.86 -30.50 2.39
-6.49 -31.81 2.49
-4.46 -24.34 1.90
-3.95 -24.34 1.90
-3.45 -24.34 1.89
-2.96 -24.34 1.89
-2.60 -25.71 2.00
-2.60 -32.12 2.49
-1.95 -32.12 2.49
-1.30 -32.10 2.49
-0.66 -32.07 2.49
-0.01 -24.79 2.49
0.48 -24.76 2.49
0.98 -24.72 2.49
1.47 -24.67 2.49
1.89 -23.58 2.39
2.36 -23.52 2.39
2.82 -23.44 2.39
3.29 -23.35 2.39
2.05 -12.72 1.31
4.22 -23.15 2.39
4.68 -23.04 2.39
5.13 -22.92 2.39
5.59 -22.79 2.39
6.42 -24.07 2.54
6.85 -23.75 2.52
7.18 -23.14 2.47
7.48 -22.52 2.43
7.82 -22.04 2.39
8.16 -21.62 2.37
8.45 -21.09 2.33
8.63 -20.35 2.27
8.73 -19.48 2.19
8.77 -18.57 2.11
8.81 -17.71 2.03
8.81 -16.86 1.96
8.78 -16.02 1.88
8.70 -15.14 1.80
7.99 -13.28 1.60
7.98 -12.67 1.54
7.84 -11.92 1.47
7.71 -11.22 1.40
7.69 -10.73 1.36
7.68 -10.26 1.32
7.61 -9.75 1.28
7.54 -9.28 1.23
7.54 -8.90 1.20
7.54 -8.55 1.18
7.54 -8.21 1.15
7.55 -7.90 1.13
7.57 -7.61 1.11
7.59 -7.33 1.09
7.59 -7.04 1.07
7.58 -6.75 1.05
7.56 -6.47 1.03
7.54 -6.20 1.01
7.53 -5.94 0.99
7.52 -5.69 0.98
7.52 -5.45 0.96
7.51 -5.22 0.95
7.51 -5.00 0.93
7.52 -4.79 0.92
7.53 -4.58 0.91
7.53 -4.38 0.90
7.54 -4.19 0.89
7.54 -3.99 0.88
7.54 -3.80 0.87
7.53 -3.61 0.86
7.52 -3.42 0.85
7.52 -3.23 0.85
7.52 -3.06 0.84
7.53 -2.89 0.83
7.54 -2.72 0.83
7.54 -2.55 0.82
7.55 -2.38 0.82
7.56 -2.22 0.81
7.57 -2.06 0.81
7.57 -1.90 0.80
7.59 -1.74 0.80
7.60 -1.58 0.80
7.61 -1.43 0.79
7.62 -1.27 0.79
7.63 -1.12 0.79
7.63 -0.96 0.79
7.64 -0.80 0.79
7.64 -0.65 0.78
7.65 -0.50 0.78
7.65 -0.34 0.78
7.65 -0.19 0.78
7.66 -0.03 0.78
7.67 0.12 0.78
7.68 0.27 0.78
7.70 0.43 0.78
7.71 0.59 0.79
7.72 0.74 0.79
7.73 0.90 0.79
7.73 1.06 0.79
7.73 1.22 0.79
7.74 1.38 0.79
7.74 1.54 0.80
7.73 1.70 0.80
7.73 1.86 0.80
7.73 2.03 0.80
7.72 2.19 0.81
7.72 2.36 0.81
7.71 2.53 0.81
7.70 2.70 0.82
7.70 2.87 0.82
7.71 3.05 0.83
7.74 3.25 0.84
7.77 3.44 0.85
7.80 3.65 0.86
7.83 3.85 0.87
7.85 4.06 0.88
7.88 4.28 0.89
7.90 4.50 0.90
7.92 4.72 0.91
7.95 4.96 0.92
7.96 5.19 0.94
7.97 5.43 0.95
7.98 5.67 0.96
7.98 5.92 0.97
7.99 6.18 0.99
8.00 6.44 1.00
8.00 6.72 1.02
8.01 7.00 1.04
8.00 7.28 1.05
7.98 7.57 1.07
7.97 7.86 1.09
7.96 8.17 1.10
7.94 8.49 1.12
7.92 8.82 1.14
7.90 9.16 1.17
7.87 9.50 1.19
7.84 9.86 1.21
7.81 10.24 1.24
7.78 10.64 1.26
7.75 11.06 1.29
7.74 11.53 1.33
7.74 12.03 1.36
7.73 12.56 1.40
7.71 13.12 1.45
7.76 13.83 1.51
7.90 14.78 1.59
7.93 15.56 1.65
7.91 16.34 1.72
7.98 17.36 1.80
7.86 18.04 1.85
7.79 18.90 1.92
7.63 19.64 1.98
7.43 20.32 2.03
7.22 21.05 2.08
7.07 22.04 2.16
6.92 23.16 2.26
6.67 24.08 2.33
6.28 24.58 2.36
5.88 25.08 2.39
5.37 25.19 2.39
4.87 25.33 2.39
4.37 25.46 2.39
3.86 25.58 2.39
3.35 25.69 2.39
2.84 25.79 2.39
2.33 25.87 2.39
1.81 25.95 2.39
1.35 27.14 2.49
0.80 27.20 2.49
0.26 27.24 2.49
-0.29 27.28 2.49
-0.84 27.30 2.49
-1.39 27.31 2.49
-1.94 27.32 2.49
-2.49 27.30 2.49
-3.04 27.28 2.49
-3.59 27.25 2.49
-4.14 27.20 2.49
-4.69 27.14 2.49
-5.24 27.07 2.49
-5.79 26.99 2.49
-6.34 26.90 2.49
-6.60 25.70 2.39
-7.12 25.57 2.39
-7.64 25.45 2.39
-8.15 25.32 2.39
-8.67 25.17 2.39
-9.18 25.02 2.39
-9.69 24.85 2.39
-10.19 24.67 2.39
-10.71 24.51 2.39
-11.21 24.31 2.39
-11.70 24.10 2.39
-12.19 23.88 2.39
-12.68 23.65 2.39
-13.16 23.40 2.39
-13.63 23.15 2.39
-14.10 22.89 2.39
-14.57 22.61 2.39
-15.03 22.33 2.39
-15.48 22.03 2.39
-15.93 21.73 2.39
-16.37 21.41 2.39
-6.69 8.40 0.95
-17.23 20.76 2.39
-17.65 20.42 2.39
-18.06 20.06 2.39
-18.46 19.70 2.39
-18.86 19.33 2.39
-19.25 18.96 2.39
-19.33 18.29 2.36
-19.34 17.57 2.31
-19.28 16.83 2.27
-19.29 16.17 2.23
-19.30 15.53 2.19
-19.25 14.86 2.15
-19.27 14.27 2.12
-19.29 13.70 2.10
-19.26 13.10 2.06
-19.29 12.56 2.04
-19.26 12.00 2.01
-19.26 11.47 1.99
-19.26 10.95 1.96
-19.26 10.45 1.94
-19.21 9.92 1.92
-19.21 9.44 1.90
-19.21 8.97 1.88
-19.16 8.48 1.86
-19.16 8.02 1.84
-19.16 7.58 1.83
-19.10 7.11 1.81
-19.09 6.68 1.80
-19.08 6.25 1.79
-19.00 5.80 1.77
-19.06 5.40 1.76
-19.12 5.01 1.76
-19.18 4.61 1.76
-19.39 4.26 1.77
-19.60 3.89 1.78
-19.81 3.52 1.80
-20.03 3.15 1.81
-20.25 2.77 1.83
-20.47 2.38 1.85
-20.70 1.99 1.86
-20.59 1.56 1.85
-19.80 1.10 1.78
-19.70 0.70 1.77
-19.93 0.31 1.79
-20.16 -0.09 1.82
-20.40 -0.50 1.84
-20.65 -0.92 1.87
-20.90 -1.36 1.89
-21.15 -1.80 1.92
-21.42 -2.26 1.95
-21.69 -2.73 1.98
-21.97 -3.21 2.02
-22.26 -3.71 2.05
-22.56 -4.23 2.09
-22.87 -4.76 2.13
-23.19 -5.32 2.17
-23.53 -5.89 2.22
-23.87 -6.49 2.26
-24.24 -7.11 2.31
-24.88 -7.85 2.39
-24.68 -8.33 2.39
-24.48 -8.82 2.39
-24.26 -9.29 2.39
-24.04 -9.76 2.39
-23.80 -10.23 2.39
-23.56 -10.69 2.39
-23.31 -11.14 2.39
-23.04 -11.59 2.39
-22.77 -12.04 2.39
-22.49 -12.47 2.39
-22.21 -12.90 2.39
-21.91 -13.32 2.39
-21.61 -13.74 2.39
-21.29 -14.15 2.39
-20.97 -14.55 2.39
-20.65 -14.95 2.39
-20.31 -15.34 2.39
-19.97 -15.72 2.39
-19.62 -16.09 2.39
-19.26 -16.45 2.39
-18.90 -16.81 2.39
-18.53 -17.16 2.39
-18.15 -17.50 2.39
-17.77 -17.83 2.39
-17.38 -18.16 2.39
-16.99 -18.47 2.39
-16.59 -18.78 2.39
-16.18 -19.08 2.39
-15.77 -19.37 2.39
-15.35 -19.65 2.39
-14.93 -19.93 2.39
-14.51 -20.19 2.39
-14.08 -20.45 2.39
-13.64 -20.69 2.39
-13.20 -20.93 2.39
-12.76 -21.16 2.39
-12.31 -21.38 2.39
-11.86 -21.59 2.39
-11.41 -21.79 2.39
-10.96 -21.98 2.39
-10.48 -22.14 2.39
-10.02 -22.31 2.39
-9.56 -22.47 2.39
-9.09 -22.63 2.39
-8.62 -22.77 2.39
-8.15 -22.91 2.39
-7.68 -23.03 2.39
-7.21 -23.15 2.39
-6.73 -23.25 2.39
-6.47 -24.18 2.47
-6.02 -24.45 2.49
-5.52 -24.53 2.49
-5.02 -24.61 2.49
-4.52 -24.67 2.49
-4.02 -24.72 2.49
-3.52 -24.76 2.49
-3.02 -24.80 2.49
-2.51 -24.82 2.49
-2.01 -24.83 2.49
-1.51 -24.84 2.49
-1.01 -24.83 2.49
-0.51 -24.82 2.49
-0.01 -20.21 2.49
0.39 -20.19 2.49
0.80 -20.16 2.49
1.20 -20.12 2.49
1.58 -19.81 2.46
1.92 -19.19 2.39
2.30 -19.13 2.39
2.68 -19.06 2.39
2.05 -12.69 1.60
3.44 -18.91 2.39
3.82 -18.82 2.39
4.19 -18.72 2.39
4.56 -18.62 2.39
4.93 -18.51 2.39
5.30 -18.40 2.39
6.44 -20.77 2.72
6.77 -20.37 2.68
7.05 -19.87 2.64
7.27 -19.26 2.58
7.50 -18.73 2.53
7.69 -18.14 2.47
7.80 -17.42 2.39
7.90 -16.74 2.32
7.92 -15.93 2.23
7.93 -15.17 2.15
7.88 -14.38 2.06
7.50 -13.06 1.89
7.51 -12.48 1.83
7.46 -11.86 1.76
7.36 -11.19 1.69
7.35 -10.70 1.64
7.35 -10.25 1.59
7.33 -9.80 1.54
7.27 -9.33 1.49
7.27 -8.95 1.45
7.28 -8.60 1.42
7.28 -8.26 1.39
7.29 -7.94 1.36
7.31 -7.65 1.33
7.33 -7.37 1.31
7.34 -7.09 1.29
7.33 -6.80 1.26
7.32 -6.52 1.24
7.31 -6.25 1.22
7.30 -5.99 1.19
7.29 -5.75 1.17
7.29 -5.51 1.15
7.28 -5.28 1.14
7.29 -5.06 1.12
7.30 -4.86 1.11
7.31 -4.65 1.09
7.32 -4.45 1.08
7.32 -4.26 1.07
7.33 -4.07 1.06
7.34 -3.88 1.05
7.34 -3.70 1.04
7.34 -3.51 1.03
7.33 -3.33 1.02
7.33 -3.15 1.01
7.34 -2.98 1.00
7.35 -2.82 0.99
7.35 -2.65 0.98
7.36 -2.49 0.98
7.37 -2.33 0.97
7.38 -2.17 0.97
7.39 -2.01 0.96
7.39 -1.85 0.96
7.40 -1.70 0.95
7.42 -1.54 0.95
7.43 -1.39 0.95
7.44 -1.24 0.95
7.45 -1.09 0.94
7.45 -0.94 0.94
7.46 -0.79 0.94
7.46 -0.63 0.94
7.46 -0.48 0.94
7.47 -0.33 0.93
7.47 -0.18 0.93
7.48 -0.03 0.93
7.48 0.12 0.93
7.49 0.27 0.93
7.50 0.42 0.94
7.51 0.57 0.94
7.52 0.72 0.94
7.53 0.88 0.94
7.54 1.03 0.94
7.54 1.19 0.95
7.54 1.34 0.95
7.54 1.50 0.95
7.54 1.66 0.95
7.53 1.82 0.96
7.53 1.98 0.96
7.53 2.14 0.96
7.52 2.30 0.97
7.51 2.46 0.97
7.51 2.63 0.98
7.50 2.80 0.98
7.49 2.97 0.99
7.52 3.15 1.00
7.54 3.35 1.01
7.57 3.54 1.02
7.60 3.74 1.03
7.63 3.95 1.05
7.65 4.16 1.06
7.67 4.37 1.07
7.69 4.59 1.09
7.71 4.81 1.10
7.72 5.04 1.12
7.73 5.27 1.13
7.73 5.50 1.15
7.74 5.74 1.16
7.74 5.99 1.18
7.74 6.24 1.20
7.75 6.50 1.22
7.75 6.78 1.24
7.75 7.05 1.26
7.73 7.33 1.28
7.71 7.61 1.30
7.69 7.90 1.32
7.67 8.20 1.34
7.65 8.52 1.37
7.63 8.84 1.39
7.60 9.18 1.42
7.56 9.51 1.45
7.52 9.86 1.47
7.48 10.23 1.50
7.44 10.62 1.54
7.41 11.03 1.57
7.39 11.49 1.61
7.37 11.99 1.66
7.35 12.51 1.71
7.32 13.06 1.76
7.34 13.73 1.83
7.37 14.48 1.91
7.44 15.38 2.00
7.36 16.01 2.06
7.28 16.71 2.13
7.23 17.57 2.22
7.09 18.25 2.28
6.93 18.97 2.35
6.75 19.67 2.42
6.42 20.03 2.45
6.08 20.35 2.47
5.50 19.86 2.39
5.11 19.99 2.39
4.71 20.11 2.39
4.31 20.23 2.39
3.91 20.34 2.39
3.50 20.43 2.39
3.10 20.52 2.39
2.69 20.60 2.39
2.28 20.68 2.39
1.86 20.74 2.39
1.51 21.70 2.49
1.08 21.75 2.49
0.64 21.79 2.49
0.20 21.82 2.49
-0.23 21.84 2.49
-0.67 21.85 2.49
-1.11 21.86 2.49
-1.55 21.85 2.49
-1.99 21.84 2.49
-2.43 21.82 2.49
-2.87 21.78 2.49
-3.31 21.74 2.49
-3.75 21.69 2.49
-4.19 21.63 2.49
-4.63 21.56 2.49
-5.06 21.48 2.49
-5.50 21.39 2.49
-5.93 21.30 2.49
-6.36 21.19 2.49
-6.51 20.20 2.39
-6.92 20.08 2.39
-7.32 19.95 2.39
-7.73 19.82 2.39
-8.13 19.67 2.39
-8.53 19.52 2.39
-8.92 19.36 2.39
-9.32 19.18 2.39
-9.70 19.00 2.39
-10.09 18.82 2.39
-10.48 18.65 2.39
-10.86 18.44 2.39
-11.23 18.23 2.39
-11.60 18.01 2.39
-11.97 17.78 2.39
-12.33 17.54 2.39
-12.68 17.30 2.39
-13.03 17.05 2.39
-6.69 8.40 1.20
-13.71 16.52 2.39
-14.05 16.25 2.39
-14.37 15.97 2.39
-14.69 15.68 2.39
-15.01 15.38 2.39
-15.32 15.08 2.39
-15.62 14.78 2.39
-15.91 14.46 2.39
-16.20 14.14 2.39
-16.48 13.81 2.39
-16.76 13.48 2.39
-17.02 13.14 2.39
-17.28 12.80 2.39
-17.54 12.45 2.39
-17.78 12.09 2.39
-18.02 11.73 2.39
-18.25 11.37 2.39
-18.47 11.00 2.39
-18.68 10.62 2.39
-18.89 10.24 2.39
-19.09 9.86 2.39
-19.28 9.47 2.39
-19.21 8.97 2.36
-19.16 8.48 2.34
-19.16 8.02 2.32
-19.16 7.58 2.30
-19.10 7.11 2.27
-19.09 6.68 2.26
-19.08 6.25 2.24
-19.00 5.80 2.22
-19.06 5.41 2.22
-19.12 5.01 2.21
-19.18 4.62 2.21
-19.38 4.26 2.22
-19.60 3.89 2.24
-19.81 3.52 2.26
-20.03 3.15 2.27
-20.25 2.77 2.29
-20.47 2.38 2.32
-20.70 1.99 2.34
-20.59 1.56 2.32
-19.80 1.10 2.23
-19.70 0.70 2.22
-19.93 0.31 2.25
-20.16 -0.09 2.28
-20.40 -0.50 2.30
-20.64 -0.92 2.34
-20.89 -1.35 2.37
-21.06 -1.79 2.39
-21.00 -2.21 2.39
-20.93 -2.63 2.39
-20.85 -3.04 2.39
-20.77 -3.46 2.39
-20.67 -3.87 2.39
-20.57 -4.28 2.39
-20.46 -4.69 2.39
-20.34 -5.09 2.39
-20.21 -5.49 2.39
-20.08 -5.89 2.39
-19.93 -6.28 2.39
-19.78 -6.68 2.39
-19.62 -7.06 2.39
-19.45 -7.45 2.39
-19.28 -7.83 2.39
-19.10 -8.20 2.39
-18.91 -8.58 2.39
-18.71 -8.94 2.39
-18.50 -9.31 2.39
-18.29 -9.66 2.39
-18.07 -10.02 2.39
-17.85 -10.37 2.39
-17.61 -10.71 2.39
-17.38 -11.05 2.39
-17.13 -11.38 2.39
-16.88 -11.71 2.39
-16.62 -12.03 2.39
-16.35 -12.34 2.39
-16.08 -12.65 2.39
-15.80 -12.96 2.39
-15.52 -13.25 2.39
-15.23 -13.55 2.39
-14.94 -13.83 2.39
-14.64 -14.11 2.39
-14.34 -14.38 2.39
-14.03 -14.65 2.39
-13.71 -14.91 2.39
-13.39 -15.16 2.39
-13.07 -15.41 2.39
-12.74 -15.65 2.39
-12.41 -15.88 2.39
-12.07 -16.11 2.39
-11.73 -16.32 2.39
-11.39 -16.54 2.39
-11.04 -16.74 2.39
-10.69 -16.94 2.39
-10.32 -17.11 2.39
-9.96 -17.29 2.39
-9.60 -17.46 2.39
-9.24 -17.63 2.39
-8.87 -17.79 2.39
-8.50 -17.94 2.39
-8.13 -18.09 2.39
-7.76 -18.23 2.39
-7.38 -18.36 2.39
-7.00 -18.48 2.39
-6.62 -18.59 2.39
-6.46 -19.38 2.48
-6.11 -19.61 2.49
-5.71 -19.71 2.49
-5.30 -19.79 2.49
-4.90 -19.87 2.49
-4.49 -19.95 2.49
-4.09 -20.01 2.49
-3.68 -20.07 2.49
-3.27 -20.11 2.49
-2.87 -20.15 2.49
-2.46 -20.19 2.49
-2.05 -20.21 2.49
-1.64 -20.23 2.49
-1.23 -20.23 2.49
-0.83 -20.23 2.49
-0.42 -20.23 2.49
-0.01 -17.04 2.49
0.33 -17.03 2.49
0.67 -17.00 2.49
1.01 -16.97 2.49
1.35 -16.94 2.49
1.62 -16.19 2.39
1.94 -16.14 2.39
2.26 -16.09 2.39
2.05 -12.69 1.89
2.90 -15.96 2.39
3.22 -15.89 2.39
3.54 -15.81 2.39
3.85 -15.73 2.39
4.17 -15.64 2.39
4.48 -15.54 2.39
4.78 -15.44 2.39
5.09 -15.33 2.39
5.39 -15.22 2.39
6.57 -17.40 2.76
6.75 -16.85 2.69
6.88 -16.23 2.61
6.99 -15.62 2.54
7.06 -14.95 2.45
7.13 -14.35 2.38
7.14 -13.68 2.29
7.04 -12.84 2.18
7.06 -12.29 2.11
7.08 -11.76 2.04
7.02 -11.15 1.96
7.02 -10.68 1.90
7.03 -10.23 1.85
7.03 -9.81 1.80
7.01 -9.37 1.74
7.01 -8.99 1.70
7.02 -8.64 1.66
7.03 -8.31 1.62
7.04 -7.99 1.59
7.05 -7.69 1.56
7.08 -7.41 1.53
7.10 -7.14 1.50
7.09 -6.85 1.47
7.09 -6.57 1.44
7.08 -6.31 1.42
7.08 -6.05 1.39
7.07 -5.81 1.37
7.06 -5.57 1.34
7.06 -5.34 1.32
7.07 -5.12 1.30
7.08 -4.92 1.29
7.09 -4.72 1.27
7.10 -4.52 1.26
7.11 -4.33 1.24
7.12 -4.14 1.23
7.13 -3.96 1.22
7.14 -3.78 1.21
7.15 -3.60 1.19
7.15 -3.42 1.18
7.15 -3.25 1.17
7.15 -3.07 1.16
7.16 -2.91 1.15
7.17 -2.75 1.14
7.18 -2.59 1.14
7.19 -2.43 1.13
7.20 -2.27 1.12
7.21 -2.12 1.12
7.22 -1.96 1.11
7.22 -1.81 1.11
7.23 -1.66 1.10
7.24 -1.51 1.10
7.25 -1.36 1.10
7.26 -1.21 1.09
7.27 -1.06 1.09
7.28 -0.91 1.09
7.28 -0.77 1.08
7.29 -0.62 1.08
7.29 -0.47 1.08
7.29 -0.33 1.08
7.30 -0.18 1.08
7.30 -0.03 1.08
7.30 0.11 1.08
7.31 0.26 1.08
7.31 0.41 1.08
7.33 0.56 1.08
7.34 0.71 1.08
7.34 0.86 1.09
7.35 1.01 1.09
7.35 1.16 1.09
7.35 1.31 1.10
7.35 1.46 1.10
7.34 1.62 1.10
7.34 1.77 1.11
7.34 1.93 1.11
7.34 2.08 1.11
7.33 2.24 1.12
7.33 2.40 1.13
7.32 2.56 1.13
7.31 2.73 1.14
7.30 2.89 1.14
7.31 3.07 1.15
7.33 3.25 1.17
7.35 3.44 1.18
7.38 3.63 1.19
7.40 3.83 1.21
7.43 4.04 1.22
7.45 4.24 1.24
7.46 4.45 1.26
7.48 4.67 1.27
7.50 4.89 1.29
7.50 5.11 1.31
7.51 5.34 1.33
7.51 5.57 1.34
7.51 5.81 1.36
7.51 6.05 1.38
7.51 6.30 1.40
7.50 6.56 1.43
7.50 6.83 1.45
7.49 7.10 1.47
7.47 7.37 1.50
7.45 7.65 1.52
7.42 7.94 1.55
7.39 8.24 1.57
7.37 8.54 1.60
7.34 8.86 1.63
7.30 9.19 1.66
7.26 9.52 1.70
7.21 9.87 1.73
7.17 10.23 1.77
7.12 10.60 1.80
7.07 11.00 1.84
7.04 11.45 1.89
7.01 11.93 1.95
6.98 12.45 2.01
6.94 12.99 2.07
6.94 13.64 2.15
6.95 14.36 2.24
6.98 15.20 2.34
6.88 15.81 2.41
6.77 16.45 2.49
6.59 16.98 2.54
6.33 17.33 2.57
5.56 16.23 2.39
5.24 16.36 2.39
4.92 16.48 2.39
4.59 16.59 2.39
4.26 16.69 2.39
3.93 16.79 2.39
3.60 16.89 2.39
3.26 16.97 2.39
2.92 17.05 2.39
2.58 17.12 2.39
2.24 17.19 2.39
1.90 17.24 2.39
1.62 18.04 2.49
1.26 18.09 2.49
0.89 18.12 2.49
0.53 18.16 2.49
0.17 18.18 2.49
-0.20 18.19 2.49
-0.56 18.20 2.49
-0.93 18.20 2.49
-1.29 18.20 2.49
-1.66 18.18 2.49
-2.03 18.16 2.49
-2.39 18.13 2.49
-2.76 18.09 2.49
-3.12 18.05 2.49
-3.49 17.99 2.49
-3.85 17.93 2.49
-4.21 17.86 2.49
-4.57 17.79 2.49
-4.93 17.71 2.49
-5.29 17.61 2.49
-5.64 17.52 2.49
-6.00 17.41 2.49
-6.35 17.30 2.49
-6.42 16.47 2.39
-6.76 16.34 2.39
-7.09 16.21 2.39
-7.41 16.08 2.39
-7.74 15.93 2.39
-8.06 15.78 2.39
-8.38 15.62 2.39
-8.69 15.46 2.39
-9.01 15.29 2.39
-9.32 15.11 2.39
-9.62 14.93 2.39
-9.92 14.74 2.39
-10.22 14.54 2.39
-10.53 14.36 2.39
-10.81 14.15 2.39
-6.66 8.36 1.44
-11.38 13.71 2.39
-11.65 13.48 2.39
-11.93 13.25 2.39
-12.19 13.01 2.39
-12.45 12.76 2.39
-12.71 12.51 2.39
-12.96 12.26 2.39
-13.20 12.00 2.39
-13.44 11.73 2.39
-13.67 11.46 2.39
-13.90 11.18 2.39
-14.12 10.90 2.39
-14.34 10.62 2.39
-14.55 10.33 2.39
-14.75 10.03 2.39
-14.95 9.73 2.39
-15.14 9.43 2.39
-15.32 9.12 2.39
-15.50 8.81 2.39
-15.67 8.50 2.39
-15.84 8.18 2.39
-15.99 7.86 2.39
-16.14 7.54 2.39
-16.29 7.21 2.39
-16.43 6.88 2.39
-16.56 6.55 2.39
-16.68 6.21 2.39
-16.79 5.88 2.39
-16.90 5.54 2.39
-17.00 5.19 2.39
-17.10 4.85 2.39
-17.18 4.50 2.39
-17.26 4.16 2.39
-17.33 3.81 2.39
-17.40 3.46 2.39
-17.46 3.11 2.39
-17.50 2.75 2.39
-17.55 2.40 2.39
-17.58 2.05 2.39
-17.61 1.69 2.39
-17.63 1.34 2.39
-17.64 0.98 2.39
-17.65 0.63 2.39
-17.64 0.28 2.39
-17.63 -0.08 2.39
-17.62 -0.43 2.39
-17.59 -0.78 2.39
-17.56 -1.14 2.39
-17.52 -1.49 2.39
-17.47 -1.84 2.39
-17.42 -2.18 2.39
-17.36 -2.53 2.39
-17.29 -2.88 2.39
-17.22 -3.22 2.39
-17.13 -3.56 2.39
-17.04 -3.90 2.39
-16.94 -4.24 2.39
-16.84 -4.57 2.39
-16.73 -4.91 2.39
-16.61 -5.24 2.39
-16.49 -5.56 2.39
-16.36 -5.89 2.39
-16.22 -6.21 2.39
-16.08 -6.53 2.39
-15.93 -6.84 2.39
-15.78 -7.15 2.39
-15.61 -7.46 2.39
-15.45 -7.76 2.39
-15.27 -8.07 2.39
-15.09 -8.36 2.39
-14.91 -8.65 2.39
-14.72 -8.94 2.39
-14.52 -9.23 2.39
-14.32 -9.51 2.39
-14.11 -9.78 2.39
-13.89 -10.05 2.39
-13.67 -10.32 2.39
-13.45 -10.58 2.39
-13.22 -10.84 2.39
-12.99 -11.09 2.39
-12.75 -11.33 2.39
-12.51 -11.57 2.39
-12.26 -11.81 2.39
-12.01 -12.04 2.39
-11.75 -12.27 2.39
-11.49 -12.49 2.39
-11.22 -12.70 2.39
-10.95 -12.91 2.39
-10.68 -13.11 2.39
-10.39 -13.30 2.39
-10.11 -13.49 2.39
-9.83 -13.67 2.39
-9.54 -13.85 2.39
-9.25 -14.03 2.39
-8.96 -14.19 2.39
-8.67 -14.36 2.39
-8.37 -14.51 2.39
-8.06 -14.66 2.39
-7.76 -14.81 2.39
-7.45 -14.94 2.39
-7.15 -15.07 2.39
-6.83 -15.20 2.39
-6.52 -15.32 2.39
-6.46 -16.06 2.49
-6.14 -16.20 2.49
-5.81 -16.31 2.49
-5.48 -16.41 2.49
-5.14 -16.50 2.49
-4.80 -16.58 2.49
-4.47 -16.66 2.49
-4.13 -16.73 2.49
-3.79 -16.79 2.49
-3.44 -16.85 2.49
-3.10 -16.90 2.49
-2.76 -16.94 2.49
-2.42 -16.98 2.49
-2.07 -17.01 2.49
-1.73 -17.03 2.49
-1.39 -17.05 2.49
-1.04 -17.05 2.49
-0.70 -17.06 2.49
-0.36 -17.05 2.49
-0.01 -14.72 2.49
0.28 -14.71 2.49
0.58 -14.69 2.49
0.87 -14.66 2.49
1.16 -14.63 2.49
1.46 -14.60 2.49
1.68 -13.95 2.39
1.96 -13.91 2.39
2.05 -12.69 2.19
2.51 -13.80 2.39
2.78 -13.74 2.39
3.06 -13.67 2.39
3.33 -13.60 2.39
3.60 -13.52 2.39
3.87 -13.44 2.39
4.14 -13.35 2.39
4.40 -13.26 2.39
4.67 -13.16 2.39
4.93 -13.06 2.39
5.19 -12.95 2.39
5.44 -12.84 2.39
6.20 -13.85 2.60
6.33 -13.42 2.54
6.48 -13.04 2.50
6.55 -12.54 2.43
6.61 -12.06 2.36
6.66 -11.60 2.30
6.68 -11.11 2.23
6.70 -10.65 2.16
6.71 -10.21 2.10
6.73 -9.79 2.04
6.74 -9.40 1.99
6.75 -9.02 1.94
6.77 -8.68 1.89
6.79 -8.35 1.85
6.80 -8.04 1.81
6.82 -7.74 1.78
6.83 -7.45 1.74
6.86 -7.18 1.71
6.86 -6.90 1.68
6.86 -6.62 1.64
6.86 -6.36 1.61
6.86 -6.11 1.58
6.85 -5.86 1.55
6.85 -5.63 1.53
6.85 -5.40 1.50
6.85 -5.18 1.48
6.87 -4.98 1.46
6.88 -4.78 1.44
6.90 -4.59 1.43
6.91 -4.40 1.41
6.92 -4.21 1.40
6.93 -4.03 1.38
6.94 -3.85 1.37
6.96 -3.68 1.36
6.97 -3.51 1.34
6.97 -3.34 1.33
6.97 -3.16 1.32
6.98 -3.00 1.31
6.99 -2.84 1.30
7.00 -2.68 1.29
7.01 -2.53 1.28
7.02 -2.37 1.27
7.03 -2.22 1.27
7.04 -2.07 1.26
7.05 -1.92 1.26
7.06 -1.77 1.25
7.07 -1.62 1.24
7.07 -1.47 1.24
7.09 -1.33 1.24
7.10 -1.18 1.23
7.10 -1.04 1.23
7.11 -0.89 1.23
7.12 -0.75 1.23
7.12 -0.60 1.22
7.12 -0.46 1.22
7.13 -0.32 1.22
7.13 -0.17 1.22
7.13 -0.03 1.22
7.14 0.11 1.22
7.14 0.26 1.22
7.14 0.40 1.22
7.15 0.54 1.22
7.16 0.69 1.22
7.16 0.84 1.23
7.17 0.98 1.23
7.17 1.13 1.23
7.17 1.28 1.24
7.16 1.43 1.24
7.16 1.58 1.24
7.16 1.73 1.25
7.16 1.88 1.25
7.15 2.03 1.26
7.15 2.19 1.26
7.14 2.34 1.27
7.13 2.50 1.28
7.12 2.66 1.28
7.11 2.82 1.29
7.11 2.98 1.30
7.13 3.16 1.31
7.15 3.35 1.33
7.17 3.53 1.34
7.19 3.72 1.36
7.21 3.92 1.38
7.23 4.12 1.40
7.25 4.33 1.41
7.27 4.54 1.43
7.28 4.75 1.45
7.29 4.97 1.47
7.29 5.19 1.49
7.29 5.41 1.51
7.28 5.64 1.54
7.28 5.87 1.56
7.28 6.11 1.58
7.27 6.36 1.61
7.26 6.62 1.63
7.26 6.88 1.66
7.24 7.15 1.69
7.21 7.41 1.71
7.18 7.69 1.74
7.15 7.97 1.77
7.12 8.26 1.80
7.09 8.57 1.84
7.06 8.88 1.87
7.01 9.20 1.91
6.97 9.53 1.94
6.91 9.87 1.98
6.86 10.22 2.02
6.80 10.59 2.07
6.74 10.97 2.11
6.68 11.39 2.16
6.58 11.75 2.20
6.48 12.13 2.25
6.37 12.52 2.29
6.25 12.92 2.34
6.12 13.34 2.39
5.99 13.77 2.45
5.59 13.58 2.39
5.32 13.70 2.39
5.05 13.82 2.39
4.77 13.93 2.39
4.50 14.04 2.39
4.22 14.13 2.39
3.94 14.23 2.39
3.65 14.32 2.39
3.37 14.40 2.39
3.08 14.48 2.39
2.79 14.55 2.39
2.50 14.61 2.39
2.21 14.67 2.39
1.92 14.73 2.39
1.65 15.03 2.43
1.38 15.46 2.49
1.07 15.49 2.49
0.76 15.52 2.49
0.45 15.55 2.49
0.14 15.57 2.49
-0.17 15.58 2.49
-0.48 15.58 2.49
-0.80 15.58 2.49
-1.11 15.57 2.49
-1.42 15.56 2.49
-1.74 15.54 2.49
-2.05 15.51 2.49
-2.36 15.48 2.49
-2.67 15.44 2.49
-2.98 15.39 2.49
-3.29 15.34 2.49
-3.60 15.28 2.49
-3.91 15.21 2.49
-4.22 15.14 2.49
