ply
format ascii 1.0
element vertex 2943
property float32 x
property float32 y
property float32 z
end_header
-16.25 1.87 2.40
-16.30 1.54 2.40
-16.34 1.21 2.40
-16.38 0.89 2.40
-16.42 0.56 2.40
-16.44 0.23 2.40
-16.46 -0.10 2.40
-16.47 -0.43 2.40
-16.48 -0.76 2.40
-16.48 -1.10 2.40
-16.48 -1.43 2.40
-16.46 -1.76 2.40
-16.44 -2.09 2.40
-16.42 -2.43 2.40
-16.39 -2.76 2.40
-16.35 -3.09 2.40
-16.30 -3.42 2.40
-16.25 -3.76 2.40
-16.19 -4.09 2.40
-16.13 -4.42 2.40
-16.06 -4.74 2.40
-15.98 -5.07 2.40
-15.89 -5.40 2.40
-15.80 -5.72 2.40
-15.70 -6.05 2.40
-15.60 -6.37 2.40
-15.49 -6.69 2.40
-15.37 -7.01 2.40
-15.24 -7.32 2.40
-15.11 -7.64 2.40
-14.98 -7.95 2.40
-14.83 -8.26 2.40
-14.68 -8.57 2.40
-14.53 -8.87 2.40
-14.36 -9.17 2.40
-14.20 -9.47 2.40
-14.02 -9.77 2.40
-13.84 -10.06 2.40
-13.65 -10.35 2.39
-13.46 -10.63 2.39
-13.26 -10.91 2.39
-13.05 -11.19 2.39
-12.84 -11.47 2.39
-12.62 -11.74 2.39
-12.40 -12.00 2.39
-12.17 -12.26 2.39
-11.94 -12.52 2.39
-11.70 -12.77 2.39
-11.45 -13.02 2.39
-11.20 -13.26 2.39
-10.95 -13.50 2.39
-10.69 -13.73 2.39
-10.41 -13.95 2.39
-10.14 -14.17 2.39
-9.87 -14.39 2.39
-9.59 -14.60 2.39
-9.30 -14.80 2.39
-9.01 -15.00 2.39
-8.72 -15.20 2.39
-8.42 -15.39 2.39
-8.12 -15.57 2.39
-7.82 -15.75 2.39
-7.51 -15.92 2.39
-7.19 -16.08 2.39
-6.88 -16.24 2.39
-6.63 -16.57 2.42
-6.50 -17.25 2.50
-6.16 -17.39 2.50
-5.81 -17.53 2.50
-5.47 -17.65 2.50
-5.12 -17.78 2.50
-4.76 -17.89 2.50
-4.41 -18.00 2.50
-4.05 -18.10 2.50
-3.69 -18.19 2.50
-3.32 -18.28 2.50
-2.96 -18.35 2.50
-2.59 -18.42 2.50
-2.22 -18.48 2.50
-1.85 -18.54 2.50
-1.48 -18.58 2.50
-1.11 -18.62 2.50
-0.74 -18.65 2.50
-0.36 -18.68 2.50
0.01 -15.94 2.50
0.33 -15.95 2.50
0.65 -15.95 2.50
0.97 -15.94 2.50
1.29 -15.92 2.50
1.54 -15.24 2.39
1.85 -15.21 2.39
2.15 -15.18 2.39
2.46 -15.14 2.39
2.76 -15.09 2.39
3.06 -15.03 2.39
3.37 -14.97 2.39
3.67 -14.91 2.39
3.97 -14.83 2.39
4.26 -14.75 2.39
4.56 -14.67 2.39
4.85 -14.58 2.39
5.14 -14.48 2.39
5.40 -14.29 2.38
5.54 -13.82 2.32
5.64 -13.28 2.25
5.67 -12.65 2.16
5.75 -12.17 2.09
5.85 -11.76 2.04
5.93 -11.35 1.99
6.01 -10.95 1.94
6.08 -10.57 1.90
6.14 -10.20 1.85
6.20 -9.85 1.81
6.28 -9.54 1.78
6.35 -9.24 1.75
6.42 -8.95 1.72
6.48 -8.67 1.69
6.54 -8.40 1.66
6.60 -8.13 1.63
6.66 -7.87 1.61
6.71 -7.62 1.58
6.75 -7.36 1.56
6.79 -7.11 1.54
6.83 -6.87 1.51
6.86 -6.63 1.49
6.90 -6.41 1.47
6.94 -6.19 1.45
6.97 -5.97 1.44
7.00 -5.76 1.42
7.03 -5.55 1.40
7.06 -5.34 1.39
7.08 -5.14 1.37
7.11 -4.95 1.36
7.13 -4.75 1.35
7.15 -4.56 1.33
7.17 -4.37 1.32
7.21 -4.20 1.31
7.26 -4.04 1.31
7.30 -3.87 1.30
7.35 -3.71 1.30
7.39 -3.55 1.29
7.43 -3.39 1.29
7.48 -3.23 1.29
7.52 -3.07 1.28
7.55 -2.91 1.28
7.59 -2.75 1.28
7.62 -2.59 1.27
7.65 -2.43 1.27
7.68 -2.27 1.27
7.70 -2.11 1.27
7.72 -1.95 1.27
7.75 -1.79 1.26
7.77 -1.63 1.26
7.79 -1.47 1.26
7.81 -1.31 1.26
7.82 -1.16 1.26
7.84 -1.00 1.26
7.86 -0.84 1.26
7.87 -0.68 1.27
7.89 -0.53 1.27
7.91 -0.37 1.27
7.92 -0.21 1.27
7.92 -0.05 1.27
7.92 0.11 1.28
7.93 0.27 1.28
7.93 0.43 1.28
7.93 0.59 1.28
7.94 0.75 1.29
7.94 0.91 1.29
7.94 1.07 1.30
7.94 1.23 1.30
7.94 1.40 1.31
7.94 1.56 1.32
7.94 1.73 1.32
7.93 1.90 1.33
7.93 2.06 1.34
7.92 2.23 1.34
7.91 2.40 1.35
7.90 2.57 1.36
7.89 2.75 1.37
7.88 2.92 1.38
7.88 3.10 1.39
7.87 3.28 1.40
7.86 3.46 1.41
7.85 3.65 1.43
7.85 3.84 1.44
7.85 4.04 1.46
7.84 4.24 1.47
7.84 4.44 1.49
7.84 4.65 1.51
7.84 4.87 1.53
7.83 5.08 1.55
7.83 5.31 1.57
7.82 5.53 1.59
7.81 5.77 1.62
7.82 6.02 1.65
7.83 6.29 1.68
7.85 6.56 1.71
7.86 6.84 1.74
7.89 7.15 1.78
7.93 7.49 1.83
7.98 7.84 1.88
7.94 8.12 1.91
7.90 8.41 1.94
7.86 8.71 1.97
7.81 9.02 2.01
7.80 9.38 2.06
7.82 9.79 2.12
7.76 10.13 2.16
7.68 10.46 2.19
7.60 10.80 2.24
7.52 11.15 2.28
7.43 11.51 2.32
7.35 11.90 2.37
7.23 12.24 2.42
7.05 12.51 2.44
6.83 12.71 2.46
6.60 12.91 2.47
6.38 13.11 2.49
5.88 12.73 2.39
5.62 12.83 2.39
5.35 12.93 2.39
5.09 13.03 2.39
4.82 13.12 2.39
4.55 13.20 2.39
4.29 13.28 2.39
4.01 13.35 2.39
3.74 13.42 2.39
3.47 13.49 2.39
3.20 13.54 2.39
2.92 13.60 2.39
2.65 13.64 2.39
2.37 13.69 2.39
2.14 14.02 2.44
1.89 14.35 2.50
1.60 14.37 2.50
1.31 14.39 2.50
1.02 14.41 2.50
0.73 14.42 2.50
0.44 14.43 2.50
0.15 14.42 2.50
-0.14 14.42 2.50
-0.43 14.41 2.50
-0.71 14.39 2.50
-1.00 14.37 2.50
-1.29 14.34 2.50
-1.58 14.30 2.50
-1.87 14.26 2.50
-2.15 14.22 2.50
-2.44 14.17 2.50
-2.72 14.11 2.50
-3.00 14.05 2.50
-3.28 13.99 2.50
-3.56 13.91 2.50
-3.84 13.84 2.50
-4.12 13.76 2.50
-4.39 13.67 2.50
-4.67 13.58 2.50
-4.94 13.48 2.50
-5.21 13.37 2.50
-5.47 13.27 2.50
-5.74 13.15 2.50
-5.93 12.87 2.46
-6.00 12.38 2.39
-6.25 12.25 2.39
-6.50 12.13 2.39
-6.74 11.99 2.39
-6.98 11.86 2.39
-7.22 11.72 2.39
-7.45 11.57 2.39
-7.69 11.42 2.39
-7.92 11.26 2.39
-8.14 11.11 2.39
-8.37 10.94 2.39
-8.59 10.77 2.39
-8.80 10.60 2.39
-9.02 10.43 2.39
-9.23 10.25 2.39
-9.43 10.06 2.39
-9.64 9.87 2.39
-9.84 9.68 2.39
-10.05 9.50 2.40
-10.24 9.30 2.40
-10.43 9.09 2.40
-10.62 8.89 2.40
-10.80 8.67 2.40
-10.97 8.46 2.40
-11.15 8.24 2.40
-11.32 8.02 2.40
-11.48 7.79 2.40
-11.64 7.57 2.40
-11.80 7.34 2.40
-11.95 7.10 2.40
-12.10 6.86 2.40
-12.24 6.62 2.40
-12.38 6.38 2.40
-12.51 6.13 2.40
-12.64 5.88 2.40
-12.77 5.63 2.40
-12.89 5.38 2.40
-13.00 5.12 2.40
-13.11 4.86 2.40
-13.22 4.60 2.40
-13.32 4.34 2.40
-13.41 4.08 2.40
-13.50 3.81 2.40
-13.59 3.54 2.40
-13.67 3.27 2.40
-6.50 1.42 1.13
-13.81 2.72 2.40
-13.88 2.44 2.40
-13.93 2.17 2.40
-13.99 1.89 2.40
-14.04 1.61 2.40
-14.08 1.33 2.40
-14.11 1.05 2.40
-14.15 0.76 2.40
-14.17 0.48 2.40
-14.19 0.19 2.40
-14.21 -0.09 2.40
-14.22 -0.38 2.40
-14.22 -0.66 2.40
-14.22 -0.95 2.40
-14.21 -1.24 2.40
-14.20 -1.52 2.40
-14.18 -1.81 2.40
-14.16 -2.10 2.40
-14.13 -2.38 2.40
-14.09 -2.67 2.40
-14.05 -2.95 2.40
-14.00 -3.24 2.40
-13.95 -3.52 2.40
-13.89 -3.81 2.40
-13.83 -4.09 2.40
-13.76 -4.37 2.40
-13.68 -4.65 2.40
-13.60 -4.93 2.40
-13.51 -5.21 2.40
-13.42 -5.48 2.40
-13.32 -5.76 2.40
-13.22 -6.03 2.40
-13.11 -6.30 2.40
-12.99 -6.57 2.40
-12.87 -6.84 2.40
-12.75 -7.10 2.40
-12.62 -7.37 2.40
-12.48 -7.63 2.40
-12.34 -7.88 2.40
-12.19 -8.14 2.40
-12.04 -8.39 2.40
-11.88 -8.64 2.40
-11.72 -8.89 2.40
-11.55 -9.13 2.40
-11.38 -9.37 2.40
-11.20 -9.61 2.40
-11.02 -9.84 2.40
-10.83 -10.07 2.40
-10.64 -10.30 2.40
-10.42 -10.51 2.39
-10.22 -10.72 2.39
-10.02 -10.94 2.39
-9.80 -11.15 2.39
-9.59 -11.36 2.39
-9.37 -11.56 2.39
-9.14 -11.75 2.39
-8.92 -11.95 2.39
-8.68 -12.14 2.39
-8.45 -12.32 2.39
-8.21 -12.50 2.39
-7.96 -12.67 2.39
-7.71 -12.84 2.39
-7.46 -13.01 2.39
-7.20 -13.17 2.39
-6.95 -13.32 2.39
-6.68 -13.47 2.39
-6.56 -13.92 2.45
-6.41 -14.34 2.50
-6.13 -14.48 2.50
-5.84 -14.61 2.50
-5.55 -14.74 2.50
-5.26 -14.86 2.50
-4.97 -14.98 2.50
-4.67 -15.08 2.50
-4.37 -15.19 2.50
-4.07 -15.28 2.50
-3.76 -15.37 2.50
-3.46 -15.46 2.50
-3.15 -15.53 2.50
-2.84 -15.60 2.50
-2.52 -15.67 2.50
-2.21 -15.73 2.50
-1.90 -15.78 2.50
-1.58 -15.82 2.50
-1.26 -15.86 2.50
-0.95 -15.89 2.50
-0.63 -15.91 2.50
-0.31 -15.93 2.50
0.01 -13.89 2.50
0.29 -13.89 2.50
0.57 -13.89 2.50
0.85 -13.88 2.50
1.12 -13.87 2.50
1.40 -13.84 2.50
1.61 -13.25 2.39
1.88 -13.22 2.39
2.14 -13.18 2.39
2.41 -13.14 2.39
2.67 -13.09 2.39
2.93 -13.04 2.39
3.19 -12.98 2.39
3.45 -12.91 2.39
3.71 -12.84 2.39
3.97 -12.77 2.39
4.22 -12.69 2.39
4.48 -12.60 2.39
4.73 -12.51 2.39
4.98 -12.42 2.39
5.22 -12.30 2.39
5.33 -11.90 2.33
5.44 -11.51 2.28
5.54 -11.13 2.22
5.62 -10.75 2.17
5.70 -10.38 2.12
5.76 -10.02 2.07
5.82 -9.67 2.02
5.90 -9.37 1.98
5.98 -9.08 1.94
6.05 -8.81 1.91
6.12 -8.54 1.88
6.18 -8.27 1.85
6.24 -8.00 1.82
6.30 -7.76 1.79
6.36 -7.52 1.76
6.42 -7.29 1.74
6.48 -7.06 1.72
6.53 -6.84 1.70
6.59 -6.63 1.68
6.64 -6.41 1.66
6.68 -6.21 1.64
6.73 -6.00 1.62
6.77 -5.79 1.60
6.80 -5.59 1.58
6.83 -5.39 1.56
6.86 -5.19 1.55
6.88 -5.00 1.53
6.91 -4.81 1.52
6.94 -4.62 1.50
6.96 -4.44 1.49
6.99 -4.27 1.48
7.04 -4.10 1.47
7.09 -3.94 1.46
7.13 -3.78 1.46
7.17 -3.62 1.45
7.22 -3.47 1.45
7.26 -3.31 1.44
7.30 -3.15 1.44
7.34 -3.00 1.44
7.38 -2.84 1.43
7.41 -2.68 1.43
7.45 -2.53 1.43
7.48 -2.37 1.43
7.50 -2.22 1.42
7.53 -2.06 1.42
7.55 -1.90 1.42
7.57 -1.75 1.42
7.59 -1.59 1.41
7.61 -1.44 1.41
7.63 -1.29 1.41
7.65 -1.13 1.41
7.66 -0.98 1.41
7.68 -0.82 1.42
7.70 -0.67 1.42
7.71 -0.51 1.42
7.73 -0.36 1.42
7.74 -0.21 1.42
7.74 -0.05 1.42
7.74 0.11 1.43
7.75 0.26 1.43
7.75 0.42 1.43
7.75 0.57 1.44
7.75 0.73 1.44
7.76 0.89 1.44
7.76 1.05 1.45
7.76 1.20 1.46
7.76 1.36 1.46
7.76 1.52 1.47
7.76 1.69 1.48
7.75 1.85 1.48
7.74 2.01 1.49
7.73 2.18 1.50
7.72 2.34 1.51
7.71 2.51 1.52
7.70 2.68 1.53
7.69 2.85 1.54
7.68 3.02 1.55
7.67 3.20 1.56
7.66 3.37 1.57
7.65 3.55 1.59
7.64 3.74 1.60
7.64 3.93 1.62
7.63 4.12 1.63
7.63 4.32 1.65
7.62 4.52 1.67
7.62 4.73 1.69
7.61 4.94 1.72
7.61 5.15 1.74
7.60 5.37 1.76
7.59 5.60 1.79
7.58 5.83 1.82
7.58 6.08 1.85
7.59 6.34 1.88
7.60 6.61 1.92
7.60 6.89 1.96
7.61 7.18 2.00
7.64 7.50 2.04
7.67 7.84 2.10
7.63 8.12 2.13
7.58 8.40 2.17
7.54 8.70 2.21
7.49 9.00 2.25
7.43 9.31 2.29
7.38 9.63 2.33
7.35 10.00 2.39
7.27 10.32 2.43
7.18 10.65 2.47
7.06 10.92 2.51
6.88 11.13 2.53
6.69 11.34 2.54
6.08 10.78 2.39
5.85 10.89 2.39
5.63 11.00 2.39
5.40 11.10 2.39
5.18 11.20 2.39
4.95 11.29 2.39
4.71 11.38 2.39
4.48 11.47 2.39
4.25 11.55 2.39
4.01 11.62 2.39
3.77 11.69 2.39
3.54 11.76 2.39
3.30 11.82 2.39
3.06 11.88 2.39
2.82 11.93 2.39
2.57 11.97 2.39
2.33 12.02 2.39
2.11 12.18 2.42
1.92 12.61 2.50
1.67 12.64 2.50
1.42 12.66 2.50
1.16 12.68 2.50
0.90 12.70 2.50
0.65 12.71 2.50
0.39 12.71 2.50
0.14 12.71 2.50
-0.12 12.71 2.50
-0.37 12.70 2.50
-0.63 12.68 2.50
-0.88 12.66 2.50
-1.14 12.64 2.50
-1.39 12.61 2.50
-1.64 12.58 2.50
-1.90 12.54 2.50
-2.15 12.49 2.50
-2.40 12.44 2.50
-2.65 12.39 2.50
-2.89 12.33 2.50
-3.14 12.27 2.50
-3.39 12.20 2.50
-3.63 12.13 2.50
-3.87 12.05 2.50
-4.11 11.97 2.50
-4.35 11.88 2.50
-4.59 11.79 2.50
-4.83 11.70 2.50
-5.06 11.60 2.50
-5.29 11.49 2.50
-5.52 11.39 2.50
-5.75 11.27 2.50
-5.97 11.14 2.49
-5.99 10.66 2.41
-6.18 10.49 2.40
-6.37 10.33 2.39
-6.57 10.20 2.39
-6.78 10.07 2.39
-6.98 9.93 2.39
-7.18 9.79 2.39
-7.38 9.65 2.39
-7.57 9.50 2.39
-7.76 9.35 2.39
-7.95 9.19 2.39
-8.14 9.03 2.39
-8.32 8.87 2.39
-8.50 8.70 2.39
-8.67 8.53 2.39
-8.85 8.36 2.39
-9.02 8.18 2.39
-9.18 8.00 2.39
-9.34 7.82 2.39
-9.50 7.63 2.39
-9.66 7.44 2.39
-9.81 7.25 2.39
-9.96 7.06 2.39
-10.12 6.87 2.40
-10.26 6.67 2.40
-10.40 6.46 2.40
-10.53 6.25 2.40
-10.66 6.04 2.40
-10.78 5.83 2.40
-10.90 5.62 2.40
-11.02 5.40 2.40
-11.13 5.18 2.40
-11.24 4.96 2.40
-11.35 4.74 2.40
-11.45 4.51 2.40
-11.54 4.28 2.40
-11.64 4.05 2.40
-11.72 3.82 2.40
-11.81 3.59 2.40
-11.88 3.35 2.40
-11.96 3.11 2.40
-12.03 2.87 2.40
-6.49 1.41 1.29
-12.15 2.39 2.40
-12.21 2.15 2.40
-12.26 1.90 2.40
-12.30 1.66 2.40
-12.34 1.41 2.40
-12.38 1.17 2.40
-12.41 0.92 2.40
-12.44 0.67 2.40
-12.46 0.42 2.40
-12.47 0.17 2.40
-12.49 -0.08 2.40
-12.49 -0.33 2.40
-12.49 -0.58 2.40
-12.49 -0.84 2.40
-12.48 -1.09 2.40
-12.47 -1.34 2.40
-12.45 -1.59 2.40
-12.43 -1.84 2.40
-12.40 -2.09 2.40
-12.37 -2.34 2.40
-12.33 -2.59 2.40
-12.29 -2.84 2.40
-12.24 -3.09 2.40
-12.19 -3.34 2.40
-12.13 -3.59 2.40
-12.07 -3.84 2.40
-12.00 -4.08 2.40
-11.93 -4.33 2.40
-11.85 -4.57 2.40
-11.77 -4.81 2.40
-11.68 -5.05 2.40
-11.59 -5.29 2.40
-11.49 -5.53 2.40
-11.39 -5.76 2.40
-11.28 -5.99 2.40
-11.17 -6.23 2.40
-11.05 -6.45 2.40
-10.93 -6.68 2.40
-10.80 -6.91 2.40
-10.67 -7.13 2.40
-10.54 -7.35 2.40
-10.39 -7.56 2.39
-10.24 -7.77 2.39
-10.09 -7.98 2.39
-9.94 -8.19 2.39
-9.78 -8.40 2.39
-9.62 -8.60 2.39
-9.46 -8.80 2.39
-9.29 -9.00 2.39
-9.11 -9.19 2.39
-8.94 -9.38 2.39
-8.75 -9.57 2.39
-8.57 -9.75 2.39
-8.38 -9.93 2.39
-8.19 -10.10 2.39
-7.99 -10.27 2.39
-7.79 -10.44 2.39
-7.58 -10.60 2.39
-7.38 -10.76 2.39
-7.16 -10.92 2.39
-6.95 -11.07 2.39
-6.73 -11.22 2.39
-6.51 -11.36 2.39
-6.51 -11.91 2.48
-6.32 -12.13 2.50
-6.08 -12.26 2.50
-5.84 -12.39 2.50
-5.59 -12.52 2.50
-5.35 -12.64 2.50
-5.10 -12.75 2.50
-4.84 -12.86 2.50
-4.59 -12.96 2.50
-4.33 -13.06 2.50
-4.07 -13.16 2.50
-3.81 -13.24 2.50
-3.54 -13.33 2.50
-3.28 -13.40 2.50
-3.01 -13.48 2.50
-2.74 -13.54 2.50
-2.47 -13.60 2.50
-2.20 -13.66 2.50
-1.93 -13.71 2.50
-1.65 -13.75 2.50
-1.38 -13.79 2.50
-1.10 -13.82 2.50
-0.82 -13.84 2.50
-0.55 -13.87 2.50
-0.27 -13.88 2.50
0.01 -12.29 2.50
0.26 -12.29 2.50
0.50 -12.29 2.50
0.75 -12.28 2.50
1.00 -12.27 2.50
1.24 -12.25 2.50
1.49 -12.23 2.50
1.66 -11.69 2.39
1.90 -11.66 2.39
2.13 -11.62 2.39
2.36 -11.58 2.39
2.59 -11.53 2.39
2.82 -11.48 2.39
3.05 -11.42 2.39
3.28 -11.36 2.39
3.51 -11.30 2.39
3.74 -11.22 2.39
3.96 -11.15 2.39
4.18 -11.07 2.39
4.41 -10.98 2.39
4.63 -10.89 2.39
4.84 -10.80 2.39
5.06 -10.70 2.39
5.25 -10.55 2.38
5.33 -10.20 2.33
5.40 -9.85 2.27
5.47 -9.51 2.22
5.54 -9.20 2.17
5.62 -8.93 2.13
5.70 -8.67 2.10
5.78 -8.41 2.06
5.84 -8.15 2.03
5.90 -7.89 1.99
5.96 -7.64 1.96
6.02 -7.42 1.93
6.09 -7.20 1.91
6.15 -6.98 1.88
6.21 -6.77 1.86
6.26 -6.56 1.84
6.31 -6.35 1.82
6.36 -6.15 1.79
6.41 -5.95 1.77
6.46 -5.76 1.76
6.50 -5.57 1.74
6.55 -5.39 1.72
6.59 -5.20 1.71
6.63 -5.02 1.69
6.67 -4.84 1.68
6.71 -4.67 1.66
6.74 -4.49 1.65
6.78 -4.33 1.64
6.83 -4.17 1.63
6.87 -4.01 1.62
6.92 -3.85 1.61
6.96 -3.70 1.61
7.01 -3.54 1.60
7.05 -3.39 1.60
7.09 -3.23 1.59
7.13 -3.08 1.59
7.17 -2.93 1.58
7.21 -2.78 1.58
7.25 -2.63 1.58
7.28 -2.47 1.58
7.31 -2.32 1.57
7.33 -2.17 1.57
7.36 -2.02 1.57
7.38 -1.86 1.56
7.40 -1.71 1.56
7.42 -1.56 1.56
7.44 -1.41 1.56
7.46 -1.26 1.56
7.47 -1.11 1.56
7.49 -0.96 1.56
7.51 -0.81 1.56
7.52 -0.66 1.56
7.54 -0.50 1.56
7.55 -0.35 1.57
7.56 -0.20 1.57
7.57 -0.05 1.57
7.57 0.10 1.57
7.57 0.25 1.57
7.58 0.41 1.58
7.58 0.56 1.58
7.58 0.71 1.59
7.58 0.87 1.59
7.58 1.02 1.60
7.58 1.18 1.60
7.58 1.33 1.61
7.58 1.49 1.62
7.58 1.65 1.62
7.57 1.81 1.63
7.56 1.96 1.64
7.55 2.12 1.65
7.54 2.29 1.66
7.53 2.45 1.67
7.52 2.61 1.68
7.51 2.78 1.69
7.50 2.95 1.70
7.48 3.12 1.71
7.47 3.29 1.72
7.46 3.46 1.74
7.45 3.64 1.75
7.44 3.82 1.77
7.43 4.01 1.79
7.42 4.20 1.81
7.42 4.40 1.83
7.41 4.60 1.85
7.40 4.80 1.88
7.39 5.01 1.90
7.38 5.22 1.93
7.37 5.44 1.95
7.36 5.66 1.98
7.35 5.89 2.01
7.35 6.14 2.05
7.35 6.39 2.08
7.35 6.66 2.12
7.35 6.93 2.17
7.35 7.22 2.21
7.35 7.51 2.26
7.38 7.85 2.31
7.33 8.12 2.35
7.28 8.39 2.39
7.23 8.68 2.43
7.17 8.97 2.47
7.11 9.28 2.52
6.99 9.50 2.55
6.84 9.71 2.57
6.69 9.91 2.59
6.00 9.29 2.39
5.81 9.40 2.39
5.62 9.51 2.39
5.42 9.61 2.39
5.22 9.71 2.39
5.02 9.81 2.39
4.82 9.90 2.39
4.62 9.99 2.39
4.41 10.07 2.39
4.21 10.15 2.39
4.00 10.23 2.39
3.79 10.30 2.39
3.58 10.37 2.39
3.37 10.43 2.39
3.16 10.49 2.39
2.94 10.55 2.39
2.73 10.60 2.39
2.52 10.65 2.39
2.30 10.69 2.39
2.08 10.73 2.39
1.95 11.23 2.50
1.72 11.26 2.50
1.49 11.28 2.50
1.26 11.31 2.50
1.04 11.33 2.50
0.81 11.34 2.50
0.58 11.35 2.50
0.35 11.35 2.50
0.12 11.35 2.50
-0.11 11.35 2.50
-0.33 11.34 2.50
-0.56 11.33 2.50
-0.79 11.31 2.50
-1.02 11.29 2.50
-1.24 11.26 2.50
-1.47 11.23 2.50
-1.69 11.20 2.50
-1.92 11.16 2.50
-2.14 11.12 2.50
-2.36 11.07 2.50
-2.59 11.02 2.50
-2.81 10.96 2.50
-3.03 10.90 2.50
-3.24 10.84 2.50
-3.46 10.77 2.50
-3.68 10.70 2.50
-3.89 10.62 2.50
-4.10 10.54 2.50
-4.31 10.45 2.50
-4.52 10.36 2.50
-4.73 10.27 2.50
-4.94 10.17 2.50
-5.14 10.07 2.50
-5.34 9.97 2.50
-5.54 9.86 2.50
-5.74 9.74 2.50
-5.93 9.63 2.50
-6.01 9.33 2.45
-6.06 9.00 2.39
-6.24 8.87 2.39
-6.41 8.75 2.39
-6.59 8.62 2.39
-6.76 8.49 2.39
-6.93 8.35 2.39
-7.10 8.21 2.39
-7.27 8.07 2.39
-7.43 7.92 2.39
-7.59 7.77 2.39
-7.75 7.62 2.39
-7.90 7.47 2.39
-8.05 7.31 2.39
-8.20 7.15 2.39
-8.35 6.98 2.39
-8.49 6.82 2.39
-8.63 6.65 2.39
-8.76 6.47 2.39
-8.89 6.30 2.39
-9.02 6.12 2.39
-9.15 5.94 2.39
-9.27 5.76 2.39
-9.39 5.58 2.39
-9.50 5.39 2.39
-9.61 5.20 2.39
-9.72 5.01 2.39
-9.83 4.81 2.39
-9.93 4.62 2.39
-10.02 4.42 2.39
-10.11 4.22 2.39
-10.22 4.02 2.40
-10.30 3.82 2.40
-10.38 3.61 2.40
-10.46 3.41 2.40
-10.53 3.20 2.40
-10.60 2.99 2.40
-10.67 2.77 2.40
-10.73 2.56 2.40
-6.46 1.41 1.44
-6.52 1.28 1.44
-10.88 1.91 2.40
-10.93 1.70 2.40
-10.97 1.48 2.40
-11.00 1.26 2.40
-11.03 1.04 2.40
-11.06 0.82 2.40
-11.08 0.59 2.40
-11.10 0.37 2.40
-11.12 0.15 2.40
-11.13 -0.08 2.40
-11.13 -0.30 2.40
-11.13 -0.52 2.40
-11.13 -0.75 2.40
-11.12 -0.97 2.40
-11.11 -1.20 2.40
-11.09 -1.42 2.40
-11.07 -1.64 2.40
-11.04 -1.87 2.40
-11.01 -2.09 2.40
-10.98 -2.31 2.40
-10.94 -2.53 2.40
-10.89 -2.76 2.40
-10.85 -2.98 2.40
-10.79 -3.20 2.40
-10.74 -3.42 2.40
-10.67 -3.63 2.40
-10.61 -3.85 2.40
-10.54 -4.07 2.40
-10.46 -4.28 2.40
-10.38 -4.49 2.40
-10.29 -4.70 2.39
-10.20 -4.91 2.39
-10.11 -5.12 2.39
-10.01 -5.32 2.39
-9.91 -5.53 2.39
-9.81 -5.73 2.39
-9.70 -5.93 2.39
-9.59 -6.13 2.39
-9.47 -6.33 2.39
-9.35 -6.52 2.39
-9.23 -6.71 2.39
-9.10 -6.90 2.39
-8.96 -7.09 2.39
-8.83 -7.28 2.39
-8.69 -7.46 2.39
-8.54 -7.64 2.39
-8.40 -7.81 2.39
-8.24 -7.99 2.39
-8.09 -8.16 2.39
-7.93 -8.33 2.39
-7.77 -8.49 2.39
-7.60 -8.65 2.39
-7.43 -8.81 2.39
-7.26 -8.96 2.39
-7.09 -9.12 2.39
-6.91 -9.26 2.39
-6.73 -9.41 2.39
-6.54 -9.55 2.39
-6.47 -9.86 2.44
-6.43 -10.24 2.50
-6.23 -10.37 2.50
-6.02 -10.51 2.50
-5.81 -10.63 2.50
-5.60 -10.75 2.50
-5.39 -10.87 2.50
-5.17 -10.99 2.50
-4.96 -11.09 2.50
-4.74 -11.20 2.50
-4.51 -11.30 2.50
-4.29 -11.40 2.50
-4.06 -11.49 2.50
-3.83 -11.57 2.50
-3.60 -11.65 2.50
-3.37 -11.73 2.50
-3.14 -11.80 2.50
-2.90 -11.87 2.50
-2.66 -11.93 2.50
-2.43 -11.99 2.50
-2.19 -12.04 2.50
-1.95 -12.09 2.50
-1.70 -12.13 2.50
-1.46 -12.17 2.50
-1.22 -12.20 2.50
-0.97 -12.23 2.50
-0.73 -12.25 2.50
-0.48 -12.27 2.50
-0.24 -12.28 2.50
0.01 -11.01 2.50
0.23 -11.01 2.50
0.45 -11.01 2.50
0.67 -11.00 2.50
0.89 -10.99 2.50
1.11 -10.97 2.50
1.33 -10.95 2.50
1.55 -10.93 2.50
1.70 -10.44 2.39
1.91 -10.41 2.39
2.12 -10.37 2.39
2.32 -10.33 2.39
2.53 -10.28 2.39
2.74 -10.23 2.39
2.94 -10.18 2.39
3.15 -10.12 2.39
3.35 -10.05 2.39
3.55 -9.98 2.39
3.75 -9.91 2.39
3.95 -9.84 2.39
4.14 -9.76 2.39
4.34 -9.67 2.39
4.53 -9.58 2.39
4.72 -9.49 2.39
4.91 -9.39 2.39
5.10 -9.29 2.39
5.21 -9.05 2.36
5.29 -8.78 2.31
5.37 -8.53 2.28
5.45 -8.28 2.24
5.51 -8.03 2.20
5.58 -7.78 2.16
5.64 -7.54 2.13
5.70 -7.31 2.09
5.77 -7.10 2.07
5.83 -6.89 2.04
5.89 -6.69 2.02
5.95 -6.49 1.99
6.01 -6.29 1.97
6.06 -6.10 1.94
6.11 -5.91 1.92
6.16 -5.72 1.90
6.21 -5.54 1.88
6.25 -5.36 1.86
6.30 -5.18 1.85
6.34 -5.01 1.83
6.38 -4.83 1.82
6.42 -4.66 1.80
6.46 -4.50 1.79
6.49 -4.33 1.77
6.52 -4.16 1.76
6.58 -4.02 1.75
6.66 -3.88 1.75
6.73 -3.75 1.75
6.80 -3.61 1.75
6.85 -3.46 1.75
6.89 -3.31 1.74
6.93 -3.16 1.74
6.97 -3.01 1.73
7.01 -2.86 1.73
7.05 -2.72 1.72
7.09 -2.57 1.72
7.12 -2.42 1.72
7.15 -2.27 1.71
7.17 -2.12 1.71
7.19 -1.97 1.71
7.21 -1.82 1.70
7.23 -1.67 1.70
7.25 -1.53 1.70
7.27 -1.38 1.70
7.29 -1.23 1.70
7.31 -1.08 1.70
7.33 -0.94 1.70
7.34 -0.79 1.70
7.36 -0.64 1.70
7.37 -0.50 1.70
7.39 -0.35 1.71
7.40 -0.20 1.71
7.40 -0.05 1.71
7.40 0.10 1.71
7.41 0.25 1.71
7.41 0.40 1.72
7.41 0.54 1.72
7.41 0.69 1.73
7.41 0.84 1.73
7.41 1.00 1.74
7.41 1.15 1.74
7.41 1.30 1.75
7.41 1.45 1.76
7.40 1.61 1.76
7.40 1.76 1.77
7.39 1.92 1.78
7.38 2.07 1.79
7.37 2.23 1.80
7.36 2.39 1.81
7.35 2.55 1.82
7.34 2.71 1.83
7.32 2.88 1.84
7.31 3.04 1.86
7.29 3.21 1.87
7.28 3.38 1.88
7.26 3.55 1.90
7.25 3.72 1.92
7.24 3.90 1.94
7.23 4.09 1.96
7.22 4.28 1.98
7.21 4.47 2.00
7.20 4.67 2.03
7.19 4.87 2.05
7.18 5.07 2.08
7.16 5.28 2.11
7.15 5.49 2.14
7.13 5.71 2.17
7.12 5.94 2.20
7.12 6.19 2.24
7.12 6.44 2.28
7.11 6.70 2.33
7.11 6.98 2.37
7.10 7.25 2.42
7.10 7.54 2.47
7.09 7.85 2.52
7.00 8.06 2.55
6.87 8.25 2.57
6.75 8.44 2.58
6.62 8.63 2.60
5.92 8.05 2.39
5.75 8.16 2.39
5.58 8.26 2.39
5.41 8.37 2.39
5.24 8.47 2.39
5.06 8.57 2.39
4.89 8.66 2.39
4.71 8.75 2.39
4.53 8.84 2.39
4.35 8.93 2.39
4.17 9.01 2.39
3.98 9.08 2.39
3.80 9.16 2.39
3.61 9.22 2.39
3.42 9.29 2.39
3.23 9.35 2.39
3.04 9.41 2.39
2.85 9.46 2.39
2.66 9.51 2.39
2.46 9.56 2.39
2.27 9.60 2.39
2.08 9.64 2.39
1.96 10.10 2.50
1.76 10.13 2.50
1.55 10.16 2.50
1.35 10.18 2.50
1.14 10.20 2.50
0.94 10.22 2.50
0.73 10.23 2.50
0.52 10.24 2.50
0.32 10.25 2.50
0.11 10.25 2.50
-0.09 10.24 2.50
-0.30 10.24 2.50
-0.51 10.23 2.50
-0.71 10.21 2.50
-0.92 10.19 2.50
-1.12 10.17 2.50
-1.32 10.14 2.50
-1.53 10.11 2.50
-1.73 10.08 2.50
-1.93 10.04 2.50
-2.13 9.99 2.50
-2.33 9.95 2.50
-2.53 9.90 2.50
-2.73 9.84 2.50
-2.93 9.78 2.50
-3.12 9.72 2.50
-3.32 9.66 2.50
-3.51 9.59 2.50
-3.70 9.51 2.50
-3.89 9.44 2.50
-4.08 9.36 2.50
-4.27 9.27 2.50
-4.46 9.18 2.50
-4.64 9.09 2.50
-4.82 9.00 2.50
-5.00 8.90 2.50
-5.18 8.80 2.50
-5.36 8.69 2.50
-5.53 8.58 2.50
-5.70 8.47 2.50
-5.87 8.36 2.50
-6.04 8.23 2.49
-6.05 7.91 2.43
-6.11 7.66 2.39
-6.26 7.54 2.39
-6.41 7.41 2.39
-6.56 7.28 2.39
-6.71 7.15 2.39
-6.85 7.02 2.39
-6.99 6.88 2.39
-7.13 6.74 2.39
-7.27 6.60 2.39
-7.40 6.45 2.39
-7.53 6.30 2.39
-7.66 6.15 2.39
-7.79 6.00 2.39
-7.91 5.84 2.39
-8.03 5.68 2.39
-8.14 5.52 2.39
-8.26 5.36 2.39
-8.36 5.20 2.39
-8.47 5.03 2.39
-8.57 4.86 2.39
-8.67 4.69 2.39
-8.77 4.52 2.39
-8.86 4.34 2.39
-8.95 4.16 2.39
-9.04 3.98 2.39
-9.12 3.80 2.39
-9.20 3.62 2.39
-9.28 3.44 2.39
-9.35 3.25 2.39
-9.42 3.07 2.39
-9.49 2.88 2.39
-9.55 2.69 2.39
-9.60 2.50 2.39
-9.66 2.30 2.39
-6.46 1.40 1.59
-6.52 1.28 1.60
-9.80 1.72 2.39
-9.84 1.53 2.39
-9.87 1.33 2.39
-9.90 1.13 2.39
-9.93 0.93 2.39
-9.96 0.73 2.39
-9.97 0.53 2.39
-9.99 0.33 2.39
-10.00 0.13 2.39
-10.01 -0.07 2.39
-10.01 -0.27 2.39
-10.01 -0.47 2.39
-10.01 -0.67 2.39
-10.00 -0.88 2.39
-9.99 -1.08 2.39
-9.97 -1.28 2.39
-9.95 -1.48 2.39
-9.93 -1.68 2.39
-9.90 -1.88 2.39
-9.87 -2.08 2.39
-9.83 -2.28 2.39
-9.79 -2.48 2.39
-9.75 -2.68 2.39
-9.70 -2.87 2.39
-9.65 -3.07 2.39
-9.59 -3.27 2.39
-9.53 -3.46 2.39
-9.47 -3.66 2.39
-9.40 -3.85 2.39
-9.33 -4.04 2.39
-9.25 -4.23 2.39
-9.17 -4.42 2.39
-9.09 -4.60 2.39
-9.00 -4.79 2.39
-8.91 -4.97 2.39
-8.82 -5.15 2.39
-8.72 -5.34 2.39
-8.62 -5.51 2.39
-8.51 -5.69 2.39
-8.40 -5.86 2.39
-8.29 -6.04 2.39
-8.17 -6.21 2.39
-8.05 -6.37 2.39
-7.93 -6.54 2.39
-7.80 -6.70 2.39
-7.67 -6.86 2.39
-7.54 -7.02 2.39
-7.40 -7.18 2.39
-7.26 -7.33 2.39
-7.12 -7.48 2.39
-6.97 -7.63 2.39
-6.83 -7.77 2.39
-6.67 -7.91 2.39
-6.52 -8.05 2.39
-6.43 -8.28 2.42
-6.44 -8.64 2.48
-6.30 -8.81 2.50
-6.12 -8.94 2.50
-5.95 -9.07 2.50
-5.77 -9.19 2.50
-5.58 -9.31 2.50
-5.40 -9.43 2.50
-5.21 -9.54 2.50
-5.02 -9.65 2.50
-4.83 -9.75 2.50
-4.64 -9.86 2.50
-4.44 -9.95 2.50
-4.25 -10.05 2.50
-4.05 -10.13 2.50
-3.84 -10.22 2.50
-3.64 -10.30 2.50
-3.44 -10.38 2.50
-3.23 -10.45 2.50
-3.02 -10.52 2.50
-2.81 -10.58 2.50
-2.60 -10.64 2.50
-2.39 -10.70 2.50
-2.17 -10.75 2.50
-1.96 -10.80 2.50
-1.74 -10.84 2.50
-1.53 -10.88 2.50
-1.31 -10.91 2.50
-1.09 -10.94 2.50
-0.87 -10.96 2.50
-0.65 -10.98 2.50
-0.43 -11.00 2.50
-0.21 -11.01 2.50
0.01 -9.97 2.50
0.21 -9.97 2.50
0.41 -9.96 2.50
0.61 -9.96 2.50
0.81 -9.95 2.50
1.01 -9.93 2.50
1.21 -9.91 2.50
1.41 -9.89 2.50
1.59 -9.75 2.47
1.73 -9.42 2.39
1.91 -9.38 2.39
2.10 -9.35 2.39
2.29 -9.30 2.39
2.48 -9.26 2.39
2.66 -9.21 2.39
2.85 -9.15 2.39
3.03 -9.09 2.39
3.21 -9.03 2.39
3.39 -8.97 2.39
3.57 -8.90 2.39
3.75 -8.83 2.39
3.92 -8.75 2.39
4.10 -8.67 2.39
4.27 -8.58 2.39
4.44 -8.50 2.39
4.61 -8.41 2.39
4.78 -8.31 2.39
4.94 -8.21 2.39
5.11 -8.11 2.39
5.20 -7.91 2.36
5.27 -7.67 2.32
5.34 -7.44 2.29
5.40 -7.22 2.25
5.46 -7.01 2.22
5.53 -6.81 2.19
5.59 -6.61 2.16
5.66 -6.42 2.14
5.71 -6.23 2.11
5.77 -6.04 2.09
5.82 -5.86 2.07
5.87 -5.68 2.04
5.92 -5.50 2.02
5.97 -5.33 2.00
6.02 -5.16 1.98
6.06 -4.99 1.97
6.11 -4.82 1.95
6.15 -4.66 1.93
6.19 -4.50 1.92
6.22 -4.34 1.90
6.25 -4.17 1.89
6.28 -4.01 1.87
6.31 -3.85 1.86
6.39 -3.73 1.86
6.46 -3.60 1.86
6.53 -3.47 1.86
6.61 -3.34 1.86
6.68 -3.21 1.86
6.75 -3.08 1.87
6.81 -2.94 1.87
6.85 -2.80 1.87
6.89 -2.66 1.86
6.93 -2.51 1.86
6.96 -2.37 1.86
6.99 -2.22 1.85
7.01 -2.08 1.85
7.03 -1.93 1.84
7.05 -1.78 1.84
7.08 -1.64 1.84
7.09 -1.49 1.84
7.11 -1.35 1.83
7.13 -1.21 1.83
7.15 -1.06 1.83
7.17 -0.92 1.83
7.18 -0.77 1.84
7.20 -0.63 1.84
7.21 -0.49 1.84
7.23 -0.34 1.84
7.23 -0.20 1.84
7.24 -0.05 1.84
7.24 0.09 1.85
7.24 0.24 1.85
7.25 0.39 1.85
7.25 0.53 1.86
7.25 0.68 1.86
7.25 0.82 1.87
7.25 0.97 1.87
7.25 1.12 1.88
7.24 1.27 1.89
7.24 1.42 1.89
7.24 1.57 1.90
7.23 1.72 1.91
7.23 1.87 1.92
7.22 2.03 1.93
7.20 2.18 1.94
7.19 2.34 1.95
7.18 2.49 1.96
7.17 2.65 1.97
7.15 2.81 1.98
7.14 2.97 2.00
7.12 3.13 2.01
7.10 3.30 2.03
7.09 3.46 2.04
7.07 3.63 2.06
7.05 3.80 2.08
7.04 3.98 2.10
7.03 4.16 2.12
7.02 4.35 2.15
7.01 4.54 2.17
6.99 4.73 2.20
6.96 4.91 2.22
6.91 5.10 2.24
6.87 5.28 2.26
6.82 5.46 2.28
6.77 5.65 2.30
6.72 5.84 2.33
6.66 6.03 2.35
6.60 6.22 2.38
6.56 6.43 2.41
6.52 6.66 2.44
6.47 6.88 2.48
6.43 7.11 2.52
5.97 6.88 2.39
5.82 6.99 2.39
5.68 7.10 2.39
5.53 7.21 2.39
5.38 7.31 2.39
5.23 7.41 2.39
5.08 7.51 2.39
4.92 7.61 2.39
4.76 7.70 2.39
4.61 7.79 2.39
4.45 7.88 2.39
4.28 7.96 2.39
4.12 8.04 2.39
3.96 8.12 2.39
3.79 8.19 2.39
3.62 8.26 2.39
3.45 8.33 2.39
3.28 8.39 2.39
3.11 8.45 2.39
2.94 8.51 2.39
2.77 8.56 2.39
2.59 8.61 2.39
2.42 8.66 2.39
2.24 8.70 2.39
2.07 8.74 2.39
1.97 9.15 2.50
1.79 9.19 2.50
1.60 9.22 2.50
1.41 9.24 2.50
1.23 9.27 2.50
1.04 9.29 2.50
0.85 9.30 2.50
0.67 9.31 2.50
0.48 9.32 2.50
0.29 9.33 2.50
0.10 9.33 2.50
-0.08 9.33 2.50
-0.27 9.32 2.50
-0.46 9.31 2.50
-0.65 9.30 2.50
-0.83 9.28 2.50
-1.02 9.26 2.50
-1.21 9.23 2.50
-1.39 9.21 2.50
-1.57 9.17 2.50
-1.76 9.14 2.50
-1.94 9.10 2.50
-2.12 9.06 2.50
-2.31 9.01 2.50
-2.49 8.96 2.50
-2.67 8.91 2.50
-2.84 8.85 2.50
-3.02 8.79 2.50
-3.20 8.73 2.50
-3.37 8.66 2.50
-3.55 8.59 2.50
-3.72 8.52 2.50
-3.89 8.44 2.50
-4.06 8.36 2.50
-4.23 8.28 2.50
-4.39 8.19 2.50
-4.56 8.10 2.50
-4.72 8.01 2.50
-4.88 7.92 2.50
-5.04 7.82 2.50
-5.19 7.71 2.50
-5.35 7.61 2.50
-5.50 7.50 2.50
-5.65 7.39 2.50
-5.80 7.28 2.50
-5.95 7.16 2.50
-6.07 7.01 2.49
-6.08 6.74 2.43
-6.11 6.51 2.39
-6.24 6.39 2.39
-6.37 6.26 2.39
-6.49 6.13 2.39
-6.62 6.00 2.39
-6.74 5.87 2.39
-6.86 5.74 2.39
-6.97 5.60 2.39
-7.09 5.46 2.39
-7.20 5.32 2.39
-7.31 5.17 2.39
-7.41 5.03 2.39
-7.51 4.88 2.39
-7.61 4.73 2.39
-7.71 4.58 2.39
-7.80 4.42 2.39
-7.89 4.27 2.39
-7.98 4.11 2.39
-8.07 3.95 2.39
-8.15 3.79 2.39
-8.23 3.62 2.39
-8.30 3.46 2.39
-8.37 3.29 2.39
-8.44 3.13 2.39
-8.51 2.96 2.39
-8.57 2.79 2.39
-8.63 2.62 2.39
-8.68 2.44 2.39
-8.74 2.27 2.39
-8.79 2.09 2.39
-6.46 1.40 1.75
-6.52 1.28 1.76
-8.91 1.56 2.39
-8.95 1.39 2.39
-8.98 1.21 2.39
-9.01 1.03 2.39
-9.03 0.85 2.39
-9.05 0.66 2.39
-9.07 0.48 2.39
-9.08 0.30 2.39
-9.09 0.12 2.39
-9.10 -0.06 2.39
-9.10 -0.25 2.39
-9.10 -0.43 2.39
-9.10 -0.61 2.39
-9.09 -0.80 2.39
-9.08 -0.98 2.39
-9.06 -1.16 2.39
-9.04 -1.35 2.39
-9.02 -1.53 2.39
-8.99 -1.71 2.39
-8.96 -1.89 2.39
-8.93 -2.07 2.39
-8.89 -2.25 2.39
-8.85 -2.43 2.39
-8.81 -2.61 2.39
-8.76 -2.79 2.39
-8.71 -2.97 2.39
-8.65 -3.14 2.39
-8.60 -3.32 2.39
-8.53 -3.49 2.39
-8.47 -3.67 2.39
-8.40 -3.84 2.39
-8.33 -4.01 2.39
-8.25 -4.18 2.39
-8.17 -4.35 2.39
-8.09 -4.51 2.39
-8.00 -4.68 2.39
-7.91 -4.84 2.39
-7.82 -5.00 2.39
-7.72 -5.16 2.39
-7.62 -5.32 2.39
-7.52 -5.48 2.39
-7.41 -5.63 2.39
-7.30 -5.78 2.39
-7.19 -5.93 2.39
-7.08 -6.08 2.39
-6.96 -6.23 2.39
-6.84 -6.37 2.39
-6.71 -6.51 2.39
-6.58 -6.65 2.39
-6.45 -6.78 2.39
-6.40 -7.00 2.42
-6.40 -7.29 2.48
-6.31 -7.48 2.50
-6.16 -7.61 2.50
-6.01 -7.74 2.50
-5.86 -7.86 2.50
-5.70 -7.98 2.50
-5.55 -8.10 2.50
-5.39 -8.22 2.50
-5.22 -8.33 2.50
-5.06 -8.44 2.50
-4.89 -8.54 2.50
-4.72 -8.64 2.50
-4.55 -8.74 2.50
-4.38 -8.84 2.50
-4.20 -8.93 2.50
-4.02 -9.01 2.50
-3.84 -9.10 2.50
-3.66 -9.18 2.50
-3.48 -9.26 2.50
-3.30 -9.33 2.50
-3.11 -9.40 2.50
-2.92 -9.46 2.50
-2.73 -9.52 2.50
-2.54 -9.58 2.50
-2.35 -9.64 2.50
-2.16 -9.69 2.50
-1.97 -9.73 2.50
-1.77 -9.77 2.50
-1.58 -9.81 2.50
-1.38 -9.84 2.50
-1.18 -9.87 2.50
-0.99 -9.90 2.50
-0.79 -9.92 2.50
-0.59 -9.94 2.50
-0.39 -9.95 2.50
-0.19 -9.96 2.50
0.01 -9.09 2.50
0.19 -9.09 2.50
0.37 -9.09 2.50
0.56 -9.08 2.50
0.74 -9.07 2.50
0.92 -9.06 2.50
1.10 -9.04 2.50
1.28 -9.02 2.50
1.46 -8.99 2.50
1.61 -8.77 2.44
1.75 -8.56 2.39
1.92 -8.52 2.39
2.09 -8.49 2.39
2.26 -8.44 2.39
2.43 -8.40 2.39
2.60 -8.35 2.39
2.76 -8.29 2.39
2.93 -8.24 2.39
3.09 -8.18 2.39
3.26 -8.12 2.39
3.42 -8.05 2.39
3.58 -7.98 2.39
3.74 -7.91 2.39
3.90 -7.83 2.39
4.05 -7.75 2.39
4.21 -7.67 2.39
4.36 -7.58 2.39
4.51 -7.49 2.39
4.66 -7.40 2.39
4.80 -7.30 2.39
4.95 -7.20 2.39
5.09 -7.10 2.39
5.17 -6.92 2.37
5.24 -6.73 2.33
5.31 -6.54 2.31
5.37 -6.35 2.28
5.43 -6.17 2.25
5.49 -5.99 2.23
5.55 -5.81 2.20
5.60 -5.64 2.18
5.65 -5.47 2.16
5.70 -5.30 2.13
5.75 -5.13 2.11
5.80 -4.97 2.09
5.84 -4.81 2.08
5.89 -4.65 2.06
5.93 -4.49 2.04
5.97 -4.34 2.03
6.00 -4.18 2.01
6.03 -4.02 1.99
6.06 -3.87 1.98
6.09 -3.72 1.96
6.13 -3.58 1.95
6.21 -3.46 1.96
6.28 -3.33 1.96
6.35 -3.21 1.96
6.41 -3.08 1.96
6.48 -2.96 1.96
6.55 -2.83 1.97
6.61 -2.70 1.97
6.68 -2.57 1.98
6.74 -2.44 1.98
6.80 -2.31 1.99
6.84 -2.17 1.98
6.86 -2.03 1.98
6.88 -1.89 1.98
6.90 -1.75 1.97
6.92 -1.60 1.97
6.94 -1.46 1.97
6.96 -1.32 1.97
6.98 -1.18 1.96
7.00 -1.04 1.96
7.01 -0.90 1.96
7.03 -0.76 1.97
7.04 -0.62 1.97
7.06 -0.48 1.97
7.07 -0.34 1.97
7.08 -0.19 1.97
7.08 -0.05 1.98
7.08 0.09 1.98
7.09 0.23 1.98
7.09 0.38 1.98
7.09 0.52 1.99
7.09 0.66 1.99
7.09 0.81 2.00
7.09 0.95 2.00
7.09 1.09 2.01
7.08 1.24 2.02
7.08 1.39 2.03
7.08 1.53 2.03
7.07 1.68 2.04
7.07 1.83 2.05
7.05 1.98 2.06
7.04 2.13 2.07
7.03 2.28 2.08
7.02 2.43 2.10
7.00 2.59 2.11
6.99 2.74 2.12
6.97 2.90 2.13
6.96 3.06 2.15
6.92 3.21 2.16
6.87 3.36 2.17
6.83 3.50 2.18
6.78 3.65 2.18
6.73 3.80 2.19
6.69 3.96 2.21
6.66 4.12 2.23
6.62 4.29 2.24
6.58 4.45 2.26
6.54 4.62 2.28
6.50 4.79 2.30
6.45 4.96 2.32
6.41 5.13 2.34
6.35 5.30 2.36
6.30 5.47 2.38
6.24 5.65 2.41
6.18 5.82 2.43
5.97 5.85 2.39
5.84 5.96 2.39
5.72 6.08 2.39
5.59 6.19 2.39
5.46 6.29 2.39
5.33 6.40 2.39
5.20 6.50 2.39
5.07 6.60 2.39
4.93 6.70 2.39
4.79 6.79 2.39
4.65 6.88 2.39
4.51 6.97 2.39
4.37 7.05 2.39
4.22 7.14 2.39
4.07 7.22 2.39
3.93 7.29 2.39
3.78 7.37 2.39
3.63 7.44 2.39
3.47 7.50 2.39
3.32 7.57 2.39
3.17 7.63 2.39
3.01 7.69 2.39
2.85 7.74 2.39
2.70 7.80 2.39
2.54 7.84 2.39
2.38 7.89 2.39
2.22 7.93 2.39
2.06 7.97 2.39
1.98 8.35 2.50
1.81 8.39 2.50
1.64 8.42 2.50
1.47 8.45 2.50
1.30 8.47 2.50
1.13 8.49 2.50
0.96 8.51 2.50
0.78 8.53 2.50
0.61 8.54 2.50
0.44 8.55 2.50
0.27 8.55 2.50
0.10 8.55 2.50
-0.08 8.55 2.50
-0.25 8.54 2.50
-0.42 8.54 2.50
-0.59 8.52 2.50
-0.76 8.51 2.50
-0.93 8.49 2.50
-1.10 8.47 2.50
-1.27 8.44 2.50
-1.44 8.41 2.50
-1.61 8.38 2.50
-1.78 8.34 2.50
-1.95 8.31 2.50
-2.11 8.26 2.50
-2.28 8.22 2.50
-2.44 8.17 2.50
-2.61 8.12 2.50
-2.77 8.06 2.50
-2.93 8.01 2.50
-3.09 7.94 2.50
-3.25 7.88 2.50
-3.41 7.81 2.50
-3.57 7.74 2.50
-3.72 7.67 2.50
-3.87 7.59 2.50
-4.03 7.51 2.50
-4.18 7.43 2.50
-4.33 7.35 2.50
-4.47 7.26 2.50
-4.62 7.17 2.50
-4.76 7.07 2.50
-4.90 6.98 2.50
-5.04 6.88 2.50
-5.18 6.78 2.50
-5.32 6.67 2.50
-5.45 6.56 2.50
-5.58 6.45 2.50
-5.71 6.34 2.50
-5.84 6.23 2.50
-5.97 6.11 2.50
-6.09 5.99 2.50
-6.10 5.76 2.45
-6.11 5.54 2.41
-6.18 5.38 2.39
-6.30 5.27 2.40
-6.39 5.13 2.39
-6.50 5.00 2.39
-6.60 4.87 2.39
-6.70 4.74 2.39
-6.79 4.61 2.39
-6.89 4.47 2.39
-6.98 4.33 2.39
-7.07 4.19 2.39
-7.15 4.05 2.39
-7.24 3.91 2.39
-7.32 3.76 2.39
-7.39 3.62 2.39
-7.47 3.47 2.39
-7.54 3.32 2.39
-7.61 3.17 2.39
-7.67 3.02 2.39
-7.74 2.86 2.39
-7.80 2.71 2.39
-7.85 2.55 2.39
-7.91 2.40 2.39
-7.96 2.24 2.39
-8.00 2.08 2.39
-8.05 1.92 2.39
-6.46 1.40 1.91
-6.52 1.28 1.92
-8.16 1.43 2.39
-8.19 1.27 2.39
-8.22 1.10 2.39
-8.25 0.94 2.39
-8.27 0.77 2.39
-8.29 0.61 2.39
-8.30 0.44 2.39
-8.32 0.27 2.39
-8.33 0.11 2.39
-8.33 -0.06 2.39
-8.33 -0.23 2.39
-8.33 -0.40 2.39
-8.33 -0.56 2.39
-8.32 -0.73 2.39
-8.31 -0.90 2.39
-8.29 -1.07 2.39
-8.28 -1.23 2.39
-8.26 -1.40 2.39
-8.23 -1.57 2.39
-8.20 -1.73 2.39
-8.17 -1.90 2.39
-8.14 -2.06 2.39
-8.10 -2.23 2.39
-8.06 -2.39 2.39
-8.01 -2.56 2.39
-7.97 -2.72 2.39
-7.92 -2.88 2.39
-7.86 -3.04 2.39
-7.80 -3.20 2.39
-7.74 -3.36 2.39
-7.68 -3.51 2.39
-7.61 -3.67 2.39
-7.54 -3.82 2.39
-7.47 -3.98 2.39
-7.39 -4.13 2.39
-7.31 -4.28 2.39
-7.23 -4.43 2.39
-7.15 -4.58 2.39
-7.06 -4.72 2.39
-6.97 -4.87 2.39
-6.87 -5.01 2.39
-6.77 -5.15 2.39
-6.67 -5.29 2.39
-6.57 -5.42 2.39
-6.47 -5.56 2.39
-6.38 -5.71 2.40
-6.37 -5.94 2.44
-6.38 -6.19 2.49
-6.27 -6.34 2.50
-6.15 -6.46 2.50
-6.02 -6.59 2.50
-5.89 -6.71 2.50
-5.76 -6.84 2.50
-5.63 -6.95 2.50
-5.49 -7.07 2.50
-5.35 -7.18 2.50
-5.21 -7.29 2.50
-5.06 -7.40 2.50
-4.92 -7.51 2.50
-4.77 -7.61 2.50
-4.62 -7.71 2.50
-4.46 -7.80 2.50
-4.31 -7.89 2.50
-4.15 -7.98 2.50
-3.99 -8.07 2.50
-3.83 -8.15 2.50
-3.67 -8.23 2.50
-3.51 -8.31 2.50
-3.34 -8.38 2.50
-3.18 -8.45 2.50
-3.01 -8.52 2.50
-2.84 -8.58 2.50
-2.67 -8.64 2.50
-2.49 -8.69 2.50
-2.32 -8.75 2.50
-2.15 -8.79 2.50
-1.97 -8.84 2.50
-1.79 -8.88 2.50
-1.62 -8.92 2.50
-1.44 -8.95 2.50
-1.26 -8.98 2.50
-1.08 -9.01 2.50
-0.90 -9.03 2.50
-0.72 -9.05 2.50
-0.54 -9.07 2.50
-0.35 -9.08 2.50
-0.17 -9.09 2.50
0.01 -8.35 2.50
0.18 -8.35 2.50
0.34 -8.35 2.50
0.51 -8.34 2.50
0.68 -8.33 2.50
0.85 -8.32 2.50
1.01 -8.30 2.50
1.18 -8.28 2.50
1.34 -8.26 2.50
1.51 -8.23 2.50
1.63 -7.98 2.43
1.76 -7.83 2.39
1.92 -7.79 2.39
2.07 -7.75 2.39
2.23 -7.71 2.39
2.38 -7.66 2.39
2.54 -7.62 2.39
2.69 -7.56 2.39
2.84 -7.51 2.39
2.99 -7.45 2.39
3.14 -7.39 2.39
3.29 -7.33 2.39
3.43 -7.26 2.39
3.58 -7.19 2.39
3.72 -7.12 2.39
3.86 -7.04 2.39
4.00 -6.96 2.39
4.14 -6.88 2.39
4.28 -6.79 2.39
4.41 -6.71 2.39
4.54 -6.62 2.39
4.67 -6.52 2.39
4.80 -6.43 2.39
4.93 -6.33 2.39
5.06 -6.23 2.39
5.16 -6.11 2.38
5.22 -5.93 2.36
5.28 -5.76 2.33
5.34 -5.59 2.31
5.39 -5.43 2.28
5.44 -5.27 2.26
5.49 -5.10 2.24
5.54 -4.95 2.22
5.59 -4.79 2.20
5.63 -4.64 2.18
5.68 -4.49 2.16
5.72 -4.34 2.15
5.75 -4.18 2.13
5.79 -4.03 2.11
5.82 -3.88 2.09
5.85 -3.74 2.08
5.88 -3.59 2.06
5.90 -3.45 2.05
5.97 -3.33 2.05
6.04 -3.21 2.05
6.10 -3.09 2.05
6.17 -2.97 2.05
6.23 -2.85 2.06
6.29 -2.72 2.06
6.36 -2.60 2.06
6.42 -2.48 2.07
6.48 -2.35 2.07
6.51 -2.22 2.07
6.52 -2.08 2.06
6.55 -1.94 2.06
6.60 -1.81 2.06
6.64 -1.68 2.07
6.68 -1.55 2.07
6.72 -1.42 2.07
6.76 -1.29 2.08
6.80 -1.15 2.08
6.83 -1.02 2.09
6.86 -0.88 2.09
6.88 -0.74 2.09
6.89 -0.61 2.09
6.91 -0.47 2.10
6.92 -0.33 2.10
6.93 -0.19 2.10
6.93 -0.05 2.10
6.93 0.09 2.10
6.94 0.23 2.11
6.94 0.37 2.11
6.94 0.51 2.12
6.94 0.65 2.12
6.94 0.79 2.13
6.94 0.93 2.13
6.93 1.07 2.14
6.93 1.21 2.15
6.93 1.35 2.15
6.92 1.50 2.16
6.92 1.64 2.17
6.90 1.79 2.18
6.87 1.93 2.18
6.84 2.07 2.19
6.81 2.21 2.19
6.78 2.35 2.20
6.74 2.49 2.20
6.70 2.63 2.21
6.67 2.77 2.22
6.63 2.91 2.22
6.58 3.05 2.23
6.54 3.19 2.24
6.49 3.33 2.25
6.45 3.47 2.26
6.40 3.61 2.27
6.35 3.75 2.27
6.30 3.90 2.29
6.26 4.05 2.30
6.22 4.21 2.32
6.18 4.36 2.34
6.13 4.51 2.36
6.08 4.67 2.37
6.03 4.83 2.39
5.93 4.94 2.39
5.82 5.05 2.39
5.72 5.17 2.39
5.61 5.28 2.39
5.50 5.39 2.39
5.38 5.49 2.39
5.27 5.60 2.39
5.15 5.70 2.39
5.03 5.80 2.39
4.91 5.89 2.39
4.79 5.99 2.39
4.67 6.08 2.39
4.54 6.17 2.39
4.42 6.26 2.39
4.29 6.34 2.39
4.16 6.42 2.39
4.02 6.50 2.39
3.89 6.58 2.39
3.76 6.65 2.39
3.62 6.72 2.39
3.48 6.79 2.39
3.34 6.85 2.39
3.20 6.92 2.39
3.06 6.98 2.39
2.92 7.03 2.39
2.78 7.09 2.39
2.63 7.14 2.39
2.49 7.19 2.39
2.34 7.23 2.39
2.20 7.29 2.40
2.05 7.31 2.39
1.98 7.67 2.50
1.82 7.70 2.50
1.67 7.73 2.50
1.51 7.76 2.50
1.35 7.79 2.50
1.20 7.81 2.50
1.04 7.83 2.50
0.88 7.85 2.50
0.72 7.86 2.50
0.56 7.87 2.50
0.41 7.88 2.50
0.25 7.89 2.50
0.09 7.89 2.50
-0.07 7.88 2.50
-0.23 7.88 2.50
-0.39 7.87 2.50
-0.55 7.86 2.50
-0.70 7.85 2.50
-0.86 7.83 2.50
-1.02 7.81 2.50
-1.17 7.78 2.50
-1.33 7.76 2.50
-1.49 7.73 2.50
-1.64 7.70 2.50
-1.80 7.66 2.50
-1.95 7.62 2.50
-2.10 7.58 2.50
-2.25 7.54 2.50
-2.41 7.49 2.50
-2.56 7.44 2.50
-2.70 7.38 2.50
-2.85 7.33 2.50
-3.00 7.27 2.50
-3.14 7.21 2.50
-3.29 7.14 2.50
-3.43 7.07 2.50
-3.57 7.00 2.50
-3.71 6.93 2.50
-3.85 6.85 2.50
-3.99 6.78 2.50
-4.13 6.69 2.50
-4.26 6.61 2.50
-4.39 6.52 2.50
-4.52 6.44 2.50
-4.65 6.34 2.50
-4.78 6.25 2.50
-4.91 6.15 2.50
-5.03 6.05 2.50
-5.15 5.95 2.50
-5.27 5.85 2.50
-5.39 5.74 2.50
-5.50 5.63 2.50
-5.62 5.52 2.50
-5.73 5.41 2.50
-5.84 5.29 2.50
-5.94 5.18 2.50
-6.05 5.06 2.50
-6.12 4.91 2.48
-6.12 4.71 2.44
-6.13 4.53 2.41
-6.18 4.37 2.39
-6.27 4.25 2.39
-6.35 4.12 2.39
-6.44 4.00 2.39
-6.52 3.87 2.39
-6.60 3.74 2.39
-6.67 3.60 2.39
-6.75 3.47 2.39
-6.82 3.33 2.39
-6.89 3.20 2.39
-6.95 3.06 2.39
-7.01 2.92 2.39
-7.07 2.78 2.39
-7.13 2.64 2.39
-7.19 2.50 2.39
-7.24 2.35 2.39
-7.29 2.21 2.39
-7.33 2.06 2.39
-7.38 1.91 2.39
-7.42 1.77 2.39
-6.46 1.40 2.07
-6.52 1.28 2.08
-7.52 1.32 2.39
-7.55 1.17 2.39
-7.58 1.02 2.39
-7.60 0.86 2.39
-7.62 0.71 2.39
-7.64 0.56 2.39
-7.65 0.40 2.39
-7.66 0.25 2.39
-7.67 0.10 2.39
-7.67 -0.06 2.39
-7.68 -0.21 2.39
-7.68 -0.37 2.39
-7.67 -0.52 2.39
-7.66 -0.68 2.39
-7.65 -0.83 2.39
-7.64 -0.98 2.39
-7.62 -1.14 2.39
-7.60 -1.29 2.39
-7.58 -1.44 2.39
-7.55 -1.60 2.39
-7.52 -1.75 2.39
-7.49 -1.90 2.39
-7.46 -2.05 2.39
-7.42 -2.20 2.39
-7.38 -2.35 2.39
-7.33 -2.50 2.39
-7.29 -2.65 2.39
-7.24 -2.80 2.39
-7.18 -2.95 2.39
-7.13 -3.09 2.39
-7.07 -3.24 2.39
-7.01 -3.38 2.39
-6.94 -3.52 2.39
-6.87 -3.66 2.39
-6.80 -3.80 2.39
-6.73 -3.94 2.39
-6.65 -4.08 2.39
-6.57 -4.21 2.39
-6.49 -4.35 2.39
-6.41 -4.48 2.39
-6.35 -4.63 2.40
-6.35 -4.83 2.44
-6.35 -5.03 2.47
-6.30 -5.21 2.50
-6.20 -5.33 2.50
-6.10 -5.46 2.50
-5.99 -5.59 2.50
-5.88 -5.71 2.50
-5.77 -5.83 2.50
-5.65 -5.95 2.50
-5.54 -6.06 2.50
-5.42 -6.18 2.50
-5.30 -6.29 2.50
-5.17 -6.40 2.50
-5.05 -6.50 2.50
-4.92 -6.60 2.50
-4.79 -6.71 2.50
-4.65 -6.80 2.50
-4.52 -6.90 2.50
-4.38 -6.99 2.50
-4.24 -7.08 2.50
-4.10 -7.17 2.50
-3.96 -7.26 2.50
-3.82 -7.34 2.50
-3.67 -7.42 2.50
-3.52 -7.49 2.50
-3.37 -7.56 2.50
-3.22 -7.63 2.50
-3.07 -7.70 2.50
-2.92 -7.76 2.50
-2.76 -7.82 2.50
-2.61 -7.88 2.50
-2.45 -7.94 2.50
-2.29 -7.99 2.50
-2.13 -8.03 2.50
-1.97 -8.08 2.50
-1.81 -8.12 2.50
-1.65 -8.16 2.50
-1.48 -8.19 2.50
-1.32 -8.22 2.50
-1.15 -8.25 2.50
-0.99 -8.28 2.50
-0.82 -8.30 2.50
-0.66 -8.31 2.50
-0.49 -8.33 2.50
-0.32 -8.34 2.50
-0.16 -8.35 2.50
0.01 -7.71 2.50
0.16 -7.71 2.50
0.32 -7.71 2.50
0.47 -7.70 2.50
0.63 -7.69 2.50
0.78 -7.68 2.50
0.94 -7.67 2.50
1.09 -7.65 2.50
1.24 -7.63 2.50
1.39 -7.60 2.50
1.55 -7.57 2.50
1.65 -7.32 2.42
1.77 -7.20 2.39
1.92 -7.16 2.39
2.06 -7.12 2.39
2.20 -7.08 2.39
2.34 -7.03 2.39
2.48 -6.99 2.39
2.62 -6.93 2.39
2.76 -6.88 2.39
2.90 -6.82 2.39
3.03 -6.77 2.39
3.17 -6.70 2.39
3.30 -6.64 2.39
3.43 -6.57 2.39
3.57 -6.50 2.39
3.69 -6.43 2.39
3.82 -6.35 2.39
3.95 -6.27 2.39
4.07 -6.19 2.39
4.20 -6.11 2.39
4.32 -6.02 2.39
4.44 -5.94 2.39
4.55 -5.85 2.39
4.67 -5.75 2.39
4.78 -5.66 2.39
4.89 -5.56 2.39
5.00 -5.46 2.39
5.11 -5.36 2.39
5.20 -5.23 2.38
5.25 -5.08 2.36
5.30 -4.92 2.34
5.35 -4.77 2.32
5.39 -4.62 2.30
5.44 -4.48 2.28
5.48 -4.33 2.26
5.52 -4.18 2.24
5.55 -4.04 2.22
5.59 -3.89 2.21
5.62 -3.75 2.19
5.65 -3.61 2.17
5.68 -3.47 2.16
5.70 -3.33 2.14
5.74 -3.20 2.13
5.81 -3.09 2.14
5.87 -2.97 2.14
5.94 -2.86 2.14
6.00 -2.74 2.14
6.06 -2.62 2.15
6.12 -2.50 2.15
6.18 -2.38 2.15
6.22 -2.26 2.15
6.24 -2.12 2.15
6.25 -1.99 2.14
6.27 -1.86 2.13
6.28 -1.73 2.12
6.33 -1.60 2.13
6.36 -1.48 2.13
6.40 -1.35 2.14
6.44 -1.22 2.14
6.47 -1.10 2.14
6.50 -0.97 2.15
6.54 -0.84 2.16
6.56 -0.71 2.16
6.59 -0.58 2.17
6.62 -0.45 2.17
6.64 -0.32 2.18
6.65 -0.18 2.18
6.65 -0.05 2.18
6.65 0.08 2.18
6.65 0.22 2.19
6.65 0.35 2.19
6.65 0.48 2.19
6.64 0.62 2.20
6.64 0.75 2.20
6.63 0.88 2.20
6.62 1.02 2.21
6.61 1.15 2.21
6.59 1.29 2.22
6.58 1.42 2.22
6.56 1.56 2.23
6.54 1.69 2.23
6.52 1.83 2.24
6.50 1.96 2.25
6.48 2.10 2.26
6.46 2.24 2.27
6.43 2.37 2.27
6.39 2.50 2.28
6.35 2.64 2.28
6.32 2.77 2.29
6.27 2.91 2.30
6.23 3.04 2.31
6.19 3.17 2.31
6.14 3.31 2.32
6.09 3.44 2.33
6.04 3.57 2.34
5.99 3.71 2.35
5.94 3.84 2.36
5.90 3.99 2.38
5.85 4.13 2.39
5.76 4.24 2.39
5.67 4.35 2.39
5.58 4.46 2.39
5.49 4.57 2.39
5.39 4.68 2.39
5.29 4.78 2.39
5.19 4.89 2.39
5.09 4.99 2.39
4.99 5.08 2.39
4.88 5.18 2.39
4.77 5.28 2.39
4.66 5.37 2.39
4.55 5.46 2.39
4.44 5.54 2.39
4.32 5.63 2.39
4.21 5.71 2.39
4.09 5.79 2.39
3.97 5.87 2.39
3.85 5.95 2.39
3.73 6.02 2.39
3.60 6.09 2.39
3.48 6.16 2.39
3.35 6.22 2.39
3.23 6.29 2.39
3.10 6.35 2.39
2.97 6.41 2.39
2.84 6.46 2.39
2.71 6.51 2.39
2.57 6.57 2.39
2.44 6.61 2.39
2.30 6.66 2.39
2.18 6.75 2.41
2.03 6.74 2.39
1.98 7.07 2.50
1.84 7.10 2.50
1.69 7.14 2.50
1.55 7.17 2.50
1.40 7.19 2.50
1.26 7.22 2.50
1.11 7.24 2.50
0.96 7.26 2.50
0.82 7.27 2.50
0.67 7.29 2.50
0.52 7.30 2.50
0.38 7.30 2.50
0.23 7.31 2.50
0.08 7.31 2.50
-0.06 7.31 2.50
-0.21 7.30 2.50
-0.36 7.30 2.50
-0.50 7.29 2.50
-0.65 7.27 2.50
-0.80 7.26 2.50
-0.94 7.24 2.50
-1.09 7.22 2.50
-1.23 7.19 2.50
-1.38 7.16 2.50
-1.52 7.13 2.50
-1.66 7.10 2.50
-1.81 7.07 2.50
-1.95 7.03 2.50
-2.09 6.99 2.50
-2.23 6.94 2.50
-2.37 6.90 2.50
-2.51 6.85 2.50
-2.64 6.79 2.50
-2.78 6.74 2.50
-2.92 6.68 2.50
-3.05 6.62 2.50
-3.18 6.56 2.50
-3.31 6.49 2.50
-3.44 6.43 2.50
-3.57 6.35 2.50
-3.70 6.28 2.50
-3.83 6.21 2.50
-3.95 6.13 2.50
-4.07 6.05 2.50
-4.19 5.97 2.50
-4.31 5.88 2.50
-4.43 5.79 2.50
-4.55 5.70 2.50
-4.66 5.61 2.50
-4.78 5.52 2.50
-4.89 5.42 2.50
-5.00 5.32 2.50
-5.10 5.22 2.50
-5.21 5.12 2.50
-5.31 5.01 2.50
-5.41 4.91 2.50
-5.51 4.80 2.50
-5.61 4.69 2.50
-5.70 4.58 2.50
-5.79 4.46 2.50
-5.88 4.34 2.50
-5.97 4.23 2.50
-6.06 4.11 2.50
-6.14 3.98 2.49
-6.14 3.81 2.46
-6.15 3.65 2.43
-6.16 3.49 2.41
-6.18 3.34 2.39
-6.25 3.21 2.39
-6.32 3.09 2.39
-6.38 2.96 2.39
-6.44 2.83 2.39
-6.50 2.71 2.39
-6.56 2.58 2.39
-6.61 2.44 2.39
-6.66 2.31 2.39
-6.71 2.18 2.39
-6.75 2.04 2.39
-6.80 1.91 2.39
-6.84 1.77 2.39
-6.87 1.63 2.39
-6.45 1.40 2.23
-6.52 1.28 2.25
-6.97 1.22 2.39
-7.00 1.08 2.39
-7.02 0.94 2.39
-7.04 0.80 2.39
-7.06 0.66 2.39
-7.07 0.51 2.39
-7.09 0.37 2.39
-7.10 0.23 2.39
-7.10 0.09 2.39
-7.11 -0.05 2.39
-7.11 -0.20 2.39
-7.11 -0.34 2.39
-7.10 -0.48 2.39
-7.10 -0.63 2.39
-7.09 -0.77 2.39
-7.07 -0.91 2.39
-7.06 -1.05 2.39
-7.04 -1.20 2.39
-7.02 -1.34 2.39
-6.99 -1.48 2.39
-6.97 -1.62 2.39
-6.94 -1.76 2.39
-6.90 -1.90 2.39
-6.87 -2.04 2.39
-6.83 -2.18 2.39
-6.79 -2.32 2.39
-6.74 -2.46 2.39
-6.70 -2.59 2.39
-6.65 -2.73 2.39
-6.60 -2.86 2.39
-6.54 -3.00 2.39
-6.50 -3.14 2.40
-6.42 -3.26 2.39
-6.36 -3.39 2.39
-6.32 -3.54 2.40
-6.32 -3.70 2.43
-6.32 -3.88 2.46
-6.33 -4.06 2.49
-6.26 -4.20 2.50
-6.18 -4.32 2.50
-6.10 -4.45 2.50
-6.01 -4.57 2.50
-5.92 -4.69 2.50
-5.83 -4.82 2.50
-5.74 -4.93 2.50
-5.64 -5.05 2.50
-5.54 -5.17 2.50
-5.44 -5.28 2.50
-5.33 -5.39 2.50
-5.23 -5.50 2.50
-5.12 -5.61 2.50
-5.01 -5.71 2.50
-4.90 -5.81 2.50
-4.78 -5.91 2.50
-4.66 -6.01 2.50
-4.54 -6.11 2.50
-4.42 -6.20 2.50
-4.30 -6.29 2.50
-4.18 -6.38 2.50
-4.05 -6.46 2.50
-3.92 -6.55 2.50
-3.79 -6.63 2.50
-3.66 -6.71 2.50
-3.53 -6.78 2.50
-3.39 -6.85 2.50
-3.25 -6.92 2.50
-3.12 -6.99 2.50
-2.98 -7.06 2.50
-2.84 -7.12 2.50
-2.69 -7.18 2.50
-2.55 -7.23 2.50
-2.41 -7.28 2.50
-2.26 -7.33 2.50
-2.11 -7.38 2.50
-1.97 -7.42 2.50
-1.82 -7.46 2.50
-1.67 -7.50 2.50
-1.52 -7.54 2.50
-1.37 -7.57 2.50
-1.22 -7.60 2.50
-1.07 -7.62 2.50
-0.91 -7.65 2.50
-0.76 -7.66 2.50
-0.61 -7.68 2.50
-0.45 -7.69 2.50
-0.30 -7.70 2.50
-0.14 -7.71 2.50
0.01 -7.16 2.50
0.15 -7.16 2.50
0.30 -7.16 2.50
0.44 -7.15 2.50
0.58 -7.14 2.50
0.73 -7.13 2.50
0.87 -7.11 2.50
1.01 -7.10 2.50
1.15 -7.08 2.50
1.29 -7.05 2.50
1.44 -7.03 2.50
1.58 -7.00 2.50
1.66 -6.75 2.42
1.78 -6.64 2.39
1.91 -6.61 2.39
2.04 -6.57 2.39
2.17 -6.53 2.39
2.30 -6.48 2.39
2.43 -6.44 2.39
2.56 -6.39 2.39
2.69 -6.33 2.39
2.82 -6.28 2.39
2.94 -6.22 2.39
3.06 -6.16 2.39
3.19 -6.10 2.39
3.31 -6.03 2.39
3.43 -5.96 2.39
3.55 -5.89 2.39
3.66 -5.82 2.39
3.78 -5.75 2.39
3.89 -5.67 2.39
4.01 -5.59 2.39
4.12 -5.51 2.39
4.23 -5.42 2.39
4.33 -5.34 2.39
4.44 -5.25 2.39
4.54 -5.16 2.39
4.64 -5.07 2.39
4.74 -4.97 2.39
4.84 -4.87 2.39
4.94 -4.78 2.39
5.03 -4.67 2.39
5.12 -4.57 2.39
5.21 -4.47 2.39
5.25 -4.33 2.37
5.29 -4.18 2.35
5.33 -4.04 2.33
5.36 -3.90 2.31
5.40 -3.76 2.30
5.43 -3.63 2.28
5.46 -3.49 2.26
5.49 -3.36 2.25
5.52 -3.22 2.23
5.54 -3.09 2.22
5.60 -2.98 2.22
5.66 -2.86 2.22
5.72 -2.75 2.22
5.78 -2.64 2.22
5.84 -2.53 2.23
5.89 -2.41 2.23
5.95 -2.30 2.23
5.97 -2.17 2.23
5.99 -2.04 2.22
6.00 -1.91 2.21
6.02 -1.78 2.20
6.03 -1.66 2.20
6.04 -1.53 2.19
6.07 -1.41 2.19
6.11 -1.29 2.19
6.14 -1.17 2.20
6.17 -1.05 2.20
6.20 -0.93 2.21
6.23 -0.80 2.21
6.26 -0.68 2.22
6.28 -0.55 2.22
6.31 -0.43 2.23
6.33 -0.30 2.24
6.34 -0.18 2.24
6.34 -0.05 2.24
6.33 0.08 2.24
6.33 0.20 2.24
6.32 0.33 2.24
6.32 0.46 2.24
6.32 0.59 2.25
6.31 0.71 2.25
6.30 0.84 2.25
6.29 0.97 2.26
6.28 1.09 2.26
6.26 1.22 2.27
6.25 1.35 2.27
6.23 1.48 2.28
6.21 1.60 2.28
6.19 1.73 2.29
6.17 1.86 2.30
6.15 1.99 2.30
6.13 2.12 2.31
6.11 2.25 2.32
6.08 2.38 2.33
6.06 2.51 2.34
6.03 2.64 2.35
5.99 2.77 2.36
5.95 2.90 2.37
5.91 3.03 2.38
5.86 3.15 2.38
5.81 3.28 2.39
5.74 3.39 2.39
5.67 3.51 2.39
5.60 3.62 2.39
5.52 3.73 2.39
5.44 3.84 2.39
5.36 3.94 2.39
5.28 4.05 2.39
5.19 4.15 2.39
5.10 4.25 2.39
5.01 4.35 2.39
4.92 4.45 2.39
4.83 4.54 2.39
4.74 4.64 2.39
4.64 4.73 2.39
4.54 4.82 2.39
4.44 4.91 2.39
4.34 4.99 2.39
4.24 5.08 2.39
4.13 5.16 2.39
4.02 5.24 2.39
3.92 5.31 2.39
3.81 5.39 2.39
3.70 5.46 2.39
3.58 5.53 2.39
3.47 5.60 2.39
3.35 5.67 2.39
3.24 5.73 2.39
3.12 5.79 2.39
3.00 5.85 2.39
2.88 5.91 2.39
2.76 5.96 2.39
2.64 6.01 2.39
2.52 6.06 2.39
2.40 6.11 2.39
2.27 6.15 2.39
2.15 6.20 2.39
2.02 6.24 2.39
1.97 6.52 2.49
1.84 6.58 2.50
1.71 6.61 2.50
1.58 6.64 2.50
1.44 6.67 2.50
1.31 6.70 2.50
1.17 6.72 2.50
1.03 6.74 2.50
0.90 6.76 2.50
0.76 6.77 2.50
0.63 6.78 2.50
0.49 6.79 2.50
0.35 6.80 2.50
0.21 6.80 2.50
0.08 6.80 2.50
-0.06 6.80 2.50
-0.20 6.80 2.50
-0.33 6.79 2.50
-0.47 6.78 2.50
-0.61 6.77 2.50
-0.74 6.76 2.50
-0.88 6.74 2.50
-1.01 6.72 2.50
-1.15 6.70 2.50
-1.28 6.67 2.50
-1.42 6.64 2.50
-1.55 6.61 2.50
-1.68 6.58 2.50
-1.81 6.54 2.50
-1.95 6.50 2.50
-2.08 6.46 2.50
-2.21 6.42 2.50
-2.33 6.37 2.50
-2.46 6.32 2.50
-2.59 6.27 2.50
-2.71 6.22 2.50
-2.84 6.16 2.50
-2.96 6.11 2.50
-3.08 6.05 2.50
-3.21 5.98 2.50
-3.33 5.92 2.50
-3.44 5.85 2.50
-3.56 5.78 2.50
-3.68 5.71 2.50
-3.79 5.63 2.50
-3.91 5.55 2.50
-4.02 5.47 2.50
-4.13 5.39 2.50
-4.23 5.31 2.50
-4.34 5.22 2.50
-4.45 5.14 2.50
-4.55 5.05 2.50
-4.65 4.95 2.50
-4.75 4.86 2.50
-4.85 4.77 2.50
-4.94 4.67 2.50
-5.04 4.57 2.50
-5.13 4.47 2.50
-5.22 4.36 2.50
-5.31 4.26 2.50
-5.39 4.15 2.50
-5.48 4.04 2.50
-5.56 3.93 2.50
-5.64 3.82 2.50
-5.72 3.71 2.50
-5.79 3.59 2.50
-5.87 3.48 2.50
-5.94 3.36 2.50
-6.00 3.24 2.50
-6.07 3.12 2.50
-6.13 3.00 2.50
-6.16 2.86 2.48
-6.17 2.71 2.46
-6.17 2.57 2.44
-6.18 2.43 2.42
-6.19 2.29 2.41
-6.20 2.15 2.39
-6.24 2.03 2.39
-6.28 1.90 2.39
-6.32 1.77 2.39
-6.36 1.65 2.39
-6.40 1.52 2.39
-6.43 1.39 2.39
-6.46 1.26 2.39
-6.48 1.13 2.39
-6.51 1.00 2.39
-6.53 0.87 2.39
-6.55 0.74 2.39
-6.57 0.61 2.39
-6.58 0.48 2.39
-6.59 0.35 2.39
-6.60 0.21 2.39
-6.61 0.08 2.39
-6.61 -0.05 2.39
-6.61 -0.19 2.39
-6.61 -0.32 2.39
-6.61 -0.45 2.39
-6.60 -0.58 2.39
-6.59 -0.72 2.39
-6.58 -0.85 2.39
-6.56 -0.98 2.39
-6.54 -1.11 2.39
-6.52 -1.25 2.39
-6.50 -1.38 2.39
-6.48 -1.51 2.39
-6.46 -1.64 2.40
-6.42 -1.77 2.39
-6.38 -1.90 2.39
-6.35 -2.03 2.39
-6.31 -2.16 2.39
-6.30 -2.29 2.40
-6.30 -2.44 2.42
-6.29 -2.58 2.44
-6.30 -2.73 2.46
-6.30 -2.89 2.48
-6.28 -3.03 2.50
-6.23 -3.16 2.50
-6.16 -3.29 2.50
-6.10 -3.41 2.50
-6.03 -3.54 2.50
-5.97 -3.66 2.50
-5.89 -3.78 2.50
-5.82 -3.90 2.50
-5.74 -4.02 2.50
-5.67 -4.13 2.50
-5.58 -4.25 2.50
-5.50 -4.36 2.50
-5.42 -4.48 2.50
-5.33 -4.59 2.50
-5.24 -4.69 2.50
-5.15 -4.80 2.50
-5.05 -4.91 2.50
-4.95 -5.01 2.50
-4.86 -5.11 2.50
-4.75 -5.21 2.50
-4.65 -5.31 2.50
-4.55 -5.40 2.50
-4.44 -5.49 2.50
-4.33 -5.58 2.50
-4.22 -5.67 2.50
-4.11 -5.76 2.50
-3.99 -5.84 2.50
-3.88 -5.92 2.50
-3.76 -6.00 2.50
-3.64 -6.08 2.50
-3.52 -6.16 2.50
-3.40 -6.23 2.50
-3.27 -6.30 2.50
-3.15 -6.36 2.50
-3.02 -6.43 2.50
-2.89 -6.49 2.50
-2.76 -6.55 2.50
-2.63 -6.61 2.50
-2.50 -6.66 2.50
-2.37 -6.71 2.50
-2.23 -6.76 2.50
-2.10 -6.81 2.50
-1.96 -6.85 2.50
-1.83 -6.89 2.50
-1.69 -6.93 2.50
-1.55 -6.96 2.50
-1.41 -7.00 2.50
-1.27 -7.03 2.50
-1.13 -7.05 2.50
-0.99 -7.08 2.50
-0.85 -7.10 2.50
-0.70 -7.11 2.50
-0.56 -7.13 2.50
-0.42 -7.14 2.50
-0.28 -7.15 2.50
-0.13 -7.16 2.50
0.01 -6.67 2.50
0.14 -6.67 2.50
0.28 -6.67 2.50
0.41 -6.66 2.50
0.54 -6.65 2.50
0.68 -6.64 2.50
0.81 -6.63 2.50
0.94 -6.61 2.50
1.07 -6.59 2.50
1.21 -6.57 2.50
1.34 -6.55 2.50
1.47 -6.52 2.50
1.60 -6.49 2.50
1.67 -6.25 2.42
1.78 -6.16 2.39
1.90 -6.12 2.39
2.03 -6.08 2.39
2.15 -6.04 2.39
2.27 -6.00 2.39
2.39 -5.95 2.39
2.51 -5.90 2.39
2.62 -5.85 2.39
2.74 -5.80 2.39
2.86 -5.74 2.39
2.97 -5.68 2.39
3.08 -5.62 2.39
3.19 -5.56 2.39
3.31 -5.49 2.39
3.41 -5.43 2.39
3.52 -5.36 2.39
3.63 -5.28 2.39
3.73 -5.21 2.39
3.84 -5.13 2.39
3.94 -5.05 2.39
4.04 -4.97 2.39
4.13 -4.89 2.39
4.23 -4.81 2.39
4.33 -4.72 2.39
4.42 -4.63 2.39
4.51 -4.54 2.39
4.60 -4.45 2.39
4.69 -4.36 2.39
