ply
format ascii 1.0
element vertex 2753
property float32 x
property float32 y
property float32 z
end_header
-16.85 -2.17 -2.96
-16.62 -2.48 -2.92
-37.79 -6.42 -6.66
-31.48 -16.75 -6.03
-31.46 -17.56 -6.08
-30.63 -17.91 -5.98
-21.30 -15.51 -4.40
-21.42 -16.27 -4.49
-21.12 -16.72 -4.49
-20.92 -17.25 -4.51
-20.13 -17.29 -4.41
-19.67 -17.59 -4.38
-6.48 -7.67 -1.65
-27.16 40.26 -8.08
-27.03 38.37 -7.80
-28.25 38.44 -7.92
-28.44 37.11 -7.75
-28.85 36.12 -7.65
-30.04 36.10 -7.77
-31.27 36.07 -7.89
-32.68 36.20 -8.05
-27.53 24.93 -6.08
-28.10 24.44 -6.09
-14.61 12.20 -3.11
-14.69 11.77 -3.07
-14.67 11.28 -3.01
-14.80 10.91 -2.99
-15.20 10.75 -3.02
-15.50 10.49 -3.03
-15.93 10.33 -3.07
-16.01 9.93 -3.04
-16.00 9.48 -3.00
-16.03 9.07 -2.97
-16.07 8.67 -2.94
-15.98 8.21 -2.88
-15.97 7.80 -2.85
-15.94 7.39 -2.81
-16.00 7.04 -2.79
-15.89 6.61 -2.74
-15.94 6.26 -2.72
-15.93 5.89 -2.70
-15.39 5.34 -2.58
-14.62 4.75 -2.43
-14.45 4.37 -2.38
-14.53 4.08 -2.38
-14.52 3.76 -2.36
-14.51 3.45 -2.34
-14.64 3.17 -2.35
-15.01 2.94 -2.39
-15.34 2.69 -2.43
-16.05 2.48 -2.53
-16.57 2.22 -2.60
-16.93 1.92 -2.64
-16.93 1.58 -2.63
-16.92 1.24 -2.62
-16.91 0.89 -2.61
-16.91 0.55 -2.60
-16.90 0.21 -2.59
-16.89 -0.12 -2.59
-16.88 -0.46 -2.58
-16.88 -0.80 -2.58
-16.87 -1.14 -2.57
-16.86 -1.48 -2.57
-16.86 -1.82 -2.57
-16.85 -2.16 -2.57
-16.84 -2.51 -2.57
-16.83 -2.85 -2.57
-16.83 -3.20 -2.58
-16.45 -3.47 -2.52
-26.75 -6.21 -4.11
-26.81 -6.79 -4.13
-27.19 -7.47 -4.21
-31.57 -16.79 -5.22
-31.41 -17.52 -5.24
-31.20 -18.23 -5.25
-21.38 -15.56 -3.81
-20.84 -15.82 -3.76
-21.34 -16.88 -3.91
-20.71 -17.07 -3.84
-20.06 -17.22 -3.78
-19.94 -17.82 -3.82
-20.23 -18.83 -3.94
-6.48 -7.67 -1.42
-27.04 40.09 -6.93
-27.00 38.35 -6.71
-26.97 36.71 -6.51
-27.69 36.15 -6.50
-28.84 36.12 -6.59
-30.03 36.10 -6.68
-27.67 31.94 -6.01
-27.14 30.07 -5.75
-27.17 28.92 -5.62
-27.19 27.80 -5.50
-19.74 19.39 -3.91
-19.41 18.31 -3.76
-19.11 17.31 -3.63
-18.83 16.38 -3.51
-14.61 12.20 -2.67
-14.67 11.77 -2.64
-14.67 11.29 -2.59
-14.80 10.92 -2.57
-15.20 10.75 -2.59
-15.50 10.50 -2.60
-15.93 10.33 -2.64
-16.01 9.94 -2.61
-16.00 9.49 -2.57
-16.08 9.10 -2.55
-16.07 8.68 -2.52
-15.98 8.22 -2.47
-15.97 7.81 -2.44
-15.92 7.40 -2.40
-16.00 7.04 -2.39
-15.89 6.62 -2.35
-15.94 6.26 -2.33
-15.93 5.89 -2.31
-15.38 5.34 -2.21
-14.63 4.75 -2.08
-14.44 4.37 -2.03
-14.53 4.08 -2.03
-14.52 3.77 -2.01
-14.51 3.46 -2.00
-14.64 3.18 -2.00
-15.00 2.94 -2.04
-15.34 2.69 -2.07
-16.01 2.48 -2.15
-16.94 2.28 -2.26
-16.94 1.93 -2.25
-16.93 1.58 -2.24
-16.92 1.24 -2.23
-16.91 0.90 -2.22
-16.91 0.56 -2.21
-16.90 0.22 -2.21
-16.89 -0.12 -2.20
-16.88 -0.46 -2.19
-16.88 -0.80 -2.19
-16.87 -1.14 -2.19
-16.86 -1.48 -2.18
-16.86 -1.82 -2.18
-16.85 -2.16 -2.18
-16.84 -2.50 -2.18
-16.83 -2.85 -2.18
-16.83 -3.19 -2.18
-16.82 -3.54 -2.18
-16.81 -3.90 -2.19
-16.43 -4.16 -2.14
-27.37 -7.51 -3.58
-43.71 -17.88 -5.87
-31.36 -16.67 -4.37
-31.04 -17.30 -4.36
-30.94 -18.07 -4.39
-20.69 -15.70 -3.14
-21.10 -16.69 -3.24
-20.80 -17.13 -3.24
-20.53 -17.62 -3.25
-19.81 -17.70 -3.18
-6.48 -7.67 -1.19
-26.91 41.70 -5.98
-27.16 40.29 -5.85
-27.01 38.38 -5.64
-28.16 38.35 -5.71
-28.44 37.15 -5.61
-28.83 36.12 -5.53
-19.09 22.95 -3.56
-18.73 21.63 -3.41
-18.41 20.41 -3.27
-18.11 19.29 -3.14
-17.85 18.26 -3.03
-17.60 17.29 -2.92
-17.37 16.40 -2.82
-17.16 15.56 -2.73
-16.96 14.77 -2.65
-14.60 12.20 -2.23
-14.69 11.79 -2.21
-14.67 11.29 -2.17
-14.80 10.93 -2.15
-15.19 10.75 -2.17
-15.51 10.51 -2.18
-15.92 10.33 -2.20
-16.01 9.94 -2.18
-16.00 9.50 -2.15
-16.07 9.11 -2.13
-16.07 8.68 -2.10
-15.98 8.22 -2.06
-15.97 7.82 -2.03
-15.91 7.40 -2.00
-16.00 7.05 -1.99
-15.89 6.62 -1.95
-15.94 6.27 -1.94
-15.93 5.90 -1.92
-14.94 5.20 -1.78
-14.56 4.74 -1.72
-14.41 4.37 -1.69
-14.24 4.01 -1.65
-14.38 3.74 -1.66
-14.45 3.45 -1.65
-14.59 3.17 -1.65
-14.80 2.91 -1.67
-15.12 2.66 -1.69
-15.77 2.45 -1.75
-16.94 2.28 -1.87
-16.94 1.94 -1.86
-16.93 1.59 -1.85
-16.92 1.25 -1.84
-16.91 0.91 -1.83
-16.91 0.57 -1.83
-16.90 0.23 -1.82
-16.89 -0.11 -1.81
-16.88 -0.45 -1.81
-16.88 -0.79 -1.80
-16.87 -1.13 -1.80
-16.86 -1.47 -1.80
-16.86 -1.81 -1.79
-16.85 -2.15 -1.79
-16.84 -2.50 -1.79
-16.83 -2.84 -1.79
-16.83 -3.19 -1.79
-16.82 -3.54 -1.79
-16.81 -3.89 -1.79
-18.20 -4.60 -1.95
-27.29 -7.48 -2.92
-43.51 -17.78 -4.78
-31.24 -16.59 -3.54
-31.31 -17.44 -3.58
-31.00 -18.09 -3.58
-22.64 -16.46 -2.75
-21.09 -15.99 -2.60
-20.88 -16.50 -2.60
-20.97 -17.26 -2.65
-20.33 -17.43 -2.61
-19.77 -17.65 -2.57
-19.87 -18.47 -2.63
-6.48 -7.67 -0.96
2.88 -28.61 -1.99
2.16 -10.61 -0.75
-27.16 40.31 -4.74
-27.00 38.38 -4.57
-26.97 36.74 -4.43
-17.42 22.75 -2.78
-17.13 21.48 -2.66
-16.88 20.31 -2.55
-16.65 19.23 -2.45
-16.43 18.23 -2.36
-16.23 17.30 -2.28
-16.05 16.43 -2.20
-15.88 15.61 -2.13
-15.73 14.85 -2.06
-15.68 14.22 -2.01
-15.66 13.65 -1.97
-14.52 12.15 -1.79
-14.54 11.67 -1.76
-14.63 11.27 -1.74
-14.79 10.93 -1.73
-15.05 10.66 -1.73
-15.38 10.44 -1.74
-15.85 10.29 -1.76
-15.96 9.91 -1.75
-15.95 9.47 -1.72
-15.94 9.04 -1.69
-15.93 8.61 -1.67
-15.92 8.20 -1.64
-15.91 7.79 -1.62
-15.90 7.40 -1.60
-15.90 7.01 -1.58
-15.57 6.49 -1.53
-15.88 6.25 -1.54
-15.87 5.89 -1.53
-14.95 5.20 -1.42
-14.58 4.75 -1.37
-14.46 4.39 -1.35
-14.00 3.95 -1.29
-14.43 3.76 -1.32
-14.50 3.47 -1.32
-14.64 3.19 -1.32
-14.86 2.93 -1.33
-15.20 2.68 -1.35
-15.76 2.45 -1.39
-16.94 2.29 -1.48
-16.97 1.95 -1.48
-16.97 1.60 -1.47
-16.96 1.26 -1.46
-16.95 0.91 -1.45
-16.94 0.57 -1.45
-16.90 0.23 -1.44
-16.89 -0.11 -1.43
-16.89 -0.45 -1.42
-16.88 -0.78 -1.42
-16.87 -1.12 -1.42
-16.86 -1.46 -1.41
-16.89 -1.81 -1.41
-16.89 -2.15 -1.41
-16.88 -2.50 -1.41
-16.87 -2.84 -1.41
-16.87 -3.19 -1.41
-16.82 -3.53 -1.40
-16.81 -3.88 -1.40
-26.85 -6.77 -2.24
-27.29 -7.47 -2.28
-43.95 -16.92 -3.73
-43.52 -17.77 -3.71
-31.98 -16.16 -2.79
-32.07 -17.02 -2.81
-31.17 -17.35 -2.75
-30.54 -17.81 -2.72
-22.10 -16.06 -2.07
-21.09 -15.98 -1.99
-20.64 -16.30 -1.98
-21.05 -17.32 -2.04
-20.29 -17.38 -1.99
-19.73 -17.61 -1.97
-19.81 -18.40 -2.01
-6.48 -7.67 -0.73
-11.47 -16.01 -1.42
2.88 -28.61 -1.34
2.09 -10.28 -0.49
2.29 -10.20 -0.49
-26.96 41.82 -3.73
-27.04 40.14 -3.62
-15.89 22.60 -2.06
-15.83 21.58 -1.99
-15.81 20.67 -1.93
-16.51 20.71 -1.96
-16.50 19.86 -1.91
-16.48 19.05 -1.86
-16.46 18.27 -1.81
-16.45 17.53 -1.76
-16.43 16.83 -1.72
-16.42 16.15 -1.68
-16.19 15.29 -1.62
-16.17 14.68 -1.58
-16.16 14.09 -1.55
-14.16 11.85 -1.33
-14.58 11.71 -1.34
-14.66 11.30 -1.32
-14.83 10.96 -1.31
-15.09 10.69 -1.31
-15.43 10.47 -1.32
-15.90 10.33 -1.34
-16.00 9.95 -1.32
-15.99 9.50 -1.30
-16.00 9.07 -1.28
-15.99 8.65 -1.26
-15.98 8.23 -1.24
-15.97 7.83 -1.23
-15.92 7.41 -1.20
-15.91 7.02 -1.19
-15.90 6.64 -1.17
-15.89 6.26 -1.16
-15.93 5.91 -1.15
-14.98 5.22 -1.07
-14.65 4.78 -1.03
-14.42 4.39 -1.00
-14.36 4.05 -0.99
-14.49 3.78 -0.99
-14.51 3.47 -0.98
-14.65 3.20 -0.98
-14.89 2.94 -0.99
-15.13 2.67 -1.00
-15.98 2.49 -1.04
-16.94 2.29 -1.10
-16.95 1.95 -1.09
-16.97 1.61 -1.08
-16.96 1.26 -1.08
-16.95 0.92 -1.07
-16.94 0.58 -1.06
-16.90 0.24 -1.05
-16.89 -0.10 -1.05
-16.89 -0.44 -1.04
-16.88 -0.78 -1.04
-16.87 -1.12 -1.03
-16.86 -1.46 -1.03
-16.89 -1.80 -1.03
-16.89 -2.15 -1.02
-16.88 -2.49 -1.02
-16.87 -2.84 -1.02
-16.87 -3.18 -1.02
-16.82 -3.53 -1.01
-16.81 -3.88 -1.01
-26.81 -6.75 -1.61
-27.24 -7.45 -1.64
-43.90 -16.89 -2.66
-43.34 -17.68 -2.63
-31.90 -16.11 -1.97
-31.00 -16.44 -1.93
-30.99 -17.24 -1.94
-30.47 -17.76 -1.92
-22.00 -15.97 -1.44
-21.04 -15.93 -1.39
-20.99 -16.56 -1.40
-20.92 -17.20 -1.42
-20.25 -17.35 -1.39
-19.64 -17.51 -1.36
-19.75 -18.34 -1.39
-6.49 -7.67 -0.51
-11.47 -16.00 -0.98
2.88 -28.61 -0.69
2.09 -10.28 -0.26
2.31 -10.28 -0.26
-7.40 34.55 -1.93
-27.17 40.35 -2.54
-27.00 38.42 -2.45
-16.55 22.57 -1.45
-16.27 21.27 -1.39
-16.33 20.49 -1.35
-16.50 19.87 -1.33
-16.15 18.67 -1.26
-15.71 17.44 -1.20
-16.16 17.23 -1.20
-16.43 16.83 -1.19
-16.42 16.16 -1.16
-16.19 15.30 -1.12
-16.17 14.69 -1.09
-16.15 14.09 -1.06
-14.59 12.21 -0.94
-14.70 11.82 -0.93
-14.67 11.31 -0.91
-14.84 10.97 -0.90
-15.19 10.77 -0.90
-15.50 10.53 -0.90
-15.91 10.34 -0.91
-16.01 9.96 -0.90
-16.00 9.52 -0.88
-16.05 9.11 -0.87
-16.04 8.69 -0.85
-15.94 8.22 -0.84
-15.97 7.83 -0.82
-16.02 7.46 -0.81
-16.02 7.08 -0.80
-16.00 6.69 -0.79
-15.94 6.29 -0.77
-15.93 5.92 -0.76
-15.37 5.36 -0.73
-14.66 4.79 -0.68
-14.42 4.39 -0.66
-14.51 4.10 -0.66
-14.51 3.79 -0.65
-14.51 3.48 -0.64
-14.64 3.20 -0.64
-14.94 2.95 -0.65
-15.27 2.70 -0.65
-15.95 2.49 -0.68
-16.94 2.30 -0.71
-16.94 1.95 -0.70
-16.93 1.61 -0.70
-16.92 1.27 -0.69
-16.91 0.92 -0.68
-16.91 0.58 -0.68
-16.90 0.24 -0.67
-16.89 -0.10 -0.67
-16.89 -0.43 -0.66
-16.88 -0.77 -0.66
-16.87 -1.11 -0.65
-16.86 -1.45 -0.65
-16.86 -1.79 -0.64
-16.85 -2.14 -0.64
-16.84 -2.48 -0.63
-16.84 -2.82 -0.63
-16.83 -3.17 -0.63
-16.82 -3.52 -0.62
-16.81 -3.87 -0.62
-20.54 -5.17 -0.76
-27.25 -7.44 -1.00
-43.33 -16.65 -1.58
-43.43 -17.70 -1.58
-31.00 -16.43 -1.13
-31.07 -17.27 -1.14
-30.41 -17.71 -1.12
-21.73 -16.45 -0.82
-20.92 -16.50 -0.80
-20.96 -17.23 -0.81
-20.04 -17.16 -0.78
-20.09 -17.91 -0.79
-6.49 -7.67 -0.28
-11.49 -16.03 -0.53
2.88 -28.61 -0.05
2.09 -10.28 -0.02
2.31 -10.28 -0.02
19.67 -0.10 -0.33
18.92 0.28 -0.32
16.80 0.59 -0.29
16.41 0.90 -0.29
16.04 1.21 -0.29
15.68 1.50 -0.29
15.34 1.77 -0.29
15.01 2.04 -0.29
14.51 2.27 -0.28
13.99 2.48 -0.28
13.75 2.72 -0.28
13.52 2.96 -0.28
13.30 3.19 -0.28
13.08 3.42 -0.28
12.87 3.64 -0.28
12.69 3.87 -0.28
12.51 4.09 -0.28
12.34 4.31 -0.29
12.23 4.55 -0.29
12.25 4.84 -0.30
12.29 5.14 -0.30
12.33 5.45 -0.31
12.37 5.77 -0.32
12.42 6.10 -0.33
12.47 6.44 -0.34
12.68 6.87 -0.35
12.72 7.23 -0.36
12.76 7.59 -0.37
-7.39 34.55 -1.13
-26.87 41.71 -1.48
-27.04 40.18 -1.44
-27.00 38.43 -1.39
-16.55 22.58 -0.82
-16.27 21.28 -0.78
-14.77 18.54 -0.69
-14.72 17.73 -0.66
-14.79 17.10 -0.65
-15.13 16.80 -0.64
-15.63 16.67 -0.64
-16.24 16.64 -0.65
-16.42 16.17 -0.64
-16.41 15.52 -0.62
-16.39 14.89 -0.60
-16.38 14.29 -0.59
-14.59 12.22 -0.51
-14.70 11.82 -0.50
-14.67 11.32 -0.49
-14.83 10.98 -0.48
-15.18 10.77 -0.48
-15.50 10.53 -0.48
-15.90 10.35 -0.48
-16.01 9.97 -0.47
-16.00 9.52 -0.46
-16.05 9.12 -0.45
-16.05 8.69 -0.44
-15.94 8.23 -0.43
-15.97 7.84 -0.42
-16.02 7.47 -0.41
-16.01 7.08 -0.41
-16.00 6.69 -0.40
-15.94 6.29 -0.39
-15.93 5.92 -0.38
-15.37 5.37 -0.36
-14.66 4.79 -0.34
-14.43 4.40 -0.32
-14.51 4.11 -0.32
-14.51 3.79 -0.31
-14.51 3.48 -0.31
-14.64 3.21 -0.30
-14.99 2.97 -0.31
-15.32 2.71 -0.31
-15.92 2.49 -0.31
-16.94 2.31 -0.33
-16.94 1.96 -0.32
-16.93 1.61 -0.31
-16.92 1.27 -0.31
-16.91 0.93 -0.30
-16.91 0.59 -0.30
-16.90 0.25 -0.29
-16.89 -0.09 -0.29
-16.89 -0.43 -0.28
-16.88 -0.77 -0.28
-16.87 -1.11 -0.27
-16.86 -1.45 -0.27
-16.86 -1.79 -0.26
-16.85 -2.13 -0.26
-16.84 -2.47 -0.25
-16.84 -2.82 -0.25
-16.83 -3.17 -0.24
-16.82 -3.51 -0.24
-16.81 -3.87 -0.23
-19.99 -5.02 -0.27
-20.13 -5.49 -0.27
-20.68 -6.09 -0.27
-43.53 -16.71 -0.53
-43.54 -17.73 -0.53
-42.64 -18.37 -0.51
-31.57 -16.72 -0.35
-30.97 -17.21 -0.34
-29.98 -17.45 -0.32
-21.23 -16.74 -0.20
-20.90 -17.17 -0.19
-20.39 -17.45 -0.19
-6.49 -7.67 -0.05
-11.52 -16.06 -0.09
2.88 -28.61 0.60
2.09 -10.28 0.22
2.31 -10.28 0.22
25.98 -4.88 0.23
24.09 -4.02 0.20
22.72 -3.33 0.18
21.98 -2.77 0.17
21.28 -2.25 0.16
18.84 -1.61 0.13
18.13 -1.18 0.12
17.58 -0.79 0.11
17.06 -0.43 0.10
16.20 -0.08 0.09
15.39 0.23 0.08
14.82 0.52 0.08
14.47 0.80 0.07
14.13 1.07 0.06
13.81 1.32 0.06
13.50 1.57 0.05
13.21 1.80 0.05
12.92 2.03 0.04
12.65 2.25 0.04
12.39 2.46 0.03
12.19 2.67 0.03
11.99 2.88 0.03
11.79 3.09 0.02
11.60 3.29 0.02
11.41 3.48 0.01
11.23 3.67 0.01
11.05 3.86 0.01
10.87 4.05 0.00
10.73 4.24 0.00
10.60 4.44 -0.00
10.59 4.68 -0.01
10.58 4.94 -0.01
10.58 5.20 -0.01
10.57 5.46 -0.02
10.57 5.73 -0.02
10.56 6.00 -0.02
10.56 6.29 -0.03
10.57 6.58 -0.03
10.61 6.91 -0.03
10.66 7.25 -0.04
10.72 7.61 -0.04
11.09 8.21 -0.05
11.14 8.60 -0.05
11.36 9.14 -0.06
11.58 9.70 -0.06
11.61 10.13 -0.07
11.64 10.58 -0.07
11.67 11.04 -0.08
11.70 11.53 -0.08
11.72 12.02 -0.09
11.74 12.53 -0.09
11.79 13.10 -0.10
11.82 13.68 -0.11
11.81 14.24 -0.11
11.93 14.98 -0.12
12.03 15.74 -0.13
12.05 16.44 -0.14
12.04 17.14 -0.14
12.03 17.88 -0.15
12.02 18.67 -0.16
11.89 19.30 -0.17
11.88 20.18 -0.18
11.75 20.91 -0.19
11.43 21.34 -0.19
11.11 21.78 -0.20
10.79 22.23 -0.20
10.45 22.69 -0.21
10.35 23.71 -0.22
10.27 24.88 -0.23
10.30 26.45 -0.25
10.29 28.08 -0.26
11.41 33.19 -0.31
12.09 37.59 -0.35
-7.39 34.54 -0.33
-26.45 37.67 -0.32
-16.55 22.59 -0.19
-14.38 18.82 -0.16
-14.35 18.02 -0.15
-14.36 17.30 -0.14
-14.55 16.84 -0.13
-14.94 16.61 -0.13
-15.40 16.44 -0.13
-16.01 16.41 -0.12
-16.42 16.17 -0.12
-16.41 15.52 -0.11
-16.39 14.90 -0.11
-16.38 14.30 -0.10
-14.59 12.23 -0.08
-14.69 11.82 -0.08
-14.67 11.32 -0.07
-14.83 10.98 -0.07
-15.18 10.78 -0.06
-15.49 10.54 -0.06
-15.89 10.35 -0.05
-16.01 9.97 -0.05
-16.00 9.53 -0.04
-16.05 9.13 -0.04
-16.04 8.70 -0.03
-15.94 8.23 -0.03
-15.97 7.85 -0.02
-16.02 7.48 -0.02
-16.01 7.08 -0.01
-16.00 6.70 -0.01
-15.94 6.30 -0.00
-15.93 5.93 0.00
-15.37 5.37 0.01
-14.66 4.80 0.01
-14.43 4.40 0.02
-14.51 4.11 0.02
-14.53 3.80 0.02
-14.51 3.49 0.03
-14.64 3.21 0.03
-14.98 2.97 0.04
-15.32 2.72 0.04
-15.89 2.49 0.05
-16.94 2.31 0.06
-16.94 1.96 0.06
-16.93 1.62 0.07
-16.92 1.28 0.07
-16.91 0.94 0.08
-16.91 0.60 0.08
-16.90 0.26 0.09
-16.89 -0.08 0.09
-16.89 -0.42 0.10
-16.88 -0.76 0.11
-16.87 -1.10 0.11
-16.86 -1.44 0.12
-16.86 -1.78 0.12
-16.85 -2.12 0.13
-16.84 -2.47 0.13
-16.84 -2.81 0.14
-16.83 -3.16 0.14
-16.82 -3.51 0.15
-16.81 -3.86 0.16
-26.87 -6.74 0.26
-27.32 -7.44 0.27
-43.53 -17.71 0.53
-31.05 -17.24 0.46
-20.81 -17.08 0.41
-14.65 -12.53 0.30
-14.06 -12.52 0.30
-6.49 -7.67 0.17
-11.57 -16.12 0.36
-18.11 -32.99 0.72
2.88 -28.61 1.25
6.90 -42.55 1.87
6.78 -37.11 1.63
2.16 -10.60 0.47
47.26 -15.97 1.65
47.38 -14.95 1.63
47.24 -13.87 1.60
47.22 -11.83 1.56
24.71 -5.15 0.79
23.66 -4.43 0.75
22.34 -3.72 0.70
21.35 -3.12 0.66
19.45 -2.44 0.59
18.24 -1.92 0.55
17.32 -1.47 0.51
16.63 -1.08 0.49
16.01 -0.72 0.46
15.46 -0.38 0.44
14.96 -0.07 0.42
14.51 0.22 0.41
14.11 0.50 0.39
13.79 0.77 0.38
13.48 1.02 0.37
13.19 1.27 0.35
12.91 1.50 0.34
12.64 1.73 0.33
12.38 1.95 0.32
12.12 2.16 0.31
11.88 2.36 0.31
11.68 2.56 0.30
11.49 2.77 0.29
11.31 2.96 0.28
11.13 3.16 0.28
10.96 3.35 0.27
10.79 3.54 0.27
10.67 3.73 0.26
10.54 3.93 0.26
10.41 4.12 0.25
10.29 4.31 0.25
10.21 4.52 0.25
10.19 4.76 0.24
10.17 5.00 0.24
10.16 5.25 0.24
10.15 5.51 0.24
10.14 5.77 0.24
10.13 6.03 0.24
10.12 6.31 0.24
10.13 6.60 0.24
10.16 6.91 0.24
10.19 7.24 0.24
10.23 7.58 0.24
10.28 7.94 0.24
10.32 8.31 0.25
10.37 8.70 0.25
10.41 9.09 0.25
10.45 9.50 0.25
10.49 9.93 0.25
10.52 10.37 0.26
10.57 10.84 0.26
10.56 11.28 0.26
10.56 11.74 0.26
10.55 12.22 0.27
10.55 12.72 0.27
10.55 13.25 0.27
10.54 13.81 0.28
10.54 14.39 0.28
10.57 15.06 0.29
10.80 16.06 0.30
10.85 16.85 0.31
10.80 17.54 0.31
10.74 18.26 0.32
10.64 18.95 0.32
10.48 19.58 0.33
10.39 20.38 0.33
10.23 21.10 0.34
10.04 21.80 0.34
9.83 22.54 0.35
9.68 23.46 0.35
9.57 24.57 0.37
9.54 26.03 0.38
9.51 27.66 0.40
9.49 29.53 0.42
9.42 31.46 0.44
9.39 33.82 0.47
9.41 36.73 0.50
9.87 42.00 0.57
9.73 45.51 0.61
-7.39 34.54 0.46
-26.84 38.24 0.73
-16.55 22.60 0.44
-16.53 21.65 0.43
-16.52 20.75 0.43
-16.50 19.89 0.42
-16.48 19.08 0.42
-16.36 18.19 0.41
-16.36 17.48 0.40
-16.43 16.86 0.40
-16.42 16.18 0.40
-16.41 15.53 0.40
-16.39 14.91 0.39
-16.38 14.31 0.39
-14.59 12.24 0.35
-14.54 11.71 0.34
-14.66 11.33 0.35
-14.83 10.99 0.35
-15.04 10.68 0.35
-15.37 10.46 0.36
-15.88 10.35 0.37
-15.27 9.52 0.36
-15.74 9.38 0.37
-16.05 9.13 0.38
-16.04 8.71 0.38
-15.38 7.95 0.36
-15.57 7.66 0.37
-16.02 7.48 0.38
-16.01 7.09 0.38
-15.22 6.38 0.37
-15.51 6.14 0.37
-15.93 5.94 0.39
-15.02 5.26 0.37
-14.67 4.80 0.36
-14.43 4.41 0.36
-14.37 4.08 0.36
-14.39 3.77 0.36
-14.50 3.49 0.37
-14.64 3.21 0.37
-14.79 2.94 0.38
-15.10 2.69 0.39
-15.86 2.49 0.41
-16.94 2.32 0.44
-16.94 1.97 0.45
-16.93 1.63 0.45
-16.92 1.28 0.46
-16.91 0.94 0.46
-16.91 0.60 0.47
-16.90 0.26 0.47
-16.89 -0.08 0.48
-16.89 -0.42 0.48
-16.88 -0.76 0.49
-16.87 -1.09 0.49
-16.86 -1.43 0.50
-16.86 -1.78 0.50
-16.85 -2.12 0.51
-16.84 -2.46 0.52
-16.84 -2.81 0.52
-16.83 -3.15 0.53
-16.82 -3.50 0.54
-16.81 -3.85 0.54
-26.87 -6.73 0.88
-27.33 -7.43 0.91
-29.32 -14.76 1.15
-31.32 -17.37 1.27
-20.79 -17.06 1.02
-14.66 -12.53 0.73
-14.06 -12.52 0.72
-24.42 -27.67 1.46
-6.49 -7.66 0.40
-12.36 -17.22 0.86
-18.05 -32.87 1.56
-18.09 -34.57 1.63
-16.33 -34.52 1.61
-13.83 -34.46 1.57
-13.03 -34.45 1.57
-12.23 -34.43 1.56
-11.46 -34.41 1.55
-10.69 -34.40 1.54
-9.49 -35.52 1.58
-9.29 -37.80 1.68
-9.22 -41.06 1.82
-9.14 -44.90 1.98
-0.00 -37.66 2.49
0.76 -37.66 2.49
1.51 -37.64 2.49
2.27 -37.61 2.49
2.90 -36.01 2.39
2.88 -28.58 1.90
4.35 -35.90 2.39
5.07 -35.82 2.39
5.79 -35.74 2.39
6.52 -35.64 2.39
2.16 -10.60 0.71
6.32 -28.14 1.90
6.27 -25.49 1.72
2.20 -8.24 0.56
2.38 -8.22 0.56
47.26 -15.95 2.78
47.24 -14.89 2.75
47.22 -13.85 2.71
47.20 -12.82 2.68
47.18 -11.80 2.65
24.73 -5.66 1.38
23.52 -4.89 1.30
22.12 -4.14 1.21
20.22 -3.36 1.09
18.70 -2.73 1.00
17.62 -2.21 0.94
16.75 -1.76 0.88
16.20 -1.37 0.85
15.65 -1.01 0.81
15.13 -0.67 0.78
14.66 -0.36 0.75
14.23 -0.06 0.72
13.83 0.22 0.70
13.46 0.48 0.68
13.17 0.74 0.66
12.89 0.98 0.64
12.62 1.22 0.63
12.36 1.44 0.61
12.11 1.66 0.60
11.87 1.87 0.58
11.64 2.07 0.57
11.41 2.27 0.56
11.20 2.46 0.54
11.03 2.66 0.54
10.86 2.85 0.53
10.73 3.05 0.52
10.61 3.24 0.51
10.48 3.44 0.51
10.36 3.63 0.50
10.24 3.82 0.50
10.12 4.01 0.49
10.00 4.19 0.49
9.88 4.38 0.48
9.83 4.60 0.48
9.81 4.83 0.48
9.79 5.06 0.48
9.76 5.30 0.48
9.74 5.55 0.48
9.73 5.80 0.49
9.72 6.06 0.49
9.70 6.33 0.49
9.71 6.61 0.49
9.73 6.91 0.50
9.75 7.23 0.51
9.78 7.56 0.51
9.81 7.90 0.52
9.84 8.26 0.53
9.88 8.64 0.53
9.92 9.03 0.54
9.96 9.43 0.55
9.99 9.85 0.56
10.01 10.28 0.57
10.11 10.80 0.58
10.16 11.30 0.60
10.15 11.75 0.61
10.13 12.22 0.62
10.12 12.72 0.63
10.12 13.26 0.64
10.11 13.81 0.66
10.09 14.38 0.67
10.07 14.98 0.69
10.09 15.69 0.71
10.14 16.48 0.73
10.16 17.28 0.75
10.12 18.02 0.77
10.07 18.82 0.79
10.00 19.61 0.82
9.89 20.41 0.84
9.70 21.08 0.85
9.46 21.69 0.87
9.24 22.41 0.89
9.06 23.29 0.91
8.90 24.29 0.94
8.81 25.63 0.98
8.75 27.21 1.03
8.66 28.94 1.09
8.63 31.09 1.16
8.46 33.02 1.22
8.41 35.82 1.32
8.65 40.43 1.48
8.54 44.26 1.61
8.38 48.69 1.76
-7.39 34.54 1.26
-26.03 37.10 1.72
-16.55 22.61 1.07
-16.53 21.66 1.05
-16.52 20.76 1.02
-16.50 19.90 1.00
-16.48 19.09 0.98
-16.36 18.20 0.96
-16.36 17.48 0.94
-16.43 16.87 0.93
-16.42 16.19 0.92
-16.41 15.54 0.91
-16.39 14.92 0.89
-16.38 14.31 0.88
-14.59 12.24 0.78
-14.68 11.82 0.77
-14.66 11.33 0.76
-14.83 10.99 0.77
-15.17 10.78 0.78
-15.49 10.54 0.79
-14.73 9.60 0.74
-15.06 9.39 0.75
-15.80 9.42 0.79
-16.05 9.14 0.79
-14.71 7.99 0.72
-14.83 7.67 0.73
-15.64 7.69 0.76
-16.02 7.49 0.78
-16.01 7.10 0.78
-14.92 6.26 0.72
-15.59 6.17 0.75
-15.93 5.94 0.77
-15.36 5.38 0.74
-14.67 4.81 0.71
-14.43 4.41 0.70
-14.54 4.13 0.70
-14.53 3.81 0.70
-14.50 3.50 0.70
-14.64 3.22 0.71
-14.97 2.98 0.73
-15.30 2.73 0.75
-15.85 2.50 0.77
-16.94 2.32 0.83
-16.94 1.98 0.83
-15.73 1.52 0.78
-15.76 1.20 0.78
-16.12 0.90 0.80
-16.91 0.61 0.85
-16.90 0.27 0.85
-16.89 -0.07 0.86
-16.89 -0.41 0.86
-16.88 -0.75 0.87
-16.87 -1.09 0.87
-16.86 -1.43 0.88
-16.86 -1.77 0.89
-16.85 -2.11 0.89
-16.84 -2.46 0.90
-16.84 -2.80 0.91
-16.83 -3.15 0.92
-16.82 -3.50 0.92
-16.81 -3.85 0.93
-26.87 -6.72 1.51
-27.34 -7.43 1.55
-30.43 -8.93 1.74
-41.43 -13.06 2.40
-40.94 -13.81 2.40
-40.44 -14.56 2.40
-39.93 -15.29 2.40
-39.20 -15.92 2.39
-38.68 -16.61 2.39
-38.14 -17.30 2.39
-37.60 -17.97 2.39
-29.32 -14.75 1.89
-36.50 -19.28 2.39
-31.31 -17.35 2.08
-36.89 -21.43 2.49
-36.29 -22.06 2.49
-35.68 -22.69 2.49
-35.06 -23.29 2.49
-34.43 -23.89 2.49
-33.80 -24.47 2.49
-33.17 -25.04 2.49
-32.52 -25.60 2.49
-20.77 -17.03 1.62
-14.67 -12.53 1.17
-14.07 -12.52 1.15
-29.43 -27.26 2.45
-28.25 -27.24 2.41
-27.36 -27.47 2.39
-26.71 -27.91 2.39
-26.06 -28.35 2.39
-25.40 -28.77 2.39
-6.50 -7.66 0.63
-24.07 -29.57 2.39
-23.39 -29.96 2.39
-22.72 -30.33 2.39
-12.35 -17.20 1.34
-21.36 -31.04 2.39
-20.70 -31.41 2.39
-20.01 -31.73 2.39
-19.32 -32.04 2.39
-17.29 -30.04 2.22
-17.93 -32.64 2.39
-17.23 -32.91 2.39
-16.53 -33.18 2.39
-15.82 -33.43 2.39
-15.12 -33.68 2.39
-14.41 -33.91 2.39
-13.70 -34.13 2.39
-12.99 -34.33 2.39
-12.28 -34.53 2.39
-11.56 -34.72 2.39
-10.85 -34.89 2.39
-10.13 -35.05 2.39
-9.35 -34.98 2.38
-8.68 -35.31 2.39
-7.96 -35.44 2.39
-7.24 -35.55 2.39
-6.52 -35.66 2.39
-5.80 -35.75 2.39
-5.29 -37.38 2.49
-4.54 -37.46 2.49
-3.78 -37.52 2.49
-3.03 -37.57 2.49
-2.27 -37.61 2.49
-1.51 -37.64 2.49
-0.76 -37.66 2.49
-0.00 -28.05 2.49
0.56 -28.05 2.49
1.13 -28.03 2.49
1.69 -28.01 2.49
2.25 -27.98 2.49
2.70 -26.78 2.39
3.24 -26.73 2.39
3.78 -26.67 2.39
4.31 -26.60 2.39
4.85 -26.52 2.39
2.16 -10.60 0.96
5.92 -26.34 2.39
2.05 -8.35 0.76
2.19 -8.20 0.75
2.36 -8.17 0.75
2.60 -8.35 0.77
6.12 -18.36 1.70
6.09 -17.13 1.60
6.22 -16.45 1.54
47.27 -14.88 3.87
47.22 -13.83 3.83
47.20 -12.80 3.79
24.99 -6.24 1.99
23.38 -5.34 1.84
21.85 -4.54 1.71
19.34 -3.61 1.50
17.75 -2.95 1.37
16.81 -2.44 1.28
16.29 -2.04 1.24
15.81 -1.65 1.19
15.30 -1.29 1.15
14.82 -0.95 1.10
14.38 -0.63 1.07
13.97 -0.33 1.03
13.58 -0.05 1.00
13.21 0.21 0.97
12.87 0.47 0.94
12.60 0.71 0.92
12.35 0.95 0.89
12.10 1.17 0.87
11.86 1.39 0.86
11.63 1.60 0.84
11.41 1.80 0.82
11.19 2.00 0.80
10.98 2.19 0.79
10.79 2.38 0.77
10.67 2.58 0.77
10.55 2.77 0.76
10.42 2.96 0.75
10.31 3.16 0.74
10.19 3.34 0.74
10.07 3.53 0.73
9.95 3.72 0.72
9.83 3.90 0.72
9.72 4.08 0.71
9.60 4.26 0.71
9.50 4.45 0.70
9.48 4.67 0.70
9.45 4.89 0.71
9.43 5.12 0.71
9.40 5.36 0.71
9.38 5.59 0.71
9.35 5.83 0.72
9.33 6.09 0.72
9.31 6.34 0.73
9.31 6.62 0.74
9.33 6.92 0.75
9.34 7.22 0.76
9.36 7.54 0.77
9.37 7.87 0.78
9.39 8.21 0.79
9.42 8.58 0.80
9.45 8.96 0.82
9.48 9.36 0.83
9.51 9.77 0.85
9.53 10.18 0.87
9.57 10.66 0.89
9.74 11.28 0.92
9.75 11.77 0.94
9.72 12.23 0.96
9.71 12.72 0.98
9.70 13.26 1.00
9.69 13.81 1.02
9.66 14.38 1.05
9.62 14.96 1.07
9.58 15.57 1.10
9.60 16.33 1.14
9.65 17.20 1.18
9.63 17.99 1.22
9.56 18.77 1.26
9.52 19.65 1.30
9.40 20.44 1.33
9.19 21.09 1.36
8.94 21.69 1.39
8.68 22.31 1.41
8.46 23.12 1.45
8.25 24.01 1.49
8.01 24.93 1.54
7.87 26.30 1.61
7.75 27.94 1.70
7.59 29.66 1.79
7.43 31.64 1.89
7.10 33.23 1.98
6.81 35.32 2.09
6.43 37.35 2.20
6.02 39.76 2.34
5.43 41.46 2.43
4.53 40.93 2.39
3.71 41.03 2.39
2.89 41.12 2.39
2.07 41.18 2.39
1.24 41.22 2.39
0.43 43.03 2.49
-0.43 43.03 2.49
-1.29 43.01 2.49
-2.16 42.97 2.49
-3.02 42.90 2.49
-3.87 42.82 2.49
-4.73 42.71 2.49
-5.58 42.58 2.49
-6.43 42.43 2.49
-7.15 41.52 2.45
-7.78 40.32 2.39
-7.38 34.50 2.05
-9.37 39.89 2.39
-10.04 39.22 2.36
-10.93 39.38 2.39
-11.71 39.14 2.39
-9.82 30.58 1.88
-10.53 30.64 1.90
-13.98 38.18 2.39
-14.71 37.82 2.39
-15.44 37.45 2.39
-12.73 29.21 1.88
-16.86 36.65 2.39
-17.55 36.22 2.39
-18.23 35.78 2.39
-18.35 34.28 2.32
-19.56 34.85 2.39
-18.07 30.75 2.14
-18.90 30.73 2.17
-21.45 33.35 2.39
-18.18 27.05 1.97
-22.64 32.28 2.39
-16.55 22.62 1.70
-16.63 21.79 1.67
-16.61 20.88 1.63
-16.50 19.91 1.59
-16.48 19.10 1.55
-16.36 18.20 1.51
-16.36 17.49 1.48
-16.43 16.88 1.47
-16.42 16.20 1.44
-16.50 15.63 1.42
-16.48 15.01 1.40
-16.47 14.40 1.38
-14.66 12.30 1.21
-14.59 11.76 1.19
-14.66 11.34 1.18
-14.82 11.00 1.18
-15.07 10.72 1.19
-15.41 10.50 1.20
-14.42 9.41 1.12
-15.11 9.43 1.16
-15.79 9.42 1.20
-14.33 8.16 1.08
-14.33 7.79 1.07
-14.89 7.71 1.11
-15.62 7.69 1.16
-16.02 7.49 1.18
-14.19 6.30 1.04
-14.75 6.19 1.08
-15.58 6.18 1.13
-15.93 5.95 1.15
-15.92 5.58 1.15
-14.67 4.82 1.06
-14.48 4.44 1.04
-14.42 4.10 1.04
-14.44 3.80 1.04
-14.50 3.50 1.04
-14.63 3.22 1.05
-14.84 2.96 1.06
-15.16 2.71 1.09
-15.83 2.50 1.14
-16.94 2.33 1.22
-15.37 1.80 1.11
-15.25 1.48 1.10
-15.25 1.17 1.10
-15.41 0.87 1.12
-15.69 0.57 1.14
-16.90 0.27 1.23
-16.89 -0.07 1.24
-16.89 -0.40 1.24
-16.88 -0.74 1.25
-16.87 -1.08 1.26
-16.86 -1.42 1.26
-16.86 -1.76 1.27
-16.85 -2.11 1.28
-16.84 -2.45 1.28
-16.84 -2.79 1.29
-16.83 -3.14 1.30
-16.82 -3.49 1.31
-16.81 -3.84 1.32
-26.87 -6.71 2.13
-27.35 -7.42 2.19
-29.57 -8.66 2.39
-29.27 -9.22 2.39
-29.10 -9.81 2.40
-28.79 -10.35 2.40
-28.47 -10.89 2.40
-28.14 -11.41 2.40
-27.81 -11.93 2.40
-27.46 -12.45 2.40
-27.11 -12.95 2.40
-26.75 -13.44 2.40
-26.38 -13.93 2.40
-26.01 -14.41 2.40
-25.63 -14.88 2.40
-25.11 -15.25 2.39
-24.71 -15.70 2.39
-24.32 -16.15 2.39
-23.91 -16.58 2.39
-23.50 -17.00 2.39
-23.08 -17.42 2.39
-22.66 -17.83 2.39
-20.74 -17.00 2.23
-14.68 -12.53 1.61
-14.08 -12.52 1.57
-21.82 -20.20 2.49
-21.35 -20.58 2.49
-20.88 -20.95 2.49
-20.40 -21.31 2.49
-19.92 -21.66 2.49
-19.43 -22.00 2.49
-6.50 -7.66 0.85
-18.44 -22.66 2.49
-17.94 -22.97 2.49
-17.44 -23.27 2.49
-12.32 -17.15 1.81
-16.42 -23.85 2.49
-15.91 -24.13 2.49
-15.39 -24.40 2.49
-14.87 -24.65 2.49
-14.34 -24.90 2.49
-13.81 -25.14 2.49
-13.28 -25.37 2.49
-12.75 -25.59 2.49
-12.21 -25.80 2.49
-11.68 -26.00 2.49
-11.13 -26.19 2.49
-10.59 -26.37 2.49
-10.05 -26.55 2.49
-9.50 -26.71 2.49
-8.95 -26.86 2.49
-8.40 -27.01 2.49
-7.85 -27.14 2.49
-7.29 -27.27 2.49
-6.74 -27.39 2.49
-6.18 -27.49 2.49
-5.62 -27.59 2.49
-5.06 -27.68 2.49
-4.50 -27.76 2.49
-3.94 -27.83 2.49
-3.38 -27.89 2.49
-2.82 -27.94 2.49
-2.25 -27.98 2.49
-1.69 -28.01 2.49
-1.13 -28.04 2.49
-0.56 -28.05 2.49
-0.00 -22.33 2.49
0.45 -22.33 2.49
0.90 -22.32 2.49
1.35 -22.30 2.49
1.79 -22.27 2.49
2.22 -21.99 2.46
2.58 -21.27 2.39
3.01 -21.22 2.39
3.43 -21.17 2.39
3.86 -21.10 2.39
2.16 -10.60 1.20
4.71 -20.95 2.39
2.03 -8.27 0.95
2.18 -8.14 0.94
2.34 -8.11 0.94
2.55 -8.20 0.95
6.12 -18.36 2.14
6.09 -17.12 2.01
6.07 -16.03 1.90
6.05 -15.06 1.79
6.03 -14.18 1.70
6.01 -13.39 1.62
6.01 -12.68 1.54
45.87 -13.42 4.80
25.26 -6.84 2.62
23.18 -5.78 2.39
21.55 -4.92 2.20
17.88 -3.70 1.81
16.86 -3.14 1.70
16.34 -2.71 1.63
15.86 -2.30 1.58
15.40 -1.92 1.52
14.96 -1.56 1.47
14.48 -1.22 1.41
14.02 -0.90 1.36
13.60 -0.59 1.32
13.19 -0.31 1.27
12.85 -0.05 1.24
12.57 0.21 1.21
12.31 0.45 1.18
12.07 0.68 1.15
11.84 0.91 1.13
11.61 1.13 1.10
11.39 1.34 1.08
11.17 1.54 1.06
10.96 1.74 1.04
10.79 1.93 1.02
10.63 2.12 1.01
10.48 2.31 1.00
10.35 2.50 0.98
10.24 2.69 0.98
10.13 2.88 0.97
10.01 3.07 0.96
9.90 3.25 0.95
9.79 3.44 0.94
9.68 3.62 0.94
9.57 3.80 0.93
9.45 3.97 0.92
9.34 4.15 0.92
9.23 4.32 0.91
9.17 4.52 0.91
9.14 4.74 0.92
9.11 4.96 0.92
9.09 5.18 0.92
9.06 5.41 0.93
9.03 5.64 0.94
9.00 5.87 0.94
8.96 6.11 0.95
8.94 6.36 0.96
8.94 6.63 0.97
8.94 6.92 0.98
8.95 7.22 0.99
8.96 7.52 1.01
8.96 7.84 1.02
8.97 8.17 1.04
8.98 8.52 1.06
9.00 8.89 1.08
9.02 9.27 1.10
9.04 9.67 1.12
9.06 10.09 1.15
9.07 10.52 1.17
9.21 11.12 1.21
9.35 11.77 1.26
9.33 12.23 1.29
9.30 12.72 1.32
9.29 13.25 1.35
9.27 13.81 1.38
9.24 14.37 1.42
9.19 14.94 1.45
9.13 15.54 1.49
9.08 16.19 1.53
9.10 17.02 1.59
9.14 17.94 1.66
9.07 18.72 1.71
9.01 19.59 1.77
8.92 20.46 1.83
8.69 21.09 1.86
8.43 21.69 1.90
8.09 22.11 1.92
7.73 22.52 1.94
7.47 23.28 1.99
7.23 24.16 2.05
6.96 25.09 2.11
6.70 26.18 2.19
6.56 27.96 2.32
6.35 29.72 2.46
5.98 31.01 2.55
5.01 29.14 2.39
2.07 13.65 1.11
3.85 29.35 2.39
3.26 29.44 2.39
2.67 29.51 2.39
2.08 29.57 2.39
1.48 29.61 2.39
0.93 30.92 2.49
0.31 30.94 2.49
-0.31 30.94 2.49
-0.93 30.92 2.49
-1.55 30.89 2.49
-2.17 30.85 2.49
-2.79 30.79 2.49
-3.40 30.72 2.49
-4.01 30.63 2.49
-4.63 30.53 2.49
-5.23 30.41 2.49
-5.84 30.28 2.49
-6.44 30.13 2.49
-6.89 29.36 2.44
-7.31 28.57 2.39
-7.88 28.39 2.39
-8.43 28.19 2.39
-8.99 27.99 2.39
-9.54 27.77 2.39
-10.08 27.54 2.39
-10.61 27.29 2.39
-11.16 27.07 2.39
-11.68 26.80 2.39
-12.20 26.52 2.39
-12.70 26.23 2.39
-13.21 25.93 2.39
-13.70 25.61 2.39
-14.18 25.29 2.39
-14.66 24.95 2.39
-15.13 24.60 2.39
-15.59 24.25 2.39
-16.04 23.88 2.39
-16.48 23.51 2.39
-16.56 22.63 2.34
-16.54 21.68 2.28
-15.15 19.06 2.04
-16.50 19.92 2.17
-16.48 19.11 2.13
-16.36 18.21 2.07
-16.36 17.50 2.03
-16.43 16.88 2.00
-16.42 16.21 1.96
-16.50 15.64 1.94
-16.48 15.01 1.91
-16.47 14.41 1.88
-14.60 12.26 1.64
-14.68 11.83 1.63
-14.66 11.34 1.60
-14.82 11.00 1.60
-15.13 10.77 1.61
-13.93 9.50 1.47
-14.47 9.44 1.51
-14.96 9.34 1.55
-14.95 8.92 1.53
-13.96 7.96 1.42
-14.20 7.72 1.43
-14.88 7.71 1.49
-14.92 7.35 1.48
-14.91 6.98 1.47
-13.97 6.20 1.37
-14.74 6.19 1.44
-15.57 6.18 1.51
-15.93 5.95 1.54
-15.36 5.39 1.48
-14.68 4.82 1.41
-14.43 4.42 1.38
-14.54 4.14 1.39
-14.53 3.83 1.38
-14.50 3.51 1.38
-14.63 3.23 1.39
-14.96 2.99 1.42
-15.29 2.74 1.45
-15.81 2.50 1.50
-16.94 2.33 1.60
-15.31 1.80 1.45
-15.20 1.48 1.44
-15.20 1.17 1.44
-15.37 0.87 1.46
-15.65 0.57 1.49
-16.90 0.28 1.62
-16.89 -0.06 1.62
-16.89 -0.40 1.63
-16.88 -0.74 1.63
-16.87 -1.08 1.64
-16.86 -1.42 1.65
-16.86 -1.76 1.65
-16.85 -2.10 1.66
-16.84 -2.44 1.67
-16.84 -2.79 1.68
-16.83 -3.14 1.69
-16.82 -3.48 1.70
-16.81 -3.84 1.71
-21.24 -5.30 2.18
-20.54 -5.56 2.13
-22.88 -6.69 2.39
-22.67 -7.13 2.39
-22.46 -7.56 2.39
-22.24 -7.99 2.39
-22.01 -8.41 2.39
-21.77 -8.82 2.39
-21.62 -9.27 2.40
-21.37 -9.68 2.40
-21.11 -10.08 2.40
-20.85 -10.47 2.40
-20.58 -10.86 2.40
-20.30 -11.24 2.40
-20.02 -11.61 2.40
-19.73 -11.98 2.40
-19.44 -12.34 2.40
-19.14 -12.70 2.40
-18.83 -13.05 2.40
-18.52 -13.39 2.40
-18.21 -13.73 2.40
-17.88 -14.06 2.40
-17.56 -14.38 2.40
-17.23 -14.70 2.40
-16.89 -15.01 2.40
-16.46 -15.23 2.39
-16.11 -15.52 2.39
-15.76 -15.81 2.39
-15.41 -16.09 2.39
-15.06 -16.36 2.39
-14.70 -16.63 2.39
-6.50 -7.66 1.08
-13.96 -17.14 2.39
-13.59 -17.39 2.39
-13.21 -17.63 2.39
-12.28 -17.08 2.28
-12.45 -18.08 2.39
-12.07 -18.30 2.39
-11.68 -18.51 2.39
-11.78 -19.52 2.49
-11.36 -19.72 2.49
-10.95 -19.91 2.49
-10.53 -20.10 2.49
-10.11 -20.28 2.49
-9.69 -20.45 2.49
-9.26 -20.62 2.49
-8.84 -20.78 2.49
-8.41 -20.93 2.49
-7.98 -21.07 2.49
-7.54 -21.21 2.49
-7.11 -21.33 2.49
-6.67 -21.45 2.49
-6.24 -21.57 2.49
-5.80 -21.67 2.49
-5.36 -21.77 2.49
-4.91 -21.86 2.49
-4.47 -21.94 2.49
-4.03 -22.01 2.49
-3.58 -22.08 2.49
-3.14 -22.13 2.49
-2.69 -22.18 2.49
-2.24 -22.23 2.49
-1.79 -22.26 2.49
-1.35 -22.30 2.49
-0.90 -22.32 2.49
-0.45 -22.33 2.49
-0.00 -18.53 2.49
0.37 -18.53 2.49
0.75 -18.52 2.49
1.12 -18.50 2.49
1.49 -18.48 2.49
1.86 -18.45 2.49
2.14 -17.68 2.39
2.50 -17.61 2.39
2.85 -17.56 2.39
3.20 -17.51 2.39
2.16 -10.60 1.45
3.91 -17.38 2.39
2.03 -8.27 1.14
2.18 -8.14 1.13
2.35 -8.11 1.13
2.55 -8.20 1.15
5.65 -16.95 2.39
6.00 -16.85 2.39
6.07 -16.02 2.29
6.05 -15.05 2.16
6.03 -14.17 2.05
6.01 -13.38 1.95
6.00 -12.66 1.86
5.98 -12.00 1.78
5.97 -11.40 1.71
5.96 -10.84 1.64
5.95 -10.32 1.58
6.04 -10.00 1.54
45.26 -14.22 5.86
26.12 -7.63 3.35
16.92 -4.58 2.16
16.60 -4.14 2.10
16.29 -3.71 2.04
15.83 -3.27 1.97
15.32 -2.85 1.90
14.90 -2.46 1.83
14.60 -2.11 1.79
14.31 -1.78 1.74
13.97 -1.45 1.69
13.54 -1.13 1.63
13.15 -0.83 1.58
12.82 -0.56 1.53
12.55 -0.29 1.50
12.29 -0.04 1.46
12.04 0.20 1.43
11.80 0.44 1.40
11.58 0.66 1.37
11.36 0.88 1.34
11.15 1.09 1.32
10.95 1.29 1.29
10.78 1.49 1.27
10.63 1.69 1.25
10.48 1.88 1.24
10.33 2.07 1.22
10.19 2.25 1.21
10.05 2.44 1.19
9.95 2.62 1.18
9.84 2.81 1.17
9.73 2.99 1.16
9.62 3.17 1.16
9.52 3.34 1.15
9.41 3.52 1.14
9.31 3.70 1.13
9.20 3.87 1.13
9.10 4.04 1.12
8.99 4.21 1.11
8.88 4.38 1.11
8.85 4.59 1.11
8.82 4.80 1.12
8.79 5.01 1.12
8.76 5.23 1.13
8.73 5.45 1.14
8.70 5.68 1.15
8.66 5.91 1.15
8.63 6.14 1.16
8.59 6.38 1.17
8.57 6.63 1.18
8.57 6.91 1.20
8.57 7.20 1.22
8.57 7.50 1.24
8.57 7.81 1.26
8.56 8.13 1.28
8.56 8.45 1.30
8.55 8.79 1.32
8.56 9.16 1.35
8.57 9.55 1.38
8.59 9.96 1.41
8.60 10.39 1.44
8.71 10.96 1.49
8.83 11.58 1.55
8.94 12.23 1.61
8.91 12.71 1.65
8.88 13.23 1.69
8.85 13.78 1.73
8.82 14.36 1.78
8.76 14.92 1.82
8.69 15.51 1.87
8.62 16.12 1.92
8.57 16.84 1.98
8.59 17.73 2.07
8.58 18.66 2.15
8.50 19.52 2.23
8.37 20.32 2.29
8.11 20.87 2.34
7.79 21.30 2.36
7.45 21.69 2.39
7.09 22.09 2.41
6.72 22.49 2.44
6.44 23.21 2.50
6.05 23.63 2.53
5.26 22.43 2.39
4.81 22.54 2.39
4.36 22.65 2.39
3.91 22.74 2.39
2.06 13.58 1.42
3.00 22.90 2.39
2.54 22.97 2.39
2.08 23.02 2.39
1.62 23.06 2.39
1.21 24.10 2.49
0.72 24.12 2.49
0.24 24.13 2.49
-0.24 24.13 2.49
-0.73 24.12 2.49
-1.21 24.10 2.49
-1.69 24.06 2.49
-2.17 24.02 2.49
-2.65 23.97 2.49
-3.13 23.90 2.49
-3.61 23.82 2.49
-4.08 23.73 2.49
-4.55 23.63 2.49
-5.02 23.52 2.49
-5.49 23.40 2.49
-5.96 23.27 2.49
-6.42 23.13 2.49
-6.75 22.56 2.45
-7.02 21.87 2.39
-7.45 21.71 2.39
-7.88 21.53 2.39
-8.30 21.35 2.39
-8.72 21.15 2.39
-9.13 20.95 2.39
-9.53 20.74 2.39
-9.94 20.52 2.39
-10.33 20.29 2.39
-10.73 20.07 2.39
-11.12 19.83 2.39
-11.50 19.57 2.39
-11.87 19.31 2.39
-12.23 19.04 2.39
-12.59 18.76 2.39
-12.94 18.47 2.39
-13.29 18.18 2.39
-13.63 17.87 2.39
-13.96 17.57 2.39
-14.28 17.25 2.39
-14.60 16.93 2.39
-14.90 16.60 2.39
-15.20 16.27 2.39
-15.50 15.93 2.39
-15.78 15.58 2.39
-16.06 15.23 2.39
-16.32 14.88 2.39
-16.38 14.34 2.36
-14.60 12.27 2.07
-14.68 11.84 2.05
-14.66 11.35 2.02
-14.82 11.01 2.02
-13.45 9.57 1.81
-13.86 9.46 1.84
-14.40 9.40 1.89
-14.49 9.05 1.89
-13.41 8.01 1.73
-13.56 7.74 1.73
-14.19 7.72 1.80
-14.55 7.54 1.83
-14.54 7.17 1.81
-13.33 6.25 1.65
-13.98 6.21 1.72
-14.73 6.19 1.80
-15.55 6.18 1.89
-15.93 5.96 1.93
-15.36 5.40 1.85
-14.68 4.83 1.76
-14.43 4.43 1.72
-14.54 4.15 1.73
-14.53 3.83 1.72
-14.49 3.51 1.72
-14.63 3.23 1.73
-14.96 2.99 1.76
-15.29 2.74 1.80
-15.80 2.51 1.86
-15.94 2.20 1.88
-15.32 1.80 1.80
-15.20 1.48 1.79
-15.19 1.17 1.79
-15.34 0.88 1.81
-15.62 0.58 1.85
-16.15 0.27 1.91
-16.89 -0.05 2.01
-16.89 -0.39 2.01
-16.88 -0.73 2.02
-16.87 -1.07 2.02
-16.86 -1.41 2.03
-16.86 -1.75 2.04
-16.85 -2.09 2.05
-16.84 -2.44 2.06
-16.84 -2.78 2.07
-16.83 -3.13 2.08
-16.82 -3.48 2.09
-16.81 -3.83 2.11
-18.94 -4.72 2.39
-18.79 -5.08 2.39
-18.64 -5.45 2.39
-18.48 -5.81 2.39
-18.32 -6.16 2.39
-18.15 -6.51 2.39
-17.97 -6.86 2.39
-17.79 -7.20 2.39
-17.60 -7.54 2.39
-17.40 -7.87 2.39
-17.20 -8.20 2.39
-17.00 -8.53 2.39
-16.78 -8.85 2.39
-16.64 -9.20 2.40
-16.41 -9.51 2.40
-16.19 -9.82 2.40
-15.95 -10.12 2.40
-15.71 -10.42 2.40
-15.47 -10.71 2.40
-15.22 -11.00 2.40
-14.97 -11.28 2.40
-14.71 -11.56 2.40
-14.44 -11.83 2.40
-14.18 -12.09 2.40
-13.91 -12.35 2.40
-13.63 -12.61 2.40
-13.35 -12.85 2.40
-13.07 -13.10 2.40
-12.78 -13.33 2.40
-12.49 -13.57 2.40
-12.19 -13.79 2.40
-6.50 -7.66 1.31
-11.59 -14.23 2.40
-11.29 -14.43 2.40
-10.92 -14.56 2.39
-10.61 -14.75 2.39
-10.29 -14.94 2.39
-9.98 -15.12 2.39
-9.66 -15.30 2.39
-9.34 -15.47 2.39
-9.01 -15.64 2.39
-8.69 -15.80 2.39
-8.36 -15.95 2.39
-8.03 -16.10 2.39
-7.69 -16.24 2.39
-7.36 -16.38 2.39
-7.32 -17.21 2.49
-6.97 -17.34 2.49
-6.61 -17.46 2.49
-6.25 -17.57 2.49
-5.90 -17.68 2.49
-5.53 -17.78 2.49
-5.17 -17.88 2.49
-4.81 -17.97 2.49
-4.44 -18.05 2.49
-4.08 -18.13 2.49
-3.71 -18.20 2.49
-3.34 -18.26 2.49
-2.97 -18.31 2.49
-2.60 -18.36 2.49
-2.23 -18.41 2.49
-1.86 -18.45 2.49
-1.49 -18.48 2.49
-1.12 -18.50 2.49
-0.75 -18.52 2.49
-0.37 -18.53 2.49
-0.00 -15.83 2.49
0.32 -15.82 2.49
0.64 -15.81 2.49
0.95 -15.80 2.49
1.27 -15.78 2.49
1.59 -15.75 2.49
1.91 -15.72 2.49
2.13 -15.03 2.39
2.43 -14.99 2.39
2.74 -14.95 2.39
2.16 -10.60 1.70
3.34 -14.83 2.39
2.04 -8.27 1.34
2.18 -8.14 1.32
2.35 -8.11 1.32
2.55 -8.20 1.35
4.82 -14.46 2.39
5.12 -14.37 2.39
5.41 -14.28 2.39
5.70 -14.17 2.39
5.99 -14.07 2.39
6.01 -13.38 2.29
6.00 -12.65 2.18
5.98 -12.00 2.09
5.97 -11.39 2.00
5.96 -10.83 1.92
5.95 -10.32 1.85
5.94 -9.84 1.78
5.93 -9.39 1.72
5.92 -8.97 1.66
5.91 -8.58 1.61
5.90 -8.21 1.56
6.01 -8.01 1.54
35.66 -29.18 6.99
36.11 -28.35 6.95
36.60 -27.57 6.93
37.45 -27.05 6.97
38.38 -26.56 7.03
39.29 -26.04 7.09
40.21 -25.50 7.15
41.38 -25.09 7.25
42.73 -24.75 7.39
15.54 -5.57 2.43
15.44 -5.19 2.39
15.33 -4.81 2.35
15.21 -4.44 2.32
15.10 -4.08 2.28
14.98 -3.73 2.25
14.82 -3.37 2.21
14.52 -3.00 2.15
14.24 -2.64 2.09
13.97 -2.30 2.04
13.70 -1.98 1.99
13.45 -1.67 1.95
13.09 -1.36 1.89
12.78 -1.07 1.84
12.52 -0.79 1.79
12.26 -0.53 1.75
12.02 -0.28 1.71
11.78 -0.03 1.67
11.55 0.20 1.63
11.33 0.42 1.60
11.12 0.64 1.57
10.92 0.85 1.54
10.76 1.05 1.52
10.61 1.25 1.50
10.47 1.45 1.48
10.33 1.64 1.46
10.18 1.83 1.44
10.05 2.01 1.42
9.91 2.19 1.40
9.77 2.37 1.39
9.67 2.55 1.38
9.57 2.73 1.37
9.46 2.91 1.36
9.36 3.08 1.35
9.26 3.26 1.34
9.16 3.43 1.33
9.05 3.60 1.32
8.95 3.77 1.32
8.85 3.94 1.31
8.75 4.10 1.31
8.65 4.27 1.30
8.57 4.45 1.30
8.55 4.66 1.31
8.52 4.86 1.31
8.49 5.08 1.32
8.46 5.29 1.33
8.42 5.51 1.34
8.39 5.73 1.35
8.35 5.95 1.36
8.32 6.18 1.37
8.28 6.41 1.38
8.24 6.65 1.40
8.20 6.90 1.41
8.19 7.17 1.43
8.18 7.46 1.45
8.18 7.76 1.48
8.17 8.07 1.50
8.15 8.39 1.53
8.11 8.68 1.55
8.06 8.98 1.57
8.04 9.33 1.60
8.04 9.72 1.64
8.04 10.12 1.67
8.02 10.53 1.71
7.97 10.90 1.74
8.02 11.45 1.80
8.40 12.52 1.94
8.30 12.92 1.97
8.22 13.37 2.02
8.13 13.84 2.06
8.03 14.33 2.10
7.91 14.80 2.15
7.76 15.24 2.19
7.59 15.68 2.22
7.41 16.12 2.26
7.22 16.58 2.30
7.08 17.18 2.36
6.92 17.81 2.43
6.80 18.60 2.52
6.53 19.03 2.55
6.20 19.32 2.57
5.40 18.05 2.39
5.04 18.17 2.39
4.68 18.28 2.39
4.31 18.38 2.39
3.94 18.47 2.39
3.57 18.56 2.39
3.20 18.63 2.39
2.05 13.57 1.73
2.46 18.76 2.39
2.08 18.81 2.39
1.70 18.86 2.39
1.37 19.44 2.46
0.99 19.73 2.49
0.59 19.75 2.49
0.20 19.76 2.49
-0.20 19.76 2.49
-0.59 19.75 2.49
-0.99 19.74 2.49
-1.38 19.71 2.49
-1.78 19.67 2.49
-2.17 19.63 2.49
-2.56 19.58 2.49
-2.95 19.51 2.49
-3.34 19.44 2.49
-3.73 19.37 2.49
-4.12 19.28 2.49
-4.50 19.18 2.49
-4.88 19.08 2.49
-5.26 18.96 2.49
-5.63 18.84 2.49
-6.00 18.71 2.49
-6.37 18.57 2.49
-6.66 18.20 2.46
-6.81 17.52 2.39
-7.15 17.36 2.39
-7.49 17.20 2.39
-7.82 17.03 2.39
-8.15 16.85 2.39
-8.48 16.66 2.39
-8.80 16.47 2.39
-9.12 16.27 2.39
-9.43 16.07 2.39
-9.74 15.86 2.39
-10.05 15.64 2.39
-10.34 15.41 2.39
-10.65 15.20 2.39
-10.93 14.96 2.39
-11.22 14.72 2.39
-11.49 14.47 2.39
-11.76 14.21 2.39
-12.02 13.95 2.39
-12.28 13.69 2.39
-12.53 13.42 2.39
-12.78 13.14 2.39
-13.02 12.86 2.39
-13.25 12.58 2.39
-13.48 12.29 2.39
-13.70 11.99 2.39
-13.91 11.69 2.39
-14.11 11.39 2.39
-14.31 11.09 2.39
-14.50 10.78 2.39
-13.47 9.59 2.19
-13.85 9.46 2.23
-14.02 9.17 2.23
-14.02 8.77 2.20
-13.43 8.03 2.09
-13.55 7.73 2.09
-14.15 7.71 2.16
-14.17 7.35 2.15
-14.17 6.99 2.13
-13.39 6.28 2.00
-13.97 6.21 2.07
-14.72 6.19 2.16
-15.54 6.18 2.27
-15.93 5.97 2.32
-15.35 5.40 2.22
-14.69 4.84 2.11
-14.43 4.43 2.07
-14.54 4.15 2.08
-14.53 3.84 2.07
-14.49 3.52 2.06
-14.63 3.24 2.07
-14.95 3.00 2.11
-15.28 2.75 2.16
-15.78 2.51 2.22
-15.74 2.18 2.22
-15.32 1.81 2.16
-15.20 1.49 2.14
-15.19 1.18 2.14
-15.33 0.88 2.16
-15.56 0.58 2.20
-16.06 0.28 2.27
-16.08 -0.05 2.28
-16.83 -0.39 2.39
-16.78 -0.72 2.39
-16.73 -1.06 2.39
-16.67 -1.39 2.39
-16.60 -1.72 2.39
-16.53 -2.05 2.39
-16.45 -2.37 2.39
-16.36 -2.70 2.39
-16.27 -3.02 2.39
-15.63 -3.23 2.31
-15.41 -3.51 2.29
-15.51 -3.86 2.32
-15.84 -4.28 2.39
-15.72 -4.59 2.39
-15.59 -4.89 2.39
-15.46 -5.19 2.39
-15.32 -5.49 2.39
-15.17 -5.79 2.39
-15.02 -6.08 2.39
-14.87 -6.36 2.39
-14.71 -6.65 2.39
-14.54 -6.93 2.39
-14.38 -7.21 2.39
-14.20 -7.48 2.39
-14.02 -7.75 2.39
-13.84 -8.01 2.39
-13.65 -8.28 2.39
-13.46 -8.53 2.39
-13.26 -8.79 2.39
-13.11 -9.07 2.40
-12.91 -9.32 2.40
-12.69 -9.56 2.40
-12.48 -9.80 2.40
-12.26 -10.03 2.40
-12.04 -10.26 2.40
-11.81 -10.48 2.40
-11.58 -10.70 2.40
-11.34 -10.92 2.40
-11.10 -11.12 2.40
-10.86 -11.33 2.40
-10.62 -11.53 2.40
-10.37 -11.72 2.40
-6.49 -7.64 1.54
-9.81 -12.03 2.39
-9.55 -12.21 2.39
-9.29 -12.38 2.39
-9.03 -12.55 2.39
-8.77 -12.72 2.39
-8.50 -12.88 2.39
-8.23 -13.03 2.39
-7.96 -13.18 2.39
-7.68 -13.32 2.39
-7.41 -13.46 2.39
-7.13 -13.59 2.39
-6.85 -13.72 2.39
-6.56 -13.84 2.39
-6.28 -13.96 2.39
-6.25 -14.67 2.49
-5.94 -14.79 2.49
-5.64 -14.89 2.49
-5.34 -14.99 2.49
-5.03 -15.09 2.49
-4.72 -15.17 2.49
-4.42 -15.26 2.49
-4.10 -15.33 2.49
-3.79 -15.41 2.49
-3.48 -15.47 2.49
-3.17 -15.53 2.49
-2.85 -15.59 2.49
-2.54 -15.63 2.49
-2.22 -15.68 2.49
-1.91 -15.72 2.49
-1.59 -15.75 2.49
-1.27 -15.78 2.49
-0.96 -15.80 2.49
-0.64 -15.81 2.49
-0.32 -15.82 2.49
-0.00 -13.80 2.49
0.28 -13.79 2.49
0.56 -13.78 2.49
0.83 -13.77 2.49
1.11 -13.75 2.49
1.39 -13.73 2.49
1.66 -13.70 2.49
1.94 -13.67 2.49
2.12 -13.07 2.39
2.39 -13.03 2.39
2.16 -10.60 1.95
2.91 -12.93 2.39
2.04 -8.26 1.53
2.18 -8.14 1.52
2.35 -8.11 1.52
2.52 -8.09 1.52
4.20 -12.60 2.39
4.46 -12.52 2.39
4.71 -12.43 2.39
4.96 -12.35 2.39
5.22 -12.25 2.39
5.47 -12.15 2.39
5.71 -12.05 2.39
5.96 -11.94 2.39
5.97 -11.39 2.30
5.96 -10.83 2.21
5.95 -10.31 2.12
5.94 -9.83 2.05
5.93 -9.38 1.98
5.92 -8.97 1.91
5.91 -8.57 1.85
5.90 -8.20 1.80
5.90 -7.86 1.74
5.89 -7.53 1.69
5.88 -7.21 1.65
5.88 -6.92 1.61
5.86 -6.62 1.56
5.93 -6.44 1.54
32.68 -31.44 7.97
32.88 -30.38 7.86
33.05 -29.33 7.75
33.47 -28.52 7.70
33.87 -27.70 7.65
34.47 -27.05 7.65
35.10 -26.43 7.66
35.79 -25.83 7.68
36.58 -25.30 7.73
37.38 -24.76 7.78
38.14 -24.18 7.83
38.94 -23.60 7.88
39.67 -22.96 7.92
40.60 -22.42 8.00
41.60 -21.89 8.09
43.24 -21.66 8.31
13.93 -5.96 2.59
13.49 -5.45 2.48
13.45 -5.12 2.45
13.41 -4.80 2.42
13.37 -4.49 2.40
13.32 -4.17 2.37
13.26 -3.87 2.34
13.18 -3.56 2.31
13.07 -3.25 2.27
12.97 -2.95 2.24
12.89 -2.66 2.21
12.80 -2.37 2.18
12.71 -2.09 2.16
12.62 -1.82 2.13
12.49 -1.54 2.10
12.28 -1.27 2.06
12.08 -1.00 2.01
11.88 -0.75 1.97
11.68 -0.50 1.94
11.49 -0.26 1.90
11.30 -0.03 1.86
11.10 0.20 1.83
10.89 0.41 1.79
10.74 0.62 1.76
10.60 0.83 1.74
10.46 1.03 1.72
10.31 1.22 1.69
10.18 1.41 1.67
10.04 1.60 1.65
9.91 1.78 1.63
9.77 1.96 1.61
9.64 2.14 1.59
9.51 2.31 1.58
9.40 2.49 1.56
9.30 2.66 1.55
9.21 2.83 1.54
9.11 3.00 1.53
9.01 3.17 1.52
8.91 3.34 1.52
8.81 3.51 1.51
8.71 3.67 1.50
8.62 3.84 1.49
8.52 4.00 1.49
8.43 4.16 1.48
8.33 4.32 1.48
8.28 4.51 1.48
8.26 4.72 1.49
8.23 4.93 1.50
8.20 5.13 1.51
8.17 5.34 1.52
8.13 5.55 1.54
8.09 5.77 1.55
8.06 5.99 1.56
8.02 6.21 1.57
7.98 6.44 1.59
7.78 6.54 1.57
7.52 6.59 1.54
7.40 6.75 1.54
7.82 7.42 1.66
7.80 7.71 1.69
7.78 8.01 1.71
7.77 8.32 1.74
7.72 8.61 1.77
7.67 8.90 1.80
7.61 9.20 1.82
7.54 9.50 1.85
7.51 9.87 1.89
7.50 10.26 1.93
7.45 10.64 1.97
7.38 11.01 2.01
7.31 11.39 2.05
7.23 11.78 2.09
7.37 12.56 2.20
7.24 12.92 2.24
7.10 13.30 2.27
6.96 13.68 2.31
6.81 14.07 2.35
6.66 14.50 2.40
6.48 14.88 2.44
6.24 15.16 2.46
6.00 15.44 2.49
5.47 14.95 2.39
5.17 15.07 2.39
4.87 15.18 2.39
4.57 15.29 2.39
4.26 15.38 2.39
3.96 15.47 2.39
3.65 15.56 2.39
3.34 15.63 2.39
3.02 15.71 2.39
2.71 15.77 2.39
2.05 13.57 2.05
2.08 15.88 2.39
1.76 15.92 2.39
1.45 16.02 2.40
1.17 16.67 2.49
0.84 16.70 2.49
0.50 16.71 2.49
0.17 16.72 2.49
-0.17 16.72 2.49
-0.50 16.71 2.49
-0.84 16.70 2.49
-1.17 16.67 2.49
-1.50 16.64 2.49
-1.84 16.61 2.49
-2.17 16.56 2.49
-2.50 16.51 2.49
-2.83 16.45 2.49
-3.16 16.39 2.49
-3.48 16.31 2.49
-3.81 16.23 2.49
-4.13 16.15 2.49
-4.45 16.05 2.49
-4.77 15.95 2.49
-5.08 15.84 2.49
-5.39 15.73 2.49
-5.70 15.61 2.49
-6.01 15.48 2.49
-6.32 15.34 2.49
-6.59 15.14 2.48
-6.63 14.43 2.39
-6.91 14.28 2.39
-7.19 14.13 2.39
-7.46 13.97 2.39
-7.73 13.80 2.39
-8.00 13.63 2.39
-8.26 13.45 2.39
-8.52 13.27 2.39
-8.77 13.08 2.39
-9.02 12.89 2.39
-9.27 12.69 2.39
-9.51 12.48 2.39
-9.75 12.28 2.39
-9.98 12.06 2.39
-10.20 11.84 2.39
-10.42 11.62 2.39
-10.65 11.41 2.39
-10.86 11.18 2.39
-11.07 10.94 2.39
-11.27 10.70 2.39
-11.46 10.46 2.39
-11.65 10.21 2.39
-11.84 9.96 2.39
-12.02 9.70 2.39
-12.19 9.45 2.39
-12.35 9.19 2.39
-12.52 8.92 2.39
-12.67 8.65 2.39
-12.82 8.38 2.39
-12.96 8.11 2.39
-13.10 7.84 2.39
-13.23 7.56 2.39
-13.36 7.28 2.39
-13.48 7.00 2.39
-13.59 6.72 2.39
-13.40 6.29 2.34
-13.80 6.14 2.39
-13.89 5.85 2.39
-13.98 5.56 2.39
-14.07 5.27 2.39
-14.14 4.98 2.39
-14.21 4.69 2.39
-14.28 4.39 2.39
-14.34 4.10 2.39
-14.39 3.80 2.39
-14.43 3.51 2.39
-14.47 3.21 2.39
-14.51 2.91 2.39
-14.53 2.62 2.39
-14.56 2.32 2.39
-14.57 2.02 2.39
-14.58 1.73 2.39
-14.58 1.43 2.39
-14.58 1.14 2.39
-14.57 0.84 2.39
-14.56 0.55 2.39
-14.54 0.26 2.39
-14.51 -0.04 2.39
-14.48 -0.33 2.39
-14.44 -0.62 2.39
-14.40 -0.90 2.39
-14.35 -1.19 2.39
-14.30 -1.48 2.39
-14.24 -1.76 2.39
-14.17 -2.04 2.39
-14.10 -2.32 2.39
-14.03 -2.60 2.39
-13.95 -2.87 2.39
-13.86 -3.15 2.39
-13.77 -3.42 2.39
-13.67 -3.69 2.39
-13.57 -3.96 2.39
-13.47 -4.22 2.39
-13.35 -4.48 2.39
-13.24 -4.74 2.39
-13.12 -5.00 2.39
-12.99 -5.25 2.39
-12.86 -5.50 2.39
-12.73 -5.75 2.39
-12.59 -5.99 2.39
-12.44 -6.23 2.39
-12.30 -6.47 2.39
-12.14 -6.71 2.39
-11.99 -6.94 2.39
-11.83 -7.17 2.39
-11.66 -7.39 2.39
-11.49 -7.61 2.39
-11.32 -7.83 2.39
-11.14 -8.04 2.39
-10.96 -8.25 2.39
-10.78 -8.46 2.39
-10.59 -8.66 2.39
-10.40 -8.86 2.39
-10.25 -9.10 2.40
-10.00 -9.24 2.39
-9.80 -9.42 2.39
-9.59 -9.61 2.39
-9.39 -9.78 2.39
-9.18 -9.96 2.39
-8.96 -10.13 2.39
-6.49 -7.64 1.77
-8.53 -10.46 2.39
-8.31 -10.61 2.39
-8.08 -10.77 2.39
-7.86 -10.92 2.39
-7.63 -11.06 2.39
-7.40 -11.20 2.39
-7.16 -11.34 2.39
-6.93 -11.47 2.39
-6.69 -11.59 2.39
-6.45 -11.71 2.39
-6.21 -11.83 2.39
-6.03 -12.08 2.41
-5.96 -12.57 2.49
-5.70 -12.68 2.49
-5.44 -12.78 2.49
-5.18 -12.88 2.49
-4.92 -12.98 2.49
-4.65 -13.06 2.49
-4.39 -13.15 2.49
-4.12 -13.22 2.49
-3.85 -13.29 2.49
-3.58 -13.36 2.49
-3.31 -13.42 2.49
-3.03 -13.48 2.49
-2.76 -13.54 2.49
-2.49 -13.58 2.49
-2.21 -13.63 2.49
-1.94 -13.67 2.49
-1.66 -13.70 2.49
-1.39 -13.73 2.49
-1.11 -13.76 2.49
-0.83 -13.77 2.49
-0.56 -13.79 2.49
-0.28 -13.79 2.49
-0.00 -12.22 2.49
0.25 -12.21 2.49
0.49 -12.21 2.49
0.74 -12.19 2.49
0.98 -12.18 2.49
1.23 -12.16 2.49
1.47 -12.13 2.49
1.72 -12.10 2.49
1.96 -12.07 2.49
2.11 -11.53 2.39
2.16 -10.60 2.20
2.58 -11.44 2.39
2.04 -8.26 1.73
2.18 -8.14 1.71
2.35 -8.11 1.72
2.55 -8.20 1.75
3.72 -11.15 2.39
3.95 -11.08 2.39
4.17 -11.00 2.39
4.39 -10.92 2.39
4.62 -10.84 2.39
4.84 -10.75 2.39
5.06 -10.66 2.39
5.27 -10.56 2.39
5.49 -10.46 2.39
5.70 -10.36 2.39
5.91 -10.25 2.39
5.94 -9.83 2.32
5.93 -9.38 2.24
5.92 -8.96 2.16
5.91 -8.57 2.09
5.90 -8.20 2.03
5.90 -7.85 1.97
5.89 -7.52 1.92
5.88 -7.21 1.86
5.88 -6.91 1.82
5.87 -6.63 1.77
5.87 -6.36 1.73
5.86 -6.11 1.69
5.85 -5.86 1.65
5.85 -5.62 1.62
5.85 -5.40 1.58
5.83 -5.17 1.55
5.99 -5.10 1.56
32.61 -26.65 8.34
33.21 -26.05 8.35
33.83 -25.45 8.37
34.47 -24.87 8.39
35.14 -24.29 8.42
35.85 -23.73 8.46
36.50 -23.12 8.49
37.09 -22.46 8.51
37.65 -21.78 8.53
12.84 -7.09 2.87
12.50 -6.57 2.76
12.17 -6.09 2.66
11.90 -5.66 2.57
11.85 -5.35 2.53
11.80 -5.04 2.49
11.75 -4.74 2.46
11.69 -4.45 2.42
11.65 -4.17 2.39
11.63 -3.90 2.37
11.61 -3.63 2.35
11.65 -3.39 2.34
11.69 -3.15 2.33
11.73 -2.91 2.32
11.76 -2.67 2.31
11.77 -2.42 2.30
11.70 -2.16 2.27
11.63 -1.91 2.25
11.55 -1.66 2.22
11.38 -1.40 2.18
11.21 -1.15 2.14
11.04 -0.91 2.10
10.89 -0.68 2.06
10.77 -0.46 2.04
10.66 -0.24 2.01
10.54 -0.02 1.98
10.43 0.19 1.96
10.32 0.39 1.94
10.25 0.60 1.92
10.17 0.80 1.91
10.10 0.99 1.89
10.02 1.19 1.88
9.90 1.38 1.86
9.77 1.56 1.84
9.64 1.74 1.81
9.51 1.91 1.79
9.39 2.09 1.78
9.27 2.25 1.76
9.15 2.42 1.74
9.06 2.59 1.73
8.96 2.76 1.72
8.87 2.93 1.71
8.77 3.09 1.70
8.68 3.26 1.69
8.59 3.42 1.68
8.49 3.58 1.68
8.40 3.74 1.67
8.31 3.90 1.66
8.21 4.06 1.66
8.12 4.22 1.65
8.02 4.38 1.65
8.00 4.57 1.66
7.97 4.77 1.67
7.95 4.98 1.68
7.92 5.18 1.70
7.89 5.39 1.71
7.85 5.60 1.72
7.81 5.81 1.74
7.77 6.02 1.75
7.73 6.24 1.77
7.68 6.47 1.79
7.44 6.53 1.76
6.49 5.92 1.56
6.32 6.01 1.54
6.57 6.50 1.63
7.44 7.66 1.89
7.42 7.95 1.92
7.39 8.25 1.95
7.35 8.54 1.98
7.29 8.82 2.01
7.22 9.11 2.04
7.16 9.40 2.07
7.08 9.70 2.10
7.01 10.01 2.14
6.96 10.39 2.19
6.89 10.74 2.23
6.81 11.10 2.27
6.73 11.47 2.32
6.64 11.85 2.37
6.50 12.17 2.40
6.31 12.40 2.42
6.10 12.61 2.43
5.89 12.82 2.45
5.49 12.62 2.39
5.24 12.74 2.39
4.99 12.85 2.39
4.73 12.96 2.39
4.48 13.06 2.39
4.22 13.15 2.39
3.96 13.24 2.39
3.69 13.32 2.39
3.43 13.40 2.39
3.16 13.47 2.39
2.89 13.54 2.39
2.62 13.60 2.39
2.35 13.66 2.39
2.05 13.57 2.36
1.80 13.75 2.39
1.52 13.78 2.39
1.30 14.41 2.49
1.01 14.44 2.49
0.72 14.45 2.49
0.43 14.47 2.49
0.14 14.47 2.49
-0.15 14.47 2.49
-0.43 14.47 2.49
-0.72 14.46 2.49
-1.01 14.44 2.49
-1.30 14.41 2.49
-1.59 14.38 2.49
-1.88 14.34 2.49
-2.16 14.30 2.49
-2.45 14.25 2.49
-2.73 14.19 2.49
-3.01 14.13 2.49
-3.30 14.06 2.49
-3.57 13.99 2.49
-3.85 13.90 2.49
-4.13 13.82 2.49
-4.40 13.72 2.49
-4.67 13.63 2.49
-4.94 13.52 2.49
-5.21 13.41 2.49
-5.47 13.30 2.49
-5.73 13.17 2.49
-5.99 13.05 2.49
-6.25 12.91 2.49
-6.50 12.78 2.49
-6.54 12.24 2.41
-6.72 11.99 2.39
-6.94 11.82 2.39
-7.16 11.67 2.39
-7.39 11.51 2.39
-7.61 11.35 2.39
-7.83 11.18 2.39
-8.04 11.01 2.39
-8.25 10.84 2.39
-8.46 10.66 2.39
-8.66 10.48 2.39
-8.86 10.29 2.39
-9.05 10.10 2.39
-9.24 9.90 2.39
-9.43 9.70 2.39
-9.61 9.50 2.39
-9.78 9.29 2.39
-9.95 9.08 2.39
-10.12 8.87 2.39
-10.28 8.65 2.39
-10.44 8.44 2.39
-10.60 8.22 2.39
-10.75 8.00 2.39
