ply
format ascii 1.0
element vertex 2998
property float32 x
property float32 y
property float32 z
end_header
5.68 -2.72 1.86
5.75 -2.62 1.87
5.86 -2.52 1.89
6.04 -2.46 1.93
6.17 -2.37 1.96
6.21 -2.25 1.95
6.24 -2.12 1.95
5.57 -1.77 1.73
5.48 -1.62 1.69
5.52 -1.51 1.69
5.52 -1.40 1.69
5.53 -1.28 1.68
5.57 -1.18 1.69
5.15 -0.98 1.56
5.06 -0.86 1.52
5.01 -0.75 1.51
5.01 -0.65 1.50
5.00 -0.55 1.50
4.97 -0.44 1.49
5.01 -0.35 1.50
5.06 -0.25 1.51
5.28 -0.15 1.58
5.39 -0.05 1.61
5.44 0.06 1.63
5.44 0.17 1.63
5.43 0.27 1.63
5.39 0.38 1.62
5.36 0.48 1.62
5.09 0.56 1.54
5.02 0.66 1.53
6.69 1.01 2.04
6.67 1.14 2.05
6.46 1.24 1.99
6.16 1.31 1.91
6.13 1.43 1.91
6.14 1.56 1.93
6.10 1.68 1.93
6.14 1.83 1.95
6.21 1.98 1.99
6.29 2.15 2.03
7.15 2.60 2.33
7.76 3.00 2.56
6.55 2.68 2.18
6.38 2.76 2.15
6.34 2.90 2.16
6.27 3.02 2.15
6.04 3.06 2.10
5.88 3.12 2.07
5.79 3.22 2.06
5.70 3.32 2.06
5.61 3.43 2.06
5.53 3.53 2.05
5.42 3.61 2.04
5.36 3.73 2.05
5.36 3.89 2.09
5.35 4.05 2.12
5.47 4.31 2.20
5.44 4.47 2.23
5.34 4.57 2.23
5.25 4.68 2.24
5.25 4.87 2.29
5.33 5.15 2.37
5.26 5.29 2.39
5.15 5.38 2.39
5.03 5.47 2.39
4.90 5.56 2.39
4.78 5.64 2.39
4.66 5.73 2.39
4.53 5.80 2.39
4.41 5.88 2.39
4.28 5.95 2.39
4.15 6.03 2.39
4.02 6.09 2.39
3.89 6.16 2.39
3.75 6.22 2.39
3.62 6.28 2.39
3.48 6.34 2.39
3.35 6.39 2.39
3.21 6.44 2.39
3.08 6.49 2.39
2.94 6.54 2.39
2.80 6.58 2.39
2.66 6.62 2.39
2.58 6.81 2.45
2.49 6.98 2.49
2.34 7.02 2.49
2.19 7.05 2.49
2.05 7.07 2.49
1.90 7.10 2.49
1.75 7.12 2.49
1.61 7.14 2.49
1.46 7.15 2.49
1.31 7.17 2.49
1.17 7.18 2.49
1.02 7.18 2.49
0.87 7.19 2.49
0.73 7.19 2.49
0.58 7.19 2.49
0.43 7.18 2.49
0.29 7.18 2.49
0.14 7.17 2.49
-0.00 7.15 2.49
-0.14 7.14 2.49
-0.29 7.12 2.49
-0.43 7.10 2.49
-0.57 7.08 2.49
-0.71 7.05 2.49
-0.85 7.02 2.49
-0.99 6.99 2.49
-1.13 6.96 2.49
-1.27 6.92 2.49
-1.41 6.88 2.49
-1.54 6.84 2.49
-1.68 6.80 2.49
-1.81 6.75 2.49
-1.95 6.70 2.49
-2.08 6.65 2.49
-2.21 6.60 2.49
-2.34 6.54 2.49
-2.47 6.48 2.49
-2.59 6.42 2.49
-2.72 6.36 2.49
-2.84 6.29 2.49
-2.97 6.23 2.49
-3.09 6.16 2.49
-3.21 6.09 2.49
-3.33 6.01 2.49
-3.44 5.94 2.49
-3.56 5.86 2.49
-3.67 5.78 2.49
-3.79 5.70 2.49
-3.90 5.61 2.49
-4.01 5.53 2.49
-4.11 5.44 2.49
-4.22 5.35 2.49
-4.32 5.26 2.49
-4.42 5.17 2.49
-4.52 5.07 2.49
-4.62 4.98 2.49
-4.72 4.88 2.49
-4.81 4.78 2.49
-4.91 4.67 2.49
-5.00 4.57 2.49
-5.09 4.47 2.49
-5.17 4.36 2.49
-5.26 4.25 2.49
-5.34 4.14 2.49
-5.42 4.03 2.49
-5.50 3.92 2.49
-5.58 3.81 2.49
-5.64 3.69 2.49
-5.65 3.53 2.46
-5.66 3.38 2.44
-5.67 3.23 2.41
-5.69 3.09 2.39
-5.74 2.97 2.39
-5.80 2.85 2.39
-5.86 2.73 2.39
-5.91 2.61 2.39
-5.97 2.49 2.39
-6.02 2.37 2.39
-6.07 2.25 2.39
-6.11 2.13 2.39
-6.15 2.00 2.39
-6.20 1.88 2.39
-6.23 1.75 2.39
-6.27 1.62 2.39
-6.31 1.50 2.39
-6.34 1.37 2.39
-6.37 1.24 2.39
-6.39 1.11 2.39
-6.42 0.98 2.39
-6.44 0.85 2.39
-6.46 0.72 2.39
-6.48 0.59 2.39
-6.50 0.46 2.39
-6.51 0.33 2.39
-6.52 0.20 2.39
-6.53 0.06 2.39
-6.53 -0.07 2.39
-6.54 -0.20 2.39
-6.54 -0.33 2.39
-6.54 -0.47 2.39
-6.53 -0.60 2.39
-6.53 -0.73 2.39
-6.52 -0.87 2.39
-6.51 -1.00 2.39
-6.49 -1.13 2.39
-6.48 -1.26 2.39
-6.46 -1.40 2.39
-6.44 -1.53 2.39
-6.41 -1.66 2.39
-6.39 -1.79 2.39
-6.36 -1.93 2.39
-6.33 -2.06 2.39
-6.29 -2.19 2.39
-6.26 -2.32 2.39
-6.22 -2.45 2.39
-6.18 -2.58 2.39
-6.13 -2.71 2.39
-6.09 -2.83 2.39
-6.04 -2.96 2.39
-6.02 -3.10 2.40
-6.02 -3.26 2.43
-6.03 -3.42 2.45
-6.04 -3.59 2.48
-6.01 -3.74 2.49
-5.94 -3.87 2.49
-5.87 -3.99 2.49
-5.80 -4.12 2.49
-5.73 -4.24 2.49
-5.65 -4.37 2.49
-5.57 -4.49 2.49
-5.49 -4.61 2.49
-5.41 -4.73 2.49
-5.32 -4.85 2.49
-5.24 -4.96 2.49
-5.15 -5.08 2.49
-5.05 -5.19 2.49
-4.96 -5.30 2.49
-4.86 -5.41 2.49
-4.76 -5.52 2.49
-4.66 -5.63 2.49
-4.55 -5.73 2.49
-4.45 -5.83 2.49
-4.34 -5.94 2.49
-4.23 -6.03 2.49
-4.11 -6.13 2.49
-4.00 -6.23 2.49
-3.88 -6.32 2.49
-3.76 -6.41 2.49
-3.64 -6.50 2.49
-3.52 -6.59 2.49
-3.39 -6.67 2.49
-3.26 -6.75 2.49
-3.14 -6.83 2.49
-3.00 -6.91 2.49
-2.87 -6.98 2.49
-2.74 -7.05 2.49
-2.60 -7.12 2.49
-2.46 -7.19 2.49
-2.32 -7.26 2.49
-2.18 -7.32 2.49
-2.04 -7.38 2.49
-1.90 -7.43 2.49
-1.75 -7.48 2.49
-1.61 -7.53 2.49
-1.46 -7.58 2.49
-1.31 -7.63 2.49
-1.16 -7.67 2.49
-1.01 -7.71 2.49
-0.85 -7.74 2.49
-0.70 -7.77 2.49
-0.55 -7.80 2.49
-0.39 -7.83 2.49
-0.24 -7.85 2.49
-0.08 -7.87 2.49
0.08 -7.31 2.49
0.22 -7.32 2.49
0.37 -7.33 2.49
0.52 -7.34 2.49
0.67 -7.34 2.49
0.81 -7.34 2.49
0.96 -7.33 2.49
1.11 -7.33 2.49
1.26 -7.32 2.49
1.41 -7.30 2.49
1.55 -7.29 2.49
1.70 -7.27 2.49
1.83 -7.17 2.47
1.91 -6.92 2.39
2.06 -6.90 2.39
2.20 -6.86 2.39
2.34 -6.83 2.39
2.47 -6.79 2.39
2.61 -6.75 2.39
2.75 -6.71 2.39
2.89 -6.66 2.39
3.02 -6.61 2.39
3.16 -6.56 2.39
3.29 -6.50 2.39
3.43 -6.45 2.39
3.56 -6.38 2.39
3.69 -6.32 2.39
3.82 -6.25 2.39
3.95 -6.18 2.39
4.08 -6.11 2.39
4.20 -6.04 2.39
4.33 -5.96 2.39
4.45 -5.88 2.39
4.57 -5.79 2.39
4.69 -5.71 2.39
4.80 -5.62 2.39
4.92 -5.53 2.39
5.03 -5.43 2.39
5.14 -5.34 2.39
5.25 -5.24 2.39
5.36 -5.14 2.39
5.46 -5.03 2.39
5.57 -4.93 2.39
5.67 -4.82 2.39
5.76 -4.71 2.39
4.69 -3.68 1.92
4.71 -3.54 1.89
4.75 -3.43 1.88
4.78 -3.30 1.86
5.10 -3.38 1.96
5.16 -3.28 1.96
5.23 -3.17 1.96
5.27 -3.06 1.95
5.30 -2.94 1.94
5.35 -2.83 1.94
5.46 -2.75 1.96
5.63 -2.70 2.00
5.71 -2.59 2.01
5.82 -2.51 2.03
6.07 -2.47 2.10
6.10 -2.34 2.09
6.12 -2.22 2.09
5.71 -1.94 1.93
5.19 -1.65 1.75
5.19 -1.54 1.74
5.23 -1.43 1.74
5.27 -1.34 1.75
5.32 -1.23 1.75
5.20 -1.10 1.71
4.99 -0.95 1.63
4.91 -0.84 1.60
4.88 -0.73 1.59
4.84 -0.63 1.57
4.82 -0.53 1.56
4.82 -0.43 1.56
4.85 -0.34 1.57
4.92 -0.24 1.59
5.00 -0.15 1.62
4.92 -0.05 1.59
4.75 0.05 1.54
4.65 0.14 1.51
4.60 0.23 1.50
4.59 0.32 1.50
4.59 0.41 1.50
4.70 0.52 1.54
4.86 0.63 1.60
4.98 0.75 1.65
6.45 1.10 2.14
6.50 1.24 2.17
6.18 1.31 2.07
6.10 1.42 2.06
5.86 1.49 1.99
5.74 1.58 1.96
5.72 1.70 1.97
5.75 1.83 2.00
5.80 1.98 2.03
6.22 2.26 2.19
6.33 2.44 2.25
6.30 2.58 2.27
6.21 2.69 2.26
6.16 2.81 2.26
6.06 2.91 2.25
5.92 2.99 2.22
5.80 3.08 2.20
5.78 3.21 2.22
5.71 3.33 2.23
5.63 3.43 2.22
5.53 3.52 2.22
5.41 3.60 2.20
5.33 3.71 2.20
5.31 3.85 2.23
5.35 4.04 2.28
5.47 4.31 2.38
5.36 4.40 2.37
5.26 4.49 2.37
5.16 4.59 2.37
5.10 4.72 2.39
4.99 4.81 2.39
4.89 4.90 2.39
4.78 4.99 2.39
4.67 5.07 2.39
4.56 5.16 2.39
4.44 5.23 2.39
4.33 5.31 2.39
4.21 5.39 2.39
4.09 5.46 2.39
3.98 5.53 2.39
3.86 5.59 2.39
3.74 5.66 2.39
3.61 5.72 2.39
3.49 5.78 2.39
3.37 5.83 2.39
3.24 5.89 2.39
3.12 5.94 2.39
2.99 5.99 2.39
2.87 6.03 2.39
2.75 6.11 2.41
2.61 6.12 2.39
2.56 6.34 2.46
2.45 6.46 2.49
2.32 6.49 2.49
2.18 6.53 2.49
2.05 6.55 2.49
1.91 6.58 2.49
1.77 6.60 2.49
1.64 6.62 2.49
1.50 6.64 2.49
1.36 6.66 2.49
1.23 6.67 2.49
1.09 6.68 2.49
0.95 6.69 2.49
0.82 6.69 2.49
0.68 6.70 2.49
0.55 6.70 2.49
0.41 6.69 2.49
0.27 6.69 2.49
0.14 6.68 2.49
0.00 6.67 2.49
-0.13 6.65 2.49
-0.26 6.64 2.49
-0.40 6.62 2.49
-0.53 6.60 2.49
-0.66 6.57 2.49
-0.79 6.55 2.49
-0.92 6.52 2.49
-1.05 6.49 2.49
-1.18 6.46 2.49
-1.31 6.42 2.49
-1.44 6.38 2.49
-1.56 6.34 2.49
-1.69 6.30 2.49
-1.81 6.25 2.49
-1.94 6.21 2.49
-2.06 6.16 2.49
-2.18 6.11 2.49
-2.30 6.05 2.49
-2.42 6.00 2.49
-2.54 5.94 2.49
-2.65 5.88 2.49
-2.77 5.82 2.49
-2.88 5.75 2.49
-2.99 5.69 2.49
-3.10 5.62 2.49
-3.21 5.55 2.49
-3.32 5.47 2.49
-3.43 5.40 2.49
-3.53 5.32 2.49
-3.64 5.25 2.49
-3.74 5.17 2.49
-3.84 5.08 2.49
-3.94 5.00 2.49
-4.04 4.92 2.49
-4.13 4.83 2.49
-4.23 4.74 2.49
-4.32 4.65 2.49
-4.41 4.56 2.49
-4.50 4.46 2.49
-4.58 4.37 2.49
-4.67 4.27 2.49
-4.75 4.18 2.49
-4.83 4.08 2.49
-4.91 3.97 2.49
-4.99 3.87 2.49
-5.07 3.77 2.49
-5.14 3.66 2.49
-5.21 3.56 2.49
-5.28 3.45 2.49
-5.35 3.34 2.49
-5.42 3.23 2.49
-5.48 3.12 2.49
-5.54 3.01 2.49
-5.60 2.89 2.49
-5.66 2.78 2.49
-5.70 2.66 2.49
-5.71 2.52 2.47
-5.71 2.39 2.45
-5.72 2.25 2.43
-5.73 2.12 2.42
-5.74 2.00 2.40
-5.75 1.87 2.39
-5.79 1.75 2.39
-5.83 1.64 2.39
-5.86 1.52 2.39
-5.89 1.40 2.39
-5.92 1.28 2.39
-5.97 1.16 2.40
-5.98 1.04 2.39
-6.00 0.92 2.39
-6.02 0.80 2.39
-6.04 0.67 2.39
-6.06 0.55 2.39
-6.07 0.43 2.39
-6.08 0.31 2.39
-6.09 0.18 2.39
-6.10 0.06 2.39
-6.10 -0.07 2.39
-6.11 -0.19 2.39
-6.11 -0.31 2.39
-6.11 -0.44 2.39
-6.10 -0.56 2.39
-6.10 -0.69 2.39
-6.09 -0.81 2.39
-6.08 -0.94 2.40
-6.06 -1.06 2.39
-6.05 -1.18 2.39
-6.03 -1.31 2.39
-6.01 -1.43 2.39
-5.99 -1.55 2.39
-5.96 -1.68 2.39
-5.95 -1.81 2.40
-5.95 -1.94 2.41
-5.96 -2.07 2.43
-5.96 -2.21 2.44
-5.97 -2.35 2.46
-5.98 -2.50 2.48
-5.97 -2.64 2.49
-5.92 -2.76 2.49
-5.87 -2.89 2.49
-5.82 -3.01 2.49
-5.77 -3.13 2.49
-5.72 -3.25 2.49
-5.66 -3.37 2.49
-5.60 -3.49 2.49
-5.54 -3.61 2.49
-5.47 -3.73 2.49
-5.41 -3.84 2.49
-5.34 -3.96 2.49
-5.27 -4.07 2.49
-5.19 -4.19 2.49
-5.12 -4.30 2.49
-5.04 -4.41 2.49
-4.96 -4.52 2.49
-4.87 -4.63 2.49
-4.79 -4.73 2.49
-4.70 -4.84 2.49
-4.61 -4.94 2.49
-4.52 -5.04 2.49
-4.43 -5.14 2.49
-4.33 -5.24 2.49
-4.23 -5.34 2.49
-4.13 -5.43 2.49
-4.03 -5.53 2.49
-3.93 -5.62 2.49
-3.82 -5.71 2.49
-3.72 -5.80 2.49
-3.61 -5.88 2.49
-3.49 -5.97 2.49
-3.38 -6.05 2.49
-3.27 -6.13 2.49
-3.15 -6.20 2.49
-3.03 -6.28 2.49
-2.91 -6.35 2.49
-2.79 -6.42 2.49
-2.66 -6.49 2.49
-2.54 -6.56 2.49
-2.41 -6.62 2.49
-2.28 -6.68 2.49
-2.15 -6.74 2.49
-2.02 -6.80 2.49
-1.89 -6.85 2.49
-1.76 -6.90 2.49
-1.62 -6.95 2.49
-1.48 -7.00 2.49
-1.35 -7.04 2.49
-1.21 -7.08 2.49
-1.07 -7.12 2.49
-0.93 -7.15 2.49
-0.79 -7.18 2.49
-0.64 -7.21 2.49
-0.50 -7.24 2.49
-0.36 -7.26 2.49
-0.21 -7.28 2.49
-0.07 -7.30 2.49
0.08 -6.81 2.49
0.21 -6.82 2.49
0.35 -6.82 2.49
0.49 -6.83 2.49
0.62 -6.83 2.49
0.76 -6.83 2.49
0.90 -6.82 2.49
1.04 -6.82 2.49
1.17 -6.80 2.49
1.31 -6.79 2.49
1.45 -6.78 2.49
1.59 -6.76 2.49
1.72 -6.73 2.49
1.86 -6.69 2.49
1.91 -6.41 2.39
2.04 -6.38 2.39
2.17 -6.34 2.39
2.30 -6.31 2.39
2.43 -6.27 2.39
2.56 -6.23 2.39
2.69 -6.19 2.39
2.81 -6.14 2.39
2.94 -6.09 2.39
3.06 -6.04 2.39
3.19 -5.98 2.39
3.31 -5.93 2.39
3.43 -5.87 2.39
3.55 -5.81 2.39
3.67 -5.74 2.39
3.79 -5.67 2.39
3.90 -5.60 2.39
4.02 -5.53 2.39
4.13 -5.45 2.39
4.24 -5.38 2.39
4.35 -5.30 2.39
4.46 -5.21 2.39
4.57 -5.13 2.39
4.67 -5.04 2.39
4.77 -4.95 2.39
4.88 -4.86 2.39
4.97 -4.76 2.39
5.07 -4.67 2.39
5.17 -4.57 2.39
5.26 -4.47 2.39
4.69 -3.83 2.10
4.65 -3.65 2.05
4.66 -3.50 2.02
4.66 -3.36 1.99
4.68 -3.23 1.97
4.74 -3.14 1.96
4.85 -3.07 1.98
5.00 -3.03 2.02
5.08 -2.95 2.03
5.13 -2.84 2.03
5.18 -2.74 2.03
5.28 -2.66 2.04
5.46 -2.61 2.09
5.68 -2.58 2.16
5.82 -2.51 2.19
5.90 -2.40 2.20
5.93 -2.28 2.20
5.98 -2.17 2.20
5.46 -1.85 1.99
5.09 -1.62 1.85
5.02 -1.49 1.81
5.07 -1.39 1.82
5.14 -1.30 1.84
5.21 -1.21 1.85
5.07 -1.07 1.80
4.89 -0.93 1.73
4.85 -0.83 1.71
4.82 -0.72 1.69
4.77 -0.62 1.67
4.72 -0.52 1.65
4.73 -0.42 1.65
4.77 -0.33 1.66
4.81 -0.24 1.68
4.69 -0.14 1.64
4.63 -0.05 1.61
4.54 0.04 1.58
4.46 0.13 1.56
4.44 0.22 1.56
4.45 0.31 1.56
4.49 0.40 1.58
4.54 0.50 1.60
4.68 0.61 1.66
4.86 0.73 1.73
5.48 0.93 1.96
6.43 1.23 2.31
6.33 1.34 2.28
5.95 1.38 2.16
5.72 1.45 2.09
5.66 1.55 2.08
5.67 1.68 2.10
5.71 1.82 2.13
5.81 1.97 2.18
5.61 2.03 2.13
5.49 2.11 2.10
5.42 2.21 2.10
5.34 2.30 2.09
5.33 2.43 2.10
5.33 2.56 2.13
5.32 2.68 2.15
5.31 2.81 2.17
5.33 2.96 2.21
5.54 3.23 2.32
5.56 3.38 2.36
5.54 3.53 2.39
5.45 3.62 2.38
5.39 3.74 2.39
5.30 3.84 2.39
5.22 3.94 2.39
5.13 4.03 2.39
5.04 4.13 2.39
4.94 4.22 2.39
4.85 4.31 2.39
4.75 4.39 2.39
4.66 4.48 2.39
4.56 4.56 2.39
4.46 4.64 2.39
4.35 4.72 2.39
4.25 4.80 2.39
4.14 4.87 2.39
4.04 4.95 2.39
3.93 5.02 2.39
3.82 5.08 2.39
3.71 5.15 2.39
3.60 5.21 2.39
3.49 5.27 2.39
3.38 5.33 2.39
3.26 5.39 2.39
3.15 5.44 2.39
3.03 5.49 2.39
2.91 5.54 2.39
2.80 5.59 2.39
2.68 5.63 2.39
2.56 5.67 2.39
2.53 5.93 2.48
2.42 5.99 2.49
2.30 6.03 2.49
2.17 6.06 2.49
2.04 6.09 2.49
1.92 6.12 2.49
1.79 6.15 2.49
1.66 6.17 2.49
1.54 6.19 2.49
1.41 6.21 2.49
1.28 6.22 2.49
1.15 6.23 2.49
1.03 6.24 2.49
0.90 6.25 2.49
0.77 6.26 2.49
0.64 6.26 2.49
0.52 6.26 2.49
0.39 6.26 2.49
0.26 6.25 2.49
0.14 6.25 2.49
0.01 6.24 2.49
-0.12 6.22 2.49
-0.24 6.21 2.49
-0.37 6.19 2.49
-0.49 6.17 2.49
-0.61 6.15 2.49
-0.74 6.13 2.49
-0.86 6.10 2.49
-0.98 6.07 2.49
-1.10 6.04 2.49
-1.22 6.01 2.49
-1.34 5.98 2.49
-1.46 5.94 2.49
-1.58 5.90 2.49
-1.69 5.86 2.49
-1.81 5.81 2.49
-1.92 5.77 2.49
-2.04 5.72 2.49
-2.15 5.67 2.49
-2.26 5.62 2.49
-2.37 5.56 2.49
-2.48 5.51 2.49
-2.59 5.45 2.49
-2.70 5.39 2.49
-2.80 5.33 2.49
-2.91 5.26 2.49
-3.01 5.20 2.49
-3.11 5.13 2.49
-3.21 5.06 2.49
-3.31 4.99 2.49
-3.41 4.92 2.49
-3.50 4.84 2.49
-3.60 4.77 2.49
-3.69 4.69 2.49
-3.78 4.61 2.49
-3.87 4.53 2.49
-3.96 4.45 2.49
-4.05 4.36 2.49
-4.13 4.27 2.49
-4.22 4.19 2.49
-4.30 4.10 2.49
-4.38 4.01 2.49
-4.46 3.92 2.49
-4.53 3.82 2.49
-4.61 3.73 2.49
-4.68 3.63 2.49
-4.75 3.53 2.49
-4.82 3.44 2.49
-4.89 3.34 2.49
-4.95 3.24 2.49
-5.02 3.13 2.49
-5.08 3.03 2.49
-5.14 2.93 2.49
-5.20 2.82 2.49
-5.25 2.71 2.49
-5.31 2.61 2.49
-5.36 2.50 2.49
-5.41 2.39 2.49
-5.46 2.28 2.49
-5.50 2.17 2.49
-5.55 2.05 2.49
-5.59 1.94 2.49
-5.63 1.83 2.49
-5.66 1.71 2.49
-5.70 1.60 2.49
-5.73 1.48 2.49
-5.76 1.37 2.49
-5.78 1.25 2.49
-5.78 1.12 2.48
-5.79 1.00 2.47
-5.79 0.88 2.46
-5.80 0.77 2.46
-5.81 0.65 2.45
-5.81 0.53 2.45
-5.82 0.41 2.45
-5.83 0.29 2.44
-5.83 0.17 2.44
-5.84 0.05 2.44
-5.85 -0.07 2.44
-5.85 -0.18 2.45
-5.86 -0.30 2.45
-5.86 -0.42 2.45
-5.87 -0.54 2.46
-5.88 -0.67 2.46
-5.88 -0.79 2.47
-5.89 -0.91 2.48
-5.90 -1.03 2.48
-5.90 -1.16 2.49
-5.89 -1.28 2.49
-5.87 -1.40 2.49
-5.85 -1.52 2.49
-5.82 -1.64 2.49
-5.80 -1.76 2.49
-5.77 -1.88 2.49
-5.74 -2.00 2.49
-5.70 -2.12 2.49
-5.67 -2.24 2.49
-5.63 -2.36 2.49
-5.59 -2.47 2.49
-5.54 -2.59 2.49
-5.50 -2.70 2.49
-5.45 -2.82 2.49
-5.40 -2.93 2.49
-5.35 -3.05 2.49
-5.29 -3.16 2.49
-5.24 -3.27 2.49
-5.18 -3.38 2.49
-5.12 -3.49 2.49
-5.06 -3.60 2.49
-4.99 -3.71 2.49
-4.92 -3.81 2.49
-4.85 -3.92 2.49
-4.78 -4.02 2.49
-4.71 -4.13 2.49
-4.63 -4.23 2.49
-4.55 -4.33 2.49
-4.47 -4.43 2.49
-4.39 -4.53 2.49
-4.31 -4.62 2.49
-4.22 -4.72 2.49
-4.13 -4.81 2.49
-4.04 -4.90 2.49
-3.95 -4.99 2.49
-3.86 -5.08 2.49
-3.76 -5.17 2.49
-3.67 -5.25 2.49
-3.57 -5.33 2.49
-3.46 -5.42 2.49
-3.36 -5.49 2.49
-3.26 -5.57 2.49
-3.15 -5.65 2.49
-3.04 -5.72 2.49
-2.93 -5.79 2.49
-2.82 -5.86 2.49
-2.71 -5.93 2.49
-2.60 -5.99 2.49
-2.48 -6.06 2.49
-2.36 -6.12 2.49
-2.24 -6.18 2.49
-2.12 -6.23 2.49
-2.00 -6.29 2.49
-1.88 -6.34 2.49
-1.76 -6.39 2.49
-1.63 -6.43 2.49
-1.51 -6.48 2.49
-1.38 -6.52 2.49
-1.25 -6.56 2.49
-1.12 -6.60 2.49
-0.99 -6.63 2.49
-0.86 -6.66 2.49
-0.73 -6.69 2.49
-0.60 -6.72 2.49
-0.46 -6.74 2.49
-0.33 -6.76 2.49
-0.19 -6.78 2.49
-0.06 -6.79 2.49
0.08 -6.36 2.49
0.21 -6.37 2.49
0.33 -6.37 2.49
0.46 -6.38 2.49
0.59 -6.38 2.49
0.72 -6.38 2.49
0.84 -6.37 2.49
0.97 -6.36 2.49
1.10 -6.35 2.49
1.23 -6.34 2.49
1.36 -6.32 2.49
1.49 -6.31 2.49
1.61 -6.28 2.49
1.74 -6.26 2.49
1.87 -6.23 2.49
1.91 -5.95 2.39
2.03 -5.92 2.39
2.15 -5.88 2.39
2.27 -5.85 2.39
2.39 -5.81 2.39
2.51 -5.77 2.39
2.63 -5.73 2.39
2.74 -5.68 2.39
2.86 -5.63 2.39
2.97 -5.58 2.39
3.09 -5.53 2.39
3.20 -5.47 2.39
3.31 -5.41 2.39
3.42 -5.35 2.39
3.53 -5.29 2.39
3.64 -5.22 2.39
3.75 -5.15 2.39
3.85 -5.08 2.39
3.96 -5.01 2.39
4.06 -4.93 2.39
4.16 -4.86 2.39
4.26 -4.78 2.39
4.35 -4.70 2.39
4.45 -4.61 2.39
4.54 -4.53 2.39
4.64 -4.44 2.39
4.73 -4.35 2.39
4.81 -4.26 2.39
4.90 -4.16 2.39
4.98 -4.07 2.39
4.63 -3.62 2.18
4.64 -3.49 2.16
4.68 -3.37 2.14
4.68 -3.24 2.11
4.71 -3.12 2.10
4.89 -3.11 2.15
4.93 -2.99 2.14
4.95 -2.87 2.12
5.00 -2.77 2.12
5.05 -2.67 2.12
5.16 -2.60 2.14
5.27 -2.52 2.17
5.46 -2.48 2.22
5.66 -2.44 2.29
5.65 -2.30 2.26
5.68 -2.19 2.26
5.48 -1.99 2.16
5.29 -1.80 2.08
5.08 -1.62 1.98
4.99 -1.48 1.93
5.03 -1.38 1.94
5.10 -1.29 1.96
5.16 -1.20 1.97
4.93 -1.04 1.87
4.84 -0.93 1.83
4.80 -0.82 1.81
4.77 -0.72 1.80
4.73 -0.62 1.78
4.67 -0.51 1.75
4.68 -0.42 1.75
4.71 -0.33 1.76
4.79 -0.24 1.79
4.62 -0.14 1.73
4.53 -0.05 1.70
4.44 0.04 1.67
4.39 0.13 1.65
4.38 0.22 1.65
4.39 0.30 1.65
4.42 0.39 1.67
4.45 0.49 1.69
4.54 0.59 1.72
5.07 0.76 1.94
5.36 0.91 2.05
6.21 1.18 2.39
6.18 1.30 2.39
5.96 1.38 2.32
5.76 1.46 2.26
5.64 1.54 2.22
5.64 1.67 2.24
5.67 1.80 2.27
5.67 1.92 2.29
5.42 1.96 2.20
5.32 2.05 2.18
5.27 2.15 2.18
5.23 2.25 2.19
5.23 2.38 2.21
5.24 2.51 2.24
5.25 2.64 2.27
5.25 2.77 2.29
5.25 2.91 2.33
5.29 3.07 2.37
5.26 3.20 2.39
5.19 3.30 2.39
5.11 3.39 2.39
5.04 3.49 2.39
4.96 3.58 2.39
4.88 3.67 2.39
4.79 3.76 2.39
4.71 3.85 2.39
4.62 3.94 2.39
4.54 4.02 2.39
4.45 4.10 2.39
4.36 4.18 2.39
4.26 4.26 2.39
4.17 4.34 2.39
4.07 4.41 2.39
3.98 4.49 2.39
3.88 4.56 2.39
3.78 4.62 2.39
3.68 4.69 2.39
3.58 4.75 2.39
3.48 4.81 2.39
3.37 4.87 2.39
3.27 4.93 2.39
3.16 4.99 2.39
3.06 5.04 2.39
2.95 5.09 2.39
2.84 5.14 2.39
2.73 5.18 2.39
2.62 5.23 2.39
2.51 5.27 2.39
2.51 5.54 2.49
2.39 5.58 2.49
2.27 5.61 2.49
2.16 5.65 2.49
2.04 5.68 2.49
1.92 5.71 2.49
1.80 5.73 2.49
1.68 5.76 2.49
1.56 5.78 2.49
1.44 5.80 2.49
1.33 5.82 2.49
1.21 5.83 2.49
1.09 5.84 2.49
0.97 5.85 2.49
0.85 5.86 2.49
0.73 5.87 2.49
0.61 5.87 2.49
0.49 5.87 2.49
0.37 5.87 2.49
0.25 5.86 2.49
0.13 5.86 2.49
0.01 5.85 2.49
-0.10 5.84 2.49
-0.22 5.83 2.49
-0.34 5.81 2.49
-0.46 5.79 2.49
-0.57 5.77 2.49
-0.69 5.75 2.49
-0.80 5.73 2.49
-0.92 5.70 2.49
-1.03 5.67 2.49
-1.14 5.64 2.49
-1.26 5.61 2.49
-1.37 5.58 2.49
-1.48 5.54 2.49
-1.59 5.50 2.49
-1.70 5.46 2.49
-1.80 5.42 2.49
-1.91 5.37 2.49
-2.02 5.33 2.49
-2.12 5.28 2.49
-2.23 5.23 2.49
-2.33 5.18 2.49
-2.43 5.12 2.49
-2.53 5.07 2.49
-2.63 5.01 2.49
-2.73 4.95 2.49
-2.83 4.89 2.49
-2.92 4.82 2.49
-3.02 4.76 2.49
-3.11 4.69 2.49
-3.20 4.62 2.49
-3.29 4.55 2.49
-3.38 4.48 2.49
-3.47 4.41 2.49
-3.55 4.33 2.49
-3.64 4.26 2.49
-3.72 4.18 2.49
-3.80 4.10 2.49
-3.88 4.02 2.49
-3.96 3.94 2.49
-4.04 3.85 2.49
-4.11 3.77 2.49
-4.19 3.68 2.49
-4.26 3.59 2.49
-4.33 3.51 2.49
-4.40 3.42 2.49
-4.47 3.32 2.49
-4.53 3.23 2.49
-4.60 3.14 2.49
-4.66 3.04 2.49
-4.72 2.95 2.49
-4.78 2.85 2.49
-4.83 2.75 2.49
-4.89 2.65 2.49
-4.94 2.55 2.49
-4.99 2.45 2.49
-5.04 2.35 2.49
-5.09 2.25 2.49
-5.13 2.14 2.49
-5.17 2.04 2.49
-5.21 1.93 2.49
-5.25 1.83 2.49
-5.29 1.72 2.49
-5.33 1.61 2.49
-5.36 1.50 2.49
-5.39 1.39 2.49
-5.42 1.28 2.49
-5.45 1.17 2.49
-5.47 1.06 2.49
-5.50 0.95 2.49
-5.52 0.84 2.49
-5.54 0.73 2.49
-5.55 0.62 2.49
-5.57 0.50 2.49
-5.58 0.39 2.49
-5.59 0.28 2.49
-5.60 0.16 2.49
-5.61 0.05 2.49
-5.61 -0.06 2.49
-5.61 -0.18 2.49
-5.61 -0.29 2.49
-5.61 -0.41 2.49
-5.61 -0.52 2.49
-5.60 -0.64 2.49
-5.59 -0.75 2.49
-5.58 -0.86 2.49
-5.57 -0.98 2.49
-5.55 -1.09 2.49
-5.53 -1.21 2.49
-5.52 -1.32 2.49
-5.49 -1.43 2.49
-5.47 -1.55 2.49
-5.44 -1.66 2.49
-5.42 -1.77 2.49
-5.39 -1.88 2.49
-5.35 -1.99 2.49
-5.32 -2.11 2.49
-5.28 -2.22 2.49
-5.24 -2.33 2.49
-5.20 -2.43 2.49
-5.16 -2.54 2.49
-5.12 -2.65 2.49
-5.07 -2.76 2.49
-5.02 -2.86 2.49
-4.97 -2.97 2.49
-4.91 -3.07 2.49
-4.86 -3.18 2.49
-4.80 -3.28 2.49
-4.74 -3.38 2.49
-4.68 -3.48 2.49
-4.62 -3.58 2.49
-4.55 -3.68 2.49
-4.48 -3.78 2.49
-4.41 -3.88 2.49
-4.34 -3.97 2.49
-4.27 -4.06 2.49
-4.19 -4.16 2.49
-4.11 -4.25 2.49
-4.04 -4.34 2.49
-3.95 -4.43 2.49
-3.87 -4.51 2.49
-3.79 -4.60 2.49
-3.70 -4.68 2.49
-3.61 -4.76 2.49
-3.52 -4.84 2.49
-3.43 -4.92 2.49
-3.34 -5.00 2.49
-3.24 -5.08 2.49
-3.15 -5.15 2.49
-3.05 -5.22 2.49
-2.95 -5.29 2.49
-2.85 -5.36 2.49
-2.74 -5.43 2.49
-2.64 -5.49 2.49
-2.53 -5.55 2.49
-2.42 -5.61 2.49
-2.32 -5.67 2.49
-2.21 -5.73 2.49
-2.10 -5.78 2.49
-1.98 -5.84 2.49
-1.87 -5.89 2.49
-1.75 -5.93 2.49
-1.64 -5.98 2.49
-1.52 -6.02 2.49
-1.40 -6.06 2.49
-1.28 -6.10 2.49
-1.16 -6.14 2.49
-1.04 -6.17 2.49
-0.92 -6.20 2.49
-0.80 -6.23 2.49
-0.68 -6.26 2.49
-0.55 -6.28 2.49
-0.43 -6.30 2.49
-0.30 -6.32 2.49
-0.18 -6.34 2.49
-0.05 -6.35 2.49
0.08 -5.96 2.49
0.20 -5.97 2.49
0.32 -5.97 2.49
0.44 -5.98 2.49
0.56 -5.98 2.49
0.68 -5.97 2.49
0.80 -5.97 2.49
0.92 -5.96 2.49
1.04 -5.95 2.49
1.16 -5.94 2.49
1.28 -5.92 2.49
1.40 -5.90 2.49
1.51 -5.88 2.49
1.63 -5.86 2.49
1.75 -5.84 2.49
1.87 -5.81 2.49
1.92 -5.59 2.41
2.02 -5.51 2.39
2.13 -5.48 2.40
2.24 -5.44 2.39
2.35 -5.40 2.39
2.46 -5.36 2.39
2.57 -5.31 2.39
2.68 -5.27 2.39
2.79 -5.22 2.39
2.89 -5.17 2.39
3.00 -5.12 2.39
3.10 -5.06 2.39
3.21 -5.00 2.39
3.31 -4.94 2.39
3.41 -4.88 2.39
3.51 -4.82 2.39
3.61 -4.75 2.39
3.70 -4.68 2.39
3.80 -4.61 2.39
3.89 -4.54 2.39
3.98 -4.47 2.39
4.07 -4.39 2.39
4.16 -4.31 2.39
4.25 -4.23 2.39
4.34 -4.15 2.39
4.42 -4.06 2.39
4.50 -3.98 2.39
4.58 -3.89 2.39
4.66 -3.80 2.39
4.59 -3.59 2.32
4.60 -3.46 2.29
4.66 -3.36 2.28
4.70 -3.25 2.27
4.70 -3.11 2.24
4.76 -3.02 2.24
4.83 -2.93 2.24
4.86 -2.82 2.23
4.91 -2.72 2.22
4.95 -2.62 2.22
5.03 -2.53 2.23
5.20 -2.49 2.29
5.49 -2.50 2.39
5.54 -2.39 2.39
5.55 -2.26 2.38
5.58 -2.15 2.37
5.59 -2.02 2.36
5.21 -1.77 2.19
5.08 -1.62 2.12
5.00 -1.48 2.07
5.04 -1.38 2.08
5.07 -1.29 2.08
5.11 -1.19 2.09
4.89 -1.04 1.99
4.82 -0.92 1.95
4.79 -0.82 1.93
4.75 -0.71 1.91
4.69 -0.61 1.89
4.64 -0.51 1.86
4.64 -0.42 1.86
4.66 -0.33 1.87
4.70 -0.24 1.88
4.54 -0.14 1.82
4.47 -0.05 1.79
4.37 0.04 1.75
4.36 0.13 1.75
4.36 0.21 1.75
4.36 0.30 1.76
4.40 0.39 1.78
4.44 0.48 1.80
4.55 0.59 1.85
5.14 0.77 2.10
5.23 0.89 2.14
5.81 1.10 2.39
5.78 1.22 2.39
5.75 1.33 2.39
5.71 1.44 2.39
5.68 1.55 2.39
5.64 1.66 2.39
5.60 1.77 2.39
5.45 1.85 2.35
5.34 1.93 2.32
5.26 2.02 2.30
5.21 2.12 2.30
5.15 2.22 2.30
5.13 2.33 2.31
5.15 2.46 2.35
5.19 2.61 2.39
5.13 2.71 2.39
5.06 2.80 2.39
5.00 2.90 2.39
4.93 2.99 2.39
4.86 3.09 2.39
4.79 3.18 2.39
4.72 3.27 2.39
4.65 3.35 2.39
4.57 3.44 2.39
4.50 3.52 2.39
4.42 3.61 2.39
4.34 3.69 2.39
4.26 3.77 2.39
4.17 3.85 2.39
4.09 3.92 2.39
4.00 3.99 2.39
3.91 4.07 2.39
3.82 4.14 2.39
3.73 4.20 2.39
3.64 4.27 2.39
3.55 4.34 2.39
3.46 4.40 2.39
3.36 4.46 2.39
3.27 4.52 2.39
3.17 4.57 2.39
3.07 4.63 2.39
2.97 4.68 2.39
2.87 4.73 2.39
2.77 4.78 2.39
2.69 4.85 2.40
2.57 4.87 2.39
2.49 4.95 2.41
2.47 5.16 2.49
2.36 5.20 2.49
2.25 5.24 2.49
2.14 5.27 2.49
2.03 5.30 2.49
1.92 5.33 2.49
1.81 5.36 2.49
1.70 5.39 2.49
1.59 5.41 2.49
1.47 5.43 2.49
1.36 5.45 2.49
1.25 5.47 2.49
1.14 5.48 2.49
1.03 5.49 2.49
0.91 5.50 2.49
0.80 5.51 2.49
0.69 5.52 2.49
0.58 5.52 2.49
0.46 5.52 2.49
0.35 5.52 2.49
0.24 5.52 2.49
0.13 5.51 2.49
0.02 5.50 2.49
-0.09 5.49 2.49
-0.20 5.48 2.49
-0.31 5.47 2.49
-0.42 5.45 2.49
-0.53 5.43 2.49
-0.64 5.41 2.49
-0.75 5.39 2.49
-0.86 5.37 2.49
-0.97 5.34 2.49
-1.07 5.31 2.49
-1.18 5.28 2.49
-1.28 5.25 2.49
-1.39 5.22 2.49
-1.49 5.18 2.49
-1.59 5.14 2.49
-1.70 5.10 2.49
-1.80 5.06 2.49
-1.90 5.02 2.49
-2.00 4.97 2.49
-2.09 4.93 2.49
-2.19 4.88 2.49
-2.29 4.83 2.49
-2.38 4.77 2.49
-2.48 4.72 2.49
-2.57 4.66 2.49
-2.66 4.60 2.49
-2.75 4.55 2.49
-2.84 4.48 2.49
-2.93 4.42 2.49
-3.01 4.36 2.49
-3.10 4.29 2.49
-3.18 4.22 2.49
-3.27 4.16 2.49
-3.35 4.09 2.49
-3.43 4.01 2.49
-3.51 3.94 2.49
-3.58 3.87 2.49
-3.66 3.79 2.49
-3.73 3.71 2.49
-3.81 3.63 2.49
-3.88 3.55 2.49
-3.95 3.47 2.49
-4.01 3.39 2.49
-4.08 3.31 2.49
-4.15 3.22 2.49
-4.21 3.13 2.49
-4.27 3.05 2.49
-4.33 2.96 2.49
-4.39 2.87 2.49
-4.45 2.78 2.49
-4.50 2.69 2.49
-4.55 2.59 2.49
-4.61 2.50 2.49
-4.65 2.41 2.49
-4.70 2.31 2.49
-4.75 2.21 2.49
-4.79 2.12 2.49
-4.84 2.02 2.49
-4.88 1.92 2.49
-4.92 1.82 2.49
-4.95 1.72 2.49
-4.99 1.62 2.49
-5.02 1.52 2.49
-5.05 1.42 2.49
-5.08 1.31 2.49
-5.11 1.21 2.49
-5.13 1.11 2.49
-5.16 1.00 2.49
-5.18 0.90 2.49
-5.20 0.79 2.49
-5.22 0.69 2.49
-5.23 0.58 2.49
-5.25 0.47 2.49
-5.26 0.37 2.49
-5.27 0.26 2.49
-5.28 0.15 2.49
-5.28 0.04 2.49
-5.29 -0.06 2.49
-5.29 -0.17 2.49
-5.29 -0.28 2.49
-5.29 -0.39 2.49
-5.28 -0.49 2.49
-5.27 -0.60 2.49
-5.27 -0.71 2.49
-5.26 -0.82 2.49
-5.24 -0.92 2.49
-5.23 -1.03 2.49
-5.21 -1.14 2.49
-5.19 -1.25 2.49
-5.17 -1.35 2.49
-5.15 -1.46 2.49
-5.13 -1.57 2.49
-5.10 -1.67 2.49
-5.07 -1.78 2.49
-5.04 -1.88 2.49
-5.01 -1.99 2.49
-4.97 -2.09 2.49
-4.94 -2.19 2.49
-4.90 -2.30 2.49
-4.86 -2.40 2.49
-4.81 -2.50 2.49
-4.77 -2.60 2.49
-4.72 -2.70 2.49
-4.67 -2.80 2.49
-4.62 -2.90 2.49
-4.57 -2.99 2.49
-4.51 -3.09 2.49
-4.46 -3.19 2.49
-4.40 -3.28 2.49
-4.34 -3.37 2.49
-4.28 -3.47 2.49
-4.21 -3.56 2.49
-4.15 -3.65 2.49
-4.08 -3.74 2.49
-4.01 -3.83 2.49
-3.94 -3.91 2.49
-3.87 -4.00 2.49
-3.79 -4.08 2.49
-3.71 -4.16 2.49
-3.64 -4.25 2.49
-3.56 -4.33 2.49
-3.47 -4.40 2.49
-3.39 -4.48 2.49
-3.31 -4.56 2.49
-3.22 -4.63 2.49
-3.13 -4.70 2.49
-3.04 -4.77 2.49
-2.95 -4.84 2.49
-2.86 -4.91 2.49
-2.76 -4.97 2.49
-2.67 -5.04 2.49
-2.57 -5.10 2.49
-2.47 -5.16 2.49
-2.37 -5.22 2.49
-2.27 -5.27 2.49
-2.17 -5.33 2.49
-2.07 -5.38 2.49
-1.96 -5.43 2.49
-1.86 -5.48 2.49
-1.75 -5.53 2.49
-1.64 -5.57 2.49
-1.53 -5.61 2.49
-1.42 -5.65 2.49
-1.31 -5.69 2.49
-1.20 -5.72 2.49
-1.09 -5.76 2.49
-0.97 -5.79 2.49
-0.86 -5.82 2.49
-0.74 -5.84 2.49
-0.63 -5.87 2.49
-0.51 -5.89 2.49
-0.40 -5.91 2.49
-0.28 -5.93 2.49
-0.16 -5.94 2.49
-0.04 -5.95 2.49
0.08 -5.60 2.49
0.19 -5.61 2.49
0.30 -5.61 2.49
0.41 -5.62 2.49
0.53 -5.62 2.49
0.64 -5.61 2.49
0.75 -5.61 2.49
0.86 -5.60 2.49
0.98 -5.59 2.49
1.09 -5.58 2.49
1.20 -5.56 2.49
1.31 -5.55 2.49
1.43 -5.53 2.49
1.54 -5.50 2.49
1.65 -5.48 2.49
1.76 -5.45 2.49
1.87 -5.42 2.49
1.93 -5.27 2.44
2.00 -5.14 2.39
2.11 -5.10 2.39
2.21 -5.07 2.39
2.31 -5.03 2.39
2.42 -4.99 2.39
2.52 -4.94 2.39
2.62 -4.90 2.39
2.72 -4.85 2.39
2.82 -4.80 2.39
2.91 -4.75 2.39
3.01 -4.69 2.39
3.11 -4.64 2.39
3.20 -4.58 2.39
3.29 -4.52 2.39
3.38 -4.46 2.39
3.47 -4.39 2.39
3.56 -4.33 2.39
3.65 -4.26 2.39
3.74 -4.19 2.39
3.82 -4.12 2.39
3.91 -4.04 2.39
3.99 -3.97 2.39
4.07 -3.89 2.39
4.15 -3.81 2.39
4.22 -3.73 2.39
4.30 -3.65 2.39
4.37 -3.56 2.39
4.44 -3.48 2.39
4.51 -3.39 2.39
4.58 -3.30 2.39
4.65 -3.21 2.39
4.69 -3.10 2.38
4.74 -3.01 2.38
4.80 -2.91 2.38
4.81 -2.79 2.35
4.86 -2.69 2.35
4.94 -2.61 2.36
5.05 -2.54 2.39
5.10 -2.44 2.39
5.15 -2.34 2.39
5.19 -2.24 2.39
5.24 -2.13 2.39
5.28 -2.03 2.39
5.31 -1.93 2.39
5.17 -1.76 2.31
5.05 -1.61 2.25
5.01 -1.48 2.21
5.03 -1.38 2.21
5.06 -1.29 2.21
5.07 -1.18 2.21
4.87 -1.03 2.11
4.82 -0.92 2.08
4.77 -0.82 2.05
4.73 -0.71 2.03
4.69 -0.61 2.01
4.68 -0.52 2.00
4.69 -0.42 2.00
4.70 -0.33 2.01
4.62 -0.23 1.97
4.49 -0.14 1.92
4.42 -0.05 1.89
4.36 0.04 1.86
4.36 0.12 1.87
4.37 0.21 1.87
4.37 0.30 1.88
4.39 0.39 1.89
4.46 0.48 1.92
4.56 0.58 1.97
5.10 0.76 2.22
5.18 0.87 2.26
5.46 1.03 2.39
5.43 1.14 2.39
5.40 1.25 2.39
5.37 1.35 2.39
5.33 1.45 2.39
5.30 1.56 2.39
5.26 1.66 2.39
5.22 1.76 2.39
5.17 1.86 2.39
5.13 1.96 2.39
5.08 2.06 2.39
5.03 2.16 2.39
4.98 2.26 2.39
4.93 2.35 2.39
4.87 2.45 2.39
4.82 2.54 2.39
4.76 2.63 2.39
4.70 2.72 2.39
4.64 2.81 2.39
4.57 2.90 2.39
4.51 2.98 2.39
4.44 3.07 2.39
4.37 3.15 2.39
4.30 3.23 2.39
4.23 3.31 2.39
4.16 3.39 2.39
4.08 3.46 2.39
4.00 3.54 2.39
3.93 3.61 2.39
3.85 3.68 2.39
3.77 3.75 2.39
3.68 3.82 2.39
3.60 3.89 2.39
3.52 3.95 2.39
3.43 4.01 2.39
3.34 4.08 2.39
3.26 4.13 2.39
3.17 4.19 2.39
3.08 4.25 2.39
2.99 4.30 2.39
2.90 4.35 2.39
2.80 4.40 2.39
2.71 4.45 2.39
2.61 4.49 2.39
2.52 4.54 2.39
2.47 4.66 2.43
2.43 4.82 2.49
2.33 4.86 2.49
2.23 4.89 2.49
2.12 4.93 2.49
2.02 4.96 2.49
1.92 4.99 2.49
1.81 5.02 2.49
1.71 5.05 2.49
1.60 5.07 2.49
1.50 5.09 2.49
1.39 5.11 2.49
1.29 5.13 2.49
1.18 5.15 2.49
1.08 5.16 2.49
0.97 5.18 2.49
0.87 5.19 2.49
0.76 5.19 2.49
0.65 5.20 2.49
0.55 5.20 2.49
0.44 5.20 2.49
0.34 5.20 2.49
0.23 5.20 2.49
0.13 5.20 2.49
0.02 5.19 2.49
-0.08 5.18 2.49
-0.19 5.17 2.49
-0.29 5.16 2.49
-0.40 5.14 2.49
-0.50 5.13 2.49
-0.60 5.11 2.49
-0.70 5.09 2.49
-0.81 5.06 2.49
-0.91 5.04 2.49
-1.01 5.01 2.49
-1.11 4.99 2.49
-1.21 4.96 2.49
-1.31 4.92 2.49
-1.40 4.89 2.49
-1.50 4.85 2.49
-1.60 4.82 2.49
-1.69 4.78 2.49
-1.79 4.74 2.49
-1.88 4.69 2.49
-1.97 4.65 2.49
-2.06 4.60 2.49
-2.16 4.56 2.49
-2.25 4.51 2.49
-2.33 4.46 2.49
-2.42 4.40 2.49
-2.51 4.35 2.49
-2.59 4.29 2.49
-2.68 4.24 2.49
-2.76 4.18 2.49
-2.84 4.12 2.49
-2.92 4.05 2.49
-3.00 3.99 2.49
-3.08 3.93 2.49
-3.16 3.86 2.49
-3.24 3.79 2.49
-3.31 3.72 2.49
-3.38 3.65 2.49
-3.45 3.58 2.49
-3.52 3.51 2.49
-3.59 3.43 2.49
-3.66 3.36 2.49
-3.73 3.28 2.49
-3.79 3.20 2.49
-3.85 3.12 2.49
-3.92 3.04 2.49
-3.98 2.96 2.49
-4.03 2.88 2.49
-4.09 2.79 2.49
-4.15 2.71 2.49
-4.20 2.62 2.49
-4.25 2.54 2.49
-4.30 2.45 2.49
-4.35 2.36 2.49
-4.40 2.27 2.49
-4.44 2.18 2.49
-4.49 2.09 2.49
-4.53 2.00 2.49
-4.57 1.91 2.49
-4.61 1.81 2.49
-4.64 1.72 2.49
-4.68 1.62 2.49
-4.71 1.53 2.49
-4.74 1.43 2.49
-4.77 1.34 2.49
-4.80 1.24 2.49
-4.83 1.14 2.49
-4.85 1.04 2.49
-4.87 0.94 2.49
-4.89 0.85 2.49
-4.91 0.75 2.49
-4.93 0.65 2.49
-4.94 0.55 2.49
-4.96 0.44 2.49
-4.97 0.34 2.49
-4.98 0.24 2.49
-4.98 0.14 2.49
-4.99 0.04 2.49
-4.99 -0.06 2.49
-4.99 -0.16 2.49
-4.99 -0.27 2.49
-4.99 -0.37 2.49
-4.99 -0.47 2.49
-4.98 -0.57 2.49
-4.97 -0.67 2.49
-4.96 -0.77 2.49
-4.95 -0.88 2.49
-4.94 -0.98 2.49
-4.92 -1.08 2.49
-4.90 -1.18 2.49
-4.88 -1.28 2.49
-4.86 -1.38 2.49
-4.84 -1.48 2.49
-4.81 -1.58 2.49
-4.78 -1.68 2.49
-4.76 -1.78 2.49
-4.72 -1.88 2.49
-4.69 -1.97 2.49
-4.66 -2.07 2.49
-4.62 -2.17 2.49
-4.58 -2.27 2.49
-4.54 -2.36 2.49
-4.50 -2.46 2.49
-4.45 -2.55 2.49
-4.41 -2.64 2.49
-4.36 -2.74 2.49
-4.31 -2.83 2.49
-4.26 -2.92 2.49
-4.20 -3.01 2.49
-4.15 -3.10 2.49
-4.09 -3.19 2.49
-4.03 -3.27 2.49
-3.97 -3.36 2.49
-3.91 -3.44 2.49
-3.84 -3.53 2.49
-3.78 -3.61 2.49
-3.71 -3.69 2.49
-3.64 -3.77 2.49
-3.57 -3.85 2.49
-3.50 -3.93 2.49
-3.42 -4.00 2.49
-3.35 -4.08 2.49
-3.27 -4.15 2.49
-3.19 -4.22 2.49
-3.11 -4.30 2.49
-3.03 -4.36 2.49
-2.95 -4.43 2.49
-2.86 -4.50 2.49
-2.78 -4.56 2.49
-2.69 -4.63 2.49
-2.60 -4.69 2.49
-2.51 -4.75 2.49
-2.42 -4.80 2.49
-2.32 -4.86 2.49
-2.23 -4.91 2.49
-2.13 -4.97 2.49
-2.04 -5.02 2.49
-1.94 -5.07 2.49
-1.84 -5.11 2.49
-1.74 -5.16 2.49
-1.64 -5.20 2.49
-1.54 -5.24 2.49
-1.44 -5.28 2.49
-1.33 -5.32 2.49
-1.23 -5.35 2.49
-1.12 -5.39 2.49
-1.02 -5.42 2.49
-0.91 -5.45 2.49
-0.80 -5.47 2.49
-0.70 -5.50 2.49
-0.59 -5.52 2.49
-0.48 -5.54 2.49
-0.37 -5.56 2.49
-0.26 -5.57 2.49
-0.15 -5.58 2.49
-0.03 -5.60 2.49
0.08 -5.28 2.49
0.18 -5.29 2.49
0.29 -5.29 2.49
0.39 -5.29 2.49
0.50 -5.29 2.49
0.61 -5.29 2.49
0.71 -5.28 2.49
0.82 -5.27 2.49
0.92 -5.26 2.49
1.03 -5.25 2.49
1.14 -5.24 2.49
1.24 -5.22 2.49
1.35 -5.20 2.49
1.45 -5.18 2.49
1.56 -5.16 2.49
1.66 -5.13 2.49
1.76 -5.11 2.49
1.87 -5.08 2.49
1.95 -4.99 2.47
1.99 -4.80 2.39
2.08 -4.77 2.39
2.18 -4.73 2.39
2.28 -4.69 2.39
2.37 -4.65 2.39
2.47 -4.61 2.39
2.56 -4.56 2.39
2.65 -4.52 2.39
2.74 -4.47 2.39
2.83 -4.42 2.39
2.92 -4.36 2.39
3.01 -4.31 2.39
3.10 -4.25 2.39
3.19 -4.19 2.39
3.27 -4.13 2.39
3.35 -4.07 2.39
3.44 -4.01 2.39
3.52 -3.94 2.39
3.60 -3.87 2.39
3.68 -3.80 2.39
3.75 -3.73 2.39
3.83 -3.66 2.39
3.90 -3.58 2.39
3.97 -3.51 2.39
4.04 -3.43 2.39
4.11 -3.35 2.39
4.18 -3.27 2.39
4.24 -3.19 2.39
4.31 -3.10 2.39
4.37 -3.02 2.39
4.43 -2.93 2.39
4.49 -2.85 2.39
4.54 -2.76 2.39
4.60 -2.67 2.39
4.65 -2.58 2.39
4.70 -2.48 2.39
4.75 -2.39 2.39
4.80 -2.30 2.39
4.84 -2.20 2.39
4.88 -2.10 2.39
4.92 -2.01 2.39
4.96 -1.91 2.39
5.00 -1.81 2.39
5.03 -1.71 2.39
5.06 -1.61 2.39
5.03 -1.49 2.36
5.05 -1.39 2.36
5.06 -1.29 2.35
5.08 -1.18 2.35
4.77 -1.01 2.20
4.69 -0.90 2.16
4.66 -0.80 2.13
4.62 -0.70 2.11
4.61 -0.60 2.10
4.60 -0.51 2.09
4.61 -0.42 2.09
4.61 -0.33 2.09
4.58 -0.23 2.08
4.48 -0.14 2.03
4.44 -0.05 2.01
4.39 0.04 1.99
4.39 0.12 1.99
4.39 0.21 2.00
4.39 0.30 2.00
4.39 0.38 2.01
4.47 0.48 2.05
5.02 0.64 2.31
5.08 0.75 2.35
5.16 0.87 2.39
5.13 0.97 2.39
5.11 1.07 2.39
5.08 1.17 2.39
5.05 1.27 2.39
5.02 1.37 2.39
4.99 1.46 2.39
4.95 1.56 2.39
4.91 1.66 2.39
4.87 1.75 2.39
4.83 1.85 2.39
4.79 1.94 2.39
4.74 2.03 2.39
4.69 2.12 2.39
4.64 2.21 2.39
4.59 2.30 2.39
4.54 2.39 2.39
4.48 2.47 2.39
4.43 2.56 2.39
4.37 2.64 2.39
4.31 2.72 2.39
4.25 2.81 2.39
4.19 2.89 2.39
4.12 2.96 2.39
4.06 3.04 2.39
3.99 3.12 2.39
3.92 3.19 2.39
3.85 3.26 2.39
3.78 3.33 2.39
3.70 3.40 2.39
3.63 3.47 2.39
3.55 3.54 2.39
3.48 3.60 2.39
3.40 3.66 2.39
3.32 3.72 2.39
3.24 3.78 2.39
3.16 3.84 2.39
3.07 3.90 2.39
2.99 3.95 2.39
2.91 4.00 2.39
2.82 4.05 2.39
2.73 4.10 2.39
2.65 4.15 2.40
2.56 4.19 2.39
2.47 4.24 2.39
2.45 4.40 2.46
2.39 4.50 2.49
2.30 4.54 2.49
2.20 4.58 2.49
2.10 4.62 2.49
2.01 4.65 2.49
1.91 4.68 2.49
1.81 4.71 2.49
1.72 4.74 2.49
1.62 4.76 2.49
1.52 4.79 2.49
1.42 4.81 2.49
1.32 4.83 2.49
1.22 4.85 2.49
1.12 4.86 2.49
1.02 4.88 2.49
0.92 4.89 2.49
0.82 4.90 2.49
0.72 4.90 2.49
0.62 4.91 2.49
0.52 4.91 2.49
0.42 4.92 2.49
0.32 4.92 2.49
0.22 4.91 2.49
0.12 4.91 2.49
0.02 4.90 2.49
-0.08 4.90 2.49
-0.17 4.89 2.49
-0.27 4.87 2.49
-0.37 4.86 2.49
-0.47 4.85 2.49
-0.57 4.83 2.49
-0.66 4.81 2.49
-0.76 4.79 2.49
-0.85 4.77 2.49
-0.95 4.74 2.49
-1.04 4.71 2.49
-1.14 4.69 2.49
-1.23 4.66 2.49
-1.32 4.63 2.49
-1.42 4.59 2.49
-1.51 4.56 2.49
-1.60 4.52 2.49
-1.69 4.48 2.49
-1.78 4.44 2.49
-1.86 4.40 2.49
-1.95 4.36 2.49
-2.04 4.31 2.49
-2.12 4.26 2.49
-2.21 4.22 2.49
-2.29 4.17 2.49
-2.37 4.11 2.49
-2.45 4.06 2.49
-2.53 4.01 2.49
-2.61 3.95 2.49
-2.69 3.90 2.49
-2.77 3.84 2.49
-2.84 3.78 2.49
-2.91 3.72 2.49
-2.99 3.65 2.49
-3.06 3.59 2.49
-3.13 3.52 2.49
-3.20 3.46 2.49
-3.27 3.39 2.49
-3.33 3.32 2.49
-3.40 3.25 2.49
-3.46 3.18 2.49
-3.53 3.10 2.49
-3.59 3.03 2.49
-3.65 2.96 2.49
-3.70 2.88 2.49
-3.76 2.80 2.49
-3.82 2.72 2.49
-3.87 2.65 2.49
-3.92 2.57 2.49
-3.97 2.48 2.49
-4.02 2.40 2.49
-4.07 2.32 2.49
-4.12 2.24 2.49
-4.16 2.15 2.49
-4.20 2.07 2.49
-4.25 1.98 2.49
-4.28 1.89 2.49
-4.32 1.80 2.49
-4.36 1.72 2.49
-4.39 1.63 2.49
-4.43 1.54 2.49
-4.46 1.45 2.49
-4.49 1.36 2.49
-4.52 1.26 2.49
-4.54 1.17 2.49
-4.57 1.08 2.49
-4.59 0.99 2.49
-4.61 0.89 2.49
-4.63 0.80 2.49
-4.65 0.70 2.49
-4.66 0.61 2.49
-4.68 0.51 2.49
-4.69 0.42 2.49
-4.70 0.32 2.49
-4.71 0.23 2.49
-4.71 0.13 2.49
-4.72 0.04 2.49
-4.72 -0.06 2.49
-4.72 -0.16 2.49
-4.72 -0.25 2.49
-4.72 -0.35 2.49
-4.72 -0.45 2.49
-4.71 -0.54 2.49
-4.70 -0.64 2.49
-4.69 -0.73 2.49
-4.68 -0.83 2.49
-4.67 -0.93 2.49
-4.65 -1.02 2.49
-4.64 -1.12 2.49
-4.62 -1.21 2.49
-4.60 -1.31 2.49
-4.57 -1.40 2.49
-4.55 -1.50 2.49
-4.52 -1.59 2.49
-4.50 -1.68 2.49
-4.47 -1.78 2.49
-4.43 -1.87 2.49
-4.40 -1.96 2.49
-4.37 -2.05 2.49
-4.33 -2.14 2.49
-4.29 -2.24 2.49
-4.25 -2.32 2.49
-4.21 -2.41 2.49
-4.16 -2.50 2.49
-4.12 -2.59 2.49
-4.07 -2.68 2.49
-4.02 -2.76 2.49
-3.97 -2.85 2.49
-3.92 -2.93 2.49
-3.86 -3.01 2.49
-3.81 -3.10 2.49
-3.75 -3.18 2.49
-3.69 -3.26 2.49
-3.63 -3.34 2.49
-3.57 -3.41 2.49
-3.50 -3.49 2.49
-3.44 -3.57 2.49
-3.37 -3.64 2.49
-3.30 -3.71 2.49
-3.23 -3.78 2.49
-3.16 -3.86 2.49
-3.08 -3.92 2.49
-3.01 -3.99 2.49
-2.93 -4.06 2.49
-2.86 -4.12 2.49
-2.78 -4.19 2.49
-2.70 -4.25 2.49
-2.62 -4.31 2.49
-2.53 -4.37 2.49
-2.45 -4.43 2.49
-2.36 -4.48 2.49
-2.28 -4.54 2.49
-2.19 -4.59 2.49
-2.10 -4.64 2.49
-2.01 -4.69 2.49
-1.92 -4.74 2.49
-1.83 -4.78 2.49
-1.73 -4.83 2.49
-1.64 -4.87 2.49
-1.54 -4.91 2.49
-1.45 -4.95 2.49
-1.35 -4.98 2.49
-1.25 -5.02 2.49
-1.15 -5.05 2.49
-1.06 -5.08 2.49
-0.96 -5.11 2.49
-0.85 -5.13 2.49
-0.75 -5.16 2.49
-0.65 -5.18 2.49
-0.55 -5.20 2.49
-0.44 -5.22 2.49
-0.34 -5.24 2.49
-0.24 -5.25 2.49
-0.13 -5.26 2.49
-0.03 -5.27 2.49
0.08 -4.99 2.49
0.18 -4.99 2.49
0.28 -4.99 2.49
0.38 -5.00 2.49
0.48 -4.99 2.49
0.58 -4.99 2.49
0.68 -4.99 2.49
0.78 -4.98 2.49
0.88 -4.97 2.49
0.98 -4.96 2.49
1.08 -4.94 2.49
1.18 -4.93 2.49
1.27 -4.91 2.49
1.37 -4.89 2.49
1.47 -4.87 2.49
1.57 -4.84 2.49
1.67 -4.82 2.49
1.77 -4.79 2.49
1.86 -4.76 2.49
1.96 -4.73 2.49
1.98 -4.53 2.41
2.06 -4.46 2.39
2.15 -4.43 2.39
2.24 -4.39 2.39
2.33 -4.35 2.39
2.42 -4.30 2.39
2.50 -4.26 2.39
2.59 -4.21 2.39
2.68 -4.16 2.39
2.76 -4.11 2.39
2.84 -4.06 2.39
2.92 -4.01 2.39
3.01 -3.95 2.39
3.09 -3.89 2.39
3.16 -3.84 2.39
3.24 -3.78 2.39
3.32 -3.71 2.39
3.39 -3.65 2.39
3.47 -3.58 2.39
3.54 -3.52 2.39
3.61 -3.45 2.39
3.68 -3.38 2.39
3.75 -3.31 2.39
3.81 -3.23 2.39
3.88 -3.16 2.39
3.94 -3.08 2.39
4.00 -3.00 2.39
4.06 -2.93 2.39
4.12 -2.85 2.39
4.18 -2.76 2.39
4.23 -2.68 2.39
4.28 -2.60 2.39
4.34 -2.51 2.39
4.38 -2.43 2.39
4.43 -2.34 2.39
4.48 -2.25 2.39
4.52 -2.16 2.39
4.56 -2.07 2.39
4.60 -1.98 2.39
4.64 -1.89 2.39
4.68 -1.80 2.39
4.71 -1.71 2.39
4.74 -1.61 2.39
4.77 -1.52 2.39
4.80 -1.42 2.39
4.83 -1.33 2.39
4.85 -1.23 2.39
4.87 -1.14 2.39
4.75 -1.01 2.32
4.64 -0.89 2.26
4.57 -0.79 2.22
4.54 -0.69 2.20
4.53 -0.59 2.19
4.52 -0.50 2.18
4.52 -0.41 2.18
4.52 -0.32 2.18
4.52 -0.23 2.17
4.46 -0.14 2.15
4.46 -0.05 2.14
4.43 0.03 2.13
4.42 0.12 2.13
4.42 0.21 2.13
4.41 0.30 2.13
4.41 0.38 2.14
4.57 0.49 2.22
4.90 0.62 2.39
4.89 0.72 2.39
4.87 0.82 2.39
4.84 0.91 2.39
4.82 1.01 2.39
4.79 1.10 2.39
4.77 1.19 2.39
4.74 1.29 2.39
4.70 1.38 2.39
4.67 1.47 2.39
4.64 1.56 2.39
4.60 1.65 2.39
4.56 1.74 2.39
4.52 1.83 2.39
4.48 1.91 2.39
4.43 2.00 2.39
4.38 2.08 2.39
4.34 2.17 2.39
4.29 2.25 2.39
4.24 2.33 2.39
4.18 2.41 2.39
4.13 2.49 2.39
4.07 2.57 2.39
4.01 2.65 2.39
3.95 2.72 2.39
3.89 2.80 2.39
3.83 2.87 2.39
3.77 2.94 2.39
3.70 3.01 2.39
3.64 3.08 2.39
3.57 3.14 2.39
3.50 3.21 2.39
3.43 3.27 2.39
3.36 3.34 2.39
3.29 3.40 2.39
3.21 3.46 2.39
3.14 3.52 2.39
3.06 3.57 2.39
2.99 3.63 2.39
2.91 3.68 2.39
2.83 3.73 2.39
2.75 3.78 2.39
2.67 3.83 2.39
2.59 3.87 2.39
2.51 3.92 2.39
2.44 3.99 2.41
2.44 4.17 2.49
2.35 4.22 2.49
2.26 4.26 2.49
2.17 4.29 2.49
2.08 4.33 2.49
1.99 4.36 2.49
1.90 4.40 2.49
1.81 4.43 2.49
1.72 4.45 2.49
1.63 4.48 2.49
1.53 4.50 2.49
1.44 4.53 2.49
1.35 4.55 2.49
1.25 4.57 2.49
1.16 4.58 2.49
1.07 4.60 2.49
0.97 4.61 2.49
0.88 4.62 2.49
0.78 4.63 2.49
0.69 4.64 2.49
0.59 4.65 2.49
0.50 4.65 2.49
0.40 4.65 2.49
0.31 4.65 2.49
0.21 4.65 2.49
0.12 4.65 2.49
0.03 4.64 2.49
-0.07 4.64 2.49
-0.16 4.63 2.49
-0.25 4.62 2.49
-0.35 4.60 2.49
-0.44 4.59 2.49
-0.53 4.57 2.49
-0.62 4.55 2.49
-0.71 4.54 2.49
-0.81 4.51 2.49
-0.90 4.49 2.49
-0.99 4.47 2.49
-1.07 4.44 2.49
-1.16 4.41 2.49
-1.25 4.38 2.49
-1.34 4.35 2.49
-1.42 4.32 2.49
-1.51 4.28 2.49
-1.60 4.25 2.49
-1.68 4.21 2.49
-1.76 4.17 2.49
-1.85 4.13 2.49
-1.93 4.09 2.49
-2.01 4.04 2.49
-2.09 4.00 2.49
-2.17 3.95 2.49
-2.24 3.90 2.49
-2.32 3.85 2.49
-2.40 3.80 2.49
-2.47 3.75 2.49
-2.55 3.69 2.49
-2.62 3.64 2.49
-2.69 3.58 2.49
-2.76 3.52 2.49
-2.83 3.46 2.49
-2.90 3.40 2.49
-2.97 3.34 2.49
-3.03 3.28 2.49
-3.10 3.21 2.49
-3.16 3.15 2.49
-3.22 3.08 2.49
-3.28 3.01 2.49
-3.34 2.94 2.49
-3.40 2.87 2.49
-3.46 2.80 2.49
-3.51 2.73 2.49
-3.56 2.66 2.49
-3.62 2.58 2.49
-3.67 2.51 2.49
-3.72 2.43 2.49
-3.77 2.35 2.49
-3.81 2.28 2.49
-3.86 2.20 2.49
-3.90 2.12 2.49
-3.94 2.04 2.49
-3.99 1.96 2.49
-4.02 1.88 2.49
-4.06 1.79 2.49
-4.10 1.71 2.49
-4.13 1.63 2.49
-4.17 1.54 2.49
-4.20 1.46 2.49
-4.23 1.37 2.49
-4.25 1.28 2.49
-4.28 1.20 2.49
-4.31 1.11 2.49
-4.33 1.02 2.49
-4.35 0.93 2.49
-4.37 0.84 2.49
-4.39 0.76 2.49
-4.40 0.67 2.49
-4.42 0.58 2.49
-4.43 0.49 2.49
-4.44 0.40 2.49
-4.45 0.31 2.49
-4.46 0.21 2.49
-4.47 0.12 2.49
-4.47 0.03 2.49
-4.48 -0.06 2.49
-4.48 -0.15 2.49
-4.48 -0.24 2.49
-4.47 -0.33 2.49
-4.47 -0.42 2.49
-4.46 -0.52 2.49
-4.46 -0.61 2.49
-4.45 -0.70 2.49
-4.44 -0.79 2.49
-4.42 -0.88 2.49
-4.41 -0.97 2.49
-4.39 -1.06 2.49
-4.37 -1.15 2.49
-4.35 -1.24 2.49
-4.33 -1.33 2.49
-4.31 -1.42 2.49
-4.28 -1.51 2.49
-4.26 -1.60 2.49
-4.23 -1.69 2.49
-4.20 -1.77 2.49
-4.17 -1.86 2.49
-4.13 -1.95 2.49
-4.10 -2.03 2.49
-4.06 -2.12 2.49
-4.02 -2.20 2.49
-3.98 -2.29 2.49
-3.94 -2.37 2.49
-3.90 -2.45 2.49
-3.85 -2.54 2.49
-3.80 -2.62 2.49
-3.76 -2.70 2.49
-3.71 -2.78 2.49
-3.65 -2.86 2.49
-3.60 -2.93 2.49
-3.55 -3.01 2.49
-3.49 -3.09 2.49
-3.43 -3.16 2.49
-3.37 -3.23 2.49
-3.31 -3.31 2.49
-3.25 -3.38 2.49
-3.18 -3.45 2.49
-3.12 -3.52 2.49
-3.05 -3.58 2.49
-2.98 -3.65 2.49
-2.92 -3.72 2.49
-2.84 -3.78 2.49
-2.77 -3.84 2.49
-2.70 -3.90 2.49
-2.62 -3.96 2.49
-2.55 -4.02 2.49
-2.47 -4.08 2.49
-2.39 -4.13 2.49
-2.31 -4.19 2.49
-2.23 -4.24 2.49
-2.15 -4.29 2.49
-2.07 -4.34 2.49
-1.98 -4.39 2.49
-1.90 -4.44 2.49
-1.81 -4.48 2.49
-1.72 -4.52 2.49
-1.63 -4.56 2.49
-1.55 -4.60 2.49
-1.46 -4.64 2.49
-1.36 -4.68 2.49
-1.27 -4.71 2.49
-1.18 -4.74 2.49
-1.09 -4.77 2.49
-0.99 -4.80 2.49
-0.90 -4.83 2.49
-0.80 -4.85 2.49
-0.71 -4.88 2.49
-0.61 -4.90 2.49
-0.51 -4.92 2.49
-0.42 -4.93 2.49
-0.32 -4.95 2.49
-0.22 -4.96 2.49
-0.12 -4.97 2.49
-0.02 -4.98 2.49
0.08 -4.72 2.49
0.17 -4.72 2.49
0.27 -4.73 2.49
0.36 -4.73 2.49
0.45 -4.72 2.49
0.55 -4.72 2.49
0.64 -4.72 2.49
0.74 -4.71 2.49
0.83 -4.70 2.49
0.93 -4.69 2.49
1.02 -4.67 2.49
1.12 -4.66 2.49
1.21 -4.64 2.49
1.30 -4.62 2.49
1.40 -4.60 2.49
1.49 -4.58 2.49
1.58 -4.55 2.49
1.67 -4.53 2.49
1.76 -4.50 2.49
1.85 -4.47 2.49
1.94 -4.43 2.49
1.99 -4.30 2.44
2.04 -4.18 2.39
2.12 -4.14 2.39
2.21 -4.11 2.40
2.29 -4.07 2.39
2.37 -4.02 2.39
2.45 -3.98 2.39
2.53 -3.93 2.39
2.61 -3.89 2.39
2.69 -3.84 2.39
2.77 -3.79 2.39
2.84 -3.73 2.39
2.92 -3.68 2.39
2.99 -3.62 2.39
3.06 -3.57 2.39
3.14 -3.51 2.39
3.21 -3.45 2.39
3.28 -3.38 2.39
3.34 -3.32 2.39
3.41 -3.26 2.39
3.48 -3.19 2.39
3.54 -3.12 2.39
3.60 -3.05 2.39
3.66 -2.98 2.39
3.72 -2.91 2.39
3.78 -2.84 2.39
3.84 -2.76 2.39
3.89 -2.69 2.39
3.95 -2.61 2.39
4.00 -2.53 2.39
4.05 -2.45 2.39
4.10 -2.37 2.39
4.14 -2.29 2.39
4.19 -2.21 2.39
4.23 -2.13 2.39
4.27 -2.04 2.39
4.31 -1.96 2.39
4.35 -1.87 2.39
4.38 -1.79 2.39
4.42 -1.70 2.39
4.45 -1.61 2.39
4.48 -1.53 2.39
4.51 -1.44 2.39
4.53 -1.35 2.39
4.56 -1.26 2.39
4.58 -1.17 2.39
4.60 -1.07 2.39
4.62 -0.98 2.39
4.64 -0.89 2.39
4.63 -0.80 2.38
4.58 -0.70 2.35
4.55 -0.60 2.33
4.55 -0.51 2.32
4.56 -0.42 2.33
4.53 -0.32 2.31
4.50 -0.23 2.29
4.46 -0.14 2.27
4.46 -0.05 2.27
4.45 0.03 2.27
4.45 0.12 2.27
4.44 0.21 2.27
4.43 0.30 2.27
4.42 0.38 2.27
4.65 0.50 2.39
4.63 0.59 2.39
4.62 0.68 2.39
4.60 0.77 2.39
4.58 0.86 2.39
4.56 0.95 2.39
4.53 1.04 2.39
4.51 1.13 2.39
4.48 1.21 2.39
4.45 1.30 2.39
4.42 1.39 2.39
4.38 1.47 2.39
4.35 1.56 2.39
4.31 1.64 2.39
4.27 1.72 2.39
4.23 1.81 2.39
4.19 1.89 2.39
4.15 1.97 2.39
4.10 2.05 2.39
4.06 2.13 2.39
4.01 2.20 2.39
3.96 2.28 2.39
3.91 2.35 2.39
3.85 2.43 2.39
3.80 2.50 2.39
3.74 2.57 2.39
3.69 2.64 2.39
3.63 2.71 2.39
3.57 2.78 2.39
3.51 2.84 2.39
3.44 2.91 2.39
3.38 2.97 2.39
3.32 3.04 2.39
3.25 3.10 2.39
3.18 3.16 2.39
3.11 3.21 2.39
3.04 3.27 2.39
2.97 3.32 2.39
2.90 3.38 2.39
2.83 3.43 2.39
2.76 3.48 2.39
2.68 3.53 2.39
2.62 3.59 2.40
2.53 3.62 2.39
2.45 3.67 2.39
2.42 3.78 2.43
2.40 3.91 2.49
2.32 3.95 2.49
2.23 3.99 2.49
2.15 4.03 2.49
2.06 4.07 2.49
1.98 4.10 2.49
1.89 4.13 2.49
1.81 4.16 2.49
1.72 4.19 2.49
1.63 4.22 2.49
1.55 4.24 2.49
1.46 4.27 2.49
1.02 3.20 1.86
0.95 3.19 1.85
0.88 3.21 1.85
0.83 3.26 1.87
1.01 4.36 2.49
0.92 4.37 2.49
0.83 4.38 2.49
0.74 4.39 2.49
0.66 4.40 2.49
0.57 4.40 2.49
0.48 4.41 2.49
0.39 4.41 2.49
0.30 4.41 2.49
0.21 4.41 2.49
0.12 4.41 2.49
0.03 4.40 2.49
-0.06 4.40 2.49
-0.15 4.39 2.49
-0.24 4.38 2.49
-0.33 4.37 2.49
-0.41 4.35 2.49
-0.50 4.34 2.49
-0.59 4.32 2.49
-0.51 3.25 1.89
-0.57 3.20 1.86
-0.63 3.17 1.86
-0.69 3.16 1.86
-0.76 3.16 1.87
-0.84 3.20 1.91
-1.18 4.16 2.49
-1.27 4.13 2.49
-1.35 4.10 2.49
-1.43 4.06 2.49
-1.51 4.03 2.49
-1.59 3.99 2.49
-1.67 3.96 2.49
-1.75 3.92 2.49
-1.83 3.88 2.49
-1.90 3.84 2.49
-1.98 3.79 2.49
-2.05 3.75 2.49
-2.13 3.70 2.49
-2.20 3.66 2.49
-2.27 3.61 2.49
-2.34 3.56 2.49
-2.41 3.51 2.49
-2.48 3.45 2.49
-2.55 3.40 2.49
-2.62 3.34 2.49
-2.68 3.29 2.49
-2.75 3.23 2.49
-2.81 3.17 2.49
-2.88 3.11 2.49
-2.94 3.05 2.49
-3.00 2.99 2.49
-3.06 2.92 2.49
-3.11 2.86 2.49
-3.17 2.79 2.49
-3.23 2.73 2.49
-3.28 2.66 2.49
-3.33 2.59 2.49
-3.38 2.52 2.49
-3.43 2.45 2.49
-3.48 2.38 2.49
-3.53 2.31 2.49
-3.57 2.24 2.49
-3.62 2.16 2.49
-3.66 2.09 2.49
-3.70 2.01 2.49
-3.74 1.94 2.49
-3.78 1.86 2.49
-3.82 1.78 2.49
-3.86 1.70 2.49
-3.89 1.62 2.49
-3.92 1.54 2.49
-3.95 1.46 2.49
-3.98 1.38 2.49
-4.01 1.30 2.49
-4.04 1.22 2.49
-4.06 1.14 2.49
-4.09 1.05 2.49
-4.11 0.97 2.49
-4.13 0.89 2.49
-4.15 0.80 2.49
-4.17 0.72 2.49
-4.18 0.63 2.49
-4.20 0.55 2.49
-4.21 0.46 2.49
-4.22 0.37 2.49
-4.23 0.29 2.49
-4.24 0.20 2.49
-4.24 0.12 2.49
-4.25 0.03 2.49
-4.25 -0.06 2.49
-4.25 -0.14 2.49
-4.25 -0.23 2.49
-4.25 -0.32 2.49
-4.24 -0.41 2.49
-4.24 -0.49 2.49
-4.23 -0.58 2.49
-4.22 -0.67 2.49
-4.21 -0.75 2.49
-4.20 -0.84 2.49
-4.18 -0.92 2.49
-4.17 -1.01 2.49
-4.15 -1.10 2.49
-4.13 -1.18 2.49
-4.11 -1.27 2.49
-4.09 -1.35 2.49
-4.06 -1.44 2.49
-4.04 -1.52 2.49
-4.01 -1.60 2.49
-3.98 -1.69 2.49
-3.95 -1.77 2.49
-3.92 -1.85 2.49
-3.89 -1.93 2.49
-3.85 -2.01 2.49
-3.81 -2.09 2.49
-3.77 -2.17 2.49
-3.73 -2.25 2.49
-3.69 -2.33 2.49
-3.65 -2.41 2.49
-3.61 -2.49 2.49
-3.56 -2.56 2.49
-3.51 -2.64 2.49
-3.46 -2.71 2.49
-3.41 -2.78 2.49
-3.36 -2.86 2.49
-3.31 -2.93 2.49
-3.25 -3.00 2.49
-3.19 -3.07 2.49
-3.14 -3.14 2.49
-3.08 -3.20 2.49
-3.02 -3.27 2.49
-2.95 -3.34 2.49
-2.89 -3.40 2.49
-2.83 -3.46 2.49
-2.76 -3.52 2.49
-2.69 -3.58 2.49
-2.62 -3.64 2.49
-2.55 -3.70 2.49
-2.48 -3.76 2.49
-2.41 -3.81 2.49
-2.34 -3.87 2.49
-2.26 -3.92 2.49
-2.19 -3.97 2.49
-2.11 -4.02 2.49
-2.03 -4.07 2.49
-1.95 -4.11 2.49
-1.87 -4.16 2.49
-1.79 -4.20 2.49
-1.71 -4.24 2.49
-1.63 -4.28 2.49
-1.54 -4.32 2.49
-1.46 -4.36 2.49
-1.37 -4.40 2.49
-1.29 -4.43 2.49
-1.20 -4.46 2.49
-1.11 -4.49 2.49
-1.02 -4.52 2.49
-0.94 -4.55 2.49
-0.85 -4.57 2.49
-0.76 -4.59 2.49
-0.66 -4.62 2.49
-0.57 -4.63 2.49
-0.48 -4.65 2.49
-0.39 -4.67 2.49
-0.30 -4.68 2.49
-0.20 -4.69 2.49
-0.11 -4.70 2.49
-0.02 -4.71 2.49
0.08 -4.47 2.49
0.17 -4.48 2.49
0.26 -4.48 2.49
0.34 -4.48 2.49
0.43 -4.48 2.49
0.52 -4.47 2.49
0.61 -4.47 2.49
0.70 -4.46 2.49
0.79 -4.45 2.49
0.88 -4.44 2.49
0.97 -4.43 2.49
1.06 -4.41 2.49
1.15 -4.40 2.49
1.24 -4.38 2.49
1.32 -4.36 2.49
1.41 -4.34 2.49
1.50 -4.31 2.49
1.59 -4.29 2.49
1.67 -4.26 2.49
1.76 -4.23 2.49
1.84 -4.20 2.49
1.93 -4.16 2.49
2.00 -4.09 2.47
2.02 -3.93 2.40
2.09 -3.89 2.39
2.17 -3.85 2.39
2.24 -3.81 2.39
2.32 -3.77 2.39
2.40 -3.72 2.39
2.47 -3.68 2.39
2.55 -3.63 2.39
2.62 -3.58 2.39
2.69 -3.53 2.39
2.76 -3.48 2.39
2.83 -3.43 2.39
2.90 -3.37 2.39
2.97 -3.32 2.39
3.04 -3.26 2.39
3.10 -3.20 2.39
3.17 -3.14 2.39
3.23 -3.08 2.39
3.29 -3.02 2.39
3.35 -2.95 2.39
3.41 -2.89 2.39
3.47 -2.82 2.39
3.52 -2.75 2.39
3.58 -2.68 2.39
3.63 -2.61 2.39
3.68 -2.54 2.39
3.73 -2.47 2.39
3.78 -2.40 2.39
3.83 -2.32 2.39
3.88 -2.25 2.39
3.92 -2.17 2.39
3.96 -2.09 2.39
4.00 -2.01 2.39
4.04 -1.94 2.39
4.08 -1.86 2.39
4.12 -1.77 2.39
4.15 -1.69 2.39
4.18 -1.61 2.39
4.21 -1.53 2.39
4.24 -1.44 2.39
4.27 -1.36 2.39
4.29 -1.28 2.39
4.31 -1.19 2.39
4.34 -1.10 2.39
4.36 -1.02 2.39
4.37 -0.93 2.39
4.39 -0.85 2.39
4.40 -0.76 2.39
4.41 -0.67 2.39
4.42 -0.58 2.39
4.43 -0.50 2.39
4.44 -0.41 2.39
4.44 -0.32 2.39
4.45 -0.23 2.39
4.45 -0.14 2.39
4.45 -0.06 2.39
4.44 0.03 2.39
4.44 0.12 2.39
4.43 0.21 2.39
4.42 0.29 2.39
4.41 0.38 2.39
4.40 0.47 2.39
4.39 0.55 2.39
4.37 0.64 2.39
4.36 0.73 2.39
4.34 0.81 2.39
4.32 0.90 2.39
4.29 0.98 2.39
4.27 1.06 2.39
4.24 1.15 2.39
4.21 1.23 2.39
4.18 1.31 2.39
4.15 1.39 2.39
4.12 1.47 2.39
4.09 1.55 2.39
4.05 1.63 2.39
4.01 1.71 2.39
3.97 1.78 2.39
3.93 1.86 2.39
3.89 1.94 2.39
3.84 2.01 2.39
3.80 2.08 2.39
3.75 2.16 2.39
3.70 2.23 2.39
3.65 2.30 2.39
3.60 2.37 2.39
3.55 2.43 2.39
3.50 2.50 2.39
3.44 2.57 2.39
3.38 2.63 2.39
3.33 2.69 2.39
3.27 2.75 2.39
3.21 2.82 2.39
3.15 2.87 2.39
3.08 2.93 2.39
3.02 2.99 2.39
2.96 3.04 2.39
2.89 3.10 2.39
2.82 3.15 2.39
2.76 3.20 2.39
2.69 3.25 2.39
2.62 3.30 2.39
2.55 3.34 2.39
2.48 3.39 2.39
2.41 3.44 2.40
2.41 3.59 2.47
2.36 3.67 2.49
2.28 3.71 2.49
2.20 3.75 2.49
2.12 3.78 2.49
2.04 3.82 2.49
1.96 3.85 2.49
1.88 3.89 2.49
1.80 3.92 2.49
1.72 3.95 2.49
1.64 3.98 2.49
1.55 4.00 2.49
1.14 3.12 1.93
1.05 3.07 1.89
0.98 3.06 1.88
0.91 3.06 1.87
0.85 3.08 1.87
0.79 3.11 1.89
0.74 3.17 1.91
0.69 3.27 1.97
0.80 4.16 2.49
0.71 4.17 2.49
0.63 4.17 2.49
0.54 4.18 2.49
0.46 4.18 2.49
0.37 4.19 2.49
0.29 4.19 2.49
0.20 4.19 2.49
0.12 4.18 2.49
0.03 4.18 2.49
-0.05 4.17 2.49
-0.14 4.17 2.49
-0.22 4.16 2.49
-0.31 4.15 2.49
-0.39 4.13 2.49
-0.47 4.12 2.49
-0.43 3.20 1.94
-0.49 3.14 1.91
-0.55 3.10 1.90
-0.61 3.07 1.89
-0.67 3.06 1.90
-0.74 3.06 1.91
-0.81 3.08 1.93
-0.89 3.12 1.97
-1.20 3.92 2.49
-1.28 3.89 2.49
-1.36 3.86 2.49
-1.43 3.83 2.49
-1.51 3.80 2.49
-1.58 3.76 2.49
-1.66 3.72 2.49
-1.73 3.69 2.49
-1.81 3.65 2.49
-1.88 3.61 2.49
-1.95 3.56 2.49
-2.02 3.52 2.49
-2.09 3.47 2.49
-2.16 3.43 2.49
-2.23 3.38 2.49
-2.29 3.33 2.49
-2.36 3.28 2.49
-2.42 3.23 2.49
-2.49 3.18 2.49
-2.55 3.13 2.49
-2.61 3.07 2.49
-2.67 3.01 2.49
-2.73 2.96 2.49
-2.79 2.90 2.49
-2.85 2.84 2.49
-2.90 2.78 2.49
-2.96 2.72 2.49
-3.01 2.66 2.49
-3.07 2.59 2.49
-3.12 2.53 2.49
-3.17 2.46 2.49
-3.22 2.40 2.49
-3.26 2.33 2.49
-3.31 2.26 2.49
-3.35 2.20 2.49
-3.40 2.13 2.49
-3.44 2.06 2.49
-3.48 1.98 2.49
-3.52 1.91 2.49
-3.56 1.84 2.49
-3.60 1.77 2.49
-3.63 1.69 2.49
-3.67 1.62 2.49
-3.70 1.54 2.49
-3.73 1.47 2.49
-3.76 1.39 2.49
-3.79 1.31 2.49
-3.81 1.24 2.49
-3.84 1.16 2.49
-3.86 1.08 2.49
-3.89 1.00 2.49
-3.91 0.92 2.49
-3.93 0.84 2.49
-3.94 0.76 2.49
-3.96 0.68 2.49
-3.97 0.60 2.49
-3.99 0.52 2.49
-4.00 0.44 2.49
-4.01 0.35 2.49
-4.02 0.27 2.49
-4.02 0.19 2.49
-4.03 0.11 2.49
-4.03 0.03 2.49
-4.04 -0.06 2.49
-4.04 -0.14 2.49
