ply
format ascii 1.0
element vertex 2981
property float32 x
property float32 y
property float32 z
end_header
-10.14 2.36 2.45
-10.18 2.16 2.45
-10.23 1.95 2.44
-10.27 1.75 2.43
-10.31 1.54 2.43
-10.34 1.34 2.42
-10.37 1.13 2.42
-10.40 0.92 2.41
-10.42 0.71 2.41
-10.44 0.50 2.40
-10.45 0.30 2.40
-10.46 0.09 2.39
-10.48 -0.12 2.39
-10.49 -0.33 2.39
-10.50 -0.55 2.38
-10.51 -0.76 2.38
-10.51 -0.97 2.38
-10.49 -1.18 2.37
-10.47 -1.39 2.37
-10.44 -1.60 2.36
-10.42 -1.81 2.36
-10.39 -2.02 2.36
-10.38 -2.23 2.36
-10.37 -2.45 2.36
-10.36 -2.67 2.36
-10.34 -2.88 2.36
-10.32 -3.10 2.37
-10.32 -3.33 2.37
-10.31 -3.55 2.38
-10.29 -3.78 2.39
-10.28 -4.01 2.40
-10.24 -4.23 2.40
-10.20 -4.46 2.41
-10.15 -4.68 2.41
-10.10 -4.90 2.42
-10.05 -5.13 2.42
-9.99 -5.35 2.43
-9.94 -5.58 2.44
-9.67 -5.69 2.39
-9.57 -5.89 2.39
-9.47 -6.10 2.39
-9.37 -6.30 2.39
-9.26 -6.50 2.39
-9.15 -6.69 2.39
-9.03 -6.89 2.39
-8.91 -7.08 2.39
-8.78 -7.27 2.39
-8.65 -7.46 2.39
-8.52 -7.65 2.39
-8.38 -7.83 2.39
-8.23 -8.01 2.39
-8.08 -8.18 2.39
-7.93 -8.36 2.39
-7.78 -8.53 2.39
-7.62 -8.69 2.39
-7.45 -8.86 2.39
-7.28 -9.02 2.39
-7.11 -9.17 2.39
-6.94 -9.32 2.39
-6.76 -9.47 2.39
-5.91 -8.65 2.15
-6.39 -9.76 2.39
-6.20 -9.89 2.39
-6.01 -10.03 2.39
-5.83 -10.18 2.40
-5.64 -10.33 2.41
-5.63 -10.81 2.49
-5.43 -10.96 2.50
-5.22 -11.08 2.50
-5.00 -11.19 2.50
-4.78 -11.29 2.50
-4.55 -11.39 2.50
-4.33 -11.48 2.50
-4.10 -11.57 2.50
-3.87 -11.66 2.50
-3.64 -11.73 2.50
-3.40 -11.81 2.50
-3.17 -11.87 2.50
-2.93 -11.94 2.50
-2.69 -11.99 2.50
-2.45 -12.04 2.50
-2.21 -12.09 2.50
-1.97 -12.13 2.50
-1.73 -12.17 2.50
-1.48 -12.19 2.50
-1.24 -12.22 2.50
-1.00 -12.23 2.50
-0.75 -12.25 2.50
-0.51 -12.25 2.50
-0.26 -12.25 2.50
-0.02 -10.98 2.50
0.20 -10.97 2.50
0.42 -10.96 2.50
0.64 -10.94 2.50
0.85 -10.92 2.50
1.07 -10.89 2.50
1.29 -10.85 2.50
1.50 -10.82 2.50
1.71 -10.77 2.50
1.93 -10.73 2.50
2.14 -10.67 2.50
2.35 -10.62 2.50
2.45 -10.12 2.39
2.65 -10.06 2.39
2.84 -9.99 2.39
3.04 -9.92 2.39
3.23 -9.84 2.39
3.42 -9.76 2.39
3.61 -9.68 2.39
3.80 -9.59 2.39
3.98 -9.49 2.39
4.15 -9.37 2.39
4.33 -9.27 2.39
4.04 -8.21 2.14
4.17 -8.07 2.13
4.31 -7.95 2.12
4.51 -7.93 2.14
2.63 -4.42 1.21
4.84 -7.77 2.16
4.94 -7.59 2.14
4.62 -6.80 1.94
4.44 -6.27 1.82
4.46 -6.03 1.78
4.41 -5.72 1.72
4.52 -5.63 1.72
4.63 -5.54 1.73
4.79 -5.50 1.75
4.93 -5.44 1.76
5.07 -5.37 1.78
5.34 -5.43 1.84
5.51 -5.39 1.86
5.66 -5.32 1.88
5.94 -5.36 1.94
4.59 -3.98 1.48
4.44 -3.70 1.41
4.44 -3.55 1.39
4.44 -3.41 1.37
4.45 -3.27 1.36
4.40 -3.10 1.33
4.43 -3.00 1.32
4.51 -2.92 1.33
4.53 -2.81 1.32
4.53 -2.68 1.31
4.52 -2.55 1.29
4.56 -2.46 1.30
4.62 -2.37 1.30
4.66 -2.28 1.30
4.69 -2.17 1.30
4.70 -2.07 1.30
4.72 -1.96 1.29
4.74 -1.86 1.29
4.78 -1.77 1.30
4.81 -1.67 1.30
4.84 -1.57 1.30
4.88 -1.48 1.31
4.93 -1.39 1.32
5.03 -1.30 1.34
5.00 -1.19 1.33
4.95 -1.07 1.31
5.00 -0.98 1.32
5.06 -0.89 1.34
5.13 -0.79 1.35
5.29 -0.71 1.40
5.46 -0.62 1.44
5.60 -0.52 1.48
5.78 -0.42 1.53
6.66 -0.35 1.76
10.47 -0.35 2.77
10.40 -0.13 2.76
5.96 0.04 1.59
5.91 0.16 1.58
6.09 0.29 1.63
5.90 0.40 1.58
5.79 0.51 1.56
5.71 0.62 1.55
5.64 0.72 1.53
5.64 0.84 1.54
5.69 0.97 1.56
5.55 1.06 1.53
5.48 1.16 1.52
5.42 1.26 1.52
5.42 1.38 1.53
5.42 1.49 1.54
5.42 1.61 1.55
5.90 1.88 1.70
5.75 1.97 1.68
5.37 1.96 1.58
5.30 2.05 1.57
5.23 2.15 1.57
5.34 2.32 1.62
5.62 2.58 1.72
5.56 2.69 1.72
5.52 2.81 1.73
5.47 2.92 1.74
5.41 3.03 1.74
5.28 3.10 1.72
5.19 3.19 1.72
5.16 3.32 1.73
5.15 3.46 1.75
5.08 3.56 1.76
5.01 3.67 1.76
4.94 3.77 1.77
4.87 3.87 1.77
4.79 3.97 1.77
5.31 4.59 2.00
5.34 4.81 2.05
5.23 4.90 2.05
5.12 5.00 2.05
5.01 5.10 2.05
5.38 5.69 2.25
5.29 5.83 2.26
5.23 6.00 2.29
5.34 6.38 2.39
5.20 6.48 2.39
5.06 6.58 2.39
4.92 6.67 2.39
4.78 6.76 2.39
4.64 6.85 2.39
4.50 6.94 2.39
4.35 7.02 2.39
4.21 7.10 2.39
4.06 7.18 2.39
3.91 7.26 2.39
3.76 7.33 2.39
3.61 7.40 2.39
3.46 7.47 2.39
3.30 7.54 2.39
3.15 7.60 2.39
2.99 7.66 2.39
2.84 7.71 2.39
2.68 7.77 2.39
2.55 7.90 2.42
2.36 7.87 2.39
2.27 8.16 2.47
2.13 8.29 2.50
1.96 8.34 2.50
1.79 8.37 2.50
1.62 8.41 2.50
1.45 8.44 2.50
1.28 8.47 2.50
1.11 8.49 2.50
0.94 8.52 2.50
0.77 8.54 2.50
0.59 8.55 2.50
0.42 8.57 2.50
0.25 8.58 2.50
0.07 8.58 2.50
-0.10 8.59 2.50
-0.28 8.59 2.50
-0.45 8.59 2.50
-0.62 8.58 2.50
-0.80 8.57 2.50
-0.97 8.56 2.50
-1.14 8.54 2.50
-1.32 8.53 2.50
-1.49 8.51 2.50
-1.67 8.48 2.50
-1.84 8.45 2.50
-2.01 8.42 2.50
-2.18 8.39 2.50
-2.35 8.35 2.50
-2.53 8.31 2.50
-2.70 8.27 2.50
-2.87 8.22 2.50
-3.04 8.17 2.50
-3.20 8.12 2.50
-3.37 8.06 2.50
-3.54 8.00 2.50
-3.70 7.94 2.50
-3.87 7.88 2.50
-4.03 7.81 2.50
-4.20 7.74 2.50
-4.36 7.66 2.50
-4.52 7.58 2.50
-4.68 7.50 2.50
-4.84 7.42 2.50
-5.00 7.33 2.50
-5.15 7.24 2.50
-5.31 7.15 2.50
-5.46 7.05 2.50
-5.61 6.96 2.50
-5.76 6.85 2.50
-5.76 6.58 2.44
-5.80 6.37 2.39
-5.95 6.26 2.39
-6.08 6.15 2.39
-6.22 6.04 2.39
-6.35 5.93 2.39
-6.48 5.81 2.39
-6.61 5.69 2.39
-6.74 5.57 2.39
-6.86 5.44 2.39
-6.99 5.31 2.39
-7.11 5.18 2.39
-7.23 5.05 2.39
-7.34 4.91 2.39
-7.46 4.78 2.39
-7.57 4.64 2.39
-7.68 4.49 2.39
-7.78 4.35 2.39
-7.89 4.20 2.39
-7.99 4.05 2.39
-8.09 3.90 2.39
-8.19 3.74 2.39
-8.28 3.59 2.39
-8.37 3.43 2.39
-8.46 3.27 2.39
-8.54 3.10 2.39
-8.62 2.94 2.39
-8.70 2.77 2.39
-8.78 2.60 2.39
-8.85 2.43 2.39
-8.92 2.26 2.39
-8.99 2.09 2.39
-9.05 1.91 2.39
-9.11 1.73 2.39
-9.16 1.55 2.39
-9.22 1.37 2.39
-9.27 1.19 2.39
-9.31 1.01 2.39
-9.35 0.82 2.39
-9.39 0.64 2.39
-9.43 0.45 2.39
-9.46 0.26 2.39
-9.48 0.07 2.39
-9.51 -0.12 2.39
-9.53 -0.31 2.39
-9.54 -0.50 2.39
-9.56 -0.69 2.39
-9.56 -0.89 2.39
-9.57 -1.08 2.39
-9.57 -1.28 2.39
-9.56 -1.47 2.39
-9.55 -1.67 2.39
-9.54 -1.86 2.39
-9.53 -2.06 2.39
-9.51 -2.25 2.39
-9.48 -2.45 2.39
-9.45 -2.64 2.39
-9.42 -2.84 2.39
-9.38 -3.03 2.39
-9.34 -3.23 2.39
-9.30 -3.42 2.39
-9.25 -3.61 2.39
-9.19 -3.81 2.39
-9.14 -4.00 2.39
-9.07 -4.19 2.39
-9.01 -4.38 2.39
-8.94 -4.57 2.39
-8.86 -4.76 2.39
-8.78 -4.94 2.39
-8.70 -5.13 2.39
-8.61 -5.31 2.39
-8.52 -5.49 2.39
-8.43 -5.67 2.39
-8.33 -5.85 2.39
-8.22 -6.02 2.39
-8.12 -6.20 2.39
-8.01 -6.37 2.39
-7.89 -6.54 2.39
-7.77 -6.71 2.39
-7.65 -6.87 2.39
-7.52 -7.04 2.39
-7.39 -7.20 2.39
-7.26 -7.35 2.39
-7.12 -7.51 2.39
-6.98 -7.66 2.39
-6.83 -7.81 2.39
-6.69 -7.95 2.39
-6.54 -8.09 2.39
-6.38 -8.23 2.39
-6.22 -8.37 2.39
-6.06 -8.50 2.39
-5.90 -8.63 2.39
-5.73 -8.75 2.39
-5.64 -9.01 2.43
-5.62 -9.38 2.50
-5.43 -9.50 2.50
-5.25 -9.61 2.50
-5.06 -9.72 2.50
-4.87 -9.83 2.50
-4.68 -9.93 2.50
-4.48 -10.03 2.50
-4.28 -10.12 2.50
-4.08 -10.21 2.50
-3.88 -10.29 2.50
-3.67 -10.37 2.50
-3.47 -10.45 2.50
-3.26 -10.52 2.50
-3.05 -10.58 2.50
-2.84 -10.64 2.50
-2.63 -10.70 2.50
-2.41 -10.75 2.50
-2.20 -10.79 2.50
-1.98 -10.83 2.50
-1.77 -10.87 2.50
-1.55 -10.90 2.50
-1.33 -10.93 2.50
-1.11 -10.95 2.50
-0.89 -10.96 2.50
-0.68 -10.98 2.50
-0.46 -10.98 2.50
-0.24 -10.98 2.50
-0.02 -9.94 2.50
0.18 -9.93 2.50
0.38 -9.92 2.50
0.57 -9.90 2.50
0.77 -9.88 2.50
0.97 -9.86 2.50
1.16 -9.83 2.50
1.36 -9.80 2.50
1.55 -9.76 2.50
1.74 -9.72 2.50
1.93 -9.67 2.50
2.12 -9.62 2.50
2.31 -9.56 2.50
2.41 -9.18 2.41
2.57 -9.05 2.39
2.75 -8.99 2.39
2.93 -8.92 2.39
3.10 -8.85 2.39
3.27 -8.77 2.39
3.44 -8.69 2.39
3.61 -8.61 2.39
3.77 -8.53 2.39
3.94 -8.44 2.39
4.07 -8.29 2.38
4.22 -8.17 2.37
4.35 -8.03 2.36
4.51 -7.95 2.37
2.63 -4.42 1.33
4.86 -7.82 2.39
4.92 -7.58 2.35
4.48 -6.60 2.08
4.48 -6.33 2.03
4.49 -6.08 1.98
4.43 -5.75 1.90
4.52 -5.63 1.90
4.62 -5.53 1.89
4.78 -5.49 1.92
4.89 -5.41 1.93
5.02 -5.33 1.94
5.31 -5.41 2.01
5.50 -5.38 2.04
5.77 -5.43 2.11
5.79 -5.23 2.08
4.33 -3.76 1.53
4.37 -3.64 1.52
4.40 -3.52 1.51
4.43 -3.40 1.50
4.44 -3.27 1.49
4.38 -3.09 1.45
4.37 -2.96 1.43
4.43 -2.87 1.43
4.45 -2.76 1.42
4.45 -2.64 1.41
4.44 -2.52 1.40
4.51 -2.43 1.40
4.57 -2.35 1.41
4.62 -2.26 1.42
4.66 -2.17 1.42
4.68 -2.06 1.41
4.69 -1.96 1.41
4.71 -1.85 1.41
4.73 -1.75 1.41
4.78 -1.66 1.41
4.82 -1.57 1.42
4.82 -1.46 1.41
4.87 -1.37 1.42
4.86 -1.26 1.42
4.88 -1.17 1.42
4.90 -1.07 1.42
4.94 -0.97 1.43
5.01 -0.88 1.45
5.08 -0.79 1.47
5.23 -0.71 1.51
5.41 -0.62 1.56
5.51 -0.52 1.59
5.66 -0.42 1.63
5.80 -0.31 1.68
7.00 -0.24 2.02
5.68 -0.08 1.65
5.57 0.04 1.62
5.55 0.15 1.61
5.56 0.26 1.62
5.56 0.37 1.63
5.36 0.47 1.58
5.32 0.57 1.57
5.36 0.69 1.59
5.37 0.80 1.60
5.35 0.90 1.60
5.37 1.02 1.62
5.38 1.13 1.63
5.33 1.24 1.63
5.26 1.33 1.62
5.17 1.42 1.60
5.12 1.52 1.60
5.08 1.62 1.60
5.15 1.76 1.63
5.17 1.88 1.65
5.13 1.98 1.66
5.06 2.07 1.65
5.09 2.21 1.68
5.36 2.45 1.79
5.60 2.70 1.89
5.55 2.82 1.89
5.57 2.97 1.92
5.43 3.04 1.90
5.20 3.05 1.84
5.12 3.14 1.84
5.07 3.25 1.85
5.06 3.39 1.87
5.05 3.54 1.89
4.98 3.64 1.90
4.91 3.74 1.90
4.83 3.84 1.91
4.79 3.97 1.92
4.98 4.30 2.04
5.18 4.66 2.16
5.21 4.88 2.22
5.11 4.98 2.22
5.07 5.15 2.25
5.07 5.37 2.30
5.16 5.68 2.39
5.04 5.78 2.39
4.92 5.88 2.39
4.79 5.97 2.39
4.67 6.06 2.39
4.54 6.15 2.39
4.41 6.23 2.39
4.28 6.32 2.39
4.15 6.40 2.39
4.01 6.47 2.39
3.88 6.55 2.39
3.74 6.62 2.39
3.61 6.69 2.39
3.47 6.76 2.39
3.33 6.83 2.39
3.19 6.89 2.39
3.05 6.95 2.39
2.91 7.01 2.39
2.76 7.06 2.39
2.62 7.11 2.39
2.47 7.16 2.39
2.33 7.21 2.39
2.27 7.56 2.50
2.12 7.61 2.50
1.96 7.65 2.50
1.81 7.69 2.50
1.65 7.72 2.50
1.50 7.75 2.50
1.34 7.78 2.50
1.18 7.81 2.50
1.02 7.83 2.50
0.86 7.85 2.50
0.70 7.87 2.50
0.55 7.89 2.50
0.39 7.90 2.50
0.23 7.91 2.50
0.07 7.91 2.50
-0.09 7.92 2.50
-0.26 7.92 2.50
-0.42 7.92 2.50
-0.58 7.91 2.50
-0.74 7.90 2.50
-0.90 7.89 2.50
-1.06 7.88 2.50
-1.22 7.86 2.50
-1.38 7.84 2.50
-1.54 7.82 2.50
-1.70 7.79 2.50
-1.86 7.76 2.50
-2.01 7.73 2.50
-2.17 7.69 2.50
-2.33 7.66 2.50
-2.49 7.62 2.50
-2.64 7.57 2.50
-2.80 7.53 2.50
-2.95 7.48 2.50
-3.11 7.42 2.50
-3.26 7.37 2.50
-3.41 7.31 2.50
-3.57 7.25 2.50
-3.72 7.19 2.50
-3.87 7.12 2.50
-4.02 7.05 2.50
-4.16 6.98 2.50
-4.31 6.90 2.50
-4.46 6.83 2.50
-4.60 6.74 2.50
-4.74 6.66 2.50
-4.88 6.57 2.50
-5.02 6.49 2.50
-5.16 6.39 2.50
-5.30 6.30 2.50
-5.44 6.20 2.50
-5.57 6.10 2.50
-5.70 6.00 2.50
-5.75 5.81 2.46
-5.76 5.59 2.41
-5.84 5.44 2.39
-5.96 5.33 2.39
-6.07 5.22 2.39
-6.19 5.11 2.39
-6.30 4.99 2.39
-6.42 4.87 2.39
-6.53 4.75 2.39
-6.63 4.63 2.39
-6.74 4.50 2.39
-6.84 4.38 2.39
-6.95 4.25 2.39
-7.04 4.12 2.39
-7.14 3.98 2.39
-7.24 3.85 2.39
-7.33 3.71 2.39
-7.42 3.57 2.39
-7.50 3.43 2.39
-7.59 3.28 2.39
-7.67 3.13 2.39
-7.75 2.99 2.39
-7.83 2.84 2.39
-7.90 2.69 2.39
-7.97 2.53 2.39
-8.04 2.38 2.39
-8.10 2.22 2.39
-8.16 2.06 2.39
-8.22 1.90 2.39
-8.28 1.74 2.39
-8.33 1.58 2.39
-8.38 1.41 2.39
-8.43 1.25 2.39
-8.47 1.08 2.39
-8.51 0.91 2.39
-8.55 0.75 2.39
-8.58 0.58 2.39
-8.61 0.40 2.39
-8.64 0.23 2.39
-8.66 0.06 2.39
-8.68 -0.11 2.39
-8.69 -0.29 2.39
-8.71 -0.46 2.39
-8.72 -0.64 2.39
-8.72 -0.82 2.39
-8.72 -0.99 2.39
-8.72 -1.17 2.39
-8.72 -1.35 2.39
-8.71 -1.52 2.39
-8.69 -1.70 2.39
-8.68 -1.88 2.39
-8.66 -2.06 2.39
-8.63 -2.23 2.39
-8.61 -2.41 2.39
-8.57 -2.59 2.39
-8.54 -2.77 2.39
-8.50 -2.94 2.39
-8.46 -3.12 2.39
-8.41 -3.29 2.39
-8.36 -3.47 2.39
-8.31 -3.64 2.39
-8.25 -3.81 2.39
-8.19 -3.99 2.39
-8.12 -4.16 2.39
-8.05 -4.33 2.39
-7.98 -4.49 2.39
-7.90 -4.66 2.39
-7.82 -4.83 2.39
-7.74 -4.99 2.39
-7.65 -5.15 2.39
-7.56 -5.31 2.39
-7.46 -5.47 2.39
-7.36 -5.63 2.39
-7.26 -5.78 2.39
-7.16 -5.94 2.39
-7.05 -6.09 2.39
-6.94 -6.24 2.39
-6.82 -6.38 2.39
-6.70 -6.53 2.39
-6.58 -6.67 2.39
-6.45 -6.81 2.39
-6.32 -6.94 2.39
-6.19 -7.08 2.39
-6.06 -7.21 2.39
-5.92 -7.34 2.39
-5.78 -7.46 2.39
-5.66 -7.62 2.40
-5.65 -7.93 2.46
-5.57 -8.15 2.50
-5.41 -8.27 2.50
-5.25 -8.38 2.50
-5.09 -8.49 2.50
-4.92 -8.60 2.50
-4.75 -8.70 2.50
-4.58 -8.80 2.50
-4.41 -8.90 2.50
-4.23 -8.99 2.50
-4.05 -9.08 2.50
-3.87 -9.16 2.50
-3.69 -9.24 2.50
-3.51 -9.32 2.50
-3.32 -9.39 2.50
-3.14 -9.45 2.50
-2.95 -9.52 2.50
-2.76 -9.58 2.50
-2.57 -9.63 2.50
-2.38 -9.68 2.50
-2.18 -9.73 2.50
-1.99 -9.77 2.50
-1.79 -9.80 2.50
-1.60 -9.84 2.50
-1.40 -9.87 2.50
-1.21 -9.89 2.50
-1.01 -9.91 2.50
-0.81 -9.92 2.50
-0.61 -9.93 2.50
-0.41 -9.94 2.50
-0.22 -9.94 2.50
-0.02 -9.07 2.50
0.16 -9.06 2.50
0.34 -9.05 2.50
0.52 -9.04 2.50
0.70 -9.02 2.50
0.88 -9.00 2.50
1.06 -8.97 2.50
1.24 -8.94 2.50
1.41 -8.91 2.50
1.59 -8.87 2.50
1.76 -8.83 2.50
1.94 -8.78 2.50
2.11 -8.74 2.50
2.28 -8.68 2.50
2.40 -8.45 2.45
2.51 -8.21 2.39
2.67 -8.15 2.39
2.83 -8.09 2.39
2.99 -8.02 2.39
3.14 -7.95 2.39
3.29 -7.87 2.39
3.45 -7.79 2.39
3.59 -7.71 2.39
3.74 -7.63 2.39
3.89 -7.54 2.39
4.03 -7.45 2.39
4.17 -7.36 2.39
2.63 -4.43 1.46
4.45 -7.16 2.39
4.58 -7.06 2.39
4.42 -6.52 2.24
4.46 -6.31 2.20
4.45 -6.04 2.14
4.41 -5.73 2.07
4.49 -5.61 2.06
4.59 -5.51 2.06
4.75 -5.47 2.09
4.69 -5.18 2.02
4.78 -5.08 2.01
4.84 -4.94 2.00
4.98 -4.88 2.02
5.13 -4.83 2.05
4.24 -3.84 1.66
4.28 -3.72 1.65
4.31 -3.60 1.64
4.35 -3.49 1.63
4.38 -3.37 1.62
4.38 -3.23 1.60
4.35 -3.08 1.57
4.35 -2.95 1.55
4.36 -2.83 1.54
4.35 -2.70 1.52
4.34 -2.58 1.50
4.34 -2.46 1.48
4.42 -2.39 1.50
4.53 -2.33 1.52
4.58 -2.25 1.53
4.62 -2.15 1.53
4.64 -2.05 1.53
4.65 -1.94 1.52
4.67 -1.84 1.52
4.69 -1.74 1.52
4.74 -1.65 1.52
4.79 -1.56 1.53
4.77 -1.45 1.52
4.74 -1.34 1.51
4.74 -1.24 1.50
4.76 -1.14 1.50
4.82 -1.05 1.52
4.88 -0.96 1.53
4.97 -0.88 1.56
5.06 -0.79 1.59
5.21 -0.71 1.63
5.48 -0.63 1.72
5.52 -0.52 1.73
5.56 -0.42 1.74
5.69 -0.31 1.78
5.63 -0.19 1.77
5.51 -0.08 1.73
5.49 0.03 1.73
5.47 0.14 1.73
5.38 0.25 1.70
5.35 0.35 1.70
5.30 0.46 1.69
5.25 0.56 1.68
5.25 0.67 1.69
5.23 0.77 1.69
5.19 0.87 1.68
5.17 0.98 1.69
5.16 1.08 1.70
5.18 1.20 1.71
5.19 1.31 1.73
5.12 1.40 1.71
5.07 1.50 1.71
5.02 1.60 1.71
4.99 1.70 1.71
5.01 1.82 1.73
4.98 1.92 1.74
4.98 2.04 1.76
5.00 2.16 1.78
5.37 2.45 1.93
5.45 2.62 1.98
5.72 2.90 2.11
5.75 3.06 2.15
5.26 2.94 1.99
5.13 3.00 1.96
5.04 3.09 1.96
4.97 3.19 1.96
5.03 3.37 2.01
4.95 3.46 2.01
4.94 3.61 2.04
4.87 3.71 2.04
4.83 3.83 2.06
4.78 3.96 2.07
4.86 4.19 2.14
4.92 4.42 2.22
5.22 4.88 2.39
5.11 4.98 2.39
5.00 5.08 2.39
4.89 5.17 2.39
4.78 5.26 2.39
4.67 5.35 2.39
4.56 5.44 2.39
4.44 5.53 2.39
4.33 5.61 2.39
4.21 5.69 2.39
4.09 5.77 2.39
3.97 5.85 2.39
3.84 5.92 2.39
3.72 6.00 2.39
3.60 6.07 2.39
3.47 6.13 2.39
3.34 6.20 2.39
3.22 6.26 2.39
3.09 6.32 2.39
2.96 6.38 2.39
2.83 6.44 2.39
2.69 6.49 2.39
2.57 6.56 2.40
2.43 6.59 2.39
2.30 6.67 2.41
2.25 6.97 2.50
2.11 7.01 2.50
1.96 7.05 2.50
1.82 7.09 2.50
1.68 7.13 2.50
1.53 7.16 2.50
1.39 7.19 2.50
1.24 7.21 2.50
1.09 7.24 2.50
0.95 7.26 2.50
0.80 7.28 2.50
0.65 7.30 2.50
0.50 7.31 2.50
0.36 7.32 2.50
0.21 7.33 2.50
0.06 7.33 2.50
-0.09 7.34 2.50
-0.24 7.34 2.50
-0.39 7.33 2.50
-0.54 7.33 2.50
-0.68 7.32 2.50
-0.83 7.31 2.50
-0.98 7.30 2.50
-1.13 7.28 2.50
-1.28 7.26 2.50
-1.43 7.24 2.50
-1.57 7.22 2.50
-1.72 7.19 2.50
-1.87 7.16 2.50
-2.01 7.13 2.50
-2.16 7.09 2.50
-2.31 7.05 2.50
-2.45 7.01 2.50
-2.59 6.97 2.50
-2.74 6.92 2.50
-2.88 6.87 2.50
-3.02 6.82 2.50
-3.16 6.77 2.50
-3.30 6.71 2.50
-3.44 6.65 2.50
-3.58 6.59 2.50
-3.72 6.52 2.50
-3.86 6.45 2.50
-3.99 6.38 2.50
-4.13 6.31 2.50
-4.26 6.24 2.50
-4.39 6.16 2.50
-4.52 6.08 2.50
-4.65 5.99 2.50
-4.78 5.91 2.50
-4.90 5.82 2.50
-5.03 5.73 2.50
-5.15 5.64 2.50
-5.27 5.54 2.50
-5.39 5.44 2.50
-5.51 5.34 2.50
-5.63 5.24 2.50
-5.74 5.13 2.50
-5.75 4.94 2.45
-5.75 4.74 2.41
-5.83 4.61 2.39
-5.93 4.50 2.40
-6.03 4.38 2.39
-6.13 4.27 2.39
-6.22 4.15 2.39
-6.32 4.04 2.39
-6.41 3.92 2.39
-6.50 3.79 2.39
-6.59 3.67 2.39
-6.68 3.54 2.39
-6.76 3.41 2.39
-6.84 3.28 2.39
-6.92 3.15 2.39
-7.00 3.02 2.39
-7.07 2.88 2.39
-7.14 2.75 2.39
-7.21 2.61 2.39
-7.28 2.47 2.39
-7.34 2.33 2.39
-7.40 2.18 2.39
-7.46 2.04 2.39
-7.52 1.89 2.39
-7.57 1.75 2.39
-7.62 1.60 2.39
-7.67 1.45 2.39
-7.71 1.30 2.39
-7.75 1.14 2.39
-7.79 0.99 2.39
-7.83 0.83 2.39
-7.86 0.68 2.39
-7.89 0.52 2.39
-7.91 0.37 2.39
-7.94 0.21 2.39
-7.96 0.05 2.39
-7.97 -0.11 2.39
-7.99 -0.27 2.39
-8.00 -0.43 2.39
-8.00 -0.59 2.39
-8.01 -0.75 2.39
-8.01 -0.92 2.39
-8.00 -1.08 2.39
-8.00 -1.24 2.39
-7.99 -1.40 2.39
-7.98 -1.57 2.39
-7.96 -1.73 2.39
-7.94 -1.89 2.39
-7.92 -2.05 2.39
-7.89 -2.22 2.39
-7.86 -2.38 2.39
-7.82 -2.54 2.39
-7.79 -2.70 2.39
-7.75 -2.86 2.39
-7.70 -3.02 2.39
-7.66 -3.18 2.39
-7.61 -3.34 2.39
-7.55 -3.50 2.39
-7.49 -3.65 2.39
-7.43 -3.81 2.39
-7.37 -3.96 2.39
-7.30 -4.12 2.39
-7.23 -4.27 2.39
-7.15 -4.42 2.39
-7.08 -4.57 2.39
-6.99 -4.72 2.39
-6.91 -4.86 2.39
-6.82 -5.01 2.39
-6.73 -5.15 2.39
-6.64 -5.29 2.39
-6.54 -5.43 2.39
-6.44 -5.57 2.39
-6.34 -5.70 2.39
-6.23 -5.84 2.39
-6.12 -5.97 2.39
-6.01 -6.10 2.39
-5.89 -6.22 2.39
-5.77 -6.35 2.39
-5.67 -6.48 2.40
-5.66 -6.73 2.45
-5.64 -6.99 2.50
-5.50 -7.11 2.50
-5.36 -7.22 2.50
-5.22 -7.34 2.50
-5.08 -7.45 2.50
-4.94 -7.55 2.50
-4.79 -7.65 2.50
-4.64 -7.75 2.50
-4.49 -7.85 2.50
-4.33 -7.94 2.50
-4.18 -8.03 2.50
-4.02 -8.12 2.50
-3.86 -8.20 2.50
-3.70 -8.28 2.50
-3.53 -8.36 2.50
-3.37 -8.43 2.50
-3.20 -8.50 2.50
-3.03 -8.56 2.50
-2.86 -8.63 2.50
-2.69 -8.68 2.50
-2.52 -8.74 2.50
-2.34 -8.79 2.50
-2.17 -8.83 2.50
-1.99 -8.87 2.50
-1.82 -8.91 2.50
-1.64 -8.95 2.50
-1.46 -8.98 2.50
-1.28 -9.00 2.50
-1.10 -9.02 2.50
-0.92 -9.04 2.50
-0.74 -9.05 2.50
-0.56 -9.06 2.50
-0.38 -9.07 2.50
-0.20 -9.07 2.50
-0.02 -8.33 2.50
0.15 -8.33 2.50
0.31 -8.32 2.50
0.48 -8.31 2.50
0.64 -8.29 2.50
0.81 -8.27 2.50
0.97 -8.25 2.50
1.13 -8.22 2.50
1.30 -8.19 2.50
1.46 -8.15 2.50
1.62 -8.12 2.50
1.78 -8.08 2.50
1.94 -8.03 2.50
2.09 -7.98 2.50
2.25 -7.93 2.50
2.40 -7.85 2.49
2.45 -7.50 2.39
2.61 -7.46 2.40
2.74 -7.38 2.39
2.89 -7.31 2.39
3.03 -7.24 2.39
3.17 -7.17 2.39
3.30 -7.10 2.39
3.44 -7.02 2.39
3.57 -6.94 2.39
3.71 -6.86 2.39
3.84 -6.77 2.39
2.63 -4.44 1.59
4.09 -6.60 2.39
4.22 -6.50 2.39
4.34 -6.41 2.39
4.46 -6.31 2.39
4.44 -6.03 2.33
4.37 -5.70 2.23
4.46 -5.58 2.22
4.56 -5.47 2.22
4.56 -5.25 2.17
4.58 -5.07 2.14
4.66 -4.95 2.13
4.75 -4.86 2.13
4.87 -4.78 2.15
4.36 -4.12 1.89
4.21 -3.81 1.79
4.22 -3.68 1.77
4.26 -3.56 1.76
4.30 -3.45 1.75
4.31 -3.32 1.73
4.30 -3.18 1.71
4.21 -2.98 1.65
4.17 -2.83 1.61
4.19 -2.72 1.60
4.22 -2.62 1.60
4.24 -2.52 1.59
4.23 -2.40 1.57
4.30 -2.33 1.58
4.42 -2.28 1.61
4.54 -2.23 1.64
4.58 -2.14 1.64
4.60 -2.03 1.64
4.61 -1.93 1.63
4.62 -1.83 1.63
4.65 -1.73 1.62
4.69 -1.64 1.63
4.74 -1.55 1.64
4.77 -1.46 1.64
4.73 -1.34 1.63
4.71 -1.23 1.61
4.70 -1.13 1.60
4.77 -1.05 1.62
4.83 -0.96 1.64
4.94 -0.88 1.67
5.05 -0.79 1.71
5.51 -0.75 1.87
5.54 -0.64 1.87
5.50 -0.53 1.86
5.47 -0.41 1.85
5.57 -0.31 1.88
5.54 -0.20 1.88
5.47 -0.08 1.85
5.45 0.03 1.85
5.45 0.14 1.86
5.31 0.24 1.81
5.27 0.34 1.80
5.26 0.45 1.81
5.24 0.56 1.81
5.22 0.66 1.81
5.19 0.76 1.81
5.16 0.86 1.81
5.14 0.97 1.81
5.13 1.07 1.82
5.16 1.19 1.84
5.22 1.31 1.87
5.14 1.40 1.85
5.08 1.50 1.85
5.02 1.59 1.84
4.97 1.69 1.84
4.92 1.78 1.84
4.89 1.88 1.84
4.85 1.98 1.84
4.92 2.13 1.89
5.38 2.46 2.09
5.32 2.56 2.09
5.42 2.74 2.15
5.71 3.03 2.29
5.14 2.87 2.09
5.09 2.97 2.09
5.02 3.07 2.09
4.95 3.17 2.10
5.00 3.35 2.15
4.93 3.44 2.15
4.93 3.60 2.18
4.87 3.71 2.19
4.83 3.83 2.21
4.76 3.94 2.22
4.75 4.10 2.26
4.79 4.30 2.32
4.85 4.54 2.39
4.75 4.63 2.39
4.65 4.72 2.39
4.55 4.81 2.39
4.45 4.89 2.39
4.35 4.98 2.39
4.24 5.06 2.39
4.13 5.14 2.39
4.03 5.22 2.39
3.92 5.30 2.39
3.81 5.37 2.39
3.69 5.44 2.39
3.58 5.51 2.39
3.46 5.58 2.39
3.35 5.65 2.39
3.23 5.71 2.39
3.11 5.77 2.39
2.99 5.83 2.39
2.87 5.89 2.39
2.75 5.94 2.39
2.63 5.99 2.39
2.51 6.04 2.39
2.38 6.09 2.39
2.30 6.24 2.43
2.23 6.44 2.50
2.09 6.49 2.50
1.96 6.53 2.50
1.83 6.56 2.50
1.70 6.60 2.50
1.56 6.63 2.50
1.43 6.66 2.50
1.29 6.69 2.50
1.15 6.72 2.50
1.02 6.74 2.50
0.88 6.76 2.50
0.74 6.78 2.50
0.61 6.79 2.50
0.47 6.80 2.50
0.33 6.81 2.50
0.19 6.82 2.50
0.05 6.83 2.50
-0.08 6.83 2.50
-0.22 6.83 2.50
-0.36 6.83 2.50
-0.50 6.82 2.50
-0.64 6.81 2.50
-0.78 6.80 2.50
-0.92 6.79 2.50
-1.05 6.77 2.50
-1.19 6.76 2.50
-1.33 6.74 2.50
-1.47 6.71 2.50
-1.60 6.69 2.50
-1.74 6.66 2.50
-1.88 6.63 2.50
-2.01 6.59 2.50
-2.15 6.56 2.50
-2.28 6.52 2.50
-2.42 6.48 2.50
-2.55 6.44 2.50
-2.68 6.39 2.50
-2.81 6.34 2.50
-2.94 6.29 2.50
-3.08 6.24 2.50
-3.20 6.18 2.50
-3.33 6.12 2.50
-3.46 6.06 2.50
-3.59 6.00 2.50
-3.71 5.93 2.50
-3.84 5.86 2.50
-3.96 5.79 2.50
-4.08 5.72 2.50
-4.20 5.64 2.50
-4.32 5.57 2.50
-4.44 5.49 2.50
-4.56 5.40 2.50
-4.67 5.32 2.50
-4.79 5.23 2.50
-4.90 5.14 2.50
-5.01 5.05 2.50
-5.12 4.96 2.50
-5.23 4.86 2.50
-5.33 4.76 2.50
-5.44 4.66 2.50
-5.54 4.56 2.50
-5.64 4.45 2.50
-5.74 4.35 2.50
-5.74 4.17 2.46
-5.75 4.00 2.42
-5.78 3.85 2.39
-5.86 3.74 2.39
-5.95 3.63 2.39
-6.03 3.51 2.39
-6.11 3.40 2.39
-6.19 3.28 2.39
-6.27 3.16 2.39
-6.34 3.04 2.39
-6.42 2.92 2.39
-6.49 2.79 2.39
-6.55 2.67 2.39
-6.62 2.54 2.39
-6.68 2.41 2.39
-6.74 2.28 2.39
-6.80 2.15 2.39
-6.86 2.02 2.39
-6.91 1.88 2.39
-6.96 1.75 2.39
-7.01 1.61 2.39
-7.05 1.47 2.39
-7.10 1.33 2.39
-7.13 1.19 2.39
-7.17 1.05 2.39
-7.21 0.91 2.39
-7.24 0.77 2.39
-7.27 0.62 2.39
-7.29 0.48 2.39
-7.32 0.33 2.39
-7.34 0.19 2.39
-7.35 0.04 2.39
-7.37 -0.11 2.39
-7.38 -0.26 2.39
-7.39 -0.40 2.39
-7.39 -0.55 2.39
-7.39 -0.70 2.39
-7.39 -0.85 2.39
-7.39 -1.00 2.39
-7.38 -1.15 2.39
-7.37 -1.30 2.39
-7.36 -1.45 2.39
-7.34 -1.60 2.39
-7.32 -1.75 2.39
-7.30 -1.90 2.39
-7.27 -2.05 2.39
-7.25 -2.20 2.39
-7.21 -2.35 2.39
-7.18 -2.50 2.39
-7.14 -2.64 2.39
-7.10 -2.79 2.39
-7.05 -2.94 2.39
-7.01 -3.08 2.39
-6.96 -3.23 2.39
-6.90 -3.37 2.39
-6.84 -3.51 2.39
-6.78 -3.65 2.39
-6.72 -3.80 2.39
-6.65 -3.94 2.39
-6.58 -4.07 2.39
-6.51 -4.21 2.39
-6.44 -4.35 2.39
-6.36 -4.48 2.39
-6.28 -4.61 2.39
-6.19 -4.74 2.39
-6.11 -4.87 2.39
-6.02 -5.00 2.39
-5.92 -5.13 2.39
-5.83 -5.25 2.39
-5.73 -5.37 2.39
-5.67 -5.53 2.41
-5.66 -5.75 2.45
-5.65 -5.97 2.50
-5.54 -6.09 2.50
-5.42 -6.20 2.50
-5.30 -6.32 2.50
-5.18 -6.43 2.50
-5.06 -6.54 2.50
-4.93 -6.64 2.50
-4.80 -6.74 2.50
-4.67 -6.84 2.50
-4.54 -6.94 2.50
-4.40 -7.04 2.50
-4.26 -7.13 2.50
-4.12 -7.22 2.50
-3.98 -7.30 2.50
-3.84 -7.38 2.50
-3.69 -7.46 2.50
-3.54 -7.54 2.50
-3.40 -7.61 2.50
-3.24 -7.68 2.50
-3.09 -7.75 2.50
-2.94 -7.81 2.50
-2.78 -7.87 2.50
-2.63 -7.92 2.50
-2.47 -7.98 2.50
-2.31 -8.02 2.50
-2.15 -8.07 2.50
-1.99 -8.11 2.50
-1.83 -8.15 2.50
-1.67 -8.18 2.50
-1.50 -8.22 2.50
-1.34 -8.24 2.50
-1.18 -8.27 2.50
-1.01 -8.29 2.50
-0.85 -8.30 2.50
-0.68 -8.32 2.50
-0.52 -8.33 2.50
-0.35 -8.33 2.50
-0.18 -8.33 2.50
-0.02 -7.70 2.50
0.14 -7.69 2.50
0.29 -7.68 2.50
0.44 -7.67 2.50
0.59 -7.66 2.50
0.74 -7.64 2.50
0.90 -7.62 2.50
1.05 -7.59 2.50
1.20 -7.57 2.50
1.34 -7.54 2.50
1.49 -7.50 2.50
1.64 -7.46 2.50
1.79 -7.42 2.50
1.93 -7.38 2.50
2.08 -7.33 2.50
2.22 -7.28 2.50
2.36 -7.23 2.50
2.40 -6.89 2.40
2.53 -6.82 2.39
2.67 -6.76 2.39
2.80 -6.70 2.39
2.93 -6.63 2.39
3.05 -6.57 2.39
3.18 -6.50 2.39
3.30 -6.42 2.39
3.43 -6.35 2.39
3.55 -6.27 2.39
2.63 -4.44 1.72
3.78 -6.11 2.39
3.90 -6.02 2.39
4.01 -5.93 2.39
4.12 -5.85 2.39
4.23 -5.75 2.39
4.34 -5.66 2.39
4.45 -5.56 2.39
4.54 -5.45 2.39
4.49 -5.19 2.31
4.54 -5.03 2.29
4.61 -4.91 2.28
4.70 -4.81 2.28
4.81 -4.73 2.29
4.29 -4.05 2.01
4.21 -3.82 1.94
4.23 -3.69 1.91
4.25 -3.56 1.89
4.18 -3.36 1.84
4.09 -3.15 1.77
4.01 -2.97 1.71
4.00 -2.84 1.69
4.02 -2.73 1.68
4.04 -2.63 1.67
4.07 -2.53 1.66
4.09 -2.44 1.65
4.12 -2.34 1.65
4.19 -2.27 1.66
4.30 -2.22 1.69
4.42 -2.17 1.72
4.53 -2.12 1.75
4.57 -2.02 1.75
4.58 -1.92 1.75
4.59 -1.82 1.74
4.61 -1.72 1.74
4.71 -1.65 1.76
4.79 -1.57 1.78
4.77 -1.46 1.77
4.71 -1.34 1.74
4.65 -1.22 1.71
4.62 -1.12 1.70
4.70 -1.03 1.72
4.78 -0.95 1.75
4.87 -0.87 1.78
4.99 -0.79 1.82
5.08 -0.70 1.85
5.39 -0.63 1.96
5.36 -0.52 1.95
5.34 -0.41 1.94
5.45 -0.31 1.98
5.67 -0.20 2.07
5.44 -0.09 1.99
5.43 0.02 1.98
5.43 0.13 1.99
5.25 0.23 1.93
5.22 0.34 1.92
5.19 0.44 1.91
5.16 0.54 1.91
5.16 0.65 1.92
5.15 0.75 1.92
5.15 0.86 1.93
5.13 0.96 1.94
5.14 1.07 1.95
5.17 1.19 1.97
5.26 1.32 2.02
5.19 1.41 2.01
5.12 1.51 2.00
5.05 1.60 1.99
4.99 1.69 1.98
4.92 1.78 1.97
4.87 1.87 1.97
4.80 1.96 1.96
4.82 2.08 1.99
4.97 2.27 2.07
5.09 2.45 2.14
5.21 2.63 2.22
5.53 2.93 2.38
5.10 2.84 2.22
5.04 2.94 2.22
5.00 3.06 2.24
4.95 3.16 2.24
4.93 3.30 2.27
4.90 3.42 2.29
4.94 3.60 2.34
4.88 3.71 2.35
4.81 3.81 2.36
4.73 3.91 2.36
4.69 4.04 2.39
4.62 4.14 2.39
4.53 4.23 2.39
4.44 4.32 2.39
4.35 4.40 2.39
4.25 4.49 2.39
4.16 4.57 2.39
4.06 4.65 2.39
3.96 4.72 2.39
3.86 4.80 2.39
3.76 4.87 2.39
3.66 4.94 2.39
3.56 5.01 2.39
3.45 5.08 2.39
3.34 5.15 2.39
3.24 5.21 2.39
3.13 5.27 2.39
3.02 5.33 2.39
2.91 5.39 2.39
2.80 5.44 2.39
2.69 5.50 2.39
2.58 5.56 2.40
2.46 5.60 2.39
2.34 5.64 2.39
2.29 5.84 2.46
2.20 5.98 2.50
2.08 6.02 2.50
1.96 6.06 2.50
1.83 6.10 2.50
1.71 6.13 2.50
1.58 6.17 2.50
1.46 6.20 2.50
1.33 6.23 2.50
1.21 6.25 2.50
1.08 6.27 2.50
0.95 6.30 2.50
0.82 6.31 2.50
0.69 6.33 2.50
0.57 6.35 2.50
0.44 6.36 2.50
0.31 6.37 2.50
0.18 6.37 2.50
0.05 6.38 2.50
-0.08 6.38 2.50
-0.21 6.38 2.50
-0.34 6.38 2.50
-0.47 6.37 2.50
-0.60 6.36 2.50
-0.73 6.35 2.50
-0.86 6.34 2.50
-0.99 6.33 2.50
-1.11 6.31 2.50
-1.24 6.29 2.50
-1.37 6.27 2.50
-1.50 6.24 2.50
-1.63 6.22 2.50
-1.75 6.19 2.50
-1.88 6.16 2.50
-2.01 6.12 2.50
-2.13 6.09 2.50
-2.26 6.05 2.50
-2.38 6.01 2.50
-2.51 5.96 2.50
-2.63 5.92 2.50
-2.75 5.87 2.50
-2.87 5.82 2.50
-2.99 5.77 2.50
-3.11 5.71 2.50
-3.23 5.65 2.50
-3.35 5.60 2.50
-3.47 5.53 2.50
-3.58 5.47 2.50
-3.70 5.40 2.50
-3.81 5.33 2.50
-3.92 5.26 2.50
-4.04 5.19 2.50
-4.15 5.11 2.50
-4.25 5.04 2.50
-4.36 4.96 2.50
-4.47 4.88 2.50
-4.57 4.79 2.50
-4.67 4.71 2.50
-4.78 4.62 2.50
-4.88 4.53 2.50
-4.97 4.44 2.50
-5.07 4.34 2.50
-5.17 4.24 2.50
-5.26 4.15 2.50
-5.35 4.05 2.50
-5.44 3.94 2.50
-5.53 3.84 2.50
-5.61 3.73 2.50
-5.70 3.63 2.50
-5.74 3.49 2.48
-5.74 3.34 2.45
-5.74 3.19 2.42
-5.77 3.05 2.39
-5.84 2.94 2.39
-5.91 2.82 2.39
-5.97 2.71 2.39
-6.04 2.59 2.39
-6.10 2.48 2.39
-6.16 2.36 2.39
-6.22 2.24 2.39
-6.27 2.12 2.39
-6.33 1.99 2.39
-6.38 1.87 2.39
-6.43 1.75 2.39
-6.47 1.62 2.39
-6.52 1.49 2.39
-6.56 1.36 2.39
-6.60 1.23 2.39
-6.63 1.10 2.39
-6.67 0.97 2.39
-6.70 0.84 2.39
-6.72 0.71 2.39
-6.75 0.57 2.39
-6.77 0.44 2.39
-6.79 0.30 2.39
-6.81 0.17 2.39
-6.83 0.03 2.39
-6.84 -0.11 2.39
-6.85 -0.24 2.39
-6.86 -0.38 2.39
-6.86 -0.52 2.39
-6.86 -0.66 2.39
-6.86 -0.80 2.39
-6.85 -0.93 2.39
-6.85 -1.07 2.39
-6.84 -1.21 2.39
-6.82 -1.35 2.39
-6.81 -1.49 2.39
-6.79 -1.63 2.39
-6.77 -1.77 2.39
-6.74 -1.90 2.39
-6.71 -2.04 2.39
-6.68 -2.18 2.39
-6.65 -2.32 2.39
-6.61 -2.45 2.39
-6.58 -2.59 2.39
-6.53 -2.72 2.39
-6.49 -2.86 2.39
-6.44 -2.99 2.39
-6.39 -3.12 2.39
-6.34 -3.26 2.39
-6.28 -3.39 2.39
-6.22 -3.52 2.39
-6.16 -3.65 2.39
-6.09 -3.77 2.39
-6.03 -3.90 2.39
-5.96 -4.02 2.39
-5.88 -4.15 2.39
-5.81 -4.27 2.39
-5.73 -4.39 2.39
-5.68 -4.53 2.41
-5.67 -4.72 2.44
-5.67 -4.91 2.48
-5.62 -5.07 2.50
-5.52 -5.18 2.50
-5.43 -5.30 2.50
-5.33 -5.41 2.50
-5.22 -5.52 2.50
-5.12 -5.63 2.50
-5.01 -5.74 2.50
-4.90 -5.84 2.50
-4.79 -5.94 2.50
-4.67 -6.04 2.50
-4.55 -6.14 2.50
-4.43 -6.23 2.50
-4.31 -6.33 2.50
-4.19 -6.42 2.50
-4.06 -6.50 2.50
-3.94 -6.59 2.50
-3.81 -6.67 2.50
-3.68 -6.75 2.50
-3.54 -6.82 2.50
-3.41 -6.89 2.50
-3.27 -6.96 2.50
-3.14 -7.03 2.50
-3.00 -7.09 2.50
-2.86 -7.16 2.50
-2.71 -7.21 2.50
-2.57 -7.27 2.50
-2.43 -7.32 2.50
-2.28 -7.37 2.50
-2.13 -7.41 2.50
-1.99 -7.45 2.50
-1.84 -7.49 2.50
-1.69 -7.53 2.50
-1.54 -7.56 2.50
-1.39 -7.59 2.50
-1.24 -7.61 2.50
-1.09 -7.64 2.50
-0.93 -7.66 2.50
-0.78 -7.67 2.50
-0.63 -7.68 2.50
-0.48 -7.69 2.50
-0.32 -7.70 2.50
-0.17 -7.70 2.50
-0.02 -7.15 2.50
0.12 -7.14 2.50
0.27 -7.13 2.50
0.41 -7.12 2.50
0.55 -7.11 2.50
0.69 -7.09 2.50
0.83 -7.07 2.50
0.97 -7.05 2.50
1.11 -7.03 2.50
1.25 -7.00 2.50
1.38 -6.97 2.50
1.52 -6.93 2.50
1.66 -6.89 2.50
1.79 -6.85 2.50
1.93 -6.81 2.50
2.06 -6.77 2.50
2.19 -6.72 2.50
2.32 -6.67 2.50
2.39 -6.45 2.44
2.47 -6.28 2.39
2.60 -6.24 2.40
2.72 -6.17 2.39
2.83 -6.10 2.39
2.95 -6.04 2.39
3.07 -5.97 2.39
3.18 -5.90 2.39
3.29 -5.83 2.39
2.63 -4.45 1.85
3.51 -5.68 2.39
3.62 -5.60 2.39
3.73 -5.52 2.39
3.83 -5.44 2.39
3.93 -5.35 2.39
4.03 -5.27 2.39
4.13 -5.18 2.39
4.23 -5.09 2.39
4.32 -4.99 2.39
4.41 -4.90 2.39
4.50 -4.80 2.39
4.59 -4.70 2.39
4.68 -4.60 2.39
4.20 -3.97 2.11
4.05 -3.68 2.00
3.98 -3.48 1.94
3.92 -3.29 1.88
3.87 -3.11 1.83
3.82 -2.95 1.78
3.84 -2.85 1.76
3.86 -2.74 1.75
3.87 -2.64 1.74
3.90 -2.54 1.73
3.93 -2.45 1.72
3.98 -2.37 1.73
4.03 -2.30 1.73
4.10 -2.23 1.74
4.19 -2.17 1.77
4.30 -2.12 1.80
4.42 -2.07 1.83
4.51 -2.00 1.86
4.56 -1.92 1.87
4.57 -1.82 1.86
4.59 -1.72 1.85
4.71 -1.65 1.89
4.78 -1.57 1.91
4.72 -1.45 1.88
4.66 -1.33 1.85
4.60 -1.21 1.82
4.56 -1.10 1.80
4.65 -1.03 1.83
4.74 -0.95 1.86
4.79 -0.86 1.87
4.90 -0.78 1.91
5.02 -0.69 1.95
5.07 -0.60 1.98
5.21 -0.51 2.03
5.22 -0.40 2.03
5.34 -0.30 2.08
5.60 -0.21 2.18
5.45 -0.09 2.13
5.41 0.02 2.12
5.40 0.13 2.11
5.22 0.23 2.05
5.18 0.33 2.04
5.14 0.43 2.03
5.09 0.53 2.02
5.09 0.64 2.03
5.10 0.74 2.04
5.10 0.85 2.05
5.10 0.95 2.06
5.11 1.06 2.08
5.15 1.18 2.11
5.35 1.34 2.20
5.24 1.42 2.17
5.17 1.52 2.16
5.05 1.59 2.12
4.96 1.68 2.10
4.89 1.77 2.09
4.83 1.85 2.08
4.76 1.94 2.07
4.79 2.06 2.10
4.86 2.21 2.16
4.96 2.38 2.23
5.00 2.53 2.27
5.21 2.76 2.39
5.06 2.81 2.35
4.96 2.90 2.34
4.92 3.01 2.35
4.92 3.14 2.38
4.87 3.25 2.39
4.80 3.35 2.39
4.73 3.44 2.39
4.65 3.53 2.39
4.57 3.62 2.39
4.49 3.71 2.39
4.41 3.79 2.39
4.33 3.88 2.39
4.25 3.96 2.39
4.16 4.04 2.39
4.07 4.12 2.39
3.99 4.20 2.39
3.90 4.28 2.39
3.81 4.35 2.39
3.71 4.42 2.39
3.62 4.50 2.39
3.53 4.56 2.39
3.43 4.63 2.39
3.33 4.70 2.39
3.23 4.76 2.39
3.14 4.82 2.39
3.04 4.88 2.39
2.93 4.94 2.39
2.83 5.00 2.39
2.73 5.05 2.39
2.62 5.10 2.39
2.56 5.23 2.43
2.41 5.20 2.39
2.31 5.27 2.40
2.28 5.50 2.49
2.18 5.56 2.50
2.07 5.60 2.50
1.95 5.64 2.50
1.83 5.68 2.50
1.72 5.72 2.50
1.60 5.75 2.50
1.48 5.78 2.50
1.37 5.81 2.50
1.25 5.84 2.50
1.13 5.86 2.50
1.01 5.88 2.50
0.89 5.90 2.50
0.77 5.92 2.50
0.65 5.93 2.50
0.53 5.95 2.50
0.41 5.96 2.50
0.29 5.97 2.50
0.17 5.97 2.50
0.05 5.98 2.50
-0.08 5.98 2.50
-0.20 5.98 2.50
-0.32 5.98 2.50
-0.44 5.97 2.50
-0.56 5.96 2.50
-0.68 5.95 2.50
-0.80 5.94 2.50
-0.93 5.93 2.50
-1.05 5.91 2.50
-1.17 5.89 2.50
-1.29 5.87 2.50
-1.41 5.85 2.50
-1.53 5.83 2.50
-1.65 5.80 2.50
-1.76 5.77 2.50
-1.88 5.74 2.50
-2.00 5.70 2.50
-2.12 5.67 2.50
-2.23 5.63 2.50
-2.35 5.59 2.50
-2.47 5.54 2.50
-2.58 5.50 2.50
-2.69 5.45 2.50
-2.81 5.40 2.50
-2.92 5.35 2.50
-3.03 5.29 2.50
-3.14 5.24 2.50
-3.25 5.18 2.50
-3.36 5.12 2.50
-3.46 5.06 2.50
-3.57 4.99 2.50
-3.68 4.92 2.50
-3.78 4.86 2.50
-3.88 4.78 2.50
-3.98 4.71 2.50
-4.08 4.64 2.50
-4.18 4.56 2.50
-4.28 4.48 2.50
-4.38 4.40 2.50
-4.47 4.32 2.50
-4.56 4.23 2.50
-4.66 4.15 2.50
-4.75 4.06 2.50
-4.83 3.97 2.50
-4.92 3.87 2.50
-5.01 3.78 2.50
-5.09 3.68 2.50
-5.17 3.59 2.50
-5.25 3.49 2.50
-5.33 3.39 2.50
-5.41 3.28 2.50
-5.48 3.18 2.50
-5.55 3.07 2.50
-5.62 2.97 2.50
-5.69 2.86 2.50
-5.71 2.73 2.48
-5.71 2.59 2.45
-5.71 2.45 2.43
-5.72 2.32 2.40
-5.75 2.20 2.39
-5.81 2.09 2.39
-5.86 1.97 2.39
-5.91 1.86 2.39
-5.95 1.74 2.39
-6.00 1.62 2.39
-6.04 1.51 2.39
-6.08 1.39 2.39
-6.12 1.27 2.39
-6.16 1.15 2.39
-6.19 1.02 2.39
-6.22 0.90 2.39
-6.25 0.78 2.39
-6.27 0.65 2.39
-6.30 0.53 2.39
-6.32 0.40 2.39
-6.34 0.28 2.39
-6.35 0.15 2.39
-6.36 0.02 2.39
-6.38 -0.10 2.39
-6.38 -0.23 2.39
-6.39 -0.36 2.39
-6.39 -0.49 2.39
-6.39 -0.62 2.39
-6.39 -0.75 2.39
-6.39 -0.87 2.39
-6.38 -1.00 2.39
-6.37 -1.13 2.39
-6.35 -1.26 2.39
-6.34 -1.39 2.39
-6.32 -1.52 2.39
-6.30 -1.65 2.39
-6.28 -1.78 2.39
-6.25 -1.91 2.39
-6.22 -2.03 2.39
-6.19 -2.16 2.39
-6.15 -2.29 2.39
-6.12 -2.41 2.39
-6.08 -2.54 2.39
-6.03 -2.66 2.39
-5.99 -2.79 2.39
-5.94 -2.91 2.39
-5.89 -3.03 2.39
-5.84 -3.15 2.39
-5.78 -3.27 2.39
-5.72 -3.39 2.39
-5.68 -3.52 2.40
-5.68 -3.68 2.43
-5.67 -3.84 2.45
-5.67 -4.00 2.48
-5.63 -4.14 2.50
-5.55 -4.26 2.50
-5.47 -4.37 2.50
-5.39 -4.49 2.50
-5.31 -4.60 2.50
-5.22 -4.71 2.50
-5.13 -4.82 2.50
-5.04 -4.92 2.50
-4.94 -5.03 2.50
-4.85 -5.13 2.50
-4.75 -5.23 2.50
-4.65 -5.33 2.50
-4.55 -5.43 2.50
-4.44 -5.52 2.50
-4.34 -5.61 2.50
-4.23 -5.70 2.50
-4.12 -5.79 2.50
-4.00 -5.88 2.50
-3.89 -5.96 2.50
-3.77 -6.04 2.50
-3.65 -6.12 2.50
-3.53 -6.19 2.50
-3.41 -6.26 2.50
-3.29 -6.33 2.50
-3.16 -6.40 2.50
-3.04 -6.46 2.50
-2.91 -6.53 2.50
-2.78 -6.59 2.50
-2.65 -6.64 2.50
-2.52 -6.70 2.50
-2.39 -6.75 2.50
-2.25 -6.79 2.50
-2.12 -6.84 2.50
-1.98 -6.88 2.50
-1.84 -6.92 2.50
-1.71 -6.95 2.50
-1.57 -6.99 2.50
-1.43 -7.02 2.50
-1.29 -7.04 2.50
-1.15 -7.07 2.50
-1.01 -7.09 2.50
-0.87 -7.11 2.50
-0.73 -7.12 2.50
-0.59 -7.13 2.50
-0.44 -7.14 2.50
-0.30 -7.14 2.50
-0.16 -7.15 2.50
-0.02 -6.66 2.50
0.11 -6.66 2.50
0.25 -6.65 2.50
0.38 -6.64 2.50
0.51 -6.63 2.50
0.64 -6.61 2.50
0.77 -6.60 2.50
0.90 -6.57 2.50
1.03 -6.55 2.50
1.16 -6.52 2.50
1.29 -6.50 2.50
1.42 -6.46 2.50
1.54 -6.43 2.50
1.67 -6.39 2.50
1.79 -6.35 2.50
1.92 -6.31 2.50
2.04 -6.27 2.50
2.16 -6.22 2.50
2.28 -6.17 2.50
2.39 -6.07 2.48
2.42 -5.81 2.39
2.53 -5.75 2.39
2.64 -5.70 2.39
2.75 -5.64 2.39
2.86 -5.57 2.39
2.97 -5.51 2.39
3.07 -5.44 2.39
2.63 -4.45 1.98
3.28 -5.30 2.39
3.38 -5.23 2.39
3.48 -5.15 2.39
3.57 -5.08 2.39
3.67 -5.00 2.39
3.76 -4.92 2.39
3.85 -4.84 2.39
3.94 -4.75 2.39
4.03 -4.66 2.39
4.12 -4.58 2.39
4.20 -4.49 2.39
4.29 -4.40 2.39
4.37 -4.30 2.39
3.96 -3.75 2.13
3.84 -3.50 2.03
3.80 -3.32 1.98
3.75 -3.15 1.92
3.71 -2.99 1.88
3.72 -2.88 1.86
3.73 -2.77 1.84
3.74 -2.67 1.82
3.75 -2.56 1.80
3.80 -2.48 1.80
3.85 -2.41 1.81
3.90 -2.33 1.81
3.96 -2.26 1.82
4.02 -2.19 1.83
4.10 -2.13 1.85
4.19 -2.07 1.87
4.30 -2.02 1.91
4.40 -1.96 1.94
4.49 -1.89 1.96
4.56 -1.81 1.98
4.57 -1.71 1.97
4.67 -1.65 2.01
4.73 -1.56 2.02
4.67 -1.44 1.99
4.61 -1.32 1.95
4.57 -1.21 1.93
4.55 -1.11 1.91
4.65 -1.03 1.95
4.70 -0.94 1.97
4.75 -0.86 1.98
4.81 -0.77 2.00
4.92 -0.68 2.05
4.99 -0.59 2.07
5.03 -0.49 2.09
5.14 -0.40 2.13
5.25 -0.30 2.18
5.52 -0.21 2.30
5.75 -0.10 2.39
5.51 0.01 2.30
5.41 0.12 2.26
5.21 0.22 2.18
5.13 0.32 2.16
5.10 0.43 2.15
5.06 0.52 2.14
5.06 0.63 2.15
5.07 0.73 2.16
5.07 0.84 2.17
5.07 0.94 2.18
5.09 1.05 2.20
5.14 1.17 2.24
5.43 1.35 2.38
5.35 1.45 2.36
5.16 1.51 2.29
5.00 1.57 2.24
4.92 1.66 2.22
4.86 1.75 2.21
4.80 1.84 2.21
4.76 1.93 2.21
4.75 2.04 2.22
4.78 2.17 2.26
4.82 2.31 2.30
4.85 2.44 2.35
4.89 2.59 2.39
4.83 2.69 2.39
4.77 2.78 2.39
4.71 2.87 2.39
4.64 2.96 2.39
4.58 3.05 2.39
4.51 3.14 2.39
4.44 3.23 2.39
4.37 3.31 2.39
4.30 3.40 2.39
4.22 3.48 2.39
4.15 3.56 2.39
4.07 3.64 2.39
3.99 3.72 2.39
3.91 3.80 2.39
3.83 3.87 2.39
3.75 3.95 2.39
3.66 4.02 2.39
3.58 4.09 2.39
3.49 4.16 2.39
3.40 4.22 2.39
3.31 4.29 2.39
3.22 4.35 2.39
3.13 4.41 2.39
3.04 4.47 2.39
2.95 4.53 2.39
2.85 4.59 2.39
2.76 4.64 2.39
2.66 4.69 2.39
2.58 4.77 2.41
2.47 4.79 2.39
2.37 4.84 2.39
2.30 4.97 2.43
2.26 5.14 2.50
2.16 5.19 2.50
2.05 5.23 2.50
1.94 5.27 2.50
1.83 5.30 2.50
1.73 5.34 2.50
1.62 5.37 2.50
1.51 5.40 2.50
1.40 5.43 2.50
1.29 5.46 2.50
1.17 5.48 2.50
1.06 5.51 2.50
0.95 5.53 2.50
0.84 5.55 2.50
0.72 5.56 2.50
0.61 5.58 2.50
0.50 5.59 2.50
0.38 5.60 2.50
0.27 5.61 2.50
0.16 5.61 2.50
0.04 5.62 2.50
-0.07 5.62 2.50
-0.19 5.62 2.50
-0.30 5.62 2.50
-0.42 5.61 2.50
-0.53 5.61 2.50
-0.64 5.60 2.50
-0.76 5.59 2.50
-0.87 5.57 2.50
-0.98 5.56 2.50
-1.10 5.54 2.50
-1.21 5.52 2.50
-1.32 5.50 2.50
-1.44 5.47 2.50
-1.55 5.45 2.50
-1.66 5.42 2.50
-1.77 5.39 2.50
-1.88 5.36 2.50
-1.99 5.32 2.50
-2.10 5.28 2.50
-2.21 5.25 2.50
-2.32 5.21 2.50
-2.43 5.16 2.50
-2.53 5.12 2.50
-2.64 5.07 2.50
-2.74 5.02 2.50
-2.85 4.97 2.50
-2.95 4.92 2.50
-3.05 4.86 2.50
-3.16 4.80 2.50
-3.26 4.75 2.50
-3.36 4.68 2.50
-3.45 4.62 2.50
-3.55 4.56 2.50
-3.65 4.49 2.50
-3.74 4.42 2.50
-3.84 4.35 2.50
-3.93 4.28 2.50
-4.02 4.20 2.50
-4.11 4.13 2.50
-4.20 4.05 2.50
-4.29 3.97 2.50
-4.37 3.89 2.50
-4.45 3.80 2.50
-4.54 3.72 2.50
-4.62 3.63 2.50
-4.70 3.54 2.50
-4.78 3.45 2.50
-4.85 3.36 2.50
-4.93 3.27 2.50
-5.00 3.17 2.50
-5.07 3.08 2.50
-5.14 2.98 2.50
-5.21 2.88 2.50
-5.27 2.78 2.50
-5.34 2.68 2.50
-5.40 2.57 2.50
-5.46 2.47 2.50
-5.52 2.36 2.50
-5.57 2.25 2.50
-5.63 2.14 2.50
-5.68 2.03 2.50
-5.71 1.92 2.49
-5.71 1.79 2.47
-5.71 1.66 2.45
-5.71 1.54 2.43
-5.71 1.42 2.42
-5.71 1.30 2.40
-5.73 1.18 2.39
-5.76 1.07 2.39
-5.79 0.95 2.39
-5.82 0.84 2.39
-5.85 0.72 2.39
-5.89 0.61 2.40
-5.89 0.49 2.39
-5.91 0.37 2.39
-5.93 0.26 2.39
-5.94 0.14 2.39
-5.95 0.02 2.39
-5.96 -0.10 2.39
-5.97 -0.22 2.39
-5.98 -0.34 2.39
-5.98 -0.46 2.39
-5.98 -0.58 2.39
-5.97 -0.70 2.39
-5.97 -0.82 2.39
-5.96 -0.94 2.39
-5.95 -1.06 2.39
-5.94 -1.18 2.39
-5.92 -1.30 2.39
-5.91 -1.43 2.39
-5.89 -1.55 2.39
-5.88 -1.67 2.40
-5.84 -1.78 2.39
-5.81 -1.90 2.39
-5.78 -2.02 2.39
-5.75 -2.14 2.39
-5.71 -2.26 2.39
-5.69 -2.38 2.40
-5.69 -2.51 2.42
-5.68 -2.65 2.43
-5.68 -2.79 2.45
-5.68 -2.93 2.47
-5.68 -3.07 2.49
-5.63 -3.19 2.50
-5.57 -3.31 2.50
-5.51 -3.42 2.50
-5.45 -3.54 2.50
-5.39 -3.65 2.50
-5.32 -3.76 2.50
-5.25 -3.87 2.50
-5.18 -3.98 2.50
-5.10 -4.08 2.50
-5.03 -4.19 2.50
-4.95 -4.29 2.50
-4.87 -4.40 2.50
-4.78 -4.50 2.50
-4.70 -4.60 2.50
-4.61 -4.69 2.50
-4.52 -4.79 2.50
-4.43 -4.88 2.50
-4.33 -4.97 2.50
-4.24 -5.06 2.50
-4.14 -5.15 2.50
-4.04 -5.24 2.50
-3.94 -5.32 2.50
-3.84 -5.40 2.50
-3.73 -5.48 2.50
-3.62 -5.56 2.50
-3.51 -5.63 2.50
-3.40 -5.70 2.50
-3.29 -5.77 2.50
-3.18 -5.84 2.50
-3.06 -5.90 2.50
-2.95 -5.97 2.50
-2.83 -6.03 2.50
-2.71 -6.08 2.50
-2.59 -6.14 2.50
-2.47 -6.19 2.50
-2.35 -6.24 2.50
-2.22 -6.29 2.50
-2.10 -6.33 2.50
-1.97 -6.37 2.50
-1.85 -6.41 2.50
-1.72 -6.45 2.50
-1.59 -6.48 2.50
-1.46 -6.51 2.50
-1.33 -6.54 2.50
-1.20 -6.56 2.50
-1.07 -6.59 2.50
-0.94 -6.61 2.50
-0.81 -6.62 2.50
-0.68 -6.64 2.50
-0.55 -6.65 2.50
-0.41 -6.65 2.50
-0.28 -6.66 2.50
-0.15 -6.66 2.50
-0.02 -6.23 2.50
0.11 -6.23 2.50
0.23 -6.22 2.50
0.35 -6.21 2.50
0.48 -6.20 2.50
0.60 -6.19 2.50
0.72 -6.17 2.50
0.84 -6.15 2.50
0.96 -6.13 2.50
1.08 -6.10 2.50
1.20 -6.08 2.50
1.32 -6.05 2.50
1.44 -6.02 2.50
1.56 -5.98 2.50
1.68 -5.95 2.50
1.79 -5.91 2.50
1.91 -5.86 2.50
2.02 -5.82 2.50
2.14 -5.77 2.50
2.25 -5.72 2.50
2.36 -5.67 2.50
2.39 -5.44 2.42
2.47 -5.33 2.39
2.59 -5.31 2.41
2.67 -5.22 2.39
2.77 -5.16 2.39
2.87 -5.10 2.39
2.97 -5.03 2.39
3.07 -4.97 2.39
3.16 -4.90 2.39
3.25 -4.83 2.39
3.34 -4.76 2.39
3.43 -4.68 2.39
3.52 -4.61 2.39
3.61 -4.53 2.39
3.69 -4.45 2.39
3.78 -4.37 2.39
3.86 -4.29 2.39
3.94 -4.21 2.39
4.01 -4.12 2.39
4.09 -4.04 2.39
3.92 -3.72 2.26
3.73 -3.40 2.11
3.66 -3.20 2.03
3.62 -3.04 1.98
3.62 -2.92 1.95
3.63 -2.82 1.93
3.65 -2.71 1.91
3.66 -2.61 1.89
3.67 -2.51 1.88
3.73 -2.44 1.88
3.78 -2.37 1.89
3.83 -2.29 1.90
3.88 -2.22 1.90
3.94 -2.15 1.91
4.02 -2.09 1.93
4.10 -2.03 1.95
4.19 -1.97 1.98
4.29 -1.91 2.01
4.38 -1.85 2.04
4.47 -1.78 2.07
4.55 -1.71 2.09
4.64 -1.64 2.12
4.70 -1.55 2.14
4.63 -1.43 2.10
4.60 -1.32 2.07
4.57 -1.21 2.05
4.55 -1.11 2.04
4.61 -1.03 2.06
4.66 -0.94 2.07
4.70 -0.85 2.09
4.75 -0.76 2.11
4.79 -0.67 2.12
4.85 -0.58 2.15
4.91 -0.49 2.17
5.01 -0.39 2.22
5.17 -0.30 2.29
5.41 -0.21 2.39
5.40 -0.10 2.39
5.39 0.01 2.39
5.38 0.12 2.39
5.33 0.22 2.38
5.22 0.33 2.33
5.16 0.43 2.31
5.10 0.52 2.29
5.09 0.63 2.30
5.07 0.73 2.30
5.07 0.83 2.31
5.06 0.94 2.32
5.09 1.05 2.34
5.17 1.18 2.39
5.14 1.28 2.39
5.10 1.38 2.39
5.07 1.48 2.39
5.01 1.57 2.38
4.92 1.66 2.36
4.86 1.74 2.35
4.81 1.84 2.35
4.76 1.93 2.34
4.70 2.02 2.34
4.71 2.14 2.37
4.71 2.25 2.39
4.66 2.34 2.39
4.61 2.44 2.39
4.55 2.53 2.39
4.49 2.61 2.39
4.43 2.70 2.39
4.37 2.79 2.39
4.31 2.87 2.39
4.25 2.96 2.39
4.18 3.04 2.39
4.12 3.12 2.39
4.05 3.20 2.39
3.98 3.28 2.39
3.91 3.35 2.39
3.83 3.43 2.39
3.76 3.50 2.39
3.68 3.57 2.39
3.61 3.65 2.39
3.53 3.71 2.39
3.45 3.78 2.39
3.37 3.85 2.39
3.29 3.91 2.39
3.21 3.98 2.39
3.12 4.04 2.39
3.04 4.10 2.39
2.95 4.16 2.39
2.87 4.21 2.39
2.78 4.27 2.39
2.69 4.32 2.39
2.60 4.37 2.39
2.51 4.42 2.39
2.42 4.47 2.39
2.33 4.52 2.39
2.29 4.69 2.46
2.23 4.80 2.50
2.13 4.85 2.50
2.03 4.89 2.50
1.93 4.93 2.50
1.83 4.96 2.50
1.73 5.00 2.50
1.63 5.03 2.50
1.52 5.06 2.50
1.42 5.09 2.50
1.32 5.12 2.50
1.21 5.14 2.50
1.11 5.17 2.50
1.00 5.19 2.50
0.89 5.21 2.50
0.79 5.23 2.50
0.68 5.24 2.50
0.58 5.26 2.50
0.47 5.27 2.50
0.36 5.28 2.50
0.25 5.28 2.50
0.15 5.29 2.50
0.04 5.29 2.50
-0.07 5.30 2.50
-0.18 5.29 2.50
-0.28 5.29 2.50
-0.39 5.29 2.50
-0.50 5.28 2.50
-0.61 5.27 2.50
-0.71 5.26 2.50
-0.82 5.25 2.50
-0.93 5.23 2.50
-1.04 5.22 2.50
-1.14 5.20 2.50
-1.25 5.18 2.50
-1.35 5.16 2.50
-1.46 5.13 2.50
-1.57 5.10 2.50
-1.67 5.07 2.50
-1.77 5.04 2.50
-1.88 5.01 2.50
-1.98 4.98 2.50
-2.08 4.94 2.50
-2.19 4.90 2.50
-2.29 4.86 2.50
-2.39 4.82 2.50
-2.49 4.77 2.50
-2.59 4.73 2.50
-2.68 4.68 2.50
-2.78 4.63 2.50
-2.88 4.58 2.50
-2.97 4.52 2.50
-3.07 4.47 2.50
-3.16 4.41 2.50
-3.25 4.35 2.50
-3.35 4.29 2.50
-3.44 4.22 2.50
-3.52 4.16 2.50
-3.61 4.09 2.50
-3.70 4.02 2.50
-3.79 3.95 2.50
-3.87 3.88 2.50
-3.95 3.81 2.50
-4.03 3.73 2.50
-4.11 3.65 2.50
-4.19 3.57 2.50
-4.27 3.49 2.50
-4.35 3.41 2.50
-4.42 3.33 2.50
-4.49 3.24 2.50
-4.57 3.16 2.50
-4.64 3.07 2.50
-4.70 2.98 2.50
-4.77 2.89 2.50
-4.83 2.80 2.50
-4.90 2.70 2.50
-4.96 2.61 2.50
-5.02 2.51 2.50
-5.08 2.41 2.50
-5.13 2.31 2.50
-5.19 2.21 2.50
-5.24 2.11 2.50
-5.29 2.01 2.50
-5.34 1.91 2.50
-5.38 1.80 2.50
-5.43 1.70 2.50
-5.47 1.59 2.50
-5.51 1.48 2.50
-5.55 1.37 2.50
-5.58 1.26 2.50
-5.61 1.15 2.50
-5.65 1.04 2.50
-5.68 0.93 2.50
-5.70 0.82 2.50
-5.70 0.70 2.49
-5.70 0.59 2.48
-5.70 0.47 2.47
-5.70 0.36 2.46
-5.70 0.24 2.45
-5.70 0.13 2.45
-5.70 0.01 2.44
-5.70 -0.10 2.44
-5.70 -0.21 2.43
-5.70 -0.33 2.43
-5.70 -0.44 2.43
-5.70 -0.56 2.43
-5.69 -0.67 2.43
-5.69 -0.79 2.43
-5.69 -0.90 2.44
-5.69 -1.02 2.44
-5.69 -1.14 2.45
-5.69 -1.26 2.45
-5.69 -1.38 2.46
-5.69 -1.50 2.47
-5.69 -1.62 2.48
-5.69 -1.74 2.49
-5.68 -1.86 2.50
-5.65 -1.98 2.50
-5.62 -2.10 2.50
-5.58 -2.21 2.50
-5.54 -2.32 2.50
-5.50 -2.44 2.50
-5.46 -2.55 2.50
-5.42 -2.66 2.50
-5.37 -2.77 2.50
-5.32 -2.88 2.50
-5.27 -2.99 2.50
-5.22 -3.10 2.50
-5.16 -3.21 2.50
-5.10 -3.31 2.50
-5.04 -3.42 2.50
-4.98 -3.52 2.50
-4.91 -3.63 2.50
-4.85 -3.73 2.50
-4.78 -3.83 2.50
-4.70 -3.92 2.50
-4.63 -4.02 2.50
-4.55 -4.12 2.50
-4.48 -4.21 2.50
-4.40 -4.30 2.50
-4.31 -4.39 2.50
-4.23 -4.48 2.50
-4.14 -4.57 2.50
-4.05 -4.66 2.50
-3.96 -4.74 2.50
-3.87 -4.82 2.50
-3.78 -4.90 2.50
-3.68 -4.98 2.50
-3.59 -5.05 2.50
-3.49 -5.13 2.50
-3.39 -5.20 2.50
-3.29 -5.27 2.50
-3.18 -5.33 2.50
-3.08 -5.40 2.50
-2.97 -5.46 2.50
-2.87 -5.52 2.50
-2.76 -5.58 2.50
-2.65 -5.64 2.50
-2.53 -5.69 2.50
-2.42 -5.74 2.50
-2.31 -5.79 2.50
-2.19 -5.84 2.50
-2.08 -5.88 2.50
-1.96 -5.92 2.50
-1.84 -5.96 2.50
-1.73 -6.00 2.50
-1.61 -6.03 2.50
-1.49 -6.06 2.50
-1.37 -6.09 2.50
-1.25 -6.12 2.50
-1.12 -6.14 2.50
-1.00 -6.16 2.50
-0.88 -6.18 2.50
-0.76 -6.19 2.50
-0.63 -6.21 2.50
-0.51 -6.22 2.50
-0.39 -6.22 2.50
-0.26 -6.23 2.50
-0.14 -6.23 2.50
-0.02 -5.84 2.50
0.10 -5.84 2.50
0.21 -5.84 2.50
0.33 -5.83 2.50
0.44 -5.82 2.50
0.56 -5.81 2.50
0.67 -5.79 2.50
0.79 -5.77 2.50
0.90 -5.75 2.50
1.02 -5.73 2.50
1.13 -5.70 2.50
1.24 -5.68 2.50
1.35 -5.65 2.50
1.46 -5.62 2.50
1.57 -5.58 2.50
1.68 -5.54 2.50
1.79 -5.51 2.50
1.90 -5.46 2.50
2.00 -5.42 2.50
2.11 -5.37 2.50
2.21 -5.33 2.50
2.31 -5.28 2.50
2.38 -5.15 2.46
2.41 -4.96 2.39
2.51 -4.90 2.39
2.60 -4.85 2.39
2.70 -4.79 2.39
2.79 -4.73 2.39
2.88 -4.67 2.39
2.97 -4.60 2.39
3.05 -4.54 2.39
3.14 -4.47 2.39
3.22 -4.40 2.39
3.31 -4.33 2.39
3.39 -4.26 2.39
3.47 -4.19 2.39
3.54 -4.11 2.39
3.62 -4.03 2.39
3.70 -3.96 2.39
3.77 -3.88 2.39
3.84 -3.80 2.39
3.88 -3.69 2.38
3.70 -3.38 2.23
3.54 -3.10 2.09
3.52 -2.97 2.05
3.53 -2.86 2.03
3.55 -2.75 2.01
3.56 -2.65 1.99
3.57 -2.55 1.97
3.60 -2.46 1.96
3.65 -2.39 1.96
3.70 -2.32 1.97
3.76 -2.25 1.98
3.81 -2.18 1.98
3.86 -2.11 1.99
3.94 -2.05 2.01
4.01 -1.99 2.04
4.09 -1.93 2.06
4.18 -1.87 2.08
4.26 -1.80 2.11
4.44 -1.77 2.18
4.59 -1.73 2.25
4.73 -1.68 2.30
4.72 -1.56 2.28
4.64 -1.44 2.23
4.61 -1.33 2.21
4.58 -1.22 2.19
4.52 -1.11 2.15
4.55 -1.02 2.16
4.58 -0.93 2.17
4.63 -0.84 2.18
4.67 -0.75 2.20
4.71 -0.66 2.22
4.76 -0.57 2.23
4.80 -0.48 2.25
4.90 -0.39 2.30
5.10 -0.30 2.39
5.09 -0.20 2.39
5.09 -0.10 2.39
5.08 0.01 2.39
5.07 0.11 2.39
5.06 0.21 2.39
5.05 0.31 2.39
5.03 0.41 2.39
5.02 0.51 2.39
5.00 0.61 2.39
4.98 0.71 2.39
4.96 0.81 2.39
4.93 0.91 2.39
4.90 1.01 2.39
4.88 1.11 2.39
4.85 1.20 2.39
4.81 1.30 2.39
4.78 1.39 2.39
4.74 1.49 2.39
4.71 1.58 2.39
4.67 1.67 2.39
4.63 1.76 2.39
4.58 1.86 2.39
4.54 1.95 2.39
4.49 2.03 2.39
4.45 2.12 2.39
4.40 2.21 2.39
4.35 2.29 2.39
4.29 2.38 2.39
4.24 2.46 2.39
4.19 2.55 2.39
4.13 2.63 2.39
4.07 2.71 2.39
4.01 2.79 2.39
3.95 2.86 2.39
3.89 2.94 2.39
3.82 3.02 2.39
3.76 3.09 2.39
3.69 3.16 2.39
3.62 3.23 2.39
3.55 3.30 2.39
3.48 3.37 2.39
3.41 3.44 2.39
3.33 3.51 2.39
3.26 3.57 2.39
3.18 3.63 2.39
3.11 3.69 2.39
3.03 3.75 2.39
2.95 3.81 2.39
2.87 3.87 2.39
2.79 3.92 2.39
2.71 3.98 2.39
2.62 4.03 2.39
2.56 4.11 2.41
2.46 4.13 2.39
2.37 4.18 2.39
2.31 4.27 2.42
2.29 4.45 2.50
2.20 4.49 2.50
2.11 4.53 2.50
2.01 4.58 2.50
1.92 4.61 2.50
1.82 4.65 2.50
1.73 4.69 2.50
1.63 4.72 2.50
1.54 4.75 2.50
1.44 4.78 2.50
1.34 4.81 2.50
1.24 4.83 2.50
1.14 4.86 2.50
1.04 4.88 2.50
0.94 4.90 2.50
0.84 4.92 2.50
0.74 4.94 2.50
0.64 4.95 2.50
0.54 4.96 2.50
0.44 4.97 2.50
0.34 4.98 2.50
0.24 4.99 2.50
0.14 5.00 2.50
0.04 5.00 2.50
-0.07 5.00 2.50
-0.17 5.00 2.50
-0.27 5.00 2.50
-0.37 4.99 2.50
-0.47 4.99 2.50
-0.57 4.98 2.50
-0.68 4.97 2.50
-0.78 4.96 2.50
-0.88 4.94 2.50
-0.98 4.93 2.50
-1.08 4.91 2.50
-1.18 4.89 2.50
-1.28 4.87 2.50
-1.38 4.84 2.50
-1.48 4.82 2.50
-1.58 4.79 2.50
-1.68 4.76 2.50
-1.77 4.73 2.50
-1.87 4.70 2.50
-1.97 4.66 2.50
-2.07 4.62 2.50
-2.16 4.59 2.50
-2.26 4.55 2.50
-2.35 4.50 2.50
-2.44 4.46 2.50
-2.54 4.41 2.50
-2.63 4.37 2.50
-2.72 4.32 2.50
-2.81 4.26 2.50
-2.90 4.21 2.50
-2.99 4.16 2.50
-3.07 4.10 2.50
-3.16 4.04 2.50
-3.24 3.98 2.50
-3.33 3.92 2.50
-3.41 3.86 2.50
-3.49 3.79 2.50
-3.57 3.72 2.50
-3.65 3.66 2.50
-3.73 3.59 2.50
-3.81 3.52 2.50
-3.88 3.44 2.50
-3.96 3.37 2.50
-4.03 3.29 2.50
-4.10 3.21 2.50
-4.17 3.13 2.50
-4.24 3.05 2.50
-4.31 2.97 2.50
-4.37 2.89 2.50
-4.44 2.80 2.50
-4.50 2.72 2.50
-4.56 2.63 2.50
-4.62 2.54 2.50
-4.68 2.45 2.50
-4.73 2.36 2.50
-4.78 2.27 2.50
-4.84 2.18 2.50
-4.89 2.08 2.50
-4.94 1.99 2.50
-4.98 1.89 2.50
-5.03 1.79 2.50
-5.07 1.69 2.50
-5.11 1.59 2.50
-5.15 1.49 2.50
-5.19 1.39 2.50
-5.22 1.29 2.50
-5.26 1.19 2.50
-5.29 1.08 2.50
-5.32 0.98 2.50
-5.34 0.87 2.50
-5.37 0.77 2.50
-5.39 0.66 2.50
-5.41 0.55 2.50
-5.43 0.44 2.50
-5.45 0.34 2.50
-5.46 0.23 2.50
-5.47 0.12 2.50
-5.48 0.01 2.50
-5.49 -0.10 2.50
-5.50 -0.21 2.50
-5.50 -0.32 2.50
-5.50 -0.43 2.50
-5.50 -0.54 2.50
-5.50 -0.65 2.50
-5.49 -0.77 2.50
-5.48 -0.88 2.50
-5.47 -0.99 2.50
-5.46 -1.10 2.50
-5.45 -1.21 2.50
-5.43 -1.32 2.50
-5.41 -1.43 2.50
-5.39 -1.54 2.50
-5.36 -1.65 2.50
-5.34 -1.76 2.50
-5.31 -1.87 2.50
-5.28 -1.97 2.50
-5.24 -2.08 2.50
-5.21 -2.19 2.50
-5.17 -2.29 2.50
-5.13 -2.40 2.50
-5.09 -2.50 2.50
-5.04 -2.61 2.50
-5.00 -2.71 2.50
-4.95 -2.81 2.50
-4.90 -2.92 2.50
-4.85 -3.02 2.50
-4.79 -3.12 2.50
-4.73 -3.21 2.50
-4.67 -3.31 2.50
-4.61 -3.41 2.50
-4.55 -3.50 2.50
-4.48 -3.60 2.50
-4.41 -3.69 2.50
-4.34 -3.78 2.50
-4.27 -3.87 2.50
-4.20 -3.96 2.50
-4.12 -4.04 2.50
-4.05 -4.13 2.50
-3.97 -4.21 2.50
-3.89 -4.29 2.50
-3.80 -4.37 2.50
-3.72 -4.45 2.50
-3.63 -4.53 2.50
-3.55 -4.60 2.50
-3.46 -4.67 2.50
-3.37 -4.74 2.50
-3.27 -4.81 2.50
-3.18 -4.88 2.50
-3.08 -4.94 2.50
-2.99 -5.01 2.50
-2.89 -5.07 2.50
-2.79 -5.13 2.50
-2.69 -5.18 2.50
-2.59 -5.24 2.50
-2.48 -5.29 2.50
-2.38 -5.34 2.50
-2.27 -5.39 2.50
-2.17 -5.43 2.50
-2.06 -5.48 2.50
-1.95 -5.52 2.50
-1.84 -5.56 2.50
-1.73 -5.59 2.50
-1.62 -5.63 2.50
-1.51 -5.66 2.50
-1.40 -5.69 2.50
-1.28 -5.71 2.50
-1.17 -5.74 2.50
-1.06 -5.76 2.50
-0.94 -5.78 2.50
-0.83 -5.80 2.50
-0.71 -5.81 2.50
-0.60 -5.82 2.50
-0.48 -5.83 2.50
-0.36 -5.84 2.50
-0.25 -5.84 2.50
-0.13 -5.85 2.50
-0.02 -5.50 2.50
0.09 -5.50 2.50
0.20 -5.49 2.50
0.31 -5.48 2.50
0.42 -5.47 2.50
0.53 -5.46 2.50
0.63 -5.45 2.50
0.74 -5.43 2.50
0.85 -5.41 2.50
0.95 -5.39 2.50
1.06 -5.37 2.50
1.17 -5.34 2.50
1.27 -5.31 2.50
1.37 -5.28 2.50
1.48 -5.25 2.50
1.58 -5.22 2.50
1.68 -5.18 2.50
1.78 -5.14 2.50
1.88 -5.10 2.50
1.98 -5.06 2.50
2.08 -5.01 2.50
2.18 -4.97 2.50
2.27 -4.92 2.50
2.37 -4.87 2.50
2.38 -4.67 2.42
2.45 -4.56 2.39
2.54 -4.51 2.39
2.62 -4.45 2.39
2.71 -4.40 2.39
2.79 -4.34 2.39
2.87 -4.28 2.39
2.95 -4.21 2.39
3.03 -4.15 2.39
3.11 -4.08 2.39
3.19 -4.01 2.39
3.26 -3.95 2.39
3.34 -3.87 2.39
3.41 -3.80 2.39
3.48 -3.73 2.39
3.55 -3.65 2.39
3.62 -3.58 2.39
3.68 -3.50 2.39
3.65 -3.33 2.33
3.49 -3.07 2.20
3.46 -2.92 2.14
3.46 -2.80 2.11
3.46 -2.69 2.08
3.48 -2.59 2.06
3.49 -2.49 2.04
3.52 -2.42 2.04
3.58 -2.35 2.04
3.63 -2.28 2.05
3.68 -2.21 2.06
3.73 -2.14 2.06
3.79 -2.08 2.07
3.87 -2.02 2.10
3.97 -1.97 2.14
4.08 -1.92 2.17
4.31 -1.93 2.28
4.49 -1.90 2.36
4.59 -1.84 2.39
4.62 -1.74 2.39
4.64 -1.65 2.39
4.67 -1.55 2.39
4.66 -1.45 2.38
4.60 -1.33 2.34
4.54 -1.21 2.30
4.48 -1.10 2.26
4.51 -1.01 2.27
4.54 -0.92 2.28
4.57 -0.83 2.28
4.60 -0.74 2.29
4.64 -0.66 2.31
4.71 -0.57 2.35
