ply
format ascii 1.0
element vertex 2835
property float32 x
property float32 y
property float32 z
end_header
-12.09 -20.18 1.55
-12.30 -21.49 1.62
-12.20 -22.35 1.65
-12.27 -23.60 1.70
-12.51 -25.27 1.78
-14.42 -30.67 2.11
-14.55 -32.65 2.20
-14.64 -34.69 2.29
-14.98 -37.58 2.43
-14.71 -39.19 2.48
-14.21 -40.28 2.50
-12.98 -39.29 2.39
-12.35 -40.08 2.39
-11.70 -40.88 2.39
-11.03 -41.68 2.39
-10.34 -42.50 2.39
-9.69 -43.58 2.41
-9.27 -46.05 2.49
-8.47 -46.92 2.49
-7.64 -47.80 2.49
-6.78 -48.69 2.49
-5.90 -49.58 2.49
0.10 -35.25 2.39
0.82 -35.65 2.39
1.55 -36.04 2.39
2.30 -36.43 2.39
3.08 -37.05 2.41
3.85 -37.23 2.39
5.24 -42.37 2.70
5.83 -40.45 2.55
6.41 -38.95 2.43
4.83 -26.05 1.61
7.52 -36.49 2.24
8.01 -35.28 2.15
8.55 -34.44 2.08
9.13 -33.85 2.03
9.62 -33.03 1.97
10.16 -32.43 1.92
10.83 -32.31 1.90
11.51 -32.18 1.88
11.59 -30.47 1.77
11.42 -28.29 1.64
11.07 -25.92 1.50
10.71 -23.74 1.36
10.50 -22.08 1.26
10.48 -20.96 1.20
10.49 -19.97 1.14
10.68 -19.37 1.10
10.90 -18.87 1.07
11.11 -18.38 1.04
11.34 -17.93 1.02
11.56 -17.50 0.99
11.78 -17.07 0.97
12.00 -16.66 0.95
12.22 -16.27 0.93
12.43 -15.88 0.91
12.63 -15.49 0.89
12.79 -15.06 0.87
12.94 -14.63 0.85
13.09 -14.21 0.83
13.24 -13.81 0.81
13.41 -13.43 0.80
13.57 -13.06 0.78
13.72 -12.69 0.77
13.86 -12.31 0.75
14.00 -11.94 0.74
6.58 -5.39 0.34
6.61 -5.20 0.33
14.38 -10.85 0.70
14.48 -10.47 0.69
14.54 -10.08 0.68
14.60 -9.70 0.67
14.66 -9.32 0.65
14.78 -8.98 0.64
14.96 -8.68 0.64
15.07 -8.35 0.63
15.09 -7.97 0.62
15.10 -7.59 0.61
15.14 -7.24 0.60
15.23 -6.91 0.60
15.32 -6.58 0.59
15.35 -6.23 0.58
15.35 -5.88 0.58
15.36 -5.53 0.57
15.37 -5.19 0.56
15.40 -4.86 0.56
15.42 -4.53 0.55
15.52 -4.22 0.55
15.65 -3.92 0.55
15.77 -3.62 0.55
15.86 -3.31 0.55
15.95 -2.99 0.55
16.05 -2.68 0.55
16.16 -2.37 0.56
16.33 -2.06 0.56
16.47 -1.74 0.56
16.60 -1.42 0.57
16.74 -1.09 0.57
16.87 -0.76 0.58
16.94 -0.43 0.58
16.96 -0.09 0.58
16.98 0.25 0.59
17.00 0.59 0.59
17.01 0.94 0.59
17.03 1.28 0.60
17.05 1.62 0.60
17.08 1.97 0.61
17.11 2.33 0.61
17.14 2.68 0.62
17.17 3.04 0.63
17.20 3.40 0.64
17.16 3.75 0.64
17.20 4.12 0.65
17.24 4.50 0.66
17.27 4.88 0.67
17.30 5.26 0.68
17.27 5.63 0.69
17.02 5.93 0.69
16.77 6.22 0.69
16.51 6.51 0.70
16.26 6.79 0.70
16.01 7.06 0.70
15.75 7.33 0.70
15.53 7.61 0.71
15.38 7.92 0.71
15.14 8.19 0.72
14.91 8.45 0.72
14.68 8.71 0.73
14.45 8.97 0.73
14.22 9.23 0.74
13.99 9.48 0.75
13.76 9.73 0.75
13.63 10.06 0.77
13.63 10.49 0.79
13.64 10.93 0.81
13.64 11.39 0.84
8.29 7.21 0.52
13.60 12.31 0.88
13.52 12.74 0.91
13.43 13.18 0.93
13.35 13.64 0.95
13.26 14.10 0.98
13.41 14.84 1.03
13.31 15.34 1.06
13.20 15.85 1.09
13.18 16.48 1.13
3.07 4.00 0.27
13.29 18.06 1.23
13.24 18.77 1.27
13.18 19.50 1.32
13.26 20.49 1.39
13.28 21.45 1.45
14.09 23.82 1.61
8.54 15.12 1.02
13.89 25.78 1.75
13.59 26.48 1.80
13.36 27.38 1.86
13.05 28.15 1.92
12.69 28.87 1.98
12.74 30.65 2.11
9.50 24.21 1.67
11.64 31.51 2.18
11.10 32.00 2.23
10.55 32.52 2.27
10.14 33.52 2.36
9.78 34.85 2.47
8.70 33.59 2.39
7.94 33.37 2.39
7.19 33.15 2.39
6.45 32.92 2.39
5.72 32.68 2.39
5.18 33.54 2.47
4.50 33.57 2.49
3.79 33.30 2.49
3.08 33.02 2.49
2.40 32.73 2.49
1.72 32.43 2.49
1.06 32.13 2.49
0.41 31.83 2.49
-0.23 31.51 2.49
-0.85 31.19 2.49
-1.46 30.87 2.49
-2.06 30.54 2.49
-2.65 30.21 2.49
-3.22 29.83 2.49
-3.63 28.31 2.39
-3.84 25.80 2.20
-4.68 27.64 2.39
-5.19 27.30 2.39
-5.69 26.95 2.39
-6.17 26.61 2.39
-6.65 26.26 2.39
-7.12 25.90 2.39
-7.54 25.44 2.38
-7.71 24.19 2.30
-7.85 23.04 2.22
-8.01 22.05 2.15
-8.14 21.08 2.09
-8.34 20.37 2.05
-8.66 19.98 2.04
-8.82 19.28 2.00
-9.14 18.96 2.00
-9.56 18.86 2.03
-9.98 18.75 2.05
-10.21 18.28 2.03
-10.29 17.58 1.99
-10.36 16.92 1.95
-10.46 16.33 1.92
-10.57 15.80 1.89
-10.64 15.22 1.86
-9.25 12.68 1.58
-9.53 12.53 1.60
-9.81 12.38 1.61
-10.85 13.14 1.75
-10.89 12.65 1.72
-10.95 12.22 1.70
-11.01 11.80 1.68
-11.07 11.39 1.66
-11.12 10.99 1.64
-11.17 10.61 1.62
-11.17 10.19 1.60
-11.23 9.84 1.59
-11.30 9.51 1.58
-11.37 9.18 1.57
-11.44 8.86 1.56
-11.49 8.54 1.55
-11.52 8.21 1.53
-11.57 7.89 1.52
-11.61 7.58 1.51
-11.66 7.28 1.50
-11.70 6.99 1.50
-11.73 6.69 1.49
-11.71 6.37 1.47
-11.69 6.06 1.46
-11.72 5.78 1.45
-11.76 5.50 1.44
-11.79 5.23 1.43
-11.82 4.96 1.43
-11.85 4.69 1.42
-11.88 4.43 1.42
-11.92 4.17 1.41
-11.94 3.91 1.41
-11.96 3.65 1.40
-11.97 3.40 1.40
-11.98 3.14 1.39
-12.00 2.89 1.39
-12.01 2.64 1.39
-12.07 2.39 1.39
-12.14 2.15 1.39
-12.17 1.91 1.39
-12.18 1.66 1.39
-12.19 1.41 1.38
-12.21 1.16 1.38
-10.72 0.80 1.21
-10.12 0.56 1.14
-10.26 0.36 1.16
-10.52 0.15 1.18
-12.94 -0.07 1.45
-12.95 -0.33 1.45
-12.96 -0.60 1.45
-12.98 -0.86 1.46
-13.01 -1.12 1.46
-13.03 -1.39 1.46
-13.06 -1.66 1.47
-13.08 -1.93 1.47
-13.08 -2.20 1.47
-13.07 -2.47 1.47
-13.06 -2.74 1.47
-12.99 -3.00 1.47
-12.90 -3.26 1.46
-12.80 -3.51 1.45
-12.71 -3.76 1.45
-12.61 -4.01 1.44
-12.63 -4.30 1.45
-12.66 -4.59 1.46
-12.68 -4.89 1.47
-12.71 -5.20 1.47
-12.73 -5.51 1.48
-12.70 -5.80 1.49
-12.67 -6.10 1.49
-12.68 -6.42 1.50
-12.68 -6.75 1.51
-12.69 -7.08 1.52
-12.70 -7.42 1.53
-12.70 -7.78 1.55
-12.71 -8.14 1.56
-12.69 -8.49 1.57
-12.68 -8.86 1.58
-12.67 -9.23 1.59
-12.65 -9.62 1.61
-12.63 -10.01 1.62
-12.64 -10.43 1.64
-12.66 -10.88 1.66
-12.68 -11.35 1.68
-12.69 -11.84 1.70
-12.74 -12.37 1.73
-12.84 -12.98 1.77
-12.95 -13.63 1.81
-13.02 -14.26 1.85
-13.03 -14.86 1.88
-13.04 -15.49 1.91
-12.97 -16.06 1.93
-12.89 -16.63 1.96
-12.80 -17.22 1.98
-12.71 -17.83 2.01
-12.65 -18.51 2.04
-12.55 -19.19 2.07
-12.31 -19.67 2.07
-12.06 -20.16 2.08
-11.96 -20.95 2.12
-12.01 -22.04 2.19
-11.98 -23.09 2.25
-12.15 -24.61 2.35
-11.94 -25.46 2.39
-11.53 -25.93 2.39
-11.11 -26.39 2.39
-10.68 -26.86 2.39
-10.23 -27.32 2.39
-9.77 -27.78 2.39
-9.30 -28.24 2.39
-8.82 -28.70 2.39
-8.45 -29.62 2.43
-8.15 -30.89 2.49
-7.60 -31.37 2.49
-7.05 -31.84 2.49
-6.47 -32.30 2.49
-5.88 -32.77 2.49
-5.28 -33.23 2.49
-4.66 -33.69 2.49
-4.03 -34.14 2.49
-3.38 -34.59 2.49
-2.72 -35.04 2.49
-2.04 -35.48 2.49
-1.34 -35.92 2.49
-0.60 -34.84 2.39
0.10 -26.64 2.41
0.63 -26.65 2.39
1.18 -26.86 2.39
1.73 -27.07 2.39
2.29 -27.27 2.39
2.86 -27.46 2.39
3.44 -27.64 2.39
4.56 -31.47 2.70
5.74 -34.64 2.96
4.85 -26.06 2.21
6.74 -32.57 2.75
7.26 -31.82 2.68
7.75 -31.12 2.61
8.24 -30.44 2.54
8.74 -29.91 2.49
9.20 -29.29 2.43
9.64 -28.67 2.37
9.99 -27.86 2.30
10.04 -26.31 2.17
9.79 -24.20 1.99
9.94 -23.22 1.91
9.84 -21.78 1.79
9.87 -20.71 1.71
9.91 -19.78 1.63
10.01 -19.02 1.57
10.24 -18.54 1.53
10.42 -18.01 1.49
10.59 -17.48 1.45
10.86 -17.14 1.43
11.12 -16.80 1.41
11.38 -16.47 1.39
11.60 -16.08 1.36
11.81 -15.71 1.34
12.02 -15.34 1.32
12.22 -14.96 1.30
12.37 -14.55 1.27
12.52 -14.14 1.25
12.67 -13.74 1.23
12.82 -13.36 1.20
12.98 -12.99 1.19
13.14 -12.64 1.17
13.27 -12.26 1.15
13.39 -11.88 1.13
13.60 -11.59 1.12
6.58 -5.38 0.53
6.61 -5.19 0.52
14.10 -10.62 1.09
14.18 -10.25 1.07
14.25 -9.87 1.05
14.31 -9.49 1.04
14.37 -9.12 1.02
14.44 -8.77 1.01
14.61 -8.48 1.01
14.64 -8.11 0.99
14.66 -7.74 0.98
14.68 -7.37 0.96
14.69 -7.02 0.95
14.75 -6.69 0.94
14.82 -6.36 0.94
14.83 -6.02 0.93
14.84 -5.68 0.92
14.84 -5.34 0.91
14.85 -5.01 0.90
14.86 -4.69 0.89
14.90 -4.37 0.89
15.02 -4.08 0.89
15.14 -3.79 0.89
15.26 -3.50 0.89
15.39 -3.21 0.89
15.47 -2.90 0.89
15.56 -2.60 0.89
15.68 -2.30 0.90
15.84 -2.00 0.90
16.01 -1.69 0.91
16.14 -1.38 0.92
16.27 -1.06 0.93
16.40 -0.74 0.93
16.52 -0.42 0.94
16.59 -0.09 0.95
16.61 0.24 0.95
16.62 0.58 0.95
16.63 0.91 0.96
16.65 1.25 0.96
16.65 1.58 0.97
16.51 1.90 0.96
16.38 2.22 0.96
16.31 2.55 0.96
16.33 2.88 0.97
16.35 3.23 0.98
16.37 3.57 0.99
16.20 3.88 0.99
16.00 4.17 0.99
15.81 4.46 0.99
15.61 4.74 0.98
15.42 5.02 0.98
15.25 5.31 0.98
15.11 5.60 0.99
14.97 5.89 0.99
14.83 6.18 1.00
14.70 6.47 1.00
14.59 6.78 1.01
14.53 7.11 1.03
14.48 7.45 1.04
14.42 7.79 1.05
14.24 8.06 1.06
14.03 8.31 1.06
13.81 8.56 1.07
13.60 8.81 1.07
13.48 9.13 1.09
13.36 9.44 1.10
13.24 9.76 1.12
13.13 10.09 1.13
13.13 10.52 1.16
13.13 10.95 1.19
8.30 7.21 0.77
13.12 11.86 1.25
13.07 12.31 1.28
12.99 12.73 1.31
12.91 13.17 1.34
12.82 13.61 1.37
12.72 14.06 1.40
12.82 14.76 1.46
12.92 15.48 1.52
12.81 15.99 1.56
3.07 4.00 0.39
12.88 17.47 1.68
12.90 18.26 1.74
12.83 18.96 1.80
12.76 19.69 1.86
12.74 20.54 1.94
12.74 21.50 2.02
8.55 15.11 1.42
12.66 23.45 2.19
12.58 24.46 2.28
12.72 26.01 2.43
12.47 26.85 2.50
12.08 27.44 2.56
11.69 28.05 2.62
9.50 24.16 2.25
10.58 28.57 2.67
9.90 28.47 2.67
8.29 25.48 2.39
7.71 25.42 2.39
7.14 25.35 2.39
6.57 25.27 2.39
6.01 25.18 2.39
5.46 25.08 2.39
4.91 24.97 2.39
4.46 25.35 2.44
4.01 25.80 2.49
3.46 25.66 2.49
2.92 25.52 2.49
2.39 25.37 2.49
1.87 25.20 2.49
1.35 25.04 2.49
0.84 24.86 2.49
0.34 24.68 2.49
-0.15 24.49 2.49
-0.64 24.30 2.49
-1.12 24.09 2.49
-1.59 23.89 2.49
-2.06 23.67 2.49
-2.51 23.46 2.49
-2.96 23.23 2.49
-3.40 23.00 2.49
-3.84 22.77 2.49
-4.09 21.60 2.39
-4.49 21.36 2.39
-4.88 21.13 2.39
-5.27 20.88 2.39
-5.65 20.64 2.39
-6.03 20.39 2.39
-6.39 20.13 2.39
-6.76 19.87 2.39
-7.11 19.61 2.39
-7.46 19.35 2.39
-7.80 19.08 2.39
-8.13 18.81 2.39
-8.45 18.51 2.39
-8.86 18.41 2.41
-9.26 18.31 2.43
-9.68 18.20 2.46
-9.96 17.86 2.45
-10.13 17.34 2.42
-10.21 16.69 2.37
-10.30 16.10 2.33
-10.37 15.52 2.28
-10.44 14.96 2.24
-9.23 12.68 1.94
-9.52 12.53 1.95
-9.80 12.38 1.97
-10.65 12.91 2.10
-10.68 12.43 2.06
-10.74 12.00 2.03
-10.80 11.59 2.01
-10.86 11.19 1.98
-10.91 10.80 1.96
-10.96 10.42 1.94
-10.99 10.04 1.92
-11.06 9.70 1.90
-11.14 9.38 1.89
-11.21 9.06 1.87
-11.27 8.74 1.86
-11.33 8.43 1.85
-11.37 8.10 1.83
-11.41 7.79 1.82
-11.46 7.49 1.81
-11.51 7.20 1.79
-11.56 6.90 1.78
-11.60 6.62 1.77
-11.58 6.30 1.76
-11.58 6.00 1.74
-11.61 5.72 1.73
-11.64 5.45 1.72
-11.67 5.18 1.71
-11.70 4.91 1.70
-11.73 4.65 1.70
-11.76 4.39 1.69
-11.80 4.13 1.69
-11.82 3.88 1.68
-11.84 3.62 1.67
-11.85 3.36 1.67
-11.87 3.11 1.66
-11.88 2.86 1.66
-11.89 2.61 1.65
-11.93 2.37 1.65
-12.00 2.13 1.65
-12.03 1.89 1.65
-12.04 1.64 1.65
-12.05 1.39 1.65
-12.06 1.15 1.64
-10.69 0.80 1.45
-10.10 0.55 1.37
-10.26 0.35 1.39
-10.52 0.15 1.42
-12.63 -0.07 1.71
-12.64 -0.33 1.71
-12.65 -0.58 1.71
-12.65 -0.84 1.71
-12.66 -1.10 1.71
-12.69 -1.36 1.72
-12.71 -1.62 1.72
-12.73 -1.88 1.73
-12.73 -2.15 1.73
-12.73 -2.41 1.73
-12.72 -2.68 1.73
-12.71 -2.94 1.74
-12.70 -3.21 1.74
-12.62 -3.46 1.73
-12.53 -3.71 1.73
-12.44 -3.96 1.72
-12.42 -4.23 1.72
-12.44 -4.52 1.73
-12.46 -4.81 1.75
-12.49 -5.11 1.76
-12.51 -5.42 1.77
-12.53 -5.73 1.78
-12.50 -6.02 1.79
-12.49 -6.34 1.80
-12.50 -6.66 1.81
-12.50 -6.99 1.83
-12.51 -7.32 1.84
-12.51 -7.67 1.86
-12.51 -8.02 1.87
-12.50 -8.37 1.89
-12.49 -8.73 1.91
-12.47 -9.10 1.92
-12.41 -9.45 1.93
-12.33 -9.79 1.94
-12.25 -10.13 1.95
-12.22 -10.53 1.97
-12.20 -10.94 1.99
-12.18 -11.37 2.02
-12.15 -11.81 2.04
-12.13 -12.27 2.07
-12.14 -12.79 2.10
-12.52 -13.74 2.20
-12.70 -14.51 2.27
-12.58 -14.97 2.29
-12.45 -15.44 2.31
-12.32 -15.92 2.33
-12.21 -16.45 2.36
-12.18 -17.11 2.40
-12.09 -17.74 2.44
-11.99 -18.36 2.48
-11.29 -18.08 2.39
-10.99 -18.42 2.39
-10.69 -18.76 2.39
-10.38 -19.10 2.39
-10.07 -19.43 2.39
-9.74 -19.77 2.39
-9.41 -20.10 2.39
-9.07 -20.43 2.39
-8.72 -20.76 2.39
-8.36 -21.08 2.39
-7.99 -21.40 2.39
-7.80 -22.24 2.45
-7.55 -22.98 2.49
-7.14 -23.31 2.49
-6.72 -23.63 2.49
-6.29 -23.94 2.49
-5.86 -24.25 2.49
-5.41 -24.56 2.49
-4.96 -24.86 2.49
-4.49 -25.16 2.49
-4.02 -25.45 2.49
-3.54 -25.74 2.49
-3.05 -26.02 2.49
-2.55 -26.29 2.49
-2.04 -26.56 2.49
-1.52 -26.82 2.49
-0.99 -27.08 2.49
-0.45 -27.32 2.49
0.10 -22.03 2.49
0.52 -21.26 2.39
0.96 -21.39 2.39
1.39 -21.52 2.39
1.84 -21.64 2.39
2.29 -21.75 2.39
2.74 -21.85 2.39
3.20 -21.95 2.39
3.67 -22.03 2.39
4.14 -22.11 2.39
5.31 -25.56 2.75
6.31 -27.58 2.96
6.78 -27.11 2.91
7.20 -26.54 2.84
7.59 -25.90 2.77
7.97 -25.30 2.70
8.32 -24.67 2.63
8.66 -24.09 2.57
8.94 -23.38 2.50
9.20 -22.69 2.42
9.21 -21.47 2.30
9.27 -20.48 2.20
9.35 -19.60 2.11
9.44 -18.80 2.03
9.61 -18.23 1.97
9.77 -17.66 1.92
9.91 -17.10 1.87
10.13 -16.69 1.83
10.39 -16.37 1.81
10.57 -15.95 1.77
10.73 -15.51 1.74
11.06 -15.32 1.73
11.39 -15.12 1.72
11.64 -14.83 1.70
11.83 -14.47 1.68
11.98 -14.07 1.65
12.13 -13.68 1.62
12.27 -13.30 1.60
12.42 -12.93 1.57
12.58 -12.58 1.55
12.71 -12.21 1.53
12.81 -11.82 1.50
12.90 -11.44 1.48
13.11 -11.16 1.47
6.58 -5.38 0.72
6.62 -5.19 0.71
13.67 -10.29 1.44
13.77 -9.94 1.42
13.88 -9.60 1.41
13.99 -9.27 1.40
14.09 -8.94 1.38
14.15 -8.58 1.37
14.21 -8.24 1.35
14.23 -7.87 1.33
14.25 -7.52 1.32
14.27 -7.17 1.30
14.29 -6.82 1.28
14.31 -6.48 1.27
14.33 -6.15 1.26
14.34 -5.82 1.24
14.34 -5.49 1.23
14.35 -5.16 1.22
14.35 -4.84 1.21
14.36 -4.53 1.20
14.40 -4.23 1.20
14.55 -3.95 1.20
14.67 -3.67 1.20
14.78 -3.39 1.20
14.90 -3.10 1.21
15.01 -2.82 1.21
15.10 -2.52 1.21
15.22 -2.23 1.22
15.38 -1.94 1.23
15.54 -1.64 1.24
15.69 -1.34 1.25
15.82 -1.04 1.26
15.94 -0.72 1.27
16.06 -0.41 1.28
16.15 -0.09 1.29
16.23 0.24 1.29
16.25 0.56 1.30
16.26 0.89 1.30
16.27 1.22 1.31
16.28 1.54 1.31
16.17 1.86 1.31
16.04 2.17 1.31
15.92 2.48 1.30
15.79 2.78 1.30
15.66 3.09 1.30
15.60 3.40 1.31
15.59 3.73 1.31
15.40 4.01 1.31
15.22 4.29 1.31
15.09 4.58 1.31
14.95 4.86 1.31
14.81 5.15 1.31
14.68 5.43 1.31
14.54 5.72 1.32
14.41 6.00 1.32
14.27 6.28 1.33
14.14 6.56 1.33
14.01 6.84 1.34
13.87 7.13 1.35
13.74 7.41 1.36
13.60 7.69 1.37
13.46 7.97 1.38
13.36 8.27 1.39
13.24 8.57 1.40
13.13 8.88 1.42
13.01 9.18 1.43
12.89 9.49 1.45
12.76 9.80 1.47
12.66 10.12 1.49
12.65 10.54 1.52
8.31 7.21 1.02
8.23 7.43 1.04
12.61 11.86 1.63
12.56 12.30 1.66
12.48 12.71 1.70
12.39 13.14 1.73
12.30 13.58 1.77
12.21 14.03 1.81
12.24 14.65 1.87
12.37 15.42 1.95
3.07 3.99 0.50
12.44 16.85 2.09
12.50 17.65 2.18
12.51 18.44 2.26
12.38 19.07 2.32
12.16 19.57 2.37
11.92 20.08 2.42
8.57 15.10 1.81
11.63 21.51 2.57
11.51 22.34 2.66
11.38 23.21 2.75
11.24 24.14 2.86
11.09 25.12 2.97
10.17 24.35 2.87
8.00 20.29 2.39
7.54 20.30 2.39
7.08 20.31 2.39
6.63 20.30 2.39
6.17 20.29 2.39
5.73 20.27 2.39
5.28 20.24 2.39
4.84 20.20 2.39
4.41 20.15 2.39
4.03 20.38 2.42
3.70 20.90 2.49
3.26 20.83 2.49
2.82 20.75 2.49
2.39 20.67 2.49
1.96 20.58 2.49
1.54 20.48 2.49
1.12 20.37 2.49
0.70 20.26 2.49
0.29 20.14 2.49
-0.11 20.01 2.49
-0.51 19.88 2.49
-0.90 19.74 2.49
-1.29 19.60 2.49
-1.67 19.45 2.49
-2.05 19.29 2.49
-2.42 19.13 2.49
-2.79 18.97 2.49
-3.15 18.80 2.49
-3.51 18.62 2.49
-3.86 18.44 2.49
-4.20 18.26 2.49
-4.36 17.32 2.39
-4.68 17.14 2.39
-5.00 16.95 2.39
-5.31 16.75 2.39
-5.61 16.56 2.39
-5.91 16.35 2.39
-6.21 16.15 2.39
-6.50 15.94 2.39
-6.79 15.73 2.39
-7.07 15.51 2.39
-7.34 15.30 2.39
-7.61 15.07 2.39
-7.88 14.85 2.39
-8.14 14.62 2.39
-8.39 14.39 2.39
-9.28 15.21 2.57
-9.45 14.80 2.54
-9.63 14.43 2.52
-9.80 14.06 2.50
-9.22 12.68 2.30
-9.50 12.53 2.31
-9.79 12.38 2.33
-10.16 12.34 2.37
-10.24 11.93 2.34
-10.36 11.59 2.32
-10.48 11.25 2.30
-10.58 10.92 2.28
-10.69 10.59 2.27
-10.76 10.24 2.25
-10.83 9.90 2.22
-10.90 9.57 2.21
-10.97 9.25 2.19
-11.04 8.93 2.17
-11.11 8.62 2.16
-11.18 8.32 2.14
-11.22 8.00 2.12
-11.27 7.70 2.11
-11.31 7.40 2.09
-11.36 7.11 2.08
-11.41 6.82 2.07
-11.45 6.54 2.06
-11.46 6.24 2.04
-11.46 5.94 2.02
-11.49 5.67 2.01
-11.53 5.40 2.00
-11.56 5.13 1.99
-11.59 4.87 1.98
-11.62 4.61 1.97
-11.65 4.35 1.96
-11.69 4.10 1.96
-11.71 3.84 1.95
-11.72 3.59 1.94
-11.74 3.33 1.93
-11.75 3.08 1.92
-11.77 2.83 1.92
-11.78 2.59 1.91
-11.80 2.34 1.91
-11.86 2.11 1.91
-11.89 1.86 1.91
-11.90 1.62 1.91
-11.91 1.38 1.90
-11.92 1.14 1.90
-10.66 0.80 1.70
-10.07 0.55 1.60
-10.26 0.35 1.63
-10.52 0.15 1.67
-12.32 -0.07 1.95
-12.33 -0.32 1.95
-12.34 -0.57 1.95
-12.35 -0.82 1.95
-12.36 -1.07 1.96
-12.36 -1.33 1.96
-12.38 -1.58 1.96
-12.40 -1.84 1.97
-12.41 -2.10 1.97
-12.40 -2.35 1.98
-12.39 -2.61 1.98
-12.38 -2.87 1.98
-12.37 -3.13 1.99
-12.36 -3.40 1.99
-12.35 -3.66 2.00
-12.26 -3.91 1.99
-12.21 -4.16 1.99
-12.23 -4.45 2.00
-12.25 -4.74 2.02
-12.27 -5.03 2.03
-12.29 -5.33 2.05
-12.31 -5.64 2.06
-12.33 -5.95 2.08
-12.32 -6.25 2.09
-12.32 -6.57 2.11
-12.32 -6.89 2.13
-12.32 -7.22 2.14
-12.32 -7.56 2.16
-12.28 -7.88 2.17
-12.23 -8.20 2.19
-12.17 -8.52 2.20
-12.09 -8.84 2.21
-12.02 -9.16 2.22
-11.93 -9.48 2.23
-11.85 -9.81 2.24
-11.76 -10.14 2.25
-11.72 -10.53 2.28
-11.69 -10.93 2.30
-11.66 -11.35 2.33
-11.63 -11.79 2.36
-11.59 -12.23 2.39
-11.59 -12.73 2.43
-11.59 -13.25 2.48
-10.98 -13.08 2.39
-10.77 -13.37 2.39
-10.55 -13.65 2.39
-10.32 -13.93 2.39
-10.09 -14.20 2.39
-9.86 -14.48 2.39
-9.61 -14.75 2.39
-9.37 -15.02 2.39
-9.11 -15.29 2.39
-8.85 -15.56 2.39
-8.58 -15.82 2.39
-8.31 -16.08 2.39
-8.03 -16.34 2.39
-7.75 -16.59 2.39
-7.46 -16.84 2.39
-7.40 -17.66 2.47
-7.15 -18.08 2.49
-6.83 -18.33 2.49
-6.50 -18.58 2.49
-6.16 -18.83 2.49
-5.82 -19.06 2.49
-5.47 -19.30 2.49
-5.11 -19.53 2.49
-4.75 -19.75 2.49
-4.38 -19.97 2.49
-4.01 -20.19 2.49
-3.63 -20.40 2.49
-3.24 -20.61 2.49
-2.84 -20.81 2.49
-2.44 -21.00 2.49
-2.03 -21.19 2.49
-1.62 -21.37 2.49
-1.20 -21.54 2.49
-0.77 -21.71 2.49
-0.34 -21.87 2.49
0.10 -18.33 2.49
0.47 -18.43 2.49
0.81 -17.76 2.39
1.17 -17.84 2.39
1.54 -17.92 2.39
1.91 -17.99 2.39
2.28 -18.05 2.39
2.66 -18.11 2.39
3.04 -18.16 2.39
3.42 -18.20 2.39
3.81 -18.23 2.39
4.20 -18.26 2.39
4.59 -18.28 2.39
5.82 -21.35 2.79
6.78 -23.05 3.01
7.12 -22.53 2.94
7.49 -22.15 2.90
7.82 -21.71 2.84
8.11 -21.16 2.78
8.20 -20.18 2.65
8.43 -19.61 2.59
8.58 -18.91 2.50
8.71 -18.22 2.42
8.83 -17.55 2.34
9.07 -17.16 2.30
9.30 -16.78 2.26
9.45 -16.28 2.21
9.64 -15.87 2.16
9.80 -15.42 2.12
9.95 -14.99 2.08
10.16 -14.66 2.05
10.47 -14.48 2.04
10.77 -14.29 2.03
10.97 -13.96 2.01
11.21 -13.69 1.99
11.57 -13.57 2.00
11.76 -13.24 1.97
11.90 -12.88 1.95
12.05 -12.52 1.92
12.18 -12.17 1.89
12.28 -11.79 1.86
12.38 -11.41 1.84
12.47 -11.05 1.81
12.64 -10.76 1.80
6.58 -5.38 0.92
6.62 -5.19 0.90
13.05 -9.82 1.75
13.13 -9.47 1.73
13.24 -9.15 1.71
13.34 -8.84 1.69
13.45 -8.53 1.68
13.54 -8.21 1.67
13.61 -7.88 1.65
13.64 -7.54 1.63
13.66 -7.20 1.61
13.68 -6.86 1.59
13.70 -6.53 1.58
13.72 -6.21 1.56
13.75 -5.90 1.55
13.77 -5.58 1.53
13.78 -5.27 1.52
13.79 -4.96 1.51
13.80 -4.65 1.49
13.80 -4.35 1.48
13.87 -4.07 1.48
13.94 -3.79 1.48
14.07 -3.52 1.48
14.22 -3.26 1.49
14.37 -2.99 1.50
14.51 -2.72 1.51
14.66 -2.45 1.52
14.79 -2.17 1.52
14.94 -1.88 1.54
15.09 -1.60 1.55
15.24 -1.31 1.56
15.39 -1.01 1.57
15.51 -0.71 1.59
15.63 -0.40 1.60
15.71 -0.09 1.61
15.79 0.23 1.62
15.87 0.55 1.63
15.90 0.87 1.64
15.91 1.19 1.64
15.92 1.51 1.65
15.85 1.82 1.65
15.72 2.12 1.64
15.60 2.43 1.64
15.48 2.72 1.63
15.35 3.02 1.63
15.23 3.31 1.63
15.06 3.59 1.62
14.90 3.87 1.62
14.79 4.16 1.62
14.66 4.44 1.62
14.53 4.72 1.62
14.40 5.00 1.62
14.27 5.28 1.62
14.14 5.55 1.63
14.00 5.82 1.63
13.87 6.10 1.64
13.74 6.37 1.64
13.61 6.64 1.65
13.48 6.92 1.66
13.34 7.19 1.66
13.20 7.45 1.67
13.06 7.72 1.68
12.92 7.99 1.69
12.83 8.30 1.71
12.75 8.61 1.73
12.66 8.93 1.75
12.55 9.23 1.77
12.43 9.53 1.78
12.31 9.83 1.80
12.20 10.15 1.82
8.32 7.21 1.27
8.20 7.39 1.28
12.14 11.40 1.95
12.12 11.85 1.99
12.08 12.28 2.03
11.99 12.69 2.07
11.88 13.09 2.11
11.75 13.48 2.15
11.62 13.88 2.18
11.48 14.29 2.23
3.08 3.99 0.62
11.52 15.57 2.38
11.62 16.39 2.48
11.51 16.94 2.54
11.44 17.59 2.62
11.40 18.32 2.71
11.24 18.89 2.78
8.58 15.10 2.21
10.87 20.06 2.92
10.65 20.62 2.98
9.80 19.95 2.87
8.63 18.50 2.66
7.39 16.70 2.39
7.01 16.75 2.39
6.64 16.79 2.39
6.26 16.82 2.39
5.89 16.84 2.39
5.52 16.86 2.39
5.15 16.86 2.39
4.78 16.86 2.39
4.42 16.86 2.39
4.05 16.85 2.39
3.73 17.01 2.42
3.48 17.53 2.49
3.11 17.49 2.49
2.74 17.45 2.49
2.38 17.41 2.49
2.02 17.35 2.49
1.66 17.29 2.49
1.31 17.23 2.49
0.96 17.15 2.49
0.61 17.08 2.49
0.26 16.99 2.49
-0.08 16.90 2.49
-0.41 16.81 2.49
-0.75 16.71 2.49
-1.08 16.60 2.49
-1.40 16.49 2.49
-1.72 16.37 2.49
-2.04 16.25 2.49
-2.36 16.12 2.49
-2.67 15.99 2.49
-2.97 15.86 2.49
-3.27 15.72 2.49
-3.57 15.57 2.49
-3.87 15.42 2.49
-4.16 15.27 2.49
-4.44 15.11 2.49
-4.58 14.49 2.42
-4.79 14.18 2.39
-5.05 14.01 2.39
-5.31 13.85 2.39
-5.57 13.68 2.39
-5.81 13.51 2.39
-6.06 13.33 2.39
-6.30 13.15 2.39
-6.54 12.97 2.39
-6.77 12.78 2.39
-7.00 12.59 2.39
-7.22 12.40 2.39
-7.44 12.21 2.39
-7.66 12.01 2.39
-7.87 11.81 2.39
-8.08 11.61 2.39
-8.28 11.41 2.39
-8.48 11.20 2.39
-8.68 10.99 2.39
-8.87 10.78 2.39
-9.61 11.21 2.54
-9.73 10.90 2.52
-9.84 10.58 2.50
-9.95 10.28 2.48
-10.06 9.98 2.46
-10.19 9.71 2.45
-10.33 9.46 2.45
-10.53 9.25 2.46
-10.71 9.04 2.46
-10.88 8.81 2.47
-10.95 8.51 2.45
-11.02 8.21 2.43
-11.07 7.90 2.41
-11.12 7.61 2.39
-11.17 7.31 2.38
-11.22 7.03 2.36
-11.27 6.74 2.35
-11.31 6.46 2.33
-11.33 6.17 2.31
-11.35 5.89 2.30
-11.38 5.62 2.28
-11.41 5.35 2.27
-11.44 5.09 2.26
-11.47 4.82 2.25
-11.51 4.57 2.24
-11.54 4.31 2.23
-11.57 4.06 2.22
-11.59 3.80 2.21
-11.61 3.55 2.20
-11.62 3.30 2.19
-11.64 3.05 2.18
-11.65 2.81 2.18
-11.67 2.56 2.17
-11.68 2.32 2.16
-11.72 2.08 2.16
-11.75 1.84 2.16
-11.76 1.60 2.16
-11.78 1.36 2.16
-11.79 1.12 2.15
-10.63 0.80 1.94
-10.04 0.55 1.83
-10.25 0.35 1.86
-10.52 0.15 1.91
-12.03 -0.07 2.18
-12.04 -0.32 2.18
-12.05 -0.56 2.19
-12.06 -0.80 2.19
-12.06 -1.05 2.19
-12.07 -1.30 2.19
-12.07 -1.54 2.20
-12.08 -1.79 2.20
-12.10 -2.05 2.21
-12.09 -2.30 2.21
-12.08 -2.55 2.21
-12.07 -2.80 2.22
-12.05 -3.06 2.22
-12.04 -3.31 2.23
-12.03 -3.57 2.24
-12.01 -3.83 2.24
-11.99 -4.10 2.25
-12.00 -4.37 2.26
-12.00 -4.65 2.28
-12.01 -4.93 2.29
-12.01 -5.22 2.30
-12.01 -5.51 2.32
-12.01 -5.81 2.34
-12.01 -6.11 2.35
-12.00 -6.41 2.37
-11.95 -6.69 2.38
-11.89 -6.98 2.39
-11.84 -7.28 2.40
-11.78 -7.57 2.41
-11.73 -7.87 2.42
-11.66 -8.18 2.44
-11.64 -8.51 2.46
-11.61 -8.86 2.48
-11.56 -9.19 2.50
-11.47 -9.51 2.51
-11.39 -9.83 2.53
-10.61 -9.54 2.39
-10.45 -9.79 2.39
-10.29 -10.03 2.39
-10.13 -10.28 2.39
-9.96 -10.52 2.39
-9.78 -10.76 2.39
-9.60 -11.00 2.39
-9.42 -11.24 2.39
-9.23 -11.48 2.39
-9.04 -11.71 2.39
-8.84 -11.94 2.39
-8.63 -12.17 2.39
-8.42 -12.40 2.39
-8.21 -12.62 2.39
-7.99 -12.84 2.39
-7.77 -13.06 2.39
-7.54 -13.28 2.39
-7.31 -13.49 2.39
-7.07 -13.70 2.39
-7.12 -14.51 2.49
-6.86 -14.73 2.49
-6.60 -14.94 2.49
-6.33 -15.14 2.49
-6.05 -15.34 2.49
-5.77 -15.54 2.49
-5.49 -15.74 2.49
-5.20 -15.93 2.49
-4.90 -16.12 2.49
-4.60 -16.30 2.49
-4.30 -16.48 2.49
-3.99 -16.65 2.49
-3.68 -16.82 2.49
-3.36 -16.98 2.49
-3.03 -17.14 2.49
-2.70 -17.30 2.49
-2.37 -17.45 2.49
-2.03 -17.59 2.49
-1.68 -17.73 2.49
-1.34 -17.86 2.49
-0.98 -17.99 2.49
-0.63 -18.11 2.49
-0.27 -18.22 2.49
0.10 -15.68 2.49
0.42 -15.75 2.49
0.74 -15.82 2.49
1.01 -15.22 2.39
1.32 -15.28 2.39
1.64 -15.32 2.39
1.96 -15.36 2.39
2.27 -15.40 2.39
2.59 -15.43 2.39
2.92 -15.45 2.39
3.24 -15.47 2.39
3.57 -15.47 2.39
3.90 -15.48 2.39
4.23 -15.47 2.39
4.56 -15.46 2.39
4.89 -15.44 2.39
6.02 -17.76 2.75
6.97 -19.30 3.00
7.28 -18.95 2.95
7.52 -18.46 2.88
7.66 -17.77 2.79
7.74 -17.03 2.68
7.87 -16.43 2.60
8.10 -16.08 2.56
8.34 -15.76 2.52
8.58 -15.45 2.49
8.79 -15.11 2.45
8.98 -14.76 2.41
9.17 -14.41 2.37
9.35 -14.06 2.33
9.51 -13.71 2.30
9.67 -13.36 2.26
9.84 -13.04 2.23
10.01 -12.72 2.20
10.24 -12.50 2.19
10.57 -12.38 2.19
10.89 -12.26 2.20
11.15 -12.06 2.20
11.39 -11.83 2.19
11.71 -11.68 2.20
11.88 -11.39 2.18
11.98 -11.03 2.15
12.07 -10.68 2.12
12.21 -10.38 2.10
6.59 -5.37 1.11
12.41 -9.72 2.05
12.49 -9.39 2.03
12.57 -9.06 2.00
12.65 -8.74 1.98
12.76 -8.44 1.97
12.84 -8.14 1.95
12.92 -7.83 1.93
12.99 -7.52 1.92
13.06 -7.21 1.90
13.09 -6.89 1.88
13.11 -6.58 1.86
13.14 -6.26 1.84
13.17 -5.96 1.83
13.20 -5.66 1.81
13.23 -5.36 1.80
13.25 -5.06 1.78
13.27 -4.77 1.77
13.28 -4.47 1.76
13.30 -4.19 1.75
13.37 -3.92 1.75
13.44 -3.65 1.74
13.51 -3.38 1.74
13.61 -3.12 1.74
13.75 -2.86 1.75
13.89 -2.60 1.76
14.02 -2.34 1.77
14.11 -2.07 1.78
14.19 -1.79 1.78
14.53 -1.54 1.82
14.80 -1.27 1.86
14.95 -0.98 1.87
15.09 -0.69 1.89
15.21 -0.39 1.90
15.29 -0.09 1.91
15.36 0.22 1.92
15.44 0.53 1.94
15.52 0.84 1.95
15.57 1.16 1.96
15.58 1.47 1.97
15.53 1.78 1.97
15.41 2.08 1.96
15.29 2.37 1.96
15.17 2.67 1.95
15.01 2.95 1.94
14.81 3.22 1.93
14.60 3.48 1.91
14.41 3.74 1.90
14.28 4.01 1.90
14.17 4.29 1.90
14.07 4.56 1.91
13.96 4.84 1.91
13.85 5.11 1.91
13.74 5.39 1.92
13.62 5.66 1.92
13.49 5.92 1.93
13.37 6.19 1.93
13.23 6.45 1.94
13.10 6.71 1.94
12.96 6.97 1.95
12.82 7.23 1.96
12.68 7.49 1.97
12.54 7.75 1.98
12.40 8.01 1.99
12.31 8.30 2.01
12.23 8.61 2.03
12.14 8.91 2.05
12.05 9.22 2.07
11.96 9.54 2.10
11.86 9.86 2.13
8.33 7.21 1.52
8.16 7.35 1.53
11.66 10.93 2.23
11.58 11.30 2.27
11.49 11.68 2.31
11.40 12.06 2.35
11.35 12.49 2.40
11.29 12.93 2.45
11.15 13.30 2.49
11.01 13.69 2.53
3.08 3.99 0.73
10.75 14.51 2.63
10.67 15.03 2.70
10.59 15.56 2.77
10.53 16.16 2.85
10.46 16.77 2.94
10.31 17.30 3.01
8.59 15.09 2.60
8.42 15.50 2.66
7.25 14.01 2.39
6.93 14.08 2.39
6.61 14.14 2.39
6.30 14.20 2.39
5.98 14.25 2.39
5.67 14.30 2.39
5.35 14.34 2.39
5.04 14.37 2.39
4.73 14.39 2.39
4.41 14.41 2.39
4.10 14.43 2.39
3.80 14.43 2.39
3.52 14.57 2.41
3.32 15.05 2.49
3.00 15.04 2.49
2.69 15.03 2.49
2.37 15.00 2.49
2.06 14.97 2.49
1.75 14.94 2.49
1.45 14.90 2.49
1.14 14.85 2.49
0.84 14.80 2.49
0.54 14.74 2.49
0.24 14.68 2.49
-0.05 14.62 2.49
-0.35 14.54 2.49
-0.63 14.47 2.49
-0.92 14.38 2.49
-1.20 14.30 2.49
-1.48 14.21 2.49
-1.76 14.11 2.49
-2.04 14.01 2.49
-2.31 13.90 2.49
-2.57 13.80 2.49
-2.84 13.68 2.49
-3.10 13.56 2.49
-3.36 13.44 2.49
-3.61 13.32 2.49
-3.86 13.19 2.49
-4.11 13.05 2.49
-4.36 12.92 2.49
-4.60 12.78 2.49
-4.75 12.42 2.45
-4.86 11.97 2.39
-5.08 11.82 2.39
-5.30 11.68 2.39
-5.51 11.52 2.39
-5.72 11.37 2.39
-5.93 11.21 2.39
-6.13 11.05 2.39
-6.33 10.89 2.39
-6.53 10.72 2.39
-6.72 10.56 2.39
-6.91 10.39 2.39
-7.10 10.21 2.39
-7.28 10.04 2.39
-7.46 9.86 2.39
-7.63 9.68 2.39
-7.80 9.49 2.39
-7.97 9.31 2.39
-8.13 9.12 2.39
-8.29 8.93 2.39
-8.45 8.74 2.39
-8.60 8.54 2.39
-8.75 8.35 2.39
-8.90 8.15 2.39
-9.04 7.95 2.39
-9.18 7.75 2.39
-10.32 8.36 2.65
-10.50 8.16 2.66
-10.64 7.94 2.66
-10.77 7.70 2.66
-10.92 7.48 2.66
-11.03 7.23 2.65
-11.08 6.94 2.64
-11.12 6.66 2.62
-11.17 6.39 2.60
-11.21 6.11 2.59
-11.23 5.83 2.57
-11.27 5.57 2.55
-11.30 5.30 2.54
-11.33 5.04 2.53
-11.36 4.78 2.51
-11.39 4.52 2.50
-11.43 4.27 2.49
-11.46 4.02 2.48
-11.48 3.77 2.47
-11.49 3.52 2.46
-11.51 3.27 2.45
-11.52 3.02 2.44
-11.54 2.78 2.43
-11.55 2.54 2.43
-11.57 2.30 2.42
-11.59 2.06 2.42
-11.62 1.82 2.41
-11.63 1.58 2.41
-11.64 1.35 2.40
-11.65 1.11 2.40
-10.60 0.79 2.18
-10.02 0.55 2.06
-10.25 0.35 2.10
-10.52 0.15 2.16
-11.75 -0.07 2.41
-11.76 -0.31 2.41
-11.77 -0.55 2.41
-11.78 -0.79 2.41
-11.78 -1.03 2.41
-11.79 -1.27 2.42
-11.79 -1.51 2.42
-11.78 -1.75 2.42
-11.76 -1.99 2.43
-11.74 -2.23 2.43
-11.70 -2.47 2.42
-11.66 -2.71 2.42
-11.62 -2.95 2.42
-11.58 -3.19 2.42
-11.53 -3.43 2.43
-11.49 -3.67 2.43
-11.44 -3.91 2.43
-11.39 -4.16 2.43
-11.41 -4.42 2.45
-11.41 -4.69 2.46
-11.42 -4.97 2.48
-11.41 -5.24 2.50
-11.41 -5.52 2.51
-11.40 -5.80 2.53
-11.39 -6.09 2.55
-11.38 -6.39 2.57
-11.38 -6.69 2.59
-10.39 -6.39 2.39
-10.29 -6.62 2.39
-10.18 -6.84 2.39
-10.07 -7.07 2.39
-9.95 -7.29 2.39
-9.83 -7.51 2.39
-9.71 -7.73 2.39
-9.58 -7.95 2.39
-9.45 -8.17 2.39
-9.31 -8.38 2.39
-9.17 -8.60 2.39
-9.03 -8.81 2.39
-8.88 -9.02 2.39
-8.72 -9.23 2.39
-8.57 -9.44 2.39
-8.40 -9.64 2.39
-8.24 -9.85 2.39
-8.07 -10.05 2.39
-7.89 -10.25 2.39
-7.72 -10.44 2.39
-7.53 -10.64 2.39
-7.35 -10.83 2.39
-7.16 -11.02 2.39
-6.96 -11.21 2.39
-6.86 -11.57 2.43
-6.84 -12.07 2.49
-6.63 -12.26 2.49
-6.41 -12.44 2.49
-6.18 -12.63 2.49
-5.95 -12.80 2.49
-5.72 -12.98 2.49
-5.48 -13.15 2.49
-5.24 -13.31 2.49
-4.99 -13.48 2.49
-4.74 -13.64 2.49
-4.49 -13.79 2.49
-4.23 -13.95 2.49
-3.97 -14.09 2.49
-3.70 -14.24 2.49
-3.43 -14.38 2.49
-3.16 -14.51 2.49
-2.88 -14.64 2.49
-2.60 -14.77 2.49
-2.31 -14.89 2.49
-2.02 -15.01 2.49
-1.73 -15.12 2.49
-1.43 -15.23 2.49
-1.13 -15.33 2.49
-0.83 -15.42 2.49
-0.52 -15.51 2.49
-0.21 -15.60 2.49
0.10 -13.68 2.49
0.38 -13.74 2.49
0.65 -13.79 2.49
0.93 -13.84 2.49
1.17 -13.30 2.39
1.44 -13.33 2.39
1.71 -13.36 2.39
1.99 -13.38 2.39
2.27 -13.40 2.39
2.54 -13.41 2.39
2.82 -13.41 2.39
3.11 -13.41 2.39
3.39 -13.41 2.39
3.67 -13.39 2.39
3.96 -13.38 2.39
4.24 -13.35 2.39
4.53 -13.32 2.39
4.81 -13.28 2.39
5.10 -13.24 2.39
5.83 -14.28 2.59
6.25 -14.47 2.63
6.69 -14.68 2.68
7.15 -14.90 2.74
7.53 -14.91 2.76
7.75 -14.62 2.72
7.97 -14.33 2.69
8.16 -14.01 2.64
8.34 -13.69 2.60
8.52 -13.37 2.57
8.69 -13.05 2.53
8.85 -12.73 2.49
9.00 -12.41 2.45
9.14 -12.09 2.42
9.27 -11.76 2.38
9.40 -11.46 2.35
9.55 -11.17 2.32
9.69 -10.89 2.29
9.82 -10.60 2.27
10.00 -10.38 2.25
10.25 -10.21 2.25
10.50 -10.05 2.26
10.73 -9.87 2.26
10.95 -9.68 2.26
11.18 -9.49 2.26
6.59 -5.37 1.31
11.60 -9.07 2.25
11.80 -8.86 2.25
11.99 -8.64 2.25
12.12 -8.37 2.24
12.20 -8.07 2.22
12.28 -7.77 2.20
12.35 -7.48 2.18
12.42 -7.18 2.16
12.49 -6.90 2.15
12.56 -6.61 2.13
12.59 -6.31 2.11
12.62 -6.01 2.09
12.66 -5.72 2.08
12.69 -5.44 2.06
12.72 -5.15 2.04
12.75 -4.87 2.03
12.78 -4.59 2.02
12.79 -4.31 2.00
12.84 -4.04 2.00
12.91 -3.78 1.99
12.98 -3.52 1.99
13.04 -3.26 1.99
13.11 -3.00 1.99
13.18 -2.74 1.99
13.31 -2.49 2.00
13.44 -2.24 2.01
13.51 -1.98 2.02
13.58 -1.71 2.02
13.65 -1.45 2.03
13.75 -1.18 2.04
14.07 -0.92 2.08
14.40 -0.66 2.13
14.74 -0.38 2.18
14.89 -0.09 2.20
14.96 0.21 2.22
15.03 0.51 2.23
15.10 0.82 2.25
15.17 1.12 2.26
15.24 1.44 2.28
15.22 1.74 2.28
15.11 2.03 2.27
14.95 2.32 2.26
14.75 2.59 2.24
14.55 2.85 2.22
14.36 3.12 2.21
14.17 3.37 2.19
13.98 3.62 2.18
13.80 3.87 2.17
13.70 4.14 2.17
13.60 4.41 2.17
13.50 4.67 2.17
13.39 4.94 2.18
13.28 5.20 2.18
13.11 5.44 2.18
12.94 5.67 2.17
12.77 5.91 2.17
12.68 6.17 2.18
12.62 6.46 2.20
12.55 6.74 2.22
12.46 7.02 2.23
12.33 7.27 2.24
12.19 7.52 2.25
12.05 7.77 2.26
11.92 8.03 2.27
11.81 8.31 2.29
11.73 8.60 2.31
11.64 8.90 2.34
11.53 9.18 2.36
11.39 9.45 2.38
8.34 7.20 1.78
8.13 7.31 1.77
10.96 10.26 2.44
10.88 10.60 2.48
10.79 10.94 2.52
10.70 11.29 2.56
10.60 11.65 2.60
10.50 12.01 2.65
10.40 12.39 2.70
10.35 12.84 2.76
3.08 3.99 0.85
10.22 13.78 2.89
10.14 14.25 2.96
9.95 14.59 3.00
8.58 13.14 2.68
8.03 12.85 2.60
7.11 11.90 2.39
6.84 11.99 2.39
6.57 12.07 2.39
6.30 12.15 2.39
6.03 12.22 2.39
5.76 12.28 2.39
5.49 12.34 2.39
5.22 12.39 2.39
4.94 12.44 2.39
4.67 12.48 2.39
4.40 12.52 2.39
4.13 12.55 2.39
3.86 12.57 2.39
3.60 12.59 2.39
3.36 12.73 2.41
3.19 13.16 2.49
2.92 13.16 2.49
2.64 13.16 2.49
2.36 13.16 2.49
2.09 13.14 2.49
1.82 13.13 2.49
1.55 13.10 2.49
1.28 13.07 2.49
1.01 13.04 2.49
0.75 13.00 2.49
0.49 12.96 2.49
0.22 12.91 2.49
-0.04 12.86 2.49
-0.29 12.81 2.49
-0.55 12.75 2.49
-0.80 12.68 2.49
-1.05 12.61 2.49
-1.30 12.54 2.49
-1.54 12.46 2.49
-1.79 12.37 2.49
-2.03 12.29 2.49
-2.26 12.20 2.49
-2.50 12.10 2.49
-2.73 12.00 2.49
-2.96 11.90 2.49
-3.19 11.80 2.49
-3.41 11.69 2.49
-3.64 11.57 2.49
-3.85 11.46 2.49
-4.07 11.34 2.49
-4.28 11.21 2.49
-4.49 11.09 2.49
-4.70 10.96 2.49
-4.89 10.81 2.49
-4.94 10.35 2.41
-5.08 10.11 2.39
-5.27 9.98 2.39
-5.45 9.84 2.39
-5.63 9.70 2.39
-5.81 9.55 2.39
-5.98 9.41 2.39
-6.15 9.26 2.39
-6.32 9.11 2.39
-6.48 8.95 2.39
-6.64 8.79 2.39
-6.80 8.64 2.39
-6.96 8.48 2.39
-7.11 8.31 2.39
-7.26 8.15 2.39
-7.40 7.98 2.39
-7.54 7.81 2.39
-7.68 7.64 2.39
-7.82 7.47 2.39
-7.95 7.29 2.39
-8.08 7.11 2.39
-8.20 6.94 2.39
-8.33 6.75 2.39
-8.45 6.57 2.39
-8.56 6.39 2.39
-8.67 6.20 2.39
-8.78 6.02 2.39
-8.89 5.83 2.39
-8.99 5.64 2.39
-9.09 5.45 2.39
-9.19 5.26 2.39
-9.28 5.06 2.39
-9.37 4.87 2.39
-9.45 4.67 2.39
-11.19 5.25 2.81
-11.22 4.99 2.79
-11.25 4.74 2.78
-11.29 4.48 2.76
-11.32 4.23 2.75
-11.35 3.98 2.74
-11.36 3.73 2.73
-11.38 3.49 2.72
-11.40 3.24 2.71
-11.41 3.00 2.70
-11.43 2.75 2.69
-11.44 2.51 2.68
-11.46 2.28 2.67
-11.46 2.04 2.66
-11.45 1.80 2.65
-11.44 1.56 2.64
-11.42 1.32 2.63
-11.40 1.09 2.62
-10.57 0.79 2.42
-10.00 0.54 2.29
-10.25 0.35 2.34
-10.52 0.15 2.40
-11.29 -0.07 2.58
-11.29 -0.30 2.58
-11.28 -0.53 2.58
-11.27 -0.76 2.57
-11.26 -0.98 2.57
-11.25 -1.21 2.57
-11.23 -1.44 2.57
-11.21 -1.67 2.58
-11.20 -1.90 2.58
-11.18 -2.13 2.58
-11.15 -2.36 2.58
-11.13 -2.59 2.58
-11.10 -2.82 2.59
-11.07 -3.06 2.59
-11.03 -3.28 2.59
-10.13 -3.24 2.39
-10.08 -3.45 2.39
-10.02 -3.66 2.39
-9.97 -3.87 2.39
-9.90 -4.08 2.39
-9.84 -4.28 2.39
-9.77 -4.49 2.39
-9.69 -4.70 2.39
-9.62 -4.90 2.39
-9.54 -5.11 2.39
-9.45 -5.31 2.39
-9.37 -5.51 2.39
-9.27 -5.71 2.39
-9.18 -5.91 2.39
-9.08 -6.11 2.39
-8.98 -6.31 2.39
-8.87 -6.51 2.39
-8.76 -6.70 2.39
-8.65 -6.90 2.39
-8.53 -7.09 2.39
-8.41 -7.28 2.39
-8.29 -7.47 2.39
-8.16 -7.66 2.39
-8.03 -7.85 2.39
-7.89 -8.03 2.39
-7.75 -8.22 2.39
-7.61 -8.40 2.39
-7.46 -8.58 2.39
-7.31 -8.75 2.39
-7.16 -8.93 2.39
-7.00 -9.10 2.39
-6.85 -9.29 2.40
-6.69 -9.46 2.39
-6.72 -9.92 2.47
-6.61 -10.19 2.49
-6.42 -10.36 2.49
-6.24 -10.53 2.49
-6.05 -10.69 2.49
-5.85 -10.85 2.49
-5.65 -11.01 2.49
-5.45 -11.16 2.49
-5.25 -11.31 2.49
-5.04 -11.46 2.49
-4.83 -11.61 2.49
-4.61 -11.75 2.49
-4.39 -11.89 2.49
-4.17 -12.02 2.49
-3.94 -12.15 2.49
-3.71 -12.28 2.49
-3.48 -12.40 2.49
-3.24 -12.52 2.49
-3.00 -12.64 2.49
-2.76 -12.75 2.49
-2.52 -12.86 2.49
-2.27 -12.96 2.49
-2.02 -13.06 2.49
-1.76 -13.16 2.49
-1.50 -13.25 2.49
-1.24 -13.33 2.49
-0.98 -13.41 2.49
-0.71 -13.49 2.49
-0.44 -13.56 2.49
-0.17 -13.62 2.49
0.10 -12.13 2.49
0.34 -12.17 2.49
0.59 -12.21 2.49
0.84 -12.25 2.49
1.09 -12.28 2.49
1.28 -11.79 2.39
1.52 -11.81 2.39
1.77 -11.82 2.39
2.01 -11.83 2.39
2.26 -11.83 2.39
2.50 -11.83 2.39
2.75 -11.83 2.39
3.00 -11.81 2.39
3.24 -11.80 2.39
3.49 -11.77 2.39
3.74 -11.75 2.39
3.99 -11.71 2.39
4.24 -11.67 2.39
4.49 -11.63 2.39
4.74 -11.58 2.39
4.99 -11.53 2.39
5.24 -11.47 2.39
5.98 -12.43 2.61
6.37 -12.59 2.66
6.77 -12.74 2.71
7.18 -12.89 2.76
7.61 -13.04 2.81
7.78 -12.75 2.77
7.95 -12.46 2.73
8.11 -12.17 2.70
8.26 -11.87 2.66
8.39 -11.56 2.62
8.52 -11.26 2.58
8.65 -10.96 2.54
8.78 -10.69 2.51
8.92 -10.43 2.48
9.06 -10.17 2.46
9.21 -9.93 2.44
9.39 -9.73 2.43
9.54 -9.49 2.41
9.64 -9.22 2.38
9.74 -8.95 2.35
9.83 -8.68 2.33
9.92 -8.41 2.30
6.59 -5.37 1.50
10.17 -7.95 2.28
10.44 -7.83 2.30
10.71 -7.71 2.32
10.99 -7.58 2.34
11.26 -7.44 2.36
11.45 -7.24 2.36
11.55 -6.99 2.35
11.66 -6.74 2.34
11.76 -6.49 2.33
11.85 -6.23 2.32
12.04 -6.03 2.33
12.12 -5.77 2.32
12.16 -5.49 2.30
12.19 -5.22 2.28
12.22 -4.95 2.27
12.26 -4.68 2.25
12.29 -4.41 2.24
12.32 -4.15 2.23
12.39 -3.90 2.23
12.47 -3.65 2.22
12.54 -3.40 2.22
12.60 -3.15 2.22
12.67 -2.90 2.22
12.72 -2.65 2.22
12.78 -2.40 2.22
12.88 -2.15 2.23
12.95 -1.90 2.24
13.02 -1.64 2.24
13.09 -1.39 2.25
13.15 -1.13 2.26
13.21 -0.87 2.26
13.33 -0.61 2.28
13.62 -0.35 2.33
13.76 -0.08 2.36
13.77 0.19 2.36
13.77 0.47 2.36
13.77 0.74 2.37
13.82 1.02 2.38
14.07 1.32 2.43
14.32 1.63 2.48
14.37 1.93 2.50
14.29 2.21 2.49
14.20 2.49 2.49
14.11 2.76 2.49
13.94 3.02 2.47
13.76 3.27 2.46
13.58 3.51 2.44
13.40 3.75 2.42
13.26 4.00 2.42
13.14 4.25 2.41
12.98 4.49 2.41
12.82 4.72 2.40
12.66 4.95 2.39
12.50 5.18 2.39
12.34 5.40 2.38
12.18 5.62 2.38
12.02 5.84 2.38
11.86 6.06 2.37
11.80 6.33 2.39
11.73 6.60 2.41
11.66 6.87 2.43
11.59 7.14 2.45
11.51 7.41 2.47
11.42 7.68 2.49
11.29 7.92 2.51
11.16 8.17 2.52
11.11 8.48 2.56
11.02 8.76 2.58
10.88 9.02 2.60
8.35 7.20 2.04
8.09 7.27 2.02
10.46 9.78 2.66
10.31 10.04 2.68
10.16 10.29 2.71
10.07 10.61 2.75
9.97 10.94 2.79
9.87 11.27 2.83
9.72 11.56 2.87
9.21 11.41 2.79
3.09 3.99 0.96
8.26 11.12 2.66
7.82 10.98 2.60
6.97 10.20 2.39
6.74 10.30 2.39
6.51 10.40 2.39
6.27 10.48 2.39
6.04 10.57 2.39
5.80 10.64 2.39
5.57 10.72 2.39
5.33 10.78 2.39
5.09 10.84 2.39
4.86 10.90 2.39
4.62 10.95 2.39
4.38 11.00 2.39
4.15 11.04 2.39
3.91 11.08 2.39
3.67 11.11 2.39
3.43 11.14 2.39
3.23 11.28 2.42
3.09 11.66 2.49
2.84 11.68 2.49
2.60 11.68 2.49
2.35 11.69 2.49
2.11 11.69 2.49
1.87 11.68 2.49
1.63 11.67 2.49
1.39 11.66 2.49
1.15 11.64 2.49
0.91 11.61 2.49
0.68 11.59 2.49
0.44 11.55 2.49
0.21 11.52 2.49
-0.02 11.47 2.49
-0.25 11.43 2.49
-0.48 11.38 2.49
-0.70 11.33 2.49
-0.93 11.27 2.49
-1.15 11.21 2.49
-1.37 11.14 2.49
-1.59 11.07 2.49
-1.80 11.00 2.49
-2.02 10.92 2.49
-2.23 10.84 2.49
-2.44 10.76 2.49
-2.65 10.67 2.49
-2.85 10.58 2.49
-3.05 10.48 2.49
-3.25 10.39 2.49
-3.45 10.29 2.49
-3.64 10.18 2.49
-3.84 10.07 2.49
-4.03 9.96 2.49
-4.21 9.85 2.49
-4.40 9.73 2.49
-4.58 9.61 2.49
-4.76 9.49 2.49
-4.93 9.37 2.49
-5.04 9.12 2.46
-5.08 8.77 2.40
-5.22 8.61 2.39
-5.38 8.48 2.39
-5.53 8.34 2.39
-5.69 8.21 2.39
-5.84 8.07 2.39
-5.98 7.93 2.39
-6.13 7.79 2.39
-6.27 7.65 2.39
-6.41 7.50 2.39
-6.54 7.36 2.39
-6.68 7.21 2.39
-6.81 7.05 2.39
-6.93 6.90 2.39
-7.06 6.75 2.39
-7.18 6.59 2.39
-7.30 6.43 2.39
-7.41 6.27 2.39
-7.52 6.11 2.39
-7.63 5.94 2.39
-7.74 5.78 2.39
-7.84 5.61 2.39
-7.94 5.44 2.39
-8.04 5.27 2.39
-8.13 5.10 2.39
-8.22 4.93 2.39
-8.31 4.76 2.39
-8.39 4.58 2.39
-8.47 4.41 2.39
-8.55 4.23 2.39
-8.63 4.05 2.39
-8.70 3.87 2.39
-8.77 3.69 2.39
-8.83 3.51 2.39
-8.90 3.33 2.39
-8.96 3.15 2.39
-9.01 2.96 2.39
-9.07 2.78 2.39
-9.12 2.59 2.39
-9.16 2.41 2.39
-9.21 2.22 2.39
-9.25 2.03 2.39
-9.28 1.84 2.39
-9.32 1.66 2.39
-9.35 1.47 2.39
-9.38 1.28 2.39
-9.40 1.09 2.39
-9.42 0.90 2.39
-9.44 0.71 2.39
-9.45 0.51 2.39
-9.47 0.32 2.39
-9.47 0.13 2.39
-9.48 -0.06 2.39
-9.48 -0.25 2.39
-9.48 -0.45 2.39
-9.47 -0.64 2.39
-9.47 -0.83 2.39
-9.45 -1.02 2.39
-9.44 -1.21 2.39
-9.42 -1.41 2.39
-9.40 -1.60 2.39
-9.38 -1.79 2.39
-9.35 -1.98 2.39
-9.32 -2.17 2.39
-9.28 -2.36 2.39
-9.24 -2.56 2.39
-9.20 -2.75 2.39
-9.16 -2.94 2.39
-9.11 -3.12 2.39
-9.06 -3.31 2.39
-9.01 -3.50 2.39
-8.95 -3.69 2.39
-8.89 -3.88 2.39
-8.82 -4.06 2.39
-8.76 -4.25 2.39
-8.68 -4.43 2.39
-8.61 -4.62 2.39
-8.53 -4.80 2.39
-8.45 -4.98 2.39
-8.37 -5.16 2.39
-8.28 -5.34 2.39
-8.19 -5.52 2.39
-8.09 -5.70 2.39
-8.00 -5.87 2.39
-7.90 -6.05 2.39
-7.79 -6.22 2.39
-7.68 -6.39 2.39
-7.57 -6.57 2.39
-7.46 -6.73 2.39
-7.34 -6.90 2.39
-7.22 -7.07 2.39
-7.10 -7.23 2.39
-6.97 -7.40 2.39
-6.84 -7.56 2.39
-6.72 -7.73 2.40
-6.57 -7.87 2.39
-6.57 -8.20 2.44
-6.55 -8.53 2.49
-6.40 -8.69 2.49
-6.24 -8.85 2.49
-6.08 -9.00 2.49
-5.92 -9.15 2.49
-5.75 -9.30 2.49
-5.58 -9.44 2.49
-5.41 -9.59 2.49
-5.23 -9.73 2.49
-5.05 -9.86 2.49
-4.87 -10.00 2.49
-4.69 -10.13 2.49
-4.50 -10.26 2.49
-4.31 -10.38 2.49
-4.11 -10.50 2.49
-3.91 -10.62 2.49
-3.71 -10.74 2.49
-3.51 -10.85 2.49
-3.30 -10.96 2.49
-3.09 -11.07 2.49
-2.88 -11.17 2.49
-2.67 -11.27 2.49
-2.45 -11.36 2.49
-2.23 -11.45 2.49
-2.01 -11.54 2.49
-1.78 -11.62 2.49
-1.56 -11.70 2.49
-1.33 -11.77 2.49
-1.09 -11.84 2.49
-0.86 -11.91 2.49
-0.62 -11.97 2.49
-0.38 -12.03 2.49
-0.14 -12.08 2.49
0.10 -10.88 2.49
0.32 -10.92 2.49
0.54 -10.95 2.49
0.76 -10.97 2.49
0.98 -11.00 2.49
1.21 -11.01 2.49
1.37 -10.57 2.39
1.59 -10.58 2.39
1.81 -10.58 2.39
2.03 -10.58 2.39
2.25 -10.57 2.39
2.46 -10.56 2.39
2.68 -10.55 2.39
2.91 -10.53 2.39
3.13 -10.50 2.39
3.35 -10.48 2.39
3.57 -10.44 2.39
3.79 -10.40 2.39
4.01 -10.36 2.39
4.23 -10.31 2.39
4.45 -10.26 2.39
4.67 -10.20 2.39
4.89 -10.14 2.39
5.10 -10.07 2.39
5.32 -10.00 2.39
6.02 -10.78 2.60
6.35 -10.87 2.64
6.69 -10.94 2.68
7.02 -10.99 2.72
7.33 -10.97 2.74
7.63 -10.95 2.77
7.85 -10.80 2.76
7.98 -10.53 2.72
8.10 -10.25 2.68
8.23 -10.01 2.66
8.40 -9.81 2.64
8.58 -9.62 2.63
8.75 -9.42 2.61
8.92 -9.23 2.60
9.08 -9.03 2.59
9.18 -8.77 2.56
9.27 -8.51 2.53
9.37 -8.26 2.51
9.46 -8.01 2.48
6.59 -5.36 1.70
9.64 -7.53 2.44
9.80 -7.34 2.44
9.95 -7.15 2.44
10.11 -6.96 2.44
10.30 -6.80 2.44
10.55 -6.66 2.47
10.74 -6.49 2.48
10.84 -6.26 2.47
10.96 -6.04 2.46
11.15 -5.86 2.48
11.35 -5.68 2.49
11.54 -5.49 2.50
11.63 -5.25 2.50
11.67 -4.99 2.48
11.70 -4.73 2.47
11.74 -4.48 2.45
11.77 -4.22 2.44
11.82 -3.98 2.43
11.87 -3.73 2.42
11.93 -3.49 2.42
12.00 -3.25 2.42
12.07 -3.02 2.42
12.14 -2.78 2.42
12.21 -2.54 2.42
12.28 -2.30 2.43
12.30 -2.05 2.42
12.24 -1.79 2.40
12.25 -1.55 2.40
12.37 -1.31 2.41
12.47 -1.07 2.43
12.58 -0.83 2.45
12.68 -0.58 2.47
12.78 -0.33 2.48
12.84 -0.08 2.50
12.85 0.18 2.50
12.83 0.43 2.50
12.81 0.69 2.50
12.78 0.94 2.50
12.75 1.20 2.50
12.71 1.45 2.50
12.67 1.70 2.50
12.62 1.95 2.50
12.56 2.20 2.50
12.50 2.44 2.50
12.42 2.69 2.50
12.34 2.93 2.50
12.25 3.17 2.50
12.16 3.40 2.49
12.07 3.64 2.49
11.96 3.87 2.49
11.86 4.10 2.49
11.76 4.33 2.49
11.66 4.55 2.49
11.55 4.78 2.50
11.43 5.00 2.50
11.31 5.22 2.50
11.22 5.45 2.51
11.16 5.70 2.52
11.09 5.94 2.54
11.01 6.18 2.56
10.88 6.40 2.56
10.76 6.62 2.57
10.63 6.84 2.58
10.51 7.06 2.59
10.38 7.28 2.60
10.26 7.50 2.61
10.13 7.72 2.63
10.00 7.94 2.64
9.86 8.16 2.66
8.36 7.20 2.29
8.07 7.24 2.26
9.60 8.96 2.75
9.30 9.04 2.72
8.87 8.97 2.66
8.61 9.07 2.64
8.35 9.15 2.63
8.10 9.23 2.61
7.84 9.31 2.60
7.02 8.69 2.39
3.09 3.98 1.08
6.63 8.90 2.39
6.42 9.00 2.39
6.22 9.10 2.39
6.02 9.19 2.39
5.81 9.27 2.39
5.61 9.36 2.39
5.40 9.43 2.39
5.19 9.51 2.39
4.99 9.57 2.39
4.78 9.64 2.39
4.57 9.70 2.39
4.36 9.75 2.39
4.14 9.80 2.39
3.93 9.85 2.39
3.72 9.89 2.39
3.51 9.93 2.39
3.32 10.03 2.41
3.13 10.11 2.42
3.00 10.44 2.49
2.78 10.47 2.49
2.56 10.48 2.49
2.34 10.49 2.49
2.13 10.50 2.49
1.91 10.50 2.49
1.69 10.50 2.49
1.47 10.50 2.49
1.26 10.49 2.49
1.05 10.47 2.49
0.83 10.46 2.49
0.62 10.44 2.49
0.41 10.41 2.49
0.20 10.38 2.49
-0.01 10.35 2.49
-0.22 10.31 2.49
-0.42 10.27 2.49
-0.63 10.22 2.49
-0.83 10.17 2.49
-1.03 10.12 2.49
-1.23 10.07 2.49
-1.43 10.01 2.49
-1.62 9.94 2.49
-1.82 9.88 2.49
-2.01 9.81 2.49
-2.20 9.73 2.49
-2.39 9.66 2.49
-2.57 9.58 2.49
-2.76 9.50 2.49
-2.94 9.41 2.49
-3.12 9.32 2.49
-3.30 9.23 2.49
-3.47 9.14 2.49
-3.64 9.04 2.49
-3.81 8.94 2.49
-3.98 8.83 2.49
-4.15 8.73 2.49
-4.31 8.62 2.49
-4.47 8.51 2.49
-4.63 8.39 2.49
-4.79 8.28 2.49
-4.94 8.16 2.49
-5.09 8.04 2.49
-5.16 7.79 2.45
-5.19 7.51 2.40
-5.30 7.34 2.39
-5.44 7.22 2.39
-5.57 7.09 2.39
-5.70 6.96 2.39
-5.83 6.83 2.39
-5.95 6.70 2.39
-6.07 6.56 2.39
-6.19 6.43 2.39
-6.31 6.29 2.39
-6.42 6.15 2.39
-6.53 6.00 2.39
-6.64 5.86 2.39
-6.75 5.72 2.39
-6.85 5.57 2.39
-6.95 5.42 2.39
-7.05 5.27 2.39
-7.14 5.12 2.39
-7.24 4.97 2.39
-7.33 4.81 2.39
-7.41 4.66 2.39
-7.50 4.50 2.39
-7.58 4.34 2.39
-7.65 4.18 2.39
-7.73 4.02 2.39
-7.80 3.86 2.39
-7.87 3.70 2.39
-7.94 3.54 2.39
-8.00 3.37 2.39
-8.06 3.21 2.39
-8.12 3.04 2.39
-8.17 2.87 2.39
-8.23 2.71 2.39
-8.27 2.54 2.39
-8.32 2.37 2.39
-8.36 2.20 2.39
-8.40 2.03 2.39
-8.44 1.86 2.39
-8.47 1.68 2.39
-8.51 1.51 2.39
-8.53 1.34 2.39
-8.56 1.17 2.39
-8.58 0.99 2.39
-8.60 0.82 2.39
-8.62 0.64 2.39
-8.63 0.47 2.39
-8.64 0.29 2.39
-8.65 0.12 2.39
-8.65 -0.06 2.39
-8.65 -0.23 2.39
-8.65 -0.41 2.39
-8.65 -0.58 2.39
-8.64 -0.76 2.39
-8.63 -0.93 2.39
-8.61 -1.11 2.39
-8.60 -1.29 2.39
-8.58 -1.46 2.39
-8.55 -1.64 2.39
-8.53 -1.81 2.39
-8.50 -1.99 2.39
-8.47 -2.16 2.39
-8.43 -2.33 2.39
-8.39 -2.51 2.39
-8.35 -2.68 2.39
-8.31 -2.85 2.39
-8.26 -3.02 2.39
-8.21 -3.20 2.39
-8.15 -3.37 2.39
-8.10 -3.54 2.39
-8.04 -3.71 2.39
-7.97 -3.87 2.39
-7.91 -4.04 2.39
-7.84 -4.21 2.39
-7.77 -4.37 2.39
-7.69 -4.54 2.39
-7.61 -4.70 2.39
-7.53 -4.87 2.39
-7.45 -5.03 2.39
-7.36 -5.19 2.39
-7.27 -5.35 2.39
-7.18 -5.51 2.39
-7.08 -5.66 2.39
-6.98 -5.82 2.39
-6.88 -5.97 2.39
-6.77 -6.12 2.39
-6.66 -6.28 2.39
-6.55 -6.42 2.39
-6.44 -6.57 2.39
-6.45 -6.85 2.44
-6.47 -7.16 2.49
-6.34 -7.31 2.49
-6.21 -7.45 2.49
-6.07 -7.60 2.49
-5.93 -7.74 2.49
-5.79 -7.88 2.49
-5.65 -8.02 2.49
-5.50 -8.16 2.49
-5.35 -8.29 2.49
-5.20 -8.42 2.49
-5.05 -8.55 2.49
-4.89 -8.68 2.49
-4.73 -8.80 2.49
-4.56 -8.92 2.49
-4.40 -9.04 2.49
-4.23 -9.16 2.49
-4.06 -9.27 2.49
-3.88 -9.38 2.49
-3.70 -9.49 2.49
-3.52 -9.59 2.49
-3.34 -9.70 2.49
-3.16 -9.79 2.49
-2.97 -9.89 2.49
-2.78 -9.98 2.49
-2.59 -10.07 2.49
-2.39 -10.15 2.49
-2.20 -10.23 2.49
-2.00 -10.31 2.49
-1.80 -10.39 2.49
-1.59 -10.46 2.49
-1.39 -10.52 2.49
-1.18 -10.59 2.49
-0.97 -10.65 2.49
-0.76 -10.70 2.49
-0.55 -10.75 2.49
-0.33 -10.80 2.49
-0.12 -10.84 2.49
0.10 -9.86 2.49
0.30 -9.89 2.49
0.50 -9.91 2.49
0.70 -9.93 2.49
0.90 -9.95 2.49
1.10 -9.96 2.49
1.30 -9.97 2.49
1.45 -9.56 2.39
1.64 -9.56 2.39
1.84 -9.55 2.39
2.04 -9.55 2.39
2.23 -9.53 2.39
2.43 -9.52 2.39
2.63 -9.50 2.39
2.83 -9.47 2.39
3.03 -9.44 2.39
3.22 -9.41 2.39
3.42 -9.37 2.39
3.62 -9.33 2.39
3.82 -9.28 2.39
4.01 -9.23 2.39
4.21 -9.18 2.39
4.40 -9.12 2.39
4.60 -9.06 2.39
4.79 -8.99 2.39
4.98 -8.92 2.39
5.18 -8.84 2.39
5.37 -8.76 2.39
5.99 -9.35 2.58
6.24 -9.33 2.60
6.50 -9.31 2.62
6.75 -9.27 2.64
7.01 -9.23 2.66
7.27 -9.19 2.68
7.68 -9.32 2.76
8.00 -9.32 2.80
8.17 -9.14 2.79
8.33 -8.96 2.78
8.49 -8.78 2.76
8.65 -8.60 2.75
8.75 -8.36 2.73
8.85 -8.12 2.70
8.94 -7.88 2.67
9.04 -7.65 2.65
6.60 -5.36 1.90
9.22 -7.19 2.61
9.34 -6.99 2.60
9.48 -6.81 2.60
9.63 -6.63 2.59
9.77 -6.44 2.59
9.91 -6.26 2.59
10.05 -6.07 2.59
10.17 -5.87 2.59
10.37 -5.71 2.61
10.55 -5.54 2.62
10.72 -5.36 2.63
10.90 -5.18 2.65
11.07 -5.00 2.66
11.19 -4.78 2.66
11.22 -4.54 2.65
11.26 -4.29 2.63
11.29 -4.05 2.62
11.35 -3.82 2.61
11.40 -3.58 2.61
11.45 -3.35 2.60
11.50 -3.12 2.60
11.57 -2.89 2.60
11.63 -2.66 2.60
11.70 -2.43 2.60
11.76 -2.20 2.60
11.76 -1.96 2.59
11.71 -1.71 2.57
11.65 -1.47 2.55
11.59 -1.23 2.54
11.53 -0.99 2.52
11.50 -0.76 2.51
11.58 -0.53 2.53
11.67 -0.30 2.54
11.75 -0.07 2.56
11.71 0.16 2.55
11.65 0.39 2.54
11.60 0.62 2.54
11.54 0.85 2.53
11.47 1.07 2.52
11.41 1.30 2.51
11.33 1.52 2.51
11.27 1.74 2.50
11.22 1.96 2.50
11.16 2.18 2.50
11.10 2.40 2.50
11.04 2.61 2.50
11.00 2.84 2.51
10.97 3.06 2.52
10.93 3.29 2.53
10.89 3.52 2.54
10.85 3.74 2.55
10.81 3.97 2.56
10.76 4.20 2.57
10.71 4.42 2.59
10.65 4.65 2.60
10.60 4.88 2.61
10.53 5.11 2.63
10.47 5.34 2.64
10.40 5.57 2.66
10.33 5.80 2.68
10.26 6.03 2.70
10.17 6.25 2.71
10.05 6.46 2.72
9.93 6.66 2.73
9.80 6.86 2.74
9.68 7.07 2.75
9.55 7.27 2.76
9.41 7.47 2.77
9.17 7.58 2.75
8.37 7.20 2.56
8.08 7.24 2.52
8.43 7.86 2.68
8.19 7.95 2.66
7.95 8.03 2.65
7.67 8.06 2.61
6.85 7.49 2.39
6.68 7.60 2.39
6.50 7.71 2.39
6.33 7.82 2.39
3.09 3.98 1.20
5.98 8.01 2.39
5.80 8.11 2.39
5.62 8.20 2.39
5.44 8.28 2.39
5.25 8.36 2.39
5.07 8.44 2.39
4.88 8.51 2.39
4.70 8.58 2.39
4.51 8.64 2.39
4.32 8.70 2.39
4.13 8.76 2.39
3.95 8.81 2.39
3.76 8.86 2.39
3.57 8.91 2.39
3.38 8.95 2.39
3.19 8.98 2.39
3.04 9.15 2.43
2.93 9.43 2.49
2.73 9.46 2.49
2.53 9.48 2.49
2.33 9.50 2.49
2.13 9.51 2.49
1.94 9.52 2.49
1.74 9.53 2.49
1.54 9.53 2.49
1.35 9.53 2.49
1.15 9.52 2.49
0.96 9.51 2.49
0.76 9.50 2.49
0.57 9.48 2.49
0.38 9.46 2.49
0.19 9.44 2.49
-0.00 9.41 2.49
-0.19 9.38 2.49
-0.38 9.35 2.49
-0.56 9.31 2.49
-0.75 9.27 2.49
-0.93 9.22 2.49
-1.11 9.17 2.49
-1.29 9.12 2.49
-1.47 9.07 2.49
-1.65 9.01 2.49
-1.82 8.95 2.49
-2.00 8.88 2.49
-2.17 8.81 2.49
-2.34 8.74 2.49
-2.51 8.67 2.49
-2.68 8.59 2.49
-2.84 8.52 2.49
-3.00 8.43 2.49
-3.16 8.35 2.49
-3.32 8.26 2.49
-3.48 8.17 2.49
-3.63 8.08 2.49
-3.79 7.98 2.49
-3.94 7.89 2.49
-4.09 7.79 2.49
-4.23 7.68 2.49
-4.38 7.58 2.49
-4.52 7.47 2.49
-4.66 7.36 2.49
-4.79 7.25 2.49
-4.93 7.14 2.49
-5.06 7.02 2.49
-5.19 6.90 2.49
-5.26 6.70 2.46
-5.28 6.46 2.42
-5.34 6.26 2.39
-5.45 6.14 2.39
-5.56 6.02 2.39
-5.67 5.90 2.39
-5.78 5.77 2.39
-5.89 5.64 2.39
-5.99 5.51 2.39
-6.09 5.38 2.39
-6.19 5.25 2.39
-6.28 5.11 2.39
-6.38 4.98 2.39
-6.47 4.84 2.39
-6.56 4.70 2.39
-6.64 4.56 2.39
-6.72 4.42 2.39
-6.80 4.28 2.39
-6.88 4.14 2.39
-6.96 3.99 2.39
-7.03 3.84 2.39
-7.10 3.70 2.39
-7.16 3.55 2.39
-7.23 3.40 2.39
-7.29 3.25 2.39
-7.35 3.10 2.39
-7.40 2.95 2.39
-7.46 2.80 2.39
-7.51 2.64 2.39
-7.56 2.49 2.39
-7.60 2.33 2.39
-7.65 2.18 2.39
-7.68 2.02 2.39
-7.72 1.86 2.39
-7.76 1.71 2.39
-7.79 1.55 2.39
-7.82 1.39 2.39
-7.84 1.23 2.39
-7.87 1.07 2.39
-7.89 0.91 2.39
-7.90 0.75 2.39
-7.92 0.59 2.39
-7.93 0.43 2.39
-7.94 0.27 2.39
-7.95 0.11 2.39
-7.95 -0.05 2.39
-7.95 -0.21 2.39
-7.95 -0.38 2.39
-7.94 -0.54 2.39
-7.94 -0.70 2.39
-7.93 -0.86 2.39
-7.91 -1.02 2.39
-7.90 -1.18 2.39
-7.88 -1.34 2.39
-7.86 -1.50 2.39
-7.83 -1.67 2.39
-7.80 -1.83 2.39
-7.77 -1.99 2.39
-7.74 -2.15 2.39
-7.70 -2.30 2.39
-7.66 -2.46 2.39
-7.62 -2.62 2.39
-7.58 -2.78 2.39
-7.53 -2.94 2.39
-7.48 -3.09 2.39
-7.43 -3.25 2.39
-7.37 -3.40 2.39
-7.31 -3.56 2.39
-7.25 -3.71 2.39
-7.19 -3.86 2.39
-7.12 -4.02 2.39
-7.05 -4.17 2.39
-6.98 -4.32 2.39
-6.90 -4.46 2.39
-6.82 -4.61 2.39
-6.74 -4.76 2.39
-6.66 -4.90 2.39
-6.57 -5.05 2.39
-6.49 -5.20 2.40
-6.39 -5.33 2.39
-6.34 -5.51 2.41
-6.35 -5.75 2.45
-6.36 -6.00 2.49
-6.25 -6.14 2.49
-6.14 -6.28 2.49
-6.03 -6.42 2.49
-5.91 -6.55 2.49
-5.79 -6.69 2.49
-5.67 -6.82 2.49
-5.54 -6.95 2.49
-5.42 -7.08 2.49
-5.29 -7.21 2.49
-5.15 -7.33 2.49
-5.02 -7.45 2.49
-4.88 -7.57 2.49
-4.74 -7.69 2.49
-4.60 -7.81 2.49
-4.45 -7.92 2.49
-4.31 -8.03 2.49
-4.15 -8.14 2.49
-4.00 -8.25 2.49
-3.85 -8.35 2.49
-3.69 -8.45 2.49
-3.53 -8.55 2.49
-3.37 -8.65 2.49
-3.20 -8.74 2.49
-3.03 -8.83 2.49
-2.87 -8.91 2.49
-2.69 -9.00 2.49
-2.52 -9.08 2.49
-2.35 -9.16 2.49
-2.17 -9.23 2.49
-1.99 -9.30 2.49
-1.81 -9.37 2.49
-1.62 -9.44 2.49
-1.44 -9.50 2.49
-1.25 -9.55 2.49
-1.06 -9.61 2.49
-0.87 -9.66 2.49
