ply
format ascii 1.0
element vertex 2938
property float32 x
property float32 y
property float32 z
end_header
1.65 14.62 2.49
1.36 14.63 2.49
1.06 14.63 2.49
0.77 14.62 2.49
0.47 14.61 2.49
0.18 14.59 2.49
-0.12 14.57 2.49
-0.41 14.54 2.49
-0.70 14.51 2.49
-0.99 14.47 2.49
-1.28 14.43 2.49
-1.56 14.38 2.49
-1.85 14.32 2.49
-2.14 14.26 2.49
-2.42 14.20 2.49
-2.70 14.13 2.49
-2.98 14.05 2.49
-3.26 13.97 2.49
-3.53 13.88 2.49
-3.80 13.79 2.49
-4.08 13.69 2.49
-4.35 13.59 2.49
-4.61 13.49 2.49
-4.88 13.37 2.49
-5.14 13.26 2.49
-5.34 13.00 2.47
-5.42 12.47 2.39
-5.66 12.35 2.39
-5.90 12.22 2.39
-6.14 12.08 2.39
-6.38 11.95 2.39
-6.61 11.80 2.39
-6.84 11.66 2.39
-7.07 11.51 2.39
-7.29 11.35 2.39
-7.51 11.19 2.39
-7.73 11.03 2.39
-7.94 10.87 2.39
-8.15 10.69 2.39
-8.36 10.52 2.39
-8.56 10.34 2.39
-8.76 10.16 2.39
-8.96 9.98 2.39
-9.15 9.79 2.39
-9.34 9.60 2.39
-10.03 9.90 2.52
-10.28 9.75 2.53
-10.32 9.40 2.50
-10.41 9.10 2.47
-10.51 8.82 2.46
-10.61 8.55 2.44
-10.70 8.27 2.42
-10.78 7.99 2.41
-10.87 7.72 2.39
-10.94 7.45 2.37
-11.03 7.19 2.36
-11.16 6.95 2.36
-11.32 6.74 2.36
-11.41 6.49 2.35
-11.45 6.21 2.34
-11.50 5.94 2.32
-11.55 5.67 2.31
-11.59 5.41 2.30
-11.61 5.14 2.28
-11.65 4.87 2.27
-11.68 4.61 2.25
-11.70 4.35 2.24
-11.73 4.10 2.23
-11.76 3.84 2.22
-11.79 3.59 2.21
-11.77 3.33 2.19
-11.77 3.07 2.18
-11.79 2.83 2.17
-11.80 2.58 2.16
-11.82 2.34 2.16
-11.83 2.09 2.15
-11.85 1.85 2.14
-11.86 1.61 2.14
-11.88 1.37 2.14
-11.90 1.13 2.13
-11.90 0.89 2.13
-11.90 0.65 2.13
-11.90 0.41 2.12
-11.90 0.17 2.12
-11.90 -0.07 2.12
-11.90 -0.31 2.12
-11.90 -0.55 2.12
-11.94 -0.80 2.13
-11.95 -1.04 2.13
-11.94 -1.28 2.13
-11.94 -1.52 2.13
-11.94 -1.77 2.13
-11.93 -2.01 2.14
-10.66 -2.02 1.92
-10.27 -2.16 1.85
-10.34 -2.39 1.87
-10.70 -2.70 1.94
-12.08 -3.31 2.20
-12.07 -3.57 2.21
-12.06 -3.83 2.22
-12.04 -4.10 2.23
-12.03 -4.36 2.24
-12.01 -4.63 2.25
-12.00 -4.91 2.26
-11.97 -5.18 2.27
-11.94 -5.45 2.29
-11.90 -5.73 2.30
-11.87 -6.01 2.31
-11.80 -6.27 2.32
-11.72 -6.54 2.32
-11.63 -6.80 2.33
-11.58 -7.09 2.35
-11.56 -7.40 2.37
-11.53 -7.71 2.39
-11.50 -8.03 2.41
-11.47 -8.35 2.44
-11.43 -8.68 2.46
-11.39 -9.02 2.49
-11.35 -9.36 2.52
-11.30 -9.71 2.54
-11.21 -10.03 2.56
-11.11 -10.35 2.58
-10.11 -9.80 2.39
-9.92 -10.02 2.39
-9.74 -10.23 2.39
-9.55 -10.44 2.39
-9.35 -10.65 2.39
-9.15 -10.86 2.39
-8.94 -11.06 2.39
-8.74 -11.25 2.39
-8.52 -11.45 2.39
-8.30 -11.64 2.39
-8.08 -11.82 2.39
-7.86 -12.00 2.39
-7.63 -12.18 2.39
-7.40 -12.35 2.39
-7.16 -12.52 2.39
-6.92 -12.68 2.39
-6.68 -12.84 2.39
-6.43 -13.00 2.39
-6.35 -13.52 2.46
-6.18 -13.86 2.49
-5.91 -14.01 2.49
-5.64 -14.15 2.49
-5.36 -14.29 2.49
-5.08 -14.42 2.49
-4.80 -14.54 2.49
-4.52 -14.66 2.49
-4.23 -14.78 2.49
-3.94 -14.88 2.49
-3.64 -14.99 2.49
-3.35 -15.08 2.49
-3.05 -15.18 2.49
-2.75 -15.26 2.49
-2.45 -15.34 2.49
-2.14 -15.41 2.49
-1.84 -15.48 2.49
-1.53 -15.54 2.49
-1.22 -15.59 2.49
-0.91 -15.64 2.49
-0.60 -15.68 2.49
-0.28 -15.72 2.49
0.03 -13.74 2.49
0.31 -13.76 2.49
0.59 -13.77 2.49
0.86 -13.77 2.49
1.14 -13.77 2.49
1.42 -13.77 2.49
1.69 -13.71 2.49
1.89 -13.17 2.39
2.16 -13.14 2.39
2.43 -13.12 2.39
2.69 -13.08 2.39
2.96 -13.04 2.39
3.22 -13.00 2.39
3.49 -12.95 2.39
3.75 -12.89 2.39
4.01 -12.83 2.39
4.27 -12.76 2.39
4.53 -12.69 2.39
4.79 -12.61 2.39
5.05 -12.53 2.39
5.31 -12.44 2.39
5.56 -12.34 2.39
6.26 -13.19 2.58
6.65 -13.32 2.63
7.06 -13.45 2.67
7.47 -13.57 2.73
7.90 -13.69 2.78
8.23 -13.63 2.80
8.37 -13.25 2.75
8.50 -12.88 2.70
8.63 -12.51 2.66
8.75 -12.17 2.62
8.89 -11.86 2.59
9.08 -11.61 2.57
9.26 -11.37 2.56
9.45 -11.14 2.55
9.59 -10.85 2.53
6.75 -7.33 1.74
6.86 -7.16 1.73
9.88 -9.91 2.44
9.97 -9.61 2.41
10.10 -9.35 2.39
10.27 -9.13 2.39
10.45 -8.93 2.39
10.72 -8.79 2.41
11.00 -8.66 2.43
11.21 -8.47 2.44
11.32 -8.20 2.42
11.43 -7.93 2.41
11.59 -7.71 2.41
11.80 -7.51 2.42
11.99 -7.30 2.43
12.02 -6.99 2.41
12.06 -6.69 2.39
12.09 -6.39 2.37
12.11 -6.10 2.35
12.14 -5.81 2.33
12.20 -5.54 2.32
12.27 -5.28 2.31
12.35 -5.03 2.31
12.43 -4.77 2.31
12.50 -4.51 2.30
12.58 -4.26 2.30
12.64 -4.00 2.30
12.71 -3.74 2.30
12.78 -3.49 2.30
12.85 -3.23 2.30
12.91 -2.97 2.30
12.98 -2.72 2.30
13.04 -2.46 2.30
13.10 -2.20 2.31
13.35 -1.97 2.35
13.54 -1.72 2.37
13.56 -1.45 2.37
13.57 -1.17 2.37
13.58 -0.90 2.37
13.59 -0.63 2.37
13.81 -0.36 2.41
14.06 -0.09 2.45
14.31 0.20 2.50
14.28 0.49 2.50
14.24 0.77 2.49
14.07 1.04 2.47
13.87 1.31 2.44
13.68 1.57 2.42
13.49 1.82 2.39
13.31 2.07 2.37
13.13 2.31 2.35
13.03 2.56 2.34
12.94 2.82 2.33
12.81 3.06 2.33
12.66 3.29 2.31
12.51 3.52 2.30
12.36 3.75 2.29
12.21 3.97 2.28
12.06 4.19 2.27
11.93 4.41 2.26
11.88 4.67 2.27
11.83 4.93 2.28
11.78 5.18 2.30
11.73 5.44 2.31
11.67 5.70 2.32
11.54 5.93 2.32
11.42 6.16 2.33
11.29 6.39 2.33
11.20 6.64 2.34
11.12 6.90 2.36
11.04 7.16 2.37
2.78 1.88 0.61
2.75 1.94 0.61
10.69 7.88 2.40
10.57 8.12 2.42
10.44 8.36 2.43
10.34 8.62 2.45
10.26 8.92 2.48
10.19 9.21 2.50
10.11 9.52 2.54
10.02 9.82 2.57
9.93 10.14 2.60
9.84 10.45 2.63
9.78 10.81 2.68
9.73 11.20 2.73
9.67 11.59 2.78
9.61 12.00 2.84
9.50 12.37 2.88
9.38 12.73 2.93
9.29 13.15 2.99
8.95 13.23 2.97
8.23 12.70 2.82
7.41 11.97 2.62
6.53 11.02 2.39
6.29 11.14 2.39
6.06 11.24 2.39
5.82 11.34 2.39
5.59 11.44 2.39
5.35 11.53 2.39
5.11 11.62 2.39
4.87 11.70 2.39
4.62 11.78 2.39
4.38 11.85 2.39
4.13 11.91 2.39
3.89 11.98 2.39
3.64 12.03 2.39
3.39 12.09 2.39
3.14 12.13 2.39
2.90 12.17 2.39
2.69 12.42 2.43
2.50 12.77 2.49
2.24 12.80 2.49
1.98 12.82 2.49
1.72 12.84 2.49
1.46 12.86 2.49
1.20 12.86 2.49
0.94 12.87 2.49
0.68 12.86 2.49
0.42 12.86 2.49
0.16 12.85 2.49
-0.10 12.83 2.49
-0.36 12.81 2.49
-0.61 12.78 2.49
-0.87 12.75 2.49
-1.12 12.71 2.49
-1.37 12.67 2.49
-1.63 12.62 2.49
-1.88 12.57 2.49
-2.13 12.51 2.49
-2.38 12.45 2.49
-2.62 12.39 2.49
-2.87 12.32 2.49
-3.11 12.24 2.49
-3.35 12.17 2.49
-3.59 12.08 2.49
-3.83 11.99 2.49
-4.07 11.90 2.49
-4.30 11.80 2.49
-4.53 11.70 2.49
-4.76 11.60 2.49
-4.99 11.49 2.49
-5.21 11.38 2.49
-5.41 11.20 2.48
-5.44 10.70 2.40
-5.63 10.55 2.39
-5.84 10.43 2.39
-6.04 10.30 2.39
-6.24 10.17 2.39
-6.44 10.03 2.39
-6.64 9.89 2.39
-6.83 9.75 2.39
-7.02 9.61 2.39
-7.21 9.46 2.39
-7.39 9.30 2.39
-7.57 9.15 2.39
-7.75 8.99 2.39
-7.92 8.82 2.39
-8.09 8.66 2.39
-8.26 8.49 2.39
-8.43 8.32 2.39
-8.59 8.14 2.39
-8.75 7.96 2.39
-8.90 7.78 2.39
-9.05 7.60 2.39
-9.20 7.41 2.39
-9.35 7.22 2.39
-9.49 7.03 2.39
-10.28 7.31 2.56
-10.38 7.07 2.55
-10.49 6.83 2.54
-10.58 6.60 2.53
-10.72 6.38 2.53
-10.88 6.19 2.54
-11.03 5.98 2.55
-11.19 5.78 2.55
-11.34 5.57 2.56
-11.44 5.34 2.56
-11.47 5.07 2.54
-11.50 4.81 2.53
-11.54 4.56 2.51
-11.56 4.30 2.50
-11.59 4.05 2.49
-11.62 3.80 2.48
-11.65 3.55 2.47
-11.65 3.29 2.45
-11.66 3.04 2.44
-11.68 2.80 2.43
-11.69 2.55 2.42
-11.71 2.31 2.41
-11.72 2.07 2.41
-11.74 1.83 2.40
-11.75 1.59 2.40
-11.77 1.35 2.39
-11.78 1.12 2.39
-11.78 0.88 2.38
-11.79 0.64 2.38
-11.79 0.40 2.38
-11.79 0.16 2.37
-11.79 -0.07 2.37
-11.79 -0.31 2.37
-11.79 -0.55 2.37
-11.80 -0.79 2.38
-11.81 -1.03 2.38
-11.80 -1.27 2.38
-11.80 -1.51 2.38
-11.80 -1.75 2.39
-11.79 -1.99 2.39
-10.64 -2.02 2.16
-10.25 -2.16 2.09
-10.34 -2.39 2.12
-10.70 -2.71 2.20
-11.79 -3.24 2.44
-11.78 -3.49 2.44
-11.76 -3.74 2.45
-11.72 -3.99 2.46
-11.67 -4.24 2.46
-11.62 -4.49 2.47
-11.57 -4.74 2.48
-11.52 -4.99 2.48
-11.46 -5.24 2.49
-11.39 -5.49 2.49
-11.32 -5.74 2.50
-11.24 -5.98 2.51
-11.17 -6.23 2.51
-11.09 -6.48 2.52
-11.00 -6.74 2.53
-10.92 -6.99 2.54
-10.90 -7.29 2.56
-10.04 -7.01 2.39
-9.91 -7.22 2.39
-9.78 -7.43 2.39
-9.64 -7.64 2.39
-9.50 -7.84 2.39
-9.35 -8.04 2.39
-9.20 -8.24 2.39
-9.05 -8.43 2.39
-8.89 -8.62 2.39
-8.72 -8.81 2.39
-8.56 -9.00 2.39
-8.39 -9.18 2.39
-8.21 -9.36 2.39
-8.04 -9.54 2.39
-7.85 -9.72 2.39
-7.67 -9.89 2.39
-7.48 -10.05 2.39
-7.29 -10.22 2.39
-7.09 -10.38 2.39
-6.89 -10.54 2.39
-6.69 -10.69 2.39
-6.49 -10.84 2.39
-6.28 -10.98 2.39
-6.28 -11.51 2.48
-6.10 -11.75 2.49
-5.87 -11.89 2.49
-5.64 -12.02 2.49
-5.41 -12.15 2.49
-5.17 -12.28 2.49
-4.93 -12.40 2.49
-4.69 -12.51 2.49
-4.45 -12.62 2.49
-4.20 -12.73 2.49
-3.95 -12.83 2.49
-3.70 -12.93 2.49
-3.44 -13.02 2.49
-3.18 -13.11 2.49
-2.92 -13.19 2.49
-2.66 -13.27 2.49
-2.40 -13.34 2.49
-2.14 -13.41 2.49
-1.87 -13.47 2.49
-1.60 -13.52 2.49
-1.33 -13.57 2.49
-1.06 -13.62 2.49
-0.79 -13.66 2.49
-0.52 -13.69 2.49
-0.24 -13.72 2.49
0.03 -12.17 2.49
0.28 -12.19 2.49
0.52 -12.19 2.49
0.77 -12.20 2.49
1.01 -12.19 2.49
1.26 -12.19 2.49
1.50 -12.17 2.49
1.75 -12.15 2.49
1.91 -11.63 2.39
2.15 -11.61 2.39
2.38 -11.57 2.39
2.62 -11.54 2.39
2.85 -11.50 2.39
3.09 -11.45 2.39
3.32 -11.40 2.39
3.55 -11.34 2.39
3.78 -11.28 2.39
4.01 -11.21 2.39
4.24 -11.14 2.39
4.46 -11.07 2.39
4.69 -10.99 2.39
4.91 -10.90 2.39
5.14 -10.81 2.39
5.36 -10.72 2.39
5.57 -10.62 2.39
5.79 -10.51 2.39
6.51 -11.28 2.59
6.80 -11.26 2.62
7.10 -11.23 2.64
7.40 -11.20 2.67
7.70 -11.17 2.69
8.16 -11.34 2.77
8.42 -11.22 2.78
8.60 -11.00 2.77
8.78 -10.78 2.75
8.96 -10.56 2.74
9.09 -10.29 2.71
6.75 -7.33 1.97
6.85 -7.15 1.95
9.39 -9.42 2.62
9.48 -9.14 2.60
9.59 -8.88 2.58
9.76 -8.68 2.57
9.92 -8.47 2.57
10.07 -8.26 2.57
10.23 -8.05 2.56
10.38 -7.84 2.56
10.56 -7.65 2.57
10.76 -7.47 2.58
10.95 -7.28 2.59
11.14 -7.09 2.60
11.33 -6.90 2.61
11.48 -6.67 2.61
11.51 -6.39 2.59
11.55 -6.11 2.57
11.58 -5.83 2.55
11.63 -5.57 2.53
11.69 -5.31 2.52
11.74 -5.06 2.51
11.81 -4.81 2.51
11.89 -4.56 2.50
11.96 -4.32 2.50
12.03 -4.07 2.50
12.10 -3.83 2.50
12.06 -3.55 2.47
12.00 -3.28 2.45
11.97 -3.01 2.43
12.09 -2.79 2.44
12.21 -2.56 2.46
12.33 -2.32 2.47
12.44 -2.09 2.49
12.55 -1.85 2.50
12.58 -1.60 2.50
12.60 -1.35 2.50
12.62 -1.09 2.50
12.63 -0.84 2.50
12.64 -0.59 2.50
12.64 -0.33 2.50
12.64 -0.08 2.50
12.63 0.17 2.50
12.61 0.43 2.50
12.58 0.68 2.50
12.55 0.93 2.50
12.51 1.18 2.49
12.46 1.43 2.49
12.41 1.67 2.49
12.35 1.92 2.49
12.29 2.16 2.49
12.23 2.40 2.49
12.17 2.65 2.49
12.11 2.89 2.49
12.04 3.13 2.49
11.93 3.35 2.48
11.79 3.57 2.47
11.64 3.78 2.46
11.50 3.99 2.45
11.36 4.20 2.43
11.23 4.41 2.43
11.18 4.65 2.44
11.13 4.89 2.45
11.07 5.14 2.46
11.02 5.38 2.48
10.96 5.63 2.49
10.87 5.86 2.50
10.77 6.09 2.51
10.67 6.32 2.52
10.61 6.57 2.54
10.58 6.85 2.57
2.78 1.88 0.69
2.75 1.94 0.69
10.24 7.54 2.60
10.12 7.77 2.61
10.00 8.00 2.62
9.87 8.23 2.64
9.74 8.46 2.65
9.65 8.72 2.68
9.57 9.00 2.71
9.48 9.29 2.74
9.39 9.58 2.77
9.30 9.87 2.81
9.20 10.17 2.84
9.08 10.45 2.87
8.67 10.39 2.81
8.27 10.32 2.75
7.88 10.25 2.69
7.50 10.18 2.64
7.14 10.11 2.59
6.41 9.47 2.39
6.21 9.58 2.39
6.01 9.69 2.39
5.80 9.79 2.39
5.60 9.89 2.39
5.39 9.99 2.39
5.18 10.08 2.39
4.97 10.17 2.39
4.76 10.25 2.39
4.55 10.33 2.39
4.33 10.41 2.39
4.12 10.48 2.39
3.90 10.54 2.39
3.68 10.60 2.39
3.46 10.66 2.39
3.24 10.71 2.39
3.02 10.76 2.39
2.80 10.80 2.39
2.64 11.07 2.44
2.46 11.35 2.49
2.23 11.38 2.49
2.00 11.41 2.49
1.77 11.43 2.49
1.54 11.45 2.49
1.30 11.46 2.49
1.07 11.47 2.49
0.84 11.47 2.49
0.61 11.47 2.49
0.38 11.47 2.49
0.15 11.46 2.49
-0.08 11.45 2.49
-0.31 11.43 2.49
-0.54 11.41 2.49
-0.77 11.38 2.49
-1.00 11.35 2.49
-1.22 11.31 2.49
-1.45 11.27 2.49
-1.67 11.23 2.49
-1.90 11.18 2.49
-2.12 11.13 2.49
-2.34 11.07 2.49
-2.56 11.01 2.49
-2.78 10.94 2.49
-2.99 10.87 2.49
-3.21 10.80 2.49
-3.42 10.72 2.49
-3.63 10.64 2.49
-3.84 10.56 2.49
-4.05 10.47 2.49
-4.26 10.37 2.49
-4.46 10.28 2.49
-4.66 10.18 2.49
-4.86 10.07 2.49
-5.06 9.96 2.49
-5.25 9.85 2.49
-5.45 9.74 2.49
-5.48 9.35 2.43
-5.59 9.10 2.39
-5.76 8.98 2.39
-5.94 8.86 2.39
-6.11 8.73 2.39
-6.28 8.60 2.39
-6.45 8.47 2.39
-6.61 8.33 2.39
-6.78 8.19 2.39
-6.94 8.05 2.39
-7.09 7.90 2.39
-7.25 7.75 2.39
-7.40 7.60 2.39
-7.55 7.45 2.39
-7.69 7.29 2.39
-7.83 7.13 2.39
-7.97 6.97 2.39
-8.11 6.81 2.39
-8.24 6.64 2.39
-8.37 6.47 2.39
-8.50 6.30 2.39
-8.62 6.13 2.39
-8.74 5.95 2.39
-8.86 5.77 2.39
-8.97 5.59 2.39
-9.08 5.41 2.39
-9.19 5.22 2.39
-9.29 5.04 2.39
-9.39 4.85 2.39
-9.48 4.66 2.39
-9.57 4.47 2.39
-9.66 4.27 2.39
-11.03 4.62 2.71
-11.15 4.40 2.71
-11.27 4.19 2.72
-11.38 3.97 2.73
-11.48 3.75 2.73
-11.51 3.51 2.72
-11.54 3.26 2.71
-11.55 3.01 2.70
-11.57 2.77 2.69
-11.58 2.53 2.68
-11.60 2.29 2.67
-11.61 2.05 2.66
-11.63 1.81 2.66
-11.64 1.58 2.65
-11.66 1.34 2.65
-11.67 1.10 2.64
-11.67 0.87 2.64
-11.67 0.63 2.63
-11.67 0.40 2.63
-11.67 0.16 2.63
-11.67 -0.07 2.63
-11.67 -0.31 2.62
-11.67 -0.55 2.62
-11.67 -0.78 2.63
-11.67 -1.02 2.63
-11.65 -1.25 2.63
-11.61 -1.48 2.62
-11.56 -1.72 2.62
-11.52 -1.95 2.61
-10.62 -2.02 2.41
-10.23 -2.16 2.33
-10.34 -2.40 2.37
-10.70 -2.71 2.46
-11.27 -3.09 2.60
-11.23 -3.33 2.61
-11.19 -3.56 2.61
-11.14 -3.80 2.61
-11.10 -4.03 2.62
-11.05 -4.27 2.63
-9.99 -4.09 2.39
-9.92 -4.30 2.39
-9.84 -4.50 2.39
-9.76 -4.70 2.39
-9.67 -4.90 2.39
-9.58 -5.10 2.39
-9.49 -5.30 2.39
-9.39 -5.50 2.39
-9.29 -5.69 2.39
-9.18 -5.88 2.39
-9.07 -6.07 2.39
-8.96 -6.26 2.39
-8.84 -6.45 2.39
-8.72 -6.63 2.39
-8.60 -6.82 2.39
-8.47 -7.00 2.39
-8.34 -7.17 2.39
-8.20 -7.35 2.39
-8.06 -7.52 2.39
-7.92 -7.69 2.39
-7.78 -7.86 2.39
-7.63 -8.03 2.39
-7.47 -8.19 2.39
-7.32 -8.35 2.39
-7.16 -8.50 2.39
-6.99 -8.66 2.39
-6.83 -8.81 2.39
-6.66 -8.96 2.39
-6.49 -9.10 2.39
-6.31 -9.24 2.39
-6.20 -9.49 2.42
-6.21 -9.92 2.49
-6.02 -10.06 2.49
-5.82 -10.19 2.49
-5.62 -10.32 2.49
-5.42 -10.45 2.49
-5.22 -10.57 2.49
-5.01 -10.69 2.49
-4.80 -10.80 2.49
-4.59 -10.91 2.49
-4.38 -11.02 2.49
-4.16 -11.12 2.49
-3.95 -11.22 2.49
-3.72 -11.31 2.49
-3.50 -11.40 2.49
-3.28 -11.48 2.49
-3.05 -11.56 2.49
-2.82 -11.64 2.49
-2.59 -11.71 2.49
-2.36 -11.77 2.49
-2.13 -11.84 2.49
-1.89 -11.89 2.49
-1.65 -11.94 2.49
-1.42 -11.99 2.49
-1.18 -12.03 2.49
-0.94 -12.07 2.49
-0.70 -12.10 2.49
-0.45 -12.13 2.49
-0.21 -12.16 2.49
0.03 -10.92 2.49
0.25 -10.93 2.49
0.47 -10.93 2.49
0.69 -10.93 2.49
0.91 -10.93 2.49
1.13 -10.92 2.49
1.35 -10.91 2.49
1.57 -10.89 2.49
1.79 -10.87 2.49
1.93 -10.40 2.39
2.14 -10.37 2.39
2.35 -10.33 2.39
2.56 -10.29 2.39
2.77 -10.25 2.39
2.97 -10.20 2.39
3.18 -10.15 2.39
3.39 -10.10 2.39
3.59 -10.04 2.39
3.79 -9.97 2.39
4.00 -9.90 2.39
4.20 -9.83 2.39
4.40 -9.75 2.39
4.60 -9.67 2.39
4.79 -9.58 2.39
4.99 -9.49 2.39
5.18 -9.40 2.39
5.37 -9.30 2.39
5.56 -9.20 2.39
5.75 -9.09 2.39
6.40 -9.69 2.58
6.77 -9.81 2.64
7.15 -9.93 2.71
7.54 -10.05 2.79
7.96 -10.17 2.86
8.35 -10.24 2.92
8.52 -10.03 2.91
8.64 -9.77 2.88
6.75 -7.33 2.20
6.84 -7.14 2.18
8.94 -8.97 2.80
9.04 -8.71 2.77
9.14 -8.45 2.75
9.29 -8.26 2.74
9.44 -8.06 2.74
9.59 -7.87 2.73
9.72 -7.65 2.73
9.81 -7.40 2.71
9.90 -7.17 2.69
10.12 -7.02 2.71
10.34 -6.88 2.73
10.55 -6.71 2.75
10.73 -6.53 2.76
10.91 -6.34 2.78
11.01 -6.11 2.77
11.05 -5.84 2.75
11.10 -5.59 2.73
11.16 -5.34 2.72
11.22 -5.10 2.71
11.27 -4.85 2.70
11.33 -4.61 2.69
11.39 -4.37 2.68
11.46 -4.14 2.68
11.53 -3.90 2.68
11.55 -3.66 2.67
11.50 -3.39 2.64
11.44 -3.12 2.61
11.38 -2.86 2.59
11.32 -2.61 2.56
11.27 -2.36 2.54
11.33 -2.14 2.54
11.43 -1.92 2.56
11.52 -1.70 2.57
11.49 -1.46 2.56
11.46 -1.22 2.55
11.43 -0.99 2.53
11.39 -0.76 2.52
11.35 -0.53 2.51
11.31 -0.30 2.50
11.30 -0.07 2.50
11.29 0.15 2.50
11.28 0.38 2.50
11.26 0.60 2.50
11.24 0.83 2.50
11.21 1.05 2.50
11.18 1.28 2.50
11.14 1.50 2.50
11.10 1.72 2.50
11.06 1.94 2.50
11.01 2.16 2.50
10.95 2.38 2.50
10.89 2.59 2.50
10.84 2.81 2.50
10.81 3.04 2.51
10.77 3.26 2.52
10.73 3.48 2.53
10.69 3.71 2.54
10.64 3.93 2.55
10.59 4.16 2.56
10.54 4.38 2.57
10.45 4.59 2.57
10.36 4.80 2.57
10.26 5.01 2.58
10.15 5.21 2.58
10.07 5.42 2.59
9.98 5.64 2.59
9.88 5.85 2.60
9.79 6.06 2.61
9.69 6.27 2.62
2.79 1.88 0.76
2.75 1.94 0.77
9.49 6.99 2.69
9.44 7.24 2.72
9.38 7.50 2.75
9.32 7.77 2.78
9.26 8.03 2.81
9.19 8.30 2.84
9.08 8.54 2.86
8.85 8.67 2.85
8.52 8.68 2.80
8.19 8.69 2.75
7.87 8.69 2.70
7.55 8.68 2.66
7.24 8.67 2.61
6.46 8.06 2.39
6.29 8.17 2.39
6.11 8.29 2.39
5.94 8.40 2.39
5.76 8.50 2.39
5.58 8.61 2.39
5.40 8.71 2.39
5.22 8.80 2.39
5.04 8.89 2.39
4.85 8.98 2.39
4.66 9.06 2.39
4.47 9.14 2.39
4.28 9.22 2.39
4.09 9.29 2.39
3.90 9.36 2.39
3.71 9.43 2.39
3.51 9.49 2.39
3.32 9.54 2.39
3.12 9.59 2.39
2.92 9.64 2.39
2.73 9.69 2.39
2.60 9.99 2.46
2.43 10.19 2.49
2.22 10.22 2.49
2.01 10.25 2.49
1.80 10.28 2.49
1.60 10.30 2.49
1.39 10.32 2.49
1.18 10.33 2.49
0.97 10.34 2.49
0.76 10.34 2.49
0.55 10.34 2.49
0.34 10.34 2.49
0.14 10.33 2.49
-0.07 10.32 2.49
-0.28 10.31 2.49
-0.49 10.29 2.49
-0.69 10.27 2.49
-0.90 10.24 2.49
-1.10 10.21 2.49
-1.31 10.17 2.49
-1.51 10.13 2.49
-1.71 10.09 2.49
-1.91 10.04 2.49
-2.11 9.99 2.49
-2.31 9.94 2.49
-2.51 9.88 2.49
-2.70 9.82 2.49
-2.90 9.75 2.49
-3.09 9.69 2.49
-3.28 9.61 2.49
-3.47 9.54 2.49
-3.66 9.46 2.49
-3.84 9.37 2.49
-4.03 9.29 2.49
-4.21 9.20 2.49
-4.39 9.10 2.49
-4.57 9.01 2.49
-4.75 8.90 2.49
-4.92 8.80 2.49
-5.09 8.69 2.49
-5.27 8.58 2.49
-5.43 8.47 2.49
-5.52 8.24 2.46
-5.54 7.92 2.40
-5.68 7.78 2.39
-5.83 7.66 2.39
-5.98 7.53 2.39
-6.13 7.41 2.39
-6.27 7.28 2.39
-6.42 7.15 2.39
-6.55 7.01 2.39
-6.69 6.88 2.39
-6.83 6.74 2.39
-6.96 6.60 2.39
-7.09 6.45 2.39
-7.21 6.31 2.39
-7.34 6.16 2.39
-7.46 6.01 2.39
-7.57 5.86 2.39
-7.69 5.70 2.39
-7.80 5.54 2.39
-7.91 5.38 2.39
-8.01 5.22 2.39
-8.12 5.06 2.39
-8.22 4.89 2.39
-8.31 4.73 2.39
-8.40 4.56 2.39
-8.49 4.39 2.39
-8.58 4.22 2.39
-8.66 4.04 2.39
-8.74 3.87 2.39
-8.82 3.69 2.39
-8.89 3.51 2.39
-8.96 3.33 2.39
-9.03 3.15 2.39
-9.09 2.97 2.39
-9.15 2.79 2.39
-9.21 2.60 2.39
-9.26 2.42 2.39
-9.31 2.23 2.39
-9.36 2.04 2.39
-9.40 1.85 2.39
-9.44 1.67 2.39
-9.47 1.48 2.39
-9.50 1.28 2.39
-9.53 1.09 2.39
-9.55 0.90 2.39
-9.57 0.71 2.39
-9.59 0.52 2.39
-9.60 0.32 2.39
-9.61 0.13 2.39
-9.62 -0.06 2.39
-9.62 -0.26 2.39
-9.62 -0.45 2.39
-9.61 -0.64 2.39
-9.60 -0.84 2.39
-9.59 -1.03 2.39
-9.58 -1.23 2.39
-9.56 -1.42 2.39
-9.53 -1.61 2.39
-9.50 -1.81 2.39
-9.47 -2.00 2.39
-9.44 -2.19 2.39
-9.40 -2.38 2.39
-9.36 -2.57 2.39
-9.31 -2.76 2.39
-9.26 -2.95 2.39
-9.21 -3.14 2.39
-9.15 -3.33 2.39
-9.09 -3.51 2.39
-9.03 -3.70 2.39
-8.96 -3.88 2.39
-8.89 -4.07 2.39
-8.81 -4.25 2.39
-8.73 -4.43 2.39
-8.65 -4.61 2.39
-8.56 -4.79 2.39
-8.47 -4.96 2.39
-8.38 -5.14 2.39
-8.29 -5.31 2.39
-8.19 -5.48 2.39
-8.08 -5.65 2.39
-7.98 -5.82 2.39
-7.87 -5.99 2.39
-7.75 -6.15 2.39
-7.64 -6.31 2.39
-7.52 -6.47 2.39
-7.39 -6.63 2.39
-7.27 -6.78 2.39
-7.14 -6.94 2.39
-7.01 -7.09 2.39
-6.87 -7.23 2.39
-6.73 -7.38 2.39
-6.59 -7.52 2.39
-6.45 -7.66 2.39
-6.30 -7.80 2.39
-6.15 -7.94 2.39
-6.15 -8.28 2.46
-6.09 -8.55 2.49
-5.92 -8.68 2.49
-5.76 -8.81 2.49
-5.59 -8.94 2.49
-5.41 -9.06 2.49
-5.24 -9.18 2.49
-5.06 -9.29 2.49
-4.88 -9.40 2.49
-4.69 -9.51 2.49
-4.51 -9.62 2.49
-4.32 -9.72 2.49
-4.13 -9.81 2.49
-3.93 -9.91 2.49
-3.74 -10.00 2.49
-3.54 -10.08 2.49
-3.34 -10.17 2.49
-3.14 -10.24 2.49
-2.94 -10.32 2.49
-2.74 -10.39 2.49
-2.53 -10.45 2.49
-2.32 -10.52 2.49
-2.12 -10.57 2.49
-1.91 -10.63 2.49
-1.69 -10.68 2.49
-1.48 -10.72 2.49
-1.27 -10.76 2.49
-1.05 -10.80 2.49
-0.84 -10.83 2.49
-0.62 -10.86 2.49
-0.40 -10.88 2.49
-0.19 -10.90 2.49
0.03 -9.89 2.49
0.23 -9.89 2.49
0.43 -9.90 2.49
0.63 -9.90 2.49
0.83 -9.89 2.49
1.03 -9.89 2.49
1.23 -9.87 2.49
1.43 -9.86 2.49
1.62 -9.84 2.49
1.82 -9.81 2.49
1.94 -9.38 2.39
2.13 -9.35 2.39
2.32 -9.31 2.39
2.50 -9.27 2.39
2.69 -9.23 2.39
2.88 -9.18 2.39
3.06 -9.13 2.39
3.25 -9.07 2.39
3.43 -9.01 2.39
3.62 -8.95 2.39
3.80 -8.88 2.39
3.98 -8.81 2.39
4.16 -8.74 2.39
4.33 -8.66 2.39
4.51 -8.58 2.39
4.68 -8.49 2.39
4.86 -8.40 2.39
5.03 -8.31 2.39
5.20 -8.21 2.39
5.36 -8.11 2.39
5.53 -8.01 2.39
5.69 -7.90 2.39
5.85 -7.79 2.39
6.59 -8.42 2.62
6.97 -8.54 2.70
7.36 -8.66 2.79
7.79 -8.80 2.88
6.75 -7.33 2.44
6.83 -7.13 2.42
8.54 -8.56 2.96
8.63 -8.31 2.93
8.72 -8.07 2.90
8.86 -7.88 2.90
9.00 -7.68 2.89
9.09 -7.45 2.87
9.18 -7.23 2.85
9.27 -7.00 2.83
9.35 -6.77 2.82
9.49 -6.58 2.82
9.69 -6.44 2.84
9.90 -6.30 2.86
10.10 -6.15 2.88
10.31 -5.99 2.91
10.51 -5.83 2.93
10.60 -5.61 2.92
10.66 -5.37 2.91
10.72 -5.13 2.90
10.78 -4.90 2.89
10.83 -4.66 2.87
10.89 -4.43 2.86
10.94 -4.20 2.86
10.99 -3.97 2.85
11.06 -3.75 2.85
11.02 -3.49 2.82
10.97 -3.23 2.79
10.92 -2.98 2.76
10.87 -2.74 2.74
10.82 -2.50 2.71
10.77 -2.26 2.69
10.72 -2.02 2.66
10.66 -1.79 2.64
10.63 -1.57 2.63
10.62 -1.35 2.62
10.61 -1.13 2.61
10.59 -0.92 2.60
10.58 -0.70 2.60
10.56 -0.49 2.59
10.54 -0.28 2.58
10.52 -0.07 2.58
10.49 0.14 2.57
10.47 0.35 2.57
10.44 0.56 2.57
10.42 0.77 2.57
10.41 0.98 2.57
10.40 1.19 2.57
10.38 1.39 2.58
10.36 1.60 2.58
10.34 1.81 2.59
10.32 2.02 2.59
10.29 2.23 2.60
10.26 2.44 2.61
10.23 2.65 2.61
10.20 2.86 2.62
10.16 3.07 2.63
10.13 3.28 2.64
10.08 3.50 2.65
10.04 3.71 2.66
9.99 3.92 2.67
9.94 4.13 2.68
9.89 4.34 2.69
9.81 4.55 2.70
9.72 4.74 2.70
9.62 4.94 2.70
9.52 5.13 2.70
9.42 5.32 2.71
9.32 5.51 2.71
9.21 5.70 2.72
9.10 5.89 2.72
2.79 1.88 0.84
2.75 1.94 0.85
8.62 6.34 2.69
8.41 6.45 2.67
8.22 6.57 2.65
8.04 6.70 2.64
7.87 6.82 2.63
7.69 6.94 2.62
7.51 7.06 2.61
7.33 7.17 2.60
7.15 7.28 2.59
6.45 6.84 2.39
6.31 6.96 2.39
6.16 7.08 2.39
6.01 7.19 2.39
5.86 7.30 2.39
5.70 7.41 2.39
5.55 7.51 2.39
5.39 7.61 2.39
5.23 7.71 2.39
5.07 7.81 2.39
4.90 7.90 2.39
4.74 7.98 2.39
4.57 8.07 2.39
4.40 8.15 2.39
4.23 8.23 2.39
4.06 8.30 2.39
3.89 8.37 2.39
3.72 8.44 2.39
3.54 8.50 2.39
3.37 8.56 2.39
3.19 8.61 2.39
3.02 8.67 2.39
2.84 8.71 2.39
2.66 8.76 2.39
2.56 9.09 2.47
2.40 9.22 2.49
2.21 9.26 2.49
2.02 9.29 2.49
1.83 9.32 2.49
1.64 9.34 2.49
1.45 9.36 2.49
1.26 9.38 2.49
1.07 9.39 2.49
0.88 9.40 2.49
0.69 9.41 2.49
0.50 9.41 2.49
0.32 9.41 2.49
0.13 9.40 2.49
-0.06 9.39 2.49
-0.25 9.38 2.49
-0.44 9.36 2.49
-0.63 9.34 2.49
-0.81 9.32 2.49
-1.00 9.29 2.49
-1.19 9.26 2.49
-1.37 9.23 2.49
-1.55 9.19 2.49
-1.74 9.15 2.49
-1.92 9.10 2.49
-2.10 9.05 2.49
-2.28 9.00 2.49
-2.46 8.94 2.49
-2.64 8.89 2.49
-2.81 8.82 2.49
-2.99 8.76 2.49
-3.16 8.69 2.49
-3.33 8.62 2.49
-3.50 8.54 2.49
-3.67 8.46 2.49
-3.84 8.38 2.49
-4.00 8.30 2.49
-4.16 8.21 2.49
-4.33 8.12 2.49
-4.48 8.02 2.49
-4.64 7.93 2.49
-4.80 7.83 2.49
-4.95 7.72 2.49
-5.10 7.62 2.49
-5.25 7.51 2.49
-5.40 7.40 2.49
-5.54 7.28 2.49
-5.57 7.02 2.44
-5.59 6.76 2.39
-5.72 6.64 2.39
-5.85 6.52 2.39
-5.98 6.40 2.39
-6.10 6.27 2.39
-6.22 6.15 2.39
-6.35 6.02 2.39
-6.46 5.89 2.39
-6.58 5.75 2.39
-6.69 5.62 2.39
-6.80 5.48 2.39
-6.91 5.34 2.39
-7.01 5.20 2.39
-7.11 5.06 2.39
-7.21 4.91 2.39
-7.31 4.76 2.39
-7.40 4.62 2.39
-7.49 4.46 2.39
-7.58 4.31 2.39
-7.67 4.16 2.39
-7.75 4.00 2.39
-7.83 3.85 2.39
-7.90 3.69 2.39
-7.98 3.53 2.39
-8.05 3.37 2.39
-8.11 3.20 2.39
-8.18 3.04 2.39
-8.24 2.87 2.39
-8.29 2.71 2.39
-8.35 2.54 2.39
-8.40 2.37 2.39
-8.45 2.20 2.39
-8.49 2.03 2.39
-8.53 1.86 2.39
-8.57 1.69 2.39
-8.61 1.52 2.39
-8.64 1.34 2.39
-8.67 1.17 2.39
-8.69 1.00 2.39
-8.71 0.82 2.39
-8.73 0.65 2.39
-8.75 0.47 2.39
-8.76 0.29 2.39
-8.77 0.12 2.39
-8.77 -0.06 2.39
-8.77 -0.24 2.39
-8.77 -0.41 2.39
-8.76 -0.59 2.39
-8.76 -0.77 2.39
-8.74 -0.94 2.39
-8.73 -1.12 2.39
-8.71 -1.30 2.39
-8.69 -1.47 2.39
-8.66 -1.65 2.39
-8.63 -1.82 2.39
-8.60 -2.00 2.39
-8.56 -2.17 2.39
-8.52 -2.35 2.39
-8.48 -2.52 2.39
-8.44 -2.69 2.39
-8.39 -2.86 2.39
-8.33 -3.03 2.39
-8.28 -3.20 2.39
-8.22 -3.37 2.39
-8.16 -3.54 2.39
-8.09 -3.71 2.39
-8.02 -3.87 2.39
-7.95 -4.04 2.39
-7.87 -4.20 2.39
-7.80 -4.36 2.39
-7.71 -4.52 2.39
-7.63 -4.68 2.39
-7.54 -4.84 2.39
-7.45 -4.99 2.39
-7.35 -5.15 2.39
-7.26 -5.30 2.39
-7.16 -5.45 2.39
-7.05 -5.60 2.39
-6.95 -5.74 2.39
-6.84 -5.89 2.39
-6.72 -6.03 2.39
-6.61 -6.17 2.39
-6.49 -6.31 2.39
-6.37 -6.45 2.39
-6.24 -6.58 2.39
-6.12 -6.71 2.39
-6.10 -6.97 2.44
-6.11 -7.27 2.49
-5.97 -7.40 2.49
-5.82 -7.52 2.49
-5.68 -7.65 2.49
-5.53 -7.77 2.49
-5.38 -7.89 2.49
-5.23 -8.00 2.49
-5.07 -8.12 2.49
-4.91 -8.23 2.49
-4.75 -8.33 2.49
-4.59 -8.44 2.49
-4.42 -8.54 2.49
-4.26 -8.64 2.49
-4.09 -8.73 2.49
-3.92 -8.82 2.49
-3.74 -8.91 2.49
-3.57 -8.99 2.49
-3.39 -9.07 2.49
-3.21 -9.15 2.49
-3.03 -9.22 2.49
-2.85 -9.29 2.49
-2.66 -9.36 2.49
-2.48 -9.42 2.49
-2.29 -9.48 2.49
-2.10 -9.53 2.49
-1.91 -9.59 2.49
-1.72 -9.63 2.49
-1.53 -9.68 2.49
-1.34 -9.72 2.49
-1.15 -9.75 2.49
-0.95 -9.79 2.49
-0.76 -9.81 2.49
-0.56 -9.84 2.49
-0.36 -9.86 2.49
-0.16 -9.87 2.49
0.03 -9.02 2.49
0.21 -9.03 2.49
0.40 -9.03 2.49
0.58 -9.03 2.49
0.76 -9.03 2.49
0.94 -9.02 2.49
1.12 -9.01 2.49
1.30 -8.99 2.49
1.48 -8.97 2.49
1.66 -8.95 2.49
1.85 -8.92 2.49
1.94 -8.52 2.39
2.11 -8.49 2.39
2.29 -8.45 2.39
2.46 -8.41 2.39
2.63 -8.37 2.39
2.80 -8.32 2.39
2.96 -8.27 2.39
3.13 -8.22 2.39
3.30 -8.16 2.39
3.46 -8.10 2.39
3.63 -8.03 2.39
3.79 -7.96 2.39
3.95 -7.89 2.39
4.11 -7.82 2.39
4.27 -7.74 2.39
4.43 -7.66 2.39
4.58 -7.57 2.39
4.74 -7.48 2.39
4.89 -7.39 2.39
5.04 -7.30 2.39
5.18 -7.20 2.39
5.33 -7.10 2.39
5.47 -6.99 2.39
5.62 -6.88 2.39
5.75 -6.77 2.39
5.89 -6.66 2.39
6.62 -7.19 2.63
6.83 -7.12 2.65
7.31 -7.32 2.78
7.67 -7.38 2.86
8.04 -7.44 2.94
8.43 -7.49 3.02
8.52 -7.27 3.00
8.61 -7.06 2.99
8.70 -6.84 2.97
8.78 -6.63 2.95
8.87 -6.42 2.93
8.94 -6.21 2.92
9.11 -6.06 2.93
9.30 -5.92 2.95
9.49 -5.77 2.97
9.63 -5.60 2.98
9.73 -5.40 2.98
9.82 -5.20 2.97
9.92 -5.00 2.97
10.03 -4.80 2.98
10.14 -4.61 2.98
10.24 -4.41 2.99
10.35 -4.21 2.99
10.44 -4.01 2.99
10.54 -3.81 3.00
10.56 -3.58 2.99
10.50 -3.33 2.95
10.45 -3.08 2.92
10.39 -2.84 2.89
10.33 -2.60 2.86
10.27 -2.37 2.83
10.21 -2.14 2.80
10.15 -1.92 2.77
10.08 -1.70 2.74
10.08 -1.49 2.74
10.09 -1.28 2.73
10.09 -1.08 2.73
10.08 -0.88 2.72
10.07 -0.67 2.71
10.06 -0.47 2.71
10.04 -0.27 2.70
10.02 -0.07 2.70
10.00 0.13 2.69
9.97 0.33 2.69
9.95 0.53 2.69
9.92 0.73 2.68
9.89 0.93 2.68
9.86 1.12 2.68
9.83 1.32 2.68
9.81 1.52 2.68
9.79 1.71 2.69
9.77 1.91 2.69
9.74 2.11 2.70
9.72 2.31 2.71
9.68 2.51 2.71
9.65 2.71 2.72
9.62 2.91 2.73
9.58 3.10 2.74
9.54 3.30 2.75
9.49 3.50 2.76
9.45 3.70 2.77
9.40 3.90 2.78
9.35 4.10 2.79
9.29 4.30 2.80
9.23 4.50 2.81
9.14 4.68 2.81
9.05 4.87 2.81
8.95 5.05 2.82
8.80 5.20 2.81
8.62 5.33 2.79
8.44 5.46 2.76
2.79 1.88 0.93
2.75 1.94 0.93
7.90 5.80 2.70
7.71 5.91 2.68
7.53 6.02 2.66
7.34 6.11 2.64
7.11 6.16 2.61
6.40 5.78 2.39
6.28 5.90 2.39
6.15 6.02 2.39
6.03 6.13 2.39
5.90 6.25 2.39
5.76 6.36 2.39
5.63 6.46 2.39
5.49 6.57 2.39
5.35 6.67 2.39
5.21 6.77 2.39
5.07 6.86 2.39
4.93 6.96 2.39
4.78 7.05 2.39
4.63 7.13 2.39
4.49 7.22 2.39
4.33 7.30 2.39
4.18 7.38 2.39
4.03 7.45 2.39
3.87 7.52 2.39
3.72 7.59 2.39
3.56 7.65 2.39
3.40 7.72 2.39
3.24 7.77 2.39
3.08 7.83 2.39
2.92 7.88 2.39
2.76 7.93 2.39
2.60 7.97 2.39
2.53 8.33 2.49
2.37 8.40 2.49
2.20 8.44 2.49
2.03 8.47 2.49
1.85 8.50 2.49
1.68 8.53 2.49
1.51 8.55 2.49
1.33 8.57 2.49
1.16 8.59 2.49
0.99 8.60 2.49
0.81 8.61 2.49
0.64 8.62 2.49
0.47 8.62 2.49
0.29 8.62 2.49
0.12 8.61 2.49
-0.06 8.61 2.49
-0.23 8.59 2.49
-0.40 8.58 2.49
-0.57 8.56 2.49
-0.74 8.54 2.49
-0.91 8.52 2.49
-1.08 8.49 2.49
-1.25 8.46 2.49
-1.42 8.42 2.49
-1.59 8.39 2.49
-1.76 8.35 2.49
-1.92 8.30 2.49
-2.09 8.25 2.49
-2.25 8.20 2.49
-2.41 8.15 2.49
-2.58 8.09 2.49
-2.74 8.03 2.49
-2.90 7.97 2.49
-3.05 7.91 2.49
-3.21 7.84 2.49
-3.36 7.77 2.49
-3.52 7.69 2.49
-3.67 7.61 2.49
-3.82 7.53 2.49
-3.97 7.45 2.49
-4.11 7.36 2.49
-4.26 7.27 2.49
-4.40 7.18 2.49
-4.54 7.09 2.49
-4.68 6.99 2.49
-4.82 6.89 2.49
-4.96 6.79 2.49
-5.09 6.69 2.49
-5.22 6.58 2.49
-5.35 6.47 2.49
-5.48 6.36 2.49
-5.60 6.24 2.49
-5.61 6.00 2.44
-5.63 5.78 2.40
-5.71 5.64 2.39
-5.83 5.53 2.39
-5.93 5.41 2.39
-6.04 5.28 2.39
-6.14 5.16 2.39
-6.24 5.03 2.39
-6.34 4.91 2.39
-6.44 4.78 2.39
-6.53 4.64 2.39
-6.62 4.51 2.39
-6.71 4.38 2.39
-6.80 4.24 2.39
-6.88 4.10 2.39
-6.96 3.96 2.39
-7.04 3.82 2.39
-7.12 3.68 2.39
-7.19 3.53 2.39
-7.26 3.39 2.39
-7.33 3.24 2.39
-7.39 3.09 2.39
-7.45 2.94 2.39
-7.51 2.79 2.39
-7.56 2.64 2.39
-7.62 2.49 2.39
-7.67 2.33 2.39
-7.71 2.18 2.39
-7.76 2.02 2.39
-7.80 1.87 2.39
-7.84 1.71 2.39
-7.87 1.55 2.39
-7.90 1.39 2.39
-7.93 1.23 2.39
-7.96 1.07 2.39
-7.98 0.91 2.39
-8.00 0.75 2.39
-8.02 0.59 2.39
-8.03 0.43 2.39
-8.04 0.27 2.39
-8.05 0.11 2.39
-8.05 -0.06 2.39
-8.05 -0.22 2.39
-8.05 -0.38 2.39
-8.04 -0.54 2.39
-8.04 -0.70 2.39
-8.03 -0.87 2.39
-8.01 -1.03 2.39
-7.99 -1.19 2.39
-7.97 -1.35 2.39
-7.95 -1.51 2.39
-7.92 -1.67 2.39
-7.89 -1.83 2.39
-7.86 -1.99 2.39
-7.82 -2.15 2.39
-7.78 -2.31 2.39
-7.74 -2.47 2.39
-7.69 -2.63 2.39
-7.64 -2.78 2.39
-7.59 -2.94 2.39
-7.54 -3.09 2.39
-7.48 -3.25 2.39
-7.42 -3.40 2.39
-7.36 -3.55 2.39
-7.29 -3.70 2.39
-7.22 -3.85 2.39
-7.15 -4.00 2.39
-7.07 -4.15 2.39
-6.99 -4.29 2.39
-6.91 -4.44 2.39
-6.83 -4.58 2.39
-6.74 -4.72 2.39
-6.65 -4.86 2.39
-6.56 -4.99 2.39
-6.46 -5.13 2.39
-6.36 -5.26 2.39
-6.26 -5.40 2.39
-6.16 -5.53 2.39
-6.06 -5.67 2.40
-6.06 -5.90 2.44
-6.07 -6.15 2.49
-5.96 -6.29 2.49
-5.84 -6.41 2.49
-5.72 -6.54 2.49
-5.59 -6.66 2.49
-5.46 -6.77 2.49
-5.33 -6.89 2.49
-5.20 -7.00 2.49
-5.06 -7.11 2.49
-4.92 -7.22 2.49
-4.78 -7.33 2.49
-4.64 -7.43 2.49
-4.49 -7.53 2.49
-4.34 -7.63 2.49
-4.20 -7.72 2.49
-4.04 -7.81 2.49
-3.89 -7.90 2.49
-3.74 -7.98 2.49
-3.58 -8.07 2.49
-3.42 -8.15 2.49
-3.26 -8.22 2.49
-3.10 -8.29 2.49
-2.93 -8.36 2.49
-2.77 -8.43 2.49
-2.60 -8.49 2.49
-2.43 -8.55 2.49
-2.26 -8.61 2.49
-2.09 -8.66 2.49
-1.92 -8.71 2.49
-1.75 -8.76 2.49
-1.57 -8.80 2.49
-1.40 -8.84 2.49
-1.22 -8.88 2.49
-1.04 -8.91 2.49
-0.87 -8.94 2.49
-0.69 -8.96 2.49
-0.51 -8.98 2.49
-0.33 -9.00 2.49
-0.15 -9.01 2.49
0.03 -8.29 2.49
0.20 -8.30 2.49
0.37 -8.30 2.49
0.53 -8.30 2.49
0.70 -8.29 2.49
0.87 -8.29 2.49
1.03 -8.27 2.49
1.20 -8.26 2.49
1.37 -8.24 2.49
1.53 -8.22 2.49
1.70 -8.19 2.49
1.86 -8.16 2.49
1.94 -7.80 2.39
2.10 -7.76 2.39
2.26 -7.72 2.39
2.41 -7.68 2.39
2.57 -7.64 2.39
2.72 -7.59 2.39
2.88 -7.54 2.39
3.03 -7.49 2.39
3.18 -7.43 2.39
3.33 -7.37 2.39
3.48 -7.31 2.39
3.63 -7.24 2.39
3.77 -7.17 2.39
3.92 -7.10 2.39
4.06 -7.02 2.39
4.20 -6.95 2.39
4.35 -6.86 2.39
4.48 -6.78 2.39
4.62 -6.69 2.39
4.76 -6.60 2.39
4.89 -6.51 2.39
5.02 -6.41 2.39
5.15 -6.31 2.39
5.28 -6.21 2.39
5.40 -6.11 2.39
5.53 -6.00 2.39
5.65 -5.89 2.39
5.77 -5.78 2.39
5.88 -5.66 2.39
6.00 -5.55 2.39
6.77 -6.02 2.65
7.05 -6.02 2.71
7.34 -6.01 2.77
7.63 -6.00 2.84
7.93 -5.98 2.90
8.23 -5.96 2.97
8.50 -5.90 3.02
8.59 -5.71 3.01
8.71 -5.54 3.02
8.81 -5.36 3.01
8.91 -5.18 3.01
9.00 -4.99 3.01
9.09 -4.81 3.00
9.18 -4.62 3.00
9.26 -4.43 3.00
9.35 -4.25 3.00
9.45 -4.07 3.00
9.54 -3.88 3.01
9.63 -3.70 3.01
9.70 -3.50 3.01
9.76 -3.31 3.01
9.82 -3.11 3.01
9.87 -2.91 3.01
9.82 -2.68 2.98
9.77 -2.46 2.95
9.72 -2.24 2.92
9.67 -2.03 2.89
9.62 -1.82 2.86
9.57 -1.61 2.84
9.58 -1.42 2.83
9.59 -1.22 2.83
9.59 -1.03 2.83
9.60 -0.84 2.82
9.60 -0.64 2.82
9.59 -0.45 2.82
9.58 -0.26 2.81
9.56 -0.07 2.81
9.54 0.13 2.80
9.52 0.32 2.80
9.49 0.51 2.79
9.47 0.69 2.79
9.44 0.88 2.79
9.41 1.07 2.79
9.38 1.26 2.79
9.35 1.44 2.79
9.32 1.63 2.79
9.28 1.82 2.79
9.24 2.00 2.79
9.22 2.19 2.80
9.19 2.38 2.81
9.15 2.57 2.81
9.12 2.75 2.82
9.08 2.94 2.83
9.04 3.13 2.84
9.00 3.32 2.85
8.96 3.51 2.86
8.91 3.70 2.87
8.85 3.88 2.88
8.68 4.02 2.85
8.51 4.15 2.82
8.33 4.27 2.79
8.15 4.38 2.76
7.97 4.49 2.73
7.79 4.60 2.70
7.61 4.70 2.68
7.43 4.80 2.65
2.79 1.88 1.01
2.75 1.94 1.01
6.88 5.05 2.56
6.32 4.84 2.39
6.21 4.96 2.39
6.11 5.08 2.39
6.00 5.19 2.39
5.89 5.31 2.39
5.77 5.42 2.39
5.66 5.53 2.39
5.54 5.64 2.39
5.42 5.74 2.39
5.30 5.84 2.39
5.18 5.94 2.39
5.05 6.04 2.39
4.93 6.13 2.39
4.80 6.22 2.39
4.67 6.31 2.39
4.53 6.40 2.39
4.40 6.48 2.39
4.27 6.56 2.39
4.13 6.64 2.39
3.99 6.71 2.39
3.85 6.79 2.39
3.71 6.85 2.39
3.57 6.92 2.39
3.43 6.98 2.39
3.28 7.04 2.39
3.14 7.10 2.39
2.99 7.16 2.39
2.84 7.21 2.39
2.70 7.28 2.40
2.55 7.30 2.39
2.50 7.66 2.49
2.34 7.70 2.49
2.19 7.74 2.49
2.03 7.77 2.49
1.87 7.80 2.49
1.71 7.83 2.49
1.55 7.86 2.49
1.39 7.88 2.49
1.23 7.90 2.49
1.07 7.91 2.49
0.91 7.93 2.49
0.75 7.93 2.49
0.59 7.94 2.49
0.43 7.94 2.49
0.27 7.94 2.49
0.11 7.94 2.49
-0.05 7.93 2.49
-0.21 7.92 2.49
-0.37 7.91 2.49
-0.53 7.89 2.49
-0.68 7.88 2.49
-0.84 7.85 2.49
-1.00 7.83 2.49
-1.15 7.80 2.49
-1.31 7.77 2.49
-1.46 7.74 2.49
-1.62 7.70 2.49
-1.77 7.66 2.49
-1.92 7.61 2.49
-2.08 7.57 2.49
-2.23 7.52 2.49
-2.38 7.47 2.49
-2.52 7.41 2.49
-2.67 7.36 2.49
-2.82 7.30 2.49
-2.96 7.23 2.49
-3.10 7.17 2.49
-3.24 7.10 2.49
-3.38 7.03 2.49
-3.52 6.95 2.49
-3.66 6.88 2.49
-3.80 6.80 2.49
-3.93 6.72 2.49
-4.06 6.63 2.49
-4.19 6.55 2.49
-4.32 6.46 2.49
-4.45 6.36 2.49
-4.57 6.27 2.49
-4.70 6.17 2.49
-4.82 6.08 2.49
-4.94 5.97 2.49
-5.06 5.87 2.49
-5.17 5.77 2.49
-5.28 5.66 2.49
-5.40 5.55 2.49
-5.50 5.44 2.49
-5.61 5.32 2.49
-5.64 5.14 2.46
-5.65 4.95 2.42
-5.67 4.77 2.39
-5.77 4.65 2.39
-5.86 4.53 2.39
-5.95 4.41 2.39
-6.03 4.29 2.39
-6.12 4.17 2.39
-6.20 4.04 2.39
-6.28 3.92 2.39
-6.36 3.79 2.39
-6.43 3.66 2.39
-6.50 3.53 2.39
-6.57 3.40 2.39
-6.64 3.26 2.39
-6.70 3.13 2.39
-6.77 2.99 2.39
-6.82 2.85 2.39
-6.88 2.72 2.39
-6.94 2.58 2.39
-6.99 2.44 2.39
-7.04 2.30 2.39
-7.08 2.15 2.39
-7.12 2.01 2.39
-7.16 1.87 2.39
-7.20 1.72 2.39
-7.24 1.58 2.39
-7.27 1.43 2.39
-7.30 1.29 2.39
-7.32 1.14 2.39
-7.35 0.99 2.39
-7.37 0.84 2.39
-7.39 0.69 2.39
-7.40 0.55 2.39
-7.41 0.40 2.39
-7.42 0.25 2.39
-7.43 0.10 2.39
-7.43 -0.05 2.39
-7.43 -0.20 2.39
-7.43 -0.35 2.39
-7.43 -0.50 2.39
-7.42 -0.65 2.39
-7.41 -0.80 2.39
-7.39 -0.95 2.39
-7.38 -1.10 2.39
-7.36 -1.25 2.39
-7.34 -1.40 2.39
-7.31 -1.55 2.39
-7.28 -1.69 2.39
-7.25 -1.84 2.39
-7.22 -1.99 2.39
-7.18 -2.14 2.39
-7.14 -2.28 2.39
-7.10 -2.43 2.39
-7.05 -2.57 2.39
-7.00 -2.71 2.39
-6.95 -2.86 2.39
-6.90 -3.00 2.39
-6.84 -3.14 2.39
-6.78 -3.28 2.39
-6.72 -3.42 2.39
-6.66 -3.55 2.39
-6.59 -3.69 2.39
-6.52 -3.83 2.39
-6.45 -3.96 2.39
-6.37 -4.09 2.39
-6.29 -4.22 2.39
-6.21 -4.35 2.39
-6.13 -4.48 2.39
-6.04 -4.61 2.39
-6.03 -4.79 2.42
-6.03 -4.99 2.46
-6.02 -5.19 2.49
-5.92 -5.32 2.49
-5.82 -5.44 2.49
-5.71 -5.56 2.49
-5.60 -5.68 2.49
-5.49 -5.80 2.49
-5.38 -5.91 2.49
-5.27 -6.02 2.49
-5.15 -6.13 2.49
-5.03 -6.24 2.49
-4.91 -6.35 2.49
-4.78 -6.45 2.49
-4.66 -6.55 2.49
-4.53 -6.65 2.49
-4.40 -6.75 2.49
-4.27 -6.84 2.49
-4.13 -6.93 2.49
-4.00 -7.02 2.49
-3.86 -7.11 2.49
-3.72 -7.19 2.49
-3.58 -7.27 2.49
-3.44 -7.35 2.49
-3.29 -7.43 2.49
-3.14 -7.50 2.49
-3.00 -7.57 2.49
-2.85 -7.63 2.49
-2.70 -7.70 2.49
-2.54 -7.76 2.49
-2.39 -7.81 2.49
-2.23 -7.87 2.49
-2.08 -7.92 2.49
-1.92 -7.97 2.49
-1.76 -8.01 2.49
-1.60 -8.05 2.49
-1.44 -8.09 2.49
-1.28 -8.13 2.49
-1.12 -8.16 2.49
-0.96 -8.19 2.49
-0.79 -8.22 2.49
-0.63 -8.24 2.49
-0.46 -8.26 2.49
-0.30 -8.27 2.49
-0.13 -8.28 2.49
0.03 -7.66 2.49
0.19 -7.67 2.49
0.34 -7.67 2.49
0.49 -7.67 2.49
0.65 -7.66 2.49
0.80 -7.65 2.49
0.96 -7.64 2.49
1.11 -7.63 2.49
1.26 -7.61 2.49
1.42 -7.59 2.49
1.57 -7.57 2.49
1.72 -7.54 2.49
1.87 -7.51 2.49
1.95 -7.20 2.40
2.09 -7.13 2.39
2.23 -7.09 2.39
2.37 -7.05 2.39
2.52 -7.01 2.39
2.66 -6.96 2.39
2.80 -6.91 2.39
2.94 -6.86 2.39
3.08 -6.80 2.39
3.21 -6.74 2.39
3.35 -6.68 2.39
3.48 -6.62 2.39
3.62 -6.55 2.39
3.75 -6.48 2.39
3.88 -6.41 2.39
4.01 -6.33 2.39
4.14 -6.25 2.39
4.27 -6.17 2.39
4.39 -6.09 2.39
4.51 -6.00 2.39
4.63 -5.92 2.39
4.75 -5.82 2.39
4.87 -5.73 2.39
4.99 -5.63 2.39
5.10 -5.54 2.39
5.21 -5.43 2.39
5.32 -5.33 2.39
5.43 -5.23 2.39
5.53 -5.12 2.39
5.64 -5.01 2.39
5.74 -4.89 2.39
5.83 -4.78 2.39
5.93 -4.66 2.39
6.02 -4.55 2.39
6.71 -4.85 2.62
6.93 -4.81 2.67
7.15 -4.75 2.72
7.37 -4.69 2.77
7.60 -4.62 2.82
7.82 -4.55 2.87
8.05 -4.47 2.92
8.28 -4.38 2.97
8.51 -4.28 3.02
8.61 -4.12 3.02
8.68 -3.95 3.02
8.76 -3.77 3.02
8.84 -3.60 3.02
8.91 -3.42 3.02
8.97 -3.24 3.02
9.03 -3.06 3.02
9.09 -2.88 3.02
9.14 -2.69 3.02
9.19 -2.51 3.02
9.23 -2.33 3.02
9.22 -2.13 3.00
9.18 -1.93 2.97
9.13 -1.73 2.95
9.11 -1.53 2.93
9.12 -1.35 2.93
9.13 -1.16 2.92
9.14 -0.98 2.92
9.14 -0.80 2.91
9.14 -0.61 2.91
9.14 -0.43 2.91
9.14 -0.25 2.91
9.13 -0.06 2.90
9.11 0.12 2.90
9.09 0.30 2.90
9.07 0.48 2.89
9.05 0.66 2.89
9.03 0.84 2.89
9.00 1.02 2.89
8.97 1.20 2.89
8.94 1.38 2.89
8.91 1.56 2.89
8.87 1.73 2.89
8.83 1.91 2.89
8.80 2.09 2.89
8.67 2.24 2.87
8.54 2.39 2.84
8.41 2.54 2.82
8.29 2.68 2.80
8.18 2.83 2.78
8.05 2.97 2.76
7.93 3.10 2.74
7.80 3.23 2.72
7.66 3.36 2.69
7.53 3.48 2.67
7.39 3.60 2.65
7.25 3.71 2.63
7.10 3.82 2.61
6.96 3.92 2.58
6.36 3.76 2.39
6.28 3.88 2.39
6.20 4.00 2.39
2.79 1.88 1.09
2.75 1.94 1.09
5.93 4.36 2.39
5.84 4.47 2.39
5.74 4.58 2.39
5.65 4.69 2.39
5.55 4.80 2.39
5.44 4.90 2.39
5.34 5.01 2.39
5.23 5.11 2.39
5.12 5.21 2.39
5.01 5.31 2.39
4.90 5.40 2.39
4.79 5.49 2.39
4.67 5.58 2.39
4.56 5.67 2.39
4.44 5.75 2.39
4.32 5.84 2.39
4.20 5.92 2.39
4.07 5.99 2.39
3.95 6.07 2.39
3.82 6.14 2.39
3.69 6.21 2.39
3.57 6.28 2.39
3.44 6.34 2.39
3.30 6.40 2.39
3.17 6.46 2.39
3.04 6.52 2.39
2.90 6.57 2.39
2.77 6.62 2.39
2.63 6.67 2.39
2.50 6.71 2.39
2.46 7.05 2.49
2.32 7.09 2.49
2.17 7.13 2.49
2.03 7.16 2.49
1.88 7.20 2.49
1.73 7.22 2.49
1.59 7.25 2.49
1.44 7.28 2.49
1.29 7.30 2.49
1.14 7.31 2.49
1.00 7.33 2.49
0.85 7.34 2.49
0.70 7.35 2.49
0.55 7.36 2.49
0.40 7.36 2.49
0.25 7.36 2.49
0.11 7.36 2.49
-0.04 7.35 2.49
-0.19 7.34 2.49
-0.34 7.33 2.49
-0.48 7.32 2.49
-0.63 7.30 2.49
-0.78 7.28 2.49
-0.92 7.26 2.49
-1.07 7.23 2.49
-1.21 7.20 2.49
-1.36 7.17 2.49
-1.50 7.14 2.49
-1.64 7.10 2.49
-1.78 7.06 2.49
-1.92 7.02 2.49
-2.06 6.97 2.49
-2.20 6.93 2.49
-2.34 6.87 2.49
-2.47 6.82 2.49
-2.61 6.77 2.49
-2.74 6.71 2.49
-2.88 6.65 2.49
-3.01 6.58 2.49
-3.14 6.52 2.49
-3.27 6.45 2.49
-3.39 6.38 2.49
-3.52 6.31 2.49
-3.64 6.23 2.49
-3.77 6.15 2.49
-3.89 6.07 2.49
-4.01 5.99 2.49
-4.13 5.91 2.49
-4.24 5.82 2.49
-4.36 5.73 2.49
-4.47 5.64 2.49
-4.58 5.54 2.49
-4.69 5.45 2.49
-4.80 5.35 2.49
-4.90 5.25 2.49
-5.01 5.15 2.49
-5.11 5.05 2.49
-5.21 4.94 2.49
-5.30 4.83 2.49
-5.40 4.72 2.49
-5.49 4.61 2.49
-5.58 4.50 2.49
-5.67 4.39 2.49
-5.68 4.21 2.46
-5.69 4.04 2.43
-5.70 3.88 2.40
-5.75 3.75 2.39
-5.83 3.63 2.39
-5.90 3.51 2.39
-5.97 3.40 2.39
-6.03 3.27 2.39
-6.10 3.15 2.39
-6.16 3.03 2.39
-6.22 2.90 2.39
-6.28 2.78 2.39
-6.33 2.65 2.39
-6.39 2.52 2.39
-6.44 2.39 2.39
-6.48 2.26 2.39
-6.53 2.13 2.39
-6.57 2.00 2.39
-6.61 1.87 2.39
-6.65 1.73 2.39
-6.68 1.60 2.39
-6.72 1.46 2.39
-6.75 1.33 2.39
-6.77 1.19 2.39
-6.80 1.06 2.39
-6.82 0.92 2.39
-6.84 0.78 2.39
-6.85 0.64 2.39
-6.87 0.51 2.39
-6.88 0.37 2.39
-6.89 0.23 2.39
-6.89 0.09 2.39
-6.90 -0.05 2.39
-6.90 -0.19 2.39
-6.90 -0.33 2.39
-6.89 -0.47 2.39
-6.88 -0.61 2.39
-6.87 -0.74 2.39
-6.86 -0.88 2.39
-6.84 -1.02 2.39
-6.83 -1.16 2.39
-6.80 -1.30 2.39
-6.78 -1.44 2.39
-6.75 -1.57 2.39
-6.72 -1.71 2.39
-6.69 -1.85 2.39
-6.66 -1.98 2.39
-6.62 -2.12 2.39
-6.58 -2.25 2.39
-6.54 -2.39 2.39
-6.49 -2.52 2.39
-6.45 -2.65 2.39
-6.40 -2.78 2.39
-6.34 -2.91 2.39
-6.29 -3.04 2.39
-6.23 -3.17 2.39
-6.17 -3.30 2.39
-6.11 -3.42 2.39
-6.04 -3.55 2.39
-5.99 -3.68 2.40
-5.99 -3.85 2.43
-5.99 -4.02 2.46
-6.00 -4.21 2.49
-5.92 -4.33 2.49
-5.84 -4.45 2.49
-5.75 -4.57 2.49
-5.66 -4.69 2.49
-5.57 -4.81 2.49
-5.48 -4.93 2.49
-5.39 -5.04 2.49
-5.29 -5.15 2.49
-5.19 -5.26 2.49
-5.09 -5.37 2.49
-4.98 -5.48 2.49
-4.87 -5.58 2.49
-4.77 -5.68 2.49
-4.65 -5.78 2.49
-4.54 -5.88 2.49
-4.43 -5.98 2.49
-4.31 -6.07 2.49
-4.19 -6.16 2.49
-4.07 -6.25 2.49
-3.95 -6.33 2.49
-3.82 -6.42 2.49
-3.70 -6.50 2.49
-3.57 -6.58 2.49
-3.44 -6.66 2.49
-3.31 -6.73 2.49
-3.18 -6.80 2.49
-3.04 -6.87 2.49
-2.91 -6.94 2.49
-2.77 -7.00 2.49
-2.63 -7.06 2.49
-2.49 -7.12 2.49
-2.35 -7.18 2.49
-2.21 -7.23 2.49
-2.06 -7.28 2.49
-1.92 -7.32 2.49
-1.77 -7.37 2.49
-1.63 -7.41 2.49
-1.48 -7.45 2.49
-1.33 -7.48 2.49
-1.18 -7.52 2.49
-1.03 -7.54 2.49
-0.88 -7.57 2.49
-0.73 -7.59 2.49
-0.58 -7.61 2.49
-0.43 -7.63 2.49
-0.27 -7.64 2.49
-0.12 -7.66 2.49
0.03 -7.11 2.49
0.18 -7.12 2.49
0.32 -7.12 2.49
0.46 -7.12 2.49
0.60 -7.11 2.49
0.75 -7.10 2.49
0.89 -7.09 2.49
1.03 -7.08 2.49
1.17 -7.06 2.49
1.32 -7.04 2.49
1.46 -7.02 2.49
1.60 -7.00 2.49
1.74 -6.97 2.49
1.88 -6.94 2.49
1.96 -6.70 2.42
2.07 -6.58 2.39
2.20 -6.54 2.39
2.34 -6.50 2.39
2.47 -6.46 2.39
2.60 -6.41 2.39
2.73 -6.36 2.39
2.85 -6.31 2.39
2.98 -6.25 2.39
3.11 -6.20 2.39
3.23 -6.14 2.39
3.36 -6.07 2.39
3.48 -6.01 2.39
3.60 -5.94 2.39
3.72 -5.87 2.39
3.84 -5.80 2.39
3.96 -5.72 2.39
4.07 -5.65 2.39
4.19 -5.57 2.39
4.30 -5.48 2.39
4.41 -5.40 2.39
4.52 -5.31 2.39
4.62 -5.22 2.39
4.73 -5.13 2.39
4.83 -5.04 2.39
4.93 -4.94 2.39
5.03 -4.84 2.39
5.13 -4.74 2.39
5.23 -4.64 2.39
5.32 -4.54 2.39
5.41 -4.43 2.39
5.50 -4.32 2.39
5.58 -4.21 2.39
5.67 -4.10 2.39
5.75 -3.99 2.39
5.83 -3.87 2.39
5.91 -3.76 2.39
5.98 -3.64 2.39
6.05 -3.52 2.39
6.64 -3.69 2.60
6.81 -3.60 2.63
6.98 -3.51 2.67
7.14 -3.42 2.70
7.30 -3.32 2.74
7.46 -3.21 2.78
7.62 -3.10 2.81
7.77 -2.98 2.84
7.91 -2.86 2.87
8.04 -2.72 2.90
8.16 -2.59 2.93
8.28 -2.44 2.95
8.39 -2.29 2.97
8.50 -2.14 3.00
8.59 -1.98 3.02
8.65 -1.82 3.02
8.68 -1.64 3.02
8.69 -1.46 3.01
8.70 -1.29 3.01
8.71 -1.11 3.01
8.71 -0.94 3.00
8.72 -0.76 3.00
8.72 -0.59 2.99
8.72 -0.41 2.99
8.72 -0.24 2.99
8.71 -0.06 2.99
8.67 0.11 2.98
8.62 0.28 2.96
8.56 0.45 2.95
8.52 0.62 2.94
8.45 0.79 2.92
8.37 0.95 2.90
8.28 1.11 2.88
8.19 1.26 2.85
8.10 1.41 2.83
8.00 1.56 2.81
7.90 1.71 2.79
7.79 1.85 2.76
7.69 1.98 2.74
7.57 2.12 2.72
7.46 2.25 2.69
7.34 2.37 2.67
7.22 2.50 2.65
7.12 2.62 2.63
7.01 2.74 2.61
6.91 2.86 2.59
6.31 2.76 2.39
6.25 2.89 2.39
6.19 3.01 2.39
6.12 3.13 2.39
6.05 3.25 2.39
5.98 3.37 2.39
5.91 3.48 2.39
5.83 3.60 2.39
5.76 3.71 2.39
2.79 1.88 1.18
2.75 1.93 1.18
5.51 4.04 2.39
5.42 4.15 2.39
5.33 4.25 2.39
5.24 4.35 2.39
5.15 4.45 2.39
5.06 4.55 2.39
4.96 4.65 2.39
4.86 4.74 2.39
4.76 4.84 2.39
4.66 4.93 2.39
4.56 5.01 2.39
4.45 5.10 2.39
4.34 5.18 2.39
4.23 5.26 2.39
4.12 5.34 2.39
4.01 5.42 2.39
3.90 5.50 2.39
3.79 5.57 2.39
3.67 5.64 2.39
3.55 5.70 2.39
3.43 5.77 2.39
3.32 5.83 2.39
3.19 5.89 2.39
3.07 5.95 2.39
2.95 6.00 2.39
2.83 6.06 2.39
2.70 6.11 2.39
2.58 6.15 2.39
2.46 6.23 2.40
2.42 6.51 2.49
2.29 6.55 2.49
2.16 6.59 2.49
2.02 6.63 2.49
1.89 6.66 2.49
1.75 6.69 2.49
1.61 6.72 2.49
1.48 6.74 2.49
1.34 6.77 2.49
1.20 6.79 2.49
1.07 6.80 2.49
0.93 6.82 2.49
0.79 6.83 2.49
0.65 6.84 2.49
0.51 6.84 2.49
0.38 6.85 2.49
0.24 6.85 2.49
0.10 6.85 2.49
-0.04 6.84 2.49
-0.17 6.83 2.49
-0.31 6.82 2.49
-0.45 6.81 2.49
-0.59 6.79 2.49
-0.72 6.78 2.49
-0.86 6.75 2.49
-0.99 6.73 2.49
-1.13 6.70 2.49
-1.26 6.68 2.49
-1.39 6.64 2.49
-1.53 6.61 2.49
-1.66 6.57 2.49
-1.79 6.53 2.49
-1.92 6.49 2.49
-2.05 6.45 2.49
-2.18 6.40 2.49
-2.30 6.35 2.49
-2.43 6.30 2.49
-2.55 6.25 2.49
-2.68 6.19 2.49
-2.80 6.13 2.49
-2.92 6.07 2.49
-3.04 6.01 2.49
-3.16 5.94 2.49
-3.28 5.87 2.49
-3.39 5.80 2.49
-3.51 5.73 2.49
-3.62 5.66 2.49
-3.73 5.58 2.49
-3.84 5.50 2.49
-3.95 5.42 2.49
-4.06 5.34 2.49
-4.16 5.25 2.49
-4.27 5.17 2.49
-4.37 5.08 2.49
-4.47 4.99 2.49
-4.57 4.89 2.49
-4.66 4.80 2.49
-4.76 4.70 2.49
-4.85 4.60 2.49
-4.94 4.50 2.49
-5.03 4.40 2.49
-5.12 4.30 2.49
-5.20 4.19 2.49
-5.28 4.09 2.49
-5.36 3.98 2.49
-5.44 3.87 2.49
-5.52 3.76 2.49
-5.59 3.65 2.49
-5.66 3.53 2.49
-5.71 3.40 2.48
-5.71 3.25 2.46
-5.72 3.10 2.43
-5.73 2.96 2.41
-5.74 2.82 2.39
-5.80 2.70 2.39
-5.85 2.59 2.39
-5.90 2.47 2.39
-5.95 2.35 2.39
-6.00 2.23 2.39
-6.04 2.11 2.39
-6.08 1.99 2.39
-6.12 1.86 2.39
-6.16 1.74 2.39
-6.20 1.61 2.39
-6.23 1.49 2.39
-6.26 1.36 2.39
-6.29 1.24 2.39
-6.31 1.11 2.39
-6.33 0.98 2.39
-6.35 0.86 2.39
-6.37 0.73 2.39
-6.39 0.60 2.39
-6.40 0.47 2.39
-6.41 0.34 2.39
-6.42 0.21 2.39
-6.42 0.08 2.39
-6.43 -0.05 2.39
-6.43 -0.18 2.39
-6.42 -0.31 2.39
-6.42 -0.44 2.39
-6.41 -0.57 2.39
-6.40 -0.70 2.39
-6.39 -0.82 2.39
-6.37 -0.95 2.39
-6.36 -1.08 2.39
-6.34 -1.21 2.39
-6.32 -1.34 2.39
-6.29 -1.47 2.39
-6.26 -1.59 2.39
-6.23 -1.72 2.39
-6.20 -1.85 2.39
-6.17 -1.97 2.39
-6.13 -2.10 2.39
-6.09 -2.22 2.39
-6.05 -2.35 2.39
-6.00 -2.47 2.39
-5.96 -2.59 2.39
-5.95 -2.73 2.41
-5.95 -2.88 2.43
-5.95 -3.03 2.45
-5.96 -3.19 2.48
-5.93 -3.33 2.49
-5.87 -3.45 2.49
-5.80 -3.57 2.49
-5.73 -3.69 2.49
-5.66 -3.80 2.49
-5.59 -3.92 2.49
-5.51 -4.03 2.49
-5.43 -4.15 2.49
-5.35 -4.26 2.49
-5.27 -4.37 2.49
-5.19 -4.48 2.49
-5.10 -4.59 2.49
-5.01 -4.69 2.49
-4.92 -4.79 2.49
-4.82 -4.90 2.49
-4.73 -5.00 2.49
-4.63 -5.10 2.49
-4.53 -5.19 2.49
-4.43 -5.29 2.49
-4.33 -5.38 2.49
-4.22 -5.47 2.49
-4.12 -5.56 2.49
-4.01 -5.64 2.49
-3.90 -5.73 2.49
-3.78 -5.81 2.49
-3.67 -5.89 2.49
-3.55 -5.97 2.49
-3.44 -6.05 2.49
-3.32 -6.12 2.49
-3.20 -6.19 2.49
-3.07 -6.26 2.49
-2.95 -6.32 2.49
-2.83 -6.39 2.49
-2.70 -6.45 2.49
-2.57 -6.51 2.49
-2.44 -6.56 2.49
-2.31 -6.62 2.49
-2.18 -6.67 2.49
-2.05 -6.72 2.49
-1.92 -6.76 2.49
-1.78 -6.81 2.49
-1.65 -6.85 2.49
-1.51 -6.88 2.49
-1.37 -6.92 2.49
-1.23 -6.95 2.49
-1.10 -6.98 2.49
-0.96 -7.01 2.49
-0.82 -7.03 2.49
-0.68 -7.05 2.49
-0.54 -7.07 2.49
-0.39 -7.09 2.49
-0.25 -7.10 2.49
-0.11 -7.11 2.49
0.03 -6.63 2.49
0.17 -6.64 2.49
0.30 -6.64 2.49
0.43 -6.63 2.49
0.56 -6.63 2.49
0.70 -6.62 2.49
0.83 -6.61 2.49
0.96 -6.60 2.49
1.10 -6.58 2.49
1.23 -6.56 2.49
1.36 -6.54 2.49
1.49 -6.52 2.49
1.62 -6.49 2.49
1.75 -6.46 2.49
1.88 -6.43 2.49
1.97 -6.27 2.45
2.05 -6.09 2.39
2.19 -6.10 2.41
2.30 -6.01 2.39
2.42 -5.97 2.39
2.54 -5.92 2.39
2.66 -5.88 2.39
2.78 -5.83 2.39
2.90 -5.77 2.39
3.01 -5.72 2.39
3.13 -5.66 2.39
3.24 -5.60 2.39
3.35 -5.53 2.39
3.47 -5.47 2.39
3.58 -5.40 2.39
3.69 -5.33 2.39
3.79 -5.26 2.39
3.90 -5.18 2.39
4.00 -5.11 2.39
4.11 -5.03 2.39
4.21 -4.95 2.39
4.31 -4.86 2.39
4.40 -4.78 2.39
4.50 -4.69 2.39
4.59 -4.60 2.39
4.69 -4.51 2.39
4.78 -4.42 2.39
4.87 -4.32 2.39
4.95 -4.22 2.39
5.04 -4.12 2.39
5.12 -4.02 2.39
5.20 -3.92 2.39
5.28 -3.82 2.39
5.35 -3.71 2.39
5.43 -3.61 2.39
5.50 -3.50 2.39
5.57 -3.39 2.39
5.63 -3.27 2.39
5.70 -3.16 2.39
5.76 -3.05 2.39
5.82 -2.93 2.39
5.88 -2.82 2.39
5.93 -2.70 2.39
5.99 -2.58 2.39
6.04 -2.46 2.39
6.08 -2.34 2.39
6.13 -2.21 2.39
6.73 -2.28 2.61
6.83 -2.16 2.63
6.92 -2.04 2.65
7.01 -1.92 2.67
7.09 -1.79 2.68
7.16 -1.65 2.70
7.22 -1.52 2.71
7.28 -1.38 2.72
7.33 -1.24 2.73
7.38 -1.09 2.74
7.41 -0.95 2.75
7.44 -0.80 2.75
7.47 -0.65 2.76
7.48 -0.50 2.76
7.49 -0.35 2.76
7.47 -0.20 2.75
7.44 -0.05 2.74
7.41 0.09 2.73
7.37 0.24 2.72
7.32 0.39 2.70
7.28 0.53 2.69
7.24 0.67 2.68
7.20 0.81 2.67
7.14 0.95 2.66
7.09 1.09 2.65
7.03 1.22 2.64
6.96 1.36 2.62
6.89 1.49 2.61
6.28 1.49 2.39
6.25 1.61 2.39
6.21 1.74 2.39
6.17 1.86 2.39
6.13 1.98 2.39
6.08 2.10 2.39
6.04 2.22 2.39
5.99 2.34 2.39
5.93 2.46 2.39
5.88 2.57 2.39
5.82 2.69 2.39
5.77 2.80 2.39
5.70 2.92 2.39
5.64 3.03 2.39
5.57 3.14 2.39
5.51 3.25 2.39
5.44 3.35 2.39
5.36 3.46 2.39
2.79 1.88 1.26
2.75 1.93 1.26
5.14 3.77 2.39
5.06 3.86 2.39
4.97 3.96 2.39
4.89 4.06 2.39
4.80 4.15 2.39
4.72 4.24 2.39
4.63 4.33 2.39
4.53 4.42 2.39
4.44 4.51 2.39
4.35 4.59 2.39
4.25 4.67 2.39
4.15 4.75 2.39
4.05 4.83 2.39
3.95 4.91 2.39
3.85 4.98 2.39
3.75 5.05 2.39
3.64 5.12 2.39
3.53 5.19 2.39
3.43 5.26 2.39
3.32 5.32 2.39
3.21 5.38 2.39
3.10 5.44 2.39
2.98 5.50 2.39
2.87 5.55 2.39
2.76 5.60 2.39
2.64 5.66 2.39
2.52 5.70 2.39
2.44 5.82 2.43
2.39 6.03 2.49
2.26 6.08 2.49
2.14 6.12 2.49
2.02 6.15 2.49
1.89 6.19 2.49
1.76 6.22 2.49
1.64 6.25 2.49
1.51 6.27 2.49
1.38 6.30 2.49
1.25 6.32 2.49
1.13 6.34 2.49
1.00 6.35 2.49
0.87 6.37 2.49
0.74 6.38 2.49
0.61 6.39 2.49
0.48 6.39 2.49
0.35 6.39 2.49
0.22 6.40 2.49
0.10 6.39 2.49
-0.03 6.39 2.49
-0.16 6.38 2.49
-0.29 6.37 2.49
-0.42 6.36 2.49
-0.54 6.35 2.49
-0.67 6.33 2.49
-0.80 6.31 2.49
-0.92 6.29 2.49
-1.05 6.27 2.49
-1.18 6.24 2.49
-1.30 6.21 2.49
-1.42 6.18 2.49
-1.55 6.14 2.49
-1.67 6.11 2.49
-1.79 6.07 2.49
-1.91 6.03 2.49
-2.03 5.98 2.49
-2.15 5.94 2.49
-2.27 5.89 2.49
-2.39 5.84 2.49
-2.50 5.79 2.49
-2.62 5.73 2.49
-2.73 5.68 2.49
-2.84 5.62 2.49
-2.95 5.56 2.49
-3.06 5.49 2.49
-3.17 5.43 2.49
-3.28 5.36 2.49
-3.38 5.29 2.49
-3.49 5.22 2.49
-3.59 5.14 2.49
-3.69 5.07 2.49
-3.79 4.99 2.49
-3.89 4.91 2.49
-3.99 4.83 2.49
-4.08 4.75 2.49
-4.18 4.66 2.49
-4.27 4.58 2.49
-4.36 4.49 2.49
-4.45 4.40 2.49
-4.54 4.31 2.49
-4.62 4.21 2.49
-4.70 4.12 2.49
-4.78 4.02 2.49
-4.86 3.92 2.49
-4.94 3.82 2.49
-5.02 3.72 2.49
-5.09 3.62 2.49
-5.16 3.52 2.49
-5.23 3.41 2.49
-5.30 3.30 2.49
-5.36 3.20 2.49
-5.43 3.09 2.49
-5.49 2.98 2.49
-5.55 2.86 2.49
-5.60 2.75 2.49
-5.66 2.64 2.49
-5.71 2.52 2.49
-5.75 2.40 2.49
-5.75 2.27 2.47
-5.76 2.14 2.45
-5.76 2.01 2.44
-5.77 1.88 2.42
-5.78 1.76 2.41
-5.78 1.63 2.40
-5.79 1.51 2.39
-5.82 1.39 2.39
-5.85 1.27 2.39
-5.88 1.16 2.39
-5.90 1.04 2.39
-5.92 0.92 2.39
-5.94 0.80 2.39
-5.96 0.68 2.39
-5.97 0.56 2.39
-5.98 0.44 2.39
-5.99 0.32 2.39
-6.02 0.20 2.40
-6.03 0.08 2.40
-6.01 -0.05 2.39
-6.01 -0.17 2.39
-6.01 -0.29 2.39
-6.00 -0.41 2.39
-5.99 -0.53 2.39
-5.99 -0.65 2.39
-5.97 -0.77 2.39
-5.96 -0.89 2.39
-5.94 -1.01 2.39
-5.92 -1.13 2.39
-5.90 -1.25 2.39
-5.90 -1.38 2.40
-5.90 -1.50 2.41
-5.90 -1.63 2.42
-5.91 -1.76 2.44
-5.91 -1.89 2.45
-5.91 -2.03 2.47
-5.92 -2.16 2.49
-5.89 -2.29 2.49
-5.85 -2.41 2.49
-5.80 -2.53 2.49
-5.76 -2.65 2.49
-5.71 -2.76 2.49
-5.65 -2.88 2.49
-5.60 -2.99 2.49
-5.54 -3.11 2.49
-5.48 -3.22 2.49
-5.42 -3.33 2.49
-5.35 -3.45 2.49
-5.29 -3.55 2.49
-5.22 -3.66 2.49
-5.15 -3.77 2.49
-5.07 -3.88 2.49
-5.00 -3.98 2.49
-4.92 -4.08 2.49
-4.84 -4.18 2.49
-4.76 -4.28 2.49
