ply
format ascii 1.0
element vertex 2823
property float32 x
property float32 y
property float32 z
end_header
-15.61 6.16 0.90
-15.39 5.72 0.88
-15.23 5.32 0.86
-15.07 4.92 0.85
-14.92 4.54 0.83
-14.80 4.18 0.82
-14.76 3.85 0.81
-14.72 3.53 0.80
-14.68 3.21 0.79
-14.63 2.89 0.78
-14.59 2.58 0.77
-14.55 2.27 0.77
-14.35 1.95 0.75
-14.13 1.63 0.73
-13.93 1.32 0.72
-13.73 1.03 0.70
-13.53 0.74 0.69
-13.35 0.46 0.67
-13.17 0.19 0.66
-13.15 -0.08 0.66
-13.15 -0.34 0.65
-13.12 -0.60 0.65
-13.10 -0.87 0.64
-13.07 -1.13 0.64
-13.04 -1.39 0.63
-13.02 -1.65 0.63
-13.00 -1.92 0.63
-13.00 -2.18 0.62
-13.00 -2.45 0.62
-13.01 -2.73 0.62
-13.01 -3.00 0.62
-13.02 -3.28 0.61
-13.02 -3.56 0.61
-13.03 -3.84 0.61
-13.02 -4.13 0.61
-13.02 -4.42 0.61
-13.03 -4.71 0.61
-13.07 -5.03 0.61
-13.11 -5.35 0.61
-13.15 -5.68 0.61
-13.19 -6.01 0.61
-13.22 -6.35 0.61
-13.26 -6.70 0.61
-13.31 -7.06 0.61
-13.35 -7.43 0.61
-13.40 -7.81 0.62
-13.44 -8.20 0.62
-13.54 -8.64 0.62
-13.69 -9.13 0.63
-13.88 -9.66 0.64
-14.14 -10.28 0.65
-14.51 -10.99 0.67
-14.68 -11.59 0.68
-14.75 -12.14 0.68
-14.88 -12.75 0.69
-14.94 -13.33 0.70
-14.96 -13.90 0.70
-14.98 -14.49 0.70
-14.99 -15.09 0.71
-14.97 -15.69 0.71
-14.98 -16.35 0.71
-15.03 -17.08 0.72
-15.14 -17.91 0.73
-15.27 -18.82 0.74
-15.43 -19.82 0.75
-15.58 -20.87 0.77
-15.71 -21.95 0.78
-15.83 -23.08 0.80
-15.95 -24.29 0.81
-6.94 -38.16 0.69
5.47 -44.80 1.51
2.45 -17.17 0.57
13.84 -18.48 0.60
12.96 -16.60 0.54
12.18 -14.98 0.49
11.99 -14.15 0.47
11.84 -13.42 0.45
11.70 -12.73 0.44
11.65 -12.18 0.42
11.62 -11.67 0.41
11.58 -11.18 0.40
11.55 -10.71 0.39
11.55 -10.28 0.38
11.56 -9.88 0.37
11.57 -9.49 0.37
11.54 -9.09 0.36
11.51 -8.70 0.35
11.52 -8.35 0.35
11.55 -8.02 0.34
11.57 -7.70 0.34
11.60 -7.38 0.34
11.60 -7.06 0.33
11.61 -6.75 0.33
11.62 -6.45 0.33
11.67 -6.18 0.32
11.71 -5.90 0.32
11.76 -5.63 0.32
11.80 -5.36 0.32
11.85 -5.10 0.32
11.89 -4.84 0.32
11.94 -4.58 0.32
11.96 -4.32 0.32
11.98 -4.05 0.32
11.99 -3.79 0.32
12.08 -3.56 0.32
12.20 -3.33 0.33
12.32 -3.09 0.33
12.44 -2.86 0.33
12.56 -2.62 0.34
12.65 -2.38 0.34
12.86 -2.15 0.35
13.01 -1.91 0.35
13.17 -1.66 0.36
13.32 -1.41 0.37
13.48 -1.16 0.38
13.53 -0.89 0.38
13.57 -0.62 0.38
13.38 -0.34 0.38
13.14 -0.07 0.38
12.87 0.19 0.37
12.84 0.45 0.38
12.84 0.70 0.38
12.88 0.97 0.39
13.02 1.24 0.40
13.53 1.56 0.42
13.76 1.87 0.43
15.26 2.38 0.49
15.45 2.73 0.50
15.60 3.08 0.51
15.25 3.33 0.51
14.99 3.59 0.51
15.24 3.98 0.52
15.27 4.31 0.53
17.00 5.17 0.61
17.37 5.67 0.63
17.44 6.08 0.65
17.52 6.51 0.66
17.60 6.94 0.68
19.37 8.09 0.76
19.42 8.57 0.78
19.46 9.06 0.80
21.57 10.58 0.90
23.41 12.07 1.00
23.43 12.68 1.03
23.46 13.31 1.05
23.76 14.12 1.09
23.82 14.80 1.12
23.94 15.56 1.15
25.34 17.20 1.25
25.94 18.37 1.31
27.75 20.51 1.44
28.12 21.66 1.50
28.06 22.53 1.54
27.97 23.39 1.58
27.74 24.16 1.61
27.41 24.86 1.64
27.00 25.49 1.67
26.63 26.18 1.70
26.28 26.89 1.73
25.94 27.63 1.76
25.78 28.59 1.81
25.58 29.54 1.86
25.14 30.23 1.89
24.63 30.86 1.92
24.14 31.52 1.95
23.67 32.23 1.98
23.39 33.23 2.04
23.12 34.28 2.09
22.84 35.38 2.16
22.60 36.59 2.22
22.37 37.90 2.30
22.14 39.29 2.38
21.73 40.44 2.45
21.01 41.06 2.48
20.29 41.70 2.52
19.55 42.32 2.56
18.80 42.93 2.60
18.03 43.54 2.63
17.24 44.11 2.67
16.50 44.85 2.72
15.74 45.58 2.77
11.21 34.70 2.11
6.45 21.43 1.31
5.57 19.95 1.22
5.16 20.03 1.23
5.03 21.30 1.31
6.24 28.98 1.79
5.72 29.45 1.83
5.27 30.39 1.89
5.26 34.39 2.15
3.27 24.69 1.55
4.24 37.82 2.39
3.45 37.62 2.39
2.79 39.02 2.50
1.99 38.79 2.50
1.20 38.55 2.50
0.43 38.31 2.50
-0.34 38.05 2.50
-1.10 37.78 2.50
-1.84 37.51 2.50
-2.58 37.23 2.50
-3.31 36.94 2.50
-4.02 36.65 2.50
-4.73 36.34 2.50
-5.21 34.54 2.39
-5.86 34.24 2.39
-6.52 33.93 2.39
-7.16 33.61 2.39
-7.79 33.28 2.39
-8.41 32.95 2.39
-9.03 32.61 2.39
-9.71 32.51 2.41
-10.12 31.57 2.37
-10.54 30.74 2.33
-10.90 29.82 2.29
-11.14 28.66 2.22
-11.65 28.28 2.22
-11.72 26.91 2.14
-11.82 25.71 2.07
-11.38 23.50 1.92
-11.40 22.39 1.85
-11.45 21.41 1.80
-11.57 20.62 1.76
-11.68 19.87 1.72
-11.75 19.09 1.67
-11.86 18.44 1.64
-11.93 17.76 1.61
-12.02 17.13 1.58
-12.17 16.63 1.56
-12.27 16.08 1.53
-12.33 15.50 1.50
-12.55 15.13 1.49
-12.76 14.77 1.49
-12.96 14.41 1.48
-13.03 13.91 1.46
-13.08 13.42 1.43
-13.13 12.94 1.41
-13.18 12.48 1.39
-13.25 12.05 1.37
-13.32 11.63 1.36
-13.37 11.21 1.34
-13.42 10.79 1.33
-13.46 10.39 1.31
-13.55 10.03 1.30
-13.66 9.69 1.29
-5.98 4.06 0.56
-13.86 9.02 1.27
-13.92 8.67 1.26
-13.95 8.30 1.25
-14.03 7.97 1.24
-14.10 7.64 1.23
-14.17 7.31 1.23
-14.30 7.02 1.22
-14.57 6.79 1.23
-14.85 6.56 1.24
-15.13 6.33 1.26
-15.17 5.99 1.25
-15.01 5.58 1.22
-14.86 5.18 1.20
-14.71 4.80 1.18
-14.57 4.43 1.16
-14.48 4.09 1.14
-14.45 3.77 1.13
-14.41 3.45 1.12
-14.38 3.14 1.11
-14.34 2.83 1.10
-14.29 2.52 1.09
-14.25 2.22 1.08
-14.04 1.90 1.05
-13.84 1.59 1.03
-13.64 1.29 1.01
-13.45 1.00 0.99
-13.26 0.72 0.97
-13.08 0.45 0.96
-12.91 0.18 0.94
-12.90 -0.08 0.94
-12.90 -0.34 0.93
-12.90 -0.60 0.93
-12.87 -0.86 0.92
-12.85 -1.11 0.92
-12.82 -1.37 0.91
-12.79 -1.63 0.91
-12.77 -1.89 0.91
-12.77 -2.15 0.90
-12.77 -2.42 0.90
-12.78 -2.68 0.90
-12.78 -2.95 0.90
-12.78 -3.23 0.90
-12.79 -3.50 0.90
-12.79 -3.78 0.90
-12.79 -4.06 0.90
-12.78 -4.34 0.90
-12.77 -4.63 0.90
-12.77 -4.92 0.90
-12.81 -5.23 0.91
-12.85 -5.55 0.91
-12.88 -5.88 0.91
-12.91 -6.21 0.92
-12.93 -6.54 0.92
-12.96 -6.89 0.93
-13.01 -7.25 0.93
-13.05 -7.62 0.94
-13.09 -8.00 0.95
-13.11 -8.38 0.95
-13.17 -8.79 0.96
-13.30 -9.27 0.98
-13.44 -9.77 0.99
-13.50 -10.24 1.00
-13.75 -10.87 1.03
-14.10 -11.62 1.07
-14.22 -12.20 1.08
-14.32 -12.80 1.10
-14.44 -13.43 1.12
-14.46 -14.00 1.13
-14.46 -14.58 1.14
-14.46 -15.18 1.16
-14.45 -15.79 1.17
-14.46 -16.45 1.19
-14.49 -17.17 1.21
-14.55 -17.95 1.23
-14.66 -18.85 1.26
-14.79 -19.83 1.29
-14.92 -20.86 1.32
-15.03 -21.94 1.36
-15.11 -23.03 1.39
-15.21 -24.22 1.43
-15.83 -26.38 1.52
-10.60 -26.54 1.29
-10.41 -29.43 1.38
-10.46 -31.57 1.45
-10.54 -34.11 1.54
-10.53 -36.66 1.63
-10.60 -39.90 1.74
-10.69 -43.76 1.88
-10.80 -48.39 2.04
-6.92 -38.14 1.56
-7.00 -43.56 1.75
0.07 -42.56 2.50
0.93 -42.87 2.50
1.61 -38.60 2.23
1.89 -30.64 1.76
3.43 -41.88 2.39
4.30 -42.11 2.39
5.18 -42.31 2.39
2.46 -17.18 0.97
5.62 -34.37 1.93
5.70 -30.94 1.73
5.79 -28.28 1.58
5.86 -25.94 1.44
12.66 -16.90 1.02
12.05 -15.42 0.95
11.71 -14.39 0.89
11.64 -13.73 0.86
11.50 -13.03 0.83
9.76 -10.62 0.69
9.93 -10.38 0.68
10.30 -10.34 0.69
11.34 -10.93 0.75
11.32 -10.49 0.73
11.33 -10.09 0.72
11.35 -9.70 0.70
11.36 -9.32 0.69
11.34 -8.93 0.68
11.31 -8.55 0.67
11.34 -8.22 0.66
11.37 -7.90 0.65
11.40 -7.58 0.64
11.43 -7.28 0.64
11.44 -6.96 0.63
11.44 -6.66 0.62
11.47 -6.37 0.62
11.52 -6.10 0.61
11.56 -5.83 0.61
11.61 -5.56 0.61
11.65 -5.30 0.61
11.70 -5.04 0.60
11.74 -4.78 0.60
11.78 -4.52 0.60
11.81 -4.26 0.60
11.82 -4.00 0.60
11.83 -3.74 0.60
11.88 -3.50 0.60
12.00 -3.27 0.60
12.11 -3.05 0.61
12.23 -2.82 0.61
12.35 -2.58 0.62
12.42 -2.34 0.62
12.48 -2.09 0.62
12.83 -1.89 0.64
12.98 -1.64 0.65
13.13 -1.40 0.66
13.29 -1.14 0.67
13.39 -0.88 0.68
13.43 -0.62 0.68
13.38 -0.35 0.68
13.28 -0.08 0.68
13.02 0.19 0.67
12.89 0.44 0.67
12.93 0.70 0.68
12.91 0.96 0.68
13.05 1.24 0.69
13.54 1.56 0.73
13.96 1.89 0.76
15.09 2.35 0.82
15.28 2.70 0.84
15.47 3.05 0.86
15.12 3.30 0.85
14.99 3.58 0.85
14.92 3.89 0.86
15.08 4.25 0.88
15.81 4.80 0.94
17.12 5.58 1.03
17.19 5.98 1.05
17.26 6.40 1.07
17.33 6.83 1.09
18.75 7.82 1.19
18.84 8.30 1.22
18.92 8.80 1.24
18.99 9.30 1.27
19.08 9.82 1.30
19.10 10.32 1.33
19.12 10.83 1.35
19.14 11.36 1.38
20.81 12.92 1.53
20.81 13.51 1.56
21.25 14.40 1.63
23.13 16.37 1.81
24.51 18.09 1.96
26.22 20.18 2.15
27.51 22.06 2.31
27.30 22.81 2.35
27.08 23.56 2.39
26.83 24.31 2.42
26.46 24.96 2.45
26.05 25.58 2.48
25.69 26.26 2.52
25.23 26.84 2.54
24.75 27.41 2.57
24.30 28.03 2.60
23.92 28.73 2.64
23.46 29.36 2.67
22.91 29.89 2.70
22.68 30.85 2.76
22.26 31.58 2.81
22.00 32.58 2.88
21.85 33.80 2.97
21.32 34.48 3.01
20.57 34.80 3.03
19.72 34.96 3.03
18.89 35.10 3.03
11.14 21.75 1.87
17.22 35.34 3.03
16.40 35.44 3.03
15.58 35.52 3.03
14.76 35.59 3.03
13.95 35.64 3.03
13.15 35.68 3.03
6.55 18.95 1.61
6.09 18.83 1.60
5.73 19.01 1.61
5.47 19.56 1.66
5.15 19.94 1.69
4.97 20.98 1.78
4.55 21.10 1.79
5.47 28.09 2.39
4.88 28.03 2.39
4.29 27.97 2.39
3.28 24.66 2.12
3.13 27.80 2.39
2.67 28.90 2.50
2.07 28.80 2.50
1.49 28.68 2.50
0.91 28.56 2.50
0.33 28.42 2.50
-0.24 28.28 2.50
-0.80 28.13 2.50
-1.36 27.97 2.50
-1.91 27.81 2.50
-2.46 27.64 2.50
-3.00 27.46 2.50
-3.54 27.27 2.50
-4.07 27.07 2.50
-4.59 26.87 2.50
-5.11 26.66 2.50
-5.39 25.36 2.39
-5.87 25.14 2.39
-6.35 24.92 2.39
-6.83 24.70 2.39
-7.30 24.47 2.39
-7.76 24.23 2.39
-8.22 23.98 2.39
-8.67 23.73 2.39
-9.11 23.48 2.39
-9.70 23.58 2.43
-10.04 23.07 2.41
-10.33 22.49 2.37
-10.63 21.97 2.35
-10.87 21.35 2.31
-11.09 20.74 2.27
-11.17 19.91 2.21
-11.24 19.14 2.16
-11.33 18.43 2.11
-11.41 17.75 2.06
-11.49 17.10 2.01
-11.60 16.54 1.98
-11.70 15.98 1.94
-11.77 15.42 1.91
-11.85 14.90 1.88
-12.06 14.56 1.87
-12.21 14.14 1.85
-12.28 13.65 1.82
-12.34 13.18 1.79
-12.40 12.73 1.76
-12.47 12.29 1.74
-12.55 11.88 1.72
-12.62 11.48 1.70
-12.70 11.09 1.68
-12.77 10.70 1.66
-12.84 10.33 1.64
-12.89 9.95 1.62
-13.05 9.66 1.62
-13.26 9.41 1.62
-5.98 4.06 0.72
-13.53 8.80 1.61
-13.62 8.48 1.60
-13.67 8.13 1.59
-13.75 7.81 1.58
-13.82 7.49 1.57
-13.89 7.17 1.56
-13.96 6.85 1.55
-14.20 6.62 1.56
-14.47 6.39 1.57
-14.60 6.10 1.57
-14.62 5.77 1.56
-14.64 5.44 1.55
-14.50 5.06 1.52
-14.36 4.69 1.49
-14.23 4.33 1.47
-14.18 4.00 1.45
-14.14 3.69 1.44
-14.11 3.38 1.42
-14.08 3.07 1.41
-14.05 2.77 1.40
-14.01 2.47 1.39
-13.94 2.17 1.37
-13.74 1.86 1.35
-13.55 1.55 1.32
-13.36 1.26 1.30
-13.18 0.98 1.27
-13.00 0.70 1.25
-12.83 0.43 1.23
-12.66 0.17 1.21
-12.65 -0.08 1.20
-12.66 -0.34 1.20
-12.66 -0.59 1.20
-12.66 -0.85 1.20
-12.63 -1.10 1.19
-12.60 -1.35 1.19
-12.58 -1.61 1.18
-12.55 -1.86 1.18
-12.55 -2.12 1.18
-12.55 -2.38 1.18
-12.55 -2.64 1.18
-12.55 -2.91 1.18
-12.56 -3.17 1.18
-12.56 -3.45 1.18
-12.56 -3.72 1.18
-12.56 -3.99 1.18
-12.55 -4.27 1.18
-12.54 -4.55 1.19
-12.53 -4.83 1.19
-12.52 -5.12 1.19
-12.55 -5.43 1.20
-12.59 -5.75 1.21
-12.62 -6.07 1.21
-12.63 -6.40 1.22
-12.65 -6.73 1.23
-12.68 -7.07 1.24
-12.71 -7.43 1.25
-12.75 -7.80 1.26
-12.77 -8.17 1.27
-12.79 -8.55 1.28
-12.81 -8.94 1.30
-12.92 -9.41 1.32
-13.05 -9.91 1.34
-13.06 -10.34 1.36
-13.05 -10.76 1.37
-13.34 -11.46 1.41
-13.58 -12.15 1.46
-13.68 -12.74 1.48
-13.86 -13.43 1.52
-13.97 -14.10 1.55
-13.96 -14.66 1.58
-13.94 -15.25 1.60
-13.91 -15.84 1.62
-13.89 -16.48 1.64
-13.91 -17.19 1.67
-13.93 -17.94 1.71
-14.07 -18.88 1.76
-14.16 -19.83 1.81
-14.27 -20.85 1.86
-14.37 -21.93 1.92
-14.42 -23.00 1.97
-14.47 -24.15 2.03
-14.45 -25.25 2.08
-14.08 -25.78 2.08
-13.41 -25.78 2.05
-12.76 -25.78 2.01
-12.14 -25.82 1.98
-11.56 -25.92 1.95
-10.55 -24.99 1.85
-10.27 -25.76 1.88
-10.31 -27.45 1.97
-10.36 -29.34 2.08
-10.41 -31.48 2.20
-10.46 -33.92 2.33
-10.10 -35.23 2.39
-9.46 -35.70 2.39
-8.81 -36.16 2.39
-6.61 -29.71 1.94
-6.87 -34.09 2.20
-6.78 -37.49 2.39
-6.33 -39.54 2.50
-5.58 -39.96 2.50
-4.82 -40.38 2.50
-4.04 -40.78 2.50
-3.24 -41.16 2.50
-2.43 -41.54 2.50
-1.61 -41.89 2.50
-0.78 -42.23 2.50
0.06 -30.71 2.50
0.68 -30.87 2.50
1.31 -31.01 2.50
1.84 -29.54 2.37
2.47 -29.97 2.39
3.09 -30.07 2.39
3.71 -30.15 2.39
2.46 -17.15 1.36
4.96 -30.29 2.39
5.70 -30.88 2.44
5.76 -28.07 2.21
5.65 -24.98 1.97
5.72 -23.10 1.82
5.74 -21.34 1.68
5.85 -20.14 1.59
12.26 -17.06 1.50
11.90 -15.88 1.41
11.44 -14.64 1.32
11.37 -13.97 1.27
11.30 -13.33 1.23
11.18 -12.67 1.19
9.90 -10.77 1.03
9.87 -10.31 1.00
10.05 -10.09 1.00
10.40 -10.03 1.01
11.10 -10.29 1.06
11.12 -9.90 1.04
11.14 -9.52 1.02
11.15 -9.15 1.01
11.14 -8.77 0.99
11.14 -8.42 0.97
11.17 -8.09 0.96
11.20 -7.78 0.95
11.23 -7.47 0.94
11.26 -7.17 0.93
11.27 -6.86 0.92
11.28 -6.56 0.91
11.32 -6.29 0.90
11.37 -6.02 0.90
11.41 -5.75 0.89
11.46 -5.49 0.89
11.50 -5.23 0.88
11.55 -4.98 0.88
11.59 -4.72 0.88
11.64 -4.47 0.88
11.65 -4.21 0.87
11.67 -3.95 0.87
11.68 -3.70 0.87
11.70 -3.45 0.86
11.80 -3.22 0.87
11.91 -3.00 0.87
12.03 -2.77 0.88
12.14 -2.54 0.89
12.20 -2.30 0.89
12.21 -2.05 0.89
12.38 -1.82 0.90
12.80 -1.63 0.93
12.95 -1.38 0.95
13.10 -1.13 0.96
13.25 -0.88 0.97
13.29 -0.61 0.98
13.33 -0.35 0.98
13.38 -0.08 0.99
13.15 0.18 0.98
13.09 0.44 0.98
13.19 0.71 0.99
13.03 0.97 0.98
13.13 1.24 1.00
13.65 1.56 1.04
14.22 1.92 1.09
14.22 2.21 1.10
14.41 2.54 1.13
14.25 2.80 1.12
14.25 3.10 1.13
15.18 3.62 1.22
15.17 3.94 1.23
15.61 4.40 1.28
15.62 4.74 1.29
16.18 5.26 1.36
16.77 5.83 1.42
16.95 6.28 1.46
17.08 6.72 1.49
17.15 7.14 1.51
17.75 7.81 1.59
17.90 8.31 1.62
18.04 8.82 1.66
18.10 9.30 1.69
18.26 9.86 1.74
18.48 10.46 1.79
18.49 10.96 1.82
18.50 11.47 1.85
18.52 12.01 1.89
19.87 13.45 2.07
20.10 14.21 2.13
20.58 15.17 2.23
20.81 15.99 2.30
22.70 18.18 2.56
24.21 20.20 2.79
24.07 20.92 2.84
24.45 22.13 2.96
24.09 22.70 2.98
23.72 23.26 3.01
23.22 23.70 3.03
22.61 24.03 3.03
22.00 24.34 3.03
21.38 24.63 3.03
20.77 24.91 3.03
20.15 25.18 3.03
19.53 25.44 3.03
18.91 25.68 3.03
18.29 25.91 3.03
17.67 26.13 3.03
17.04 26.33 3.03
16.42 26.52 3.03
14.32 24.19 2.74
15.18 26.86 3.03
14.56 27.02 3.03
11.16 21.74 2.42
10.75 22.03 2.44
6.57 14.18 1.57
6.37 14.50 1.59
11.47 27.60 3.03
6.60 16.84 1.84
6.27 16.98 1.85
6.46 18.64 2.03
6.05 18.66 2.03
5.68 18.79 2.04
5.44 19.41 2.10
5.12 19.78 2.14
4.85 20.44 2.21
4.53 20.94 2.27
4.26 21.80 2.36
3.85 22.07 2.39
3.39 22.04 2.39
2.94 22.01 2.39
2.59 22.91 2.50
2.12 22.86 2.50
1.65 22.80 2.50
1.19 22.73 2.50
0.73 22.66 2.50
0.27 22.58 2.50
-0.18 22.49 2.50
-0.63 22.39 2.50
-1.07 22.29 2.50
-1.52 22.18 2.50
-1.95 22.06 2.50
-2.39 21.93 2.50
-2.82 21.80 2.50
-3.25 21.67 2.50
-3.67 21.52 2.50
-4.09 21.37 2.50
-4.50 21.22 2.50
-4.91 21.06 2.50
-5.30 20.83 2.49
-5.48 19.86 2.39
-5.86 19.68 2.39
-6.24 19.51 2.39
-6.61 19.32 2.39
-6.98 19.13 2.39
-7.34 18.94 2.39
-7.70 18.74 2.39
-8.06 18.54 2.39
-8.41 18.33 2.39
-8.76 18.11 2.39
-9.10 17.89 2.39
-9.64 18.04 2.44
-9.88 17.63 2.42
-10.11 17.22 2.40
-10.36 16.85 2.38
-10.59 16.49 2.36
-10.80 16.09 2.34
-11.02 15.72 2.32
-11.22 15.34 2.30
-11.29 14.81 2.26
-11.41 14.35 2.22
-11.49 13.87 2.19
-11.57 13.41 2.15
-11.65 12.96 2.12
-11.72 12.52 2.09
-11.80 12.11 2.06
-11.89 11.72 2.04
-11.97 11.33 2.01
-12.05 10.96 1.99
-12.13 10.59 1.97
-12.20 10.23 1.95
-12.25 9.86 1.93
-12.31 9.50 1.90
-12.41 9.19 1.89
-12.61 8.95 1.89
-5.98 4.06 0.89
-13.00 8.46 1.90
-13.15 8.18 1.90
-13.35 7.94 1.90
-13.48 7.65 1.90
-13.55 7.34 1.89
-13.62 7.03 1.88
-13.69 6.72 1.87
-13.85 6.45 1.87
-14.05 6.21 1.88
-14.08 5.88 1.86
-14.11 5.56 1.85
-14.13 5.25 1.84
-14.16 4.93 1.82
-14.03 4.58 1.79
-13.91 4.23 1.77
-13.88 3.92 1.75
-13.85 3.61 1.73
-13.82 3.31 1.72
-13.79 3.01 1.70
-13.76 2.71 1.69
-13.73 2.42 1.68
-13.65 2.12 1.66
-13.46 1.82 1.63
-13.27 1.52 1.60
-13.09 1.23 1.57
-12.92 0.95 1.54
-12.75 0.68 1.52
-12.58 0.42 1.49
-12.42 0.17 1.47
-12.41 -0.08 1.46
-12.42 -0.33 1.46
-12.42 -0.58 1.46
-12.42 -0.83 1.46
-12.42 -1.09 1.45
-12.39 -1.34 1.45
-12.37 -1.58 1.45
-12.34 -1.83 1.44
-12.34 -2.09 1.44
-12.34 -2.34 1.44
-12.34 -2.60 1.44
-12.34 -2.86 1.45
-12.34 -3.13 1.45
-12.34 -3.39 1.45
-12.34 -3.66 1.45
-12.34 -3.93 1.46
-12.33 -4.20 1.46
-12.32 -4.48 1.46
-12.30 -4.75 1.47
-12.29 -5.04 1.47
-12.28 -5.32 1.48
-12.30 -5.63 1.49
-12.33 -5.94 1.50
-12.35 -6.26 1.51
-12.36 -6.58 1.52
-12.38 -6.91 1.53
-12.39 -7.25 1.55
-12.42 -7.61 1.56
-12.45 -7.98 1.58
-12.47 -8.34 1.59
-12.48 -8.72 1.61
-12.49 -9.10 1.62
-12.55 -9.54 1.65
-12.66 -10.03 1.68
-12.64 -10.44 1.70
-12.63 -10.86 1.72
-12.63 -11.31 1.74
-12.92 -12.04 1.80
-12.89 -12.51 1.82
-12.85 -12.99 1.85
-12.96 -13.63 1.89
-13.03 -14.27 1.93
-12.97 -14.79 1.96
-12.92 -15.34 1.98
-12.86 -15.91 2.01
-12.79 -16.49 2.04
-12.72 -17.09 2.07
-12.67 -17.76 2.11
-12.60 -18.44 2.15
-12.49 -19.09 2.18
-12.38 -19.76 2.22
-12.34 -20.62 2.28
-12.19 -21.33 2.31
-12.00 -22.01 2.35
-11.71 -22.54 2.37
-11.41 -23.07 2.38
-11.08 -23.60 2.40
-10.75 -24.13 2.42
-10.21 -24.22 2.39
-9.78 -24.56 2.39
-9.34 -24.90 2.39
-8.89 -25.22 2.39
-8.43 -25.54 2.39
-7.96 -25.86 2.39
-7.48 -26.16 2.39
-7.00 -26.46 2.39
-6.50 -26.75 2.39
-6.26 -28.19 2.50
-5.72 -28.47 2.50
-5.18 -28.74 2.50
-4.63 -29.01 2.50
-4.07 -29.26 2.50
-3.50 -29.50 2.50
-2.93 -29.73 2.50
-2.34 -29.95 2.50
-1.75 -30.16 2.50
-1.15 -30.35 2.50
-0.55 -30.54 2.50
0.06 -24.00 2.50
0.55 -24.10 2.50
1.03 -24.18 2.50
1.52 -24.26 2.50
1.94 -23.37 2.40
2.41 -23.36 2.39
2.89 -23.41 2.39
2.47 -17.15 1.75
3.85 -23.45 2.39
4.34 -23.46 2.39
4.83 -23.46 2.39
5.31 -23.44 2.39
5.72 -23.06 2.36
5.74 -21.31 2.18
5.68 -19.52 2.00
5.71 -18.26 1.88
5.73 -17.11 1.76
5.77 -16.14 1.67
5.84 -15.38 1.60
17.22 -29.85 3.27
17.37 -28.76 3.18
17.49 -27.70 3.10
13.27 -20.10 2.27
11.47 -16.64 1.90
11.51 -16.01 1.85
11.29 -15.05 1.76
11.10 -14.20 1.69
11.05 -13.57 1.63
10.99 -12.95 1.58
10.92 -12.36 1.54
10.91 -11.86 1.50
9.81 -10.25 1.32
9.97 -10.01 1.31
10.19 -9.82 1.31
10.57 -9.79 1.33
10.91 -9.71 1.35
10.93 -9.34 1.33
10.95 -8.99 1.31
10.95 -8.62 1.29
10.97 -8.29 1.27
11.00 -7.97 1.25
11.03 -7.66 1.24
11.07 -7.36 1.23
11.10 -7.07 1.21
11.11 -6.77 1.20
11.13 -6.47 1.19
11.18 -6.21 1.18
11.22 -5.94 1.17
11.27 -5.68 1.17
11.32 -5.42 1.16
11.36 -5.17 1.16
11.41 -4.91 1.15
11.45 -4.66 1.15
11.49 -4.41 1.14
11.50 -4.16 1.14
11.52 -3.90 1.13
11.53 -3.65 1.13
11.55 -3.41 1.13
11.61 -3.17 1.13
11.72 -2.95 1.13
11.83 -2.73 1.14
11.94 -2.50 1.15
11.98 -2.26 1.15
12.00 -2.02 1.15
12.01 -1.77 1.15
12.28 -1.56 1.18
12.71 -1.36 1.22
12.92 -1.12 1.24
13.07 -0.87 1.25
13.15 -0.61 1.27
13.19 -0.35 1.27
13.24 -0.08 1.28
13.29 0.18 1.29
13.17 0.44 1.28
13.20 0.71 1.29
13.43 0.99 1.32
13.70 1.29 1.35
13.97 1.60 1.39
13.97 1.88 1.39
13.97 2.17 1.40
13.97 2.45 1.41
14.06 2.76 1.43
14.06 3.05 1.44
14.41 3.43 1.49
15.45 4.01 1.62
15.46 4.34 1.63
15.46 4.68 1.65
15.46 5.02 1.66
16.29 5.65 1.77
16.32 6.03 1.80
16.41 6.44 1.83
16.59 6.90 1.87
16.77 7.37 1.92
16.84 7.81 1.95
16.96 8.28 1.99
17.09 8.78 2.04
17.23 9.29 2.08
17.39 9.83 2.13
17.69 10.47 2.21
17.89 11.08 2.27
17.89 11.58 2.31
17.90 12.11 2.35
17.92 12.65 2.40
18.77 13.82 2.56
19.45 14.93 2.70
19.75 15.80 2.80
19.67 16.39 2.85
19.58 16.99 2.90
19.97 18.05 3.03
19.52 18.37 3.03
19.06 18.67 3.03
9.79 9.98 1.59
9.61 10.20 1.60
10.31 11.39 1.77
9.98 11.48 1.76
9.46 11.34 1.71
9.19 11.47 1.71
11.24 14.62 2.16
10.96 14.87 2.17
10.73 15.18 2.20
10.56 15.59 2.23
13.80 21.29 3.03
13.31 21.47 3.03
12.82 21.63 3.03
12.28 21.70 3.01
11.73 21.74 3.00
6.51 12.67 1.74
6.14 12.57 1.71
5.87 12.64 1.71
5.61 12.76 1.72
5.48 13.17 1.77
5.91 15.04 2.01
5.99 16.18 2.16
5.52 15.91 2.11
5.21 16.04 2.13
5.48 18.08 2.39
5.09 18.12 2.39
4.71 18.14 2.39
4.32 18.16 2.39
3.94 18.17 2.39
3.56 18.18 2.39
3.19 18.18 2.39
2.81 18.17 2.39
2.54 18.94 2.50
2.15 18.92 2.50
1.76 18.89 2.50
1.38 18.85 2.50
1.00 18.81 2.50
0.61 18.76 2.50
0.24 18.71 2.50
-0.14 18.65 2.50
-0.51 18.58 2.50
-0.88 18.50 2.50
-1.25 18.42 2.50
-1.62 18.34 2.50
-1.98 18.25 2.50
-2.34 18.15 2.50
-2.69 18.05 2.50
-3.05 17.94 2.50
-3.40 17.82 2.50
-3.75 17.70 2.50
-4.09 17.57 2.50
-4.43 17.44 2.50
-4.77 17.31 2.50
-5.10 17.16 2.50
-5.39 16.88 2.48
-5.53 16.17 2.39
-5.84 16.02 2.39
-6.14 15.86 2.39
-6.45 15.70 2.39
-6.75 15.53 2.39
-7.05 15.36 2.39
-7.34 15.19 2.39
-7.63 15.01 2.39
-7.91 14.83 2.39
-8.20 14.64 2.39
-8.48 14.45 2.39
-8.75 14.25 2.39
-9.02 14.05 2.39
-9.29 13.84 2.39
-9.76 13.92 2.44
-9.96 13.63 2.43
-10.16 13.33 2.41
-10.34 13.01 2.40
-10.51 12.69 2.38
-10.68 12.37 2.36
-10.84 12.07 2.35
-11.03 11.79 2.34
-11.22 11.52 2.33
-11.35 11.20 2.31
-11.44 10.83 2.29
-11.52 10.48 2.26
-11.60 10.13 2.24
-11.66 9.78 2.21
-11.72 9.43 2.19
-11.77 9.09 2.16
-11.83 8.76 2.14
-12.01 8.52 2.14
-5.98 4.06 1.05
-12.26 7.98 2.13
-12.32 7.67 2.11
-12.37 7.36 2.09
-12.55 7.13 2.10
-12.82 6.94 2.12
-13.09 6.75 2.14
-13.37 6.56 2.16
-13.52 6.30 2.16
-13.57 5.99 2.15
-13.60 5.68 2.14
-13.63 5.37 2.12
-13.65 5.07 2.11
-13.68 4.77 2.09
-13.70 4.47 2.08
-13.62 4.14 2.05
-13.60 3.83 2.04
-13.57 3.53 2.02
-13.54 3.24 2.00
-13.49 2.94 1.98
-13.40 2.64 1.96
-13.32 2.34 1.94
-13.28 2.06 1.92
-13.18 1.78 1.90
-13.01 1.49 1.87
-12.84 1.20 1.83
-12.67 0.93 1.80
-12.51 0.67 1.77
-12.35 0.41 1.75
-12.19 0.16 1.72
-12.18 -0.09 1.72
-12.19 -0.33 1.71
-12.19 -0.58 1.71
-12.19 -0.82 1.71
-12.19 -1.07 1.71
-12.19 -1.32 1.71
-12.16 -1.56 1.70
-12.14 -1.81 1.70
-12.13 -2.06 1.70
-12.13 -2.31 1.70
-12.13 -2.56 1.70
-12.13 -2.82 1.71
-12.13 -3.08 1.71
-12.12 -3.34 1.71
-12.12 -3.60 1.72
-12.12 -3.87 1.72
-12.11 -4.14 1.73
-12.10 -4.40 1.73
-12.09 -4.68 1.74
-12.07 -4.95 1.74
-12.06 -5.23 1.75
-12.04 -5.52 1.76
-12.05 -5.82 1.77
-12.07 -6.13 1.78
-12.08 -6.44 1.80
-12.10 -6.76 1.81
-12.11 -7.09 1.83
-12.12 -7.43 1.85
-12.14 -7.78 1.87
-12.15 -8.14 1.89
-12.16 -8.51 1.91
-12.17 -8.88 1.93
-12.17 -9.27 1.95
-12.19 -9.67 1.97
-12.25 -10.13 2.01
-12.23 -10.53 2.03
-12.21 -10.95 2.06
-12.18 -11.37 2.08
-12.21 -11.87 2.12
-12.25 -12.39 2.16
-12.20 -12.85 2.19
-12.16 -13.33 2.21
-12.11 -13.82 2.25
-12.10 -14.38 2.29
-12.02 -14.89 2.32
-11.95 -15.42 2.35
-11.78 -15.85 2.37
-11.58 -16.25 2.39
-11.37 -16.66 2.40
-11.16 -17.07 2.42
-10.93 -17.48 2.43
-10.70 -17.89 2.45
-10.14 -17.77 2.39
-9.83 -18.05 2.39
-9.51 -18.33 2.39
-9.18 -18.60 2.39
-8.85 -18.87 2.39
-8.51 -19.13 2.39
-8.16 -19.38 2.39
-7.80 -19.63 2.39
-7.44 -19.88 2.39
-7.07 -20.12 2.39
-6.70 -20.35 2.39
-6.32 -20.57 2.39
-6.19 -21.68 2.50
-5.78 -21.90 2.50
-5.36 -22.12 2.50
-4.94 -22.32 2.50
-4.51 -22.52 2.50
-4.08 -22.71 2.50
-3.64 -22.89 2.50
-3.20 -23.06 2.50
-2.74 -23.22 2.50
-2.29 -23.37 2.50
-1.83 -23.52 2.50
-1.36 -23.65 2.50
-0.89 -23.78 2.50
-0.42 -23.90 2.50
0.06 -19.68 2.50
0.46 -19.75 2.50
0.85 -19.80 2.50
1.26 -19.85 2.50
1.66 -19.88 2.50
1.98 -19.09 2.39
2.37 -19.11 2.39
2.47 -17.15 2.15
3.15 -19.12 2.39
3.54 -19.11 2.39
3.94 -19.10 2.39
4.33 -19.07 2.39
4.73 -19.04 2.39
5.12 -19.00 2.39
5.52 -18.94 2.39
5.71 -18.24 2.31
5.73 -17.09 2.17
5.77 -16.12 2.06
5.79 -15.22 1.95
5.81 -14.41 1.86
5.84 -13.69 1.78
5.86 -13.01 1.70
5.87 -12.36 1.63
6.05 -12.11 1.60
11.93 -22.71 3.03
12.40 -22.50 3.03
12.86 -22.28 3.03
13.32 -22.04 3.03
11.59 -18.34 2.54
10.92 -16.54 2.32
10.98 -15.93 2.26
11.04 -15.34 2.21
10.83 -14.43 2.10
10.79 -13.79 2.04
10.74 -13.19 1.98
8.86 -10.44 1.59
9.08 -10.27 1.59
9.57 -10.40 1.64
9.82 -10.25 1.64
9.95 -9.98 1.63
10.20 -9.83 1.63
7.53 -6.97 1.18
7.83 -6.97 1.21
10.74 -9.17 1.63
10.76 -8.83 1.60
10.77 -8.48 1.58
10.80 -8.16 1.56
10.84 -7.85 1.54
10.87 -7.55 1.52
10.90 -7.25 1.51
10.94 -6.96 1.49
10.96 -6.67 1.48
10.99 -6.39 1.46
11.03 -6.13 1.45
11.08 -5.87 1.44
11.13 -5.61 1.44
11.17 -5.36 1.43
11.22 -5.10 1.42
11.26 -4.85 1.42
11.31 -4.61 1.41
11.34 -4.36 1.41
11.36 -4.11 1.40
11.37 -3.86 1.39
11.39 -3.61 1.39
11.41 -3.37 1.38
11.42 -3.12 1.38
11.53 -2.91 1.39
11.64 -2.69 1.39
11.75 -2.47 1.40
11.78 -2.23 1.40
11.79 -1.99 1.40
11.81 -1.75 1.40
11.82 -1.51 1.40
12.17 -1.31 1.45
12.60 -1.10 1.50
12.88 -0.86 1.53
13.02 -0.61 1.55
13.06 -0.35 1.56
13.10 -0.09 1.57
13.15 0.17 1.57
13.19 0.44 1.58
13.24 0.71 1.60
13.29 0.98 1.61
13.43 1.26 1.63
13.71 1.56 1.67
13.73 1.84 1.69
13.73 2.12 1.70
13.73 2.41 1.71
13.73 2.69 1.72
14.18 3.07 1.79
15.30 3.64 1.94
15.30 3.96 1.96
15.30 4.29 1.98
15.31 4.63 2.00
15.31 4.96 2.01
15.42 5.34 2.05
15.86 5.86 2.13
15.89 6.23 2.16
15.92 6.61 2.19
16.05 7.05 2.23
16.22 7.51 2.28
16.23 7.92 2.32
16.19 8.30 2.34
16.22 8.73 2.38
16.33 9.22 2.43
16.41 9.70 2.48
16.35 10.11 2.51
16.59 10.73 2.59
17.30 11.68 2.75
17.30 12.20 2.80
17.31 12.73 2.85
17.31 13.27 2.90
17.38 13.89 2.97
17.26 14.37 3.01
16.97 14.71 3.03
16.61 14.99 3.03
16.24 15.26 3.03
9.86 9.65 1.88
9.56 9.74 1.87
9.38 9.95 1.88
9.23 10.19 1.89
9.04 10.38 1.91
8.88 10.63 1.92
8.75 10.91 1.95
8.73 11.34 2.00
6.75 9.14 1.60
6.45 9.12 1.58
6.21 9.16 1.57
6.02 9.27 1.57
6.21 10.01 1.68
5.74 9.67 1.61
5.59 9.86 1.63
6.01 11.13 1.82
6.26 12.16 1.98
6.02 12.29 1.99
5.77 12.41 2.00
5.60 12.70 2.03
5.33 12.79 2.04
5.91 15.02 2.38
5.62 15.16 2.39
5.29 15.21 2.39
4.97 15.26 2.39
4.64 15.31 2.39
4.32 15.34 2.39
4.00 15.38 2.39
3.68 15.40 2.39
3.35 15.42 2.39
3.03 15.43 2.39
2.71 15.44 2.39
2.50 16.11 2.50
2.17 16.11 2.50
1.84 16.10 2.50
1.51 16.08 2.50
1.18 16.06 2.50
0.86 16.03 2.50
0.53 16.00 2.50
0.21 15.96 2.50
-0.11 15.91 2.50
-0.43 15.86 2.50
-0.75 15.81 2.50
-1.06 15.75 2.50
-1.37 15.68 2.50
-1.68 15.61 2.50
-1.99 15.53 2.50
-2.30 15.45 2.50
-2.60 15.36 2.50
-2.91 15.27 2.50
-3.20 15.17 2.50
-3.50 15.07 2.50
-3.79 14.96 2.50
-4.09 14.85 2.50
-4.37 14.73 2.50
-4.66 14.61 2.50
-4.94 14.48 2.50
-5.22 14.35 2.50
-5.46 14.10 2.47
-5.54 13.49 2.39
-5.80 13.36 2.39
-6.05 13.21 2.39
-6.31 13.07 2.39
-6.56 12.92 2.39
-6.81 12.76 2.39
-7.05 12.60 2.39
-7.29 12.44 2.39
-7.53 12.27 2.39
-7.77 12.10 2.39
-8.00 11.93 2.39
-8.23 11.75 2.39
-8.46 11.57 2.39
-8.68 11.38 2.39
-8.90 11.20 2.39
-9.11 11.00 2.39
-9.32 10.81 2.39
-9.53 10.61 2.39
-9.99 10.68 2.46
-10.17 10.44 2.45
-10.34 10.20 2.44
-10.49 9.94 2.43
-10.64 9.68 2.42
-10.78 9.42 2.41
-10.91 9.15 2.40
-11.04 8.89 2.39
-11.17 8.63 2.38
-11.29 8.36 2.37
-11.39 8.09 2.36
-5.98 4.06 1.22
-11.52 7.50 2.32
-11.58 7.21 2.30
-11.64 6.92 2.28
-11.69 6.64 2.26
-11.85 6.42 2.27
-12.09 6.24 2.29
-12.22 5.99 2.29
-12.34 5.75 2.29
-12.46 5.50 2.29
-12.57 5.25 2.29
-12.64 4.98 2.28
-12.70 4.71 2.27
-12.76 4.44 2.27
-12.83 4.18 2.26
-12.95 3.93 2.27
-13.02 3.67 2.26
-12.94 3.37 2.23
-12.87 3.07 2.21
-12.80 2.78 2.18
-12.73 2.50 2.16
-12.65 2.22 2.14
-12.64 1.96 2.12
-12.64 1.70 2.11
-12.63 1.44 2.10
-12.59 1.18 2.09
-12.43 0.91 2.06
-12.27 0.65 2.02
-12.12 0.40 1.99
-11.97 0.15 1.96
-11.96 -0.09 1.96
-11.96 -0.33 1.96
-11.96 -0.57 1.96
-11.97 -0.81 1.95
-11.97 -1.06 1.95
-11.97 -1.30 1.95
-11.96 -1.54 1.95
-11.94 -1.78 1.95
-11.93 -2.03 1.95
-11.93 -2.28 1.95
-11.92 -2.53 1.96
-11.92 -2.78 1.96
-11.92 -3.03 1.96
-11.92 -3.29 1.97
-11.91 -3.55 1.97
-11.91 -3.81 1.98
-11.90 -4.07 1.99
-11.89 -4.33 1.99
-11.87 -4.60 2.00
-11.86 -4.87 2.01
-11.84 -5.15 2.02
-11.83 -5.42 2.03
-11.81 -5.71 2.04
-11.81 -6.00 2.05
-11.81 -6.31 2.07
-11.82 -6.62 2.09
-11.83 -6.94 2.10
-11.84 -7.27 2.12
-11.85 -7.61 2.15
-11.86 -7.95 2.17
-11.86 -8.31 2.19
-11.86 -8.67 2.22
-11.86 -9.04 2.24
-11.86 -9.42 2.27
-11.86 -9.82 2.30
-11.86 -10.22 2.33
-11.83 -10.62 2.36
-11.74 -10.97 2.38
-11.60 -11.28 2.38
-11.45 -11.60 2.39
-11.30 -11.91 2.40
-11.13 -12.22 2.41
-10.97 -12.53 2.42
-10.79 -12.85 2.43
-10.61 -13.16 2.44
-10.43 -13.47 2.45
-9.97 -13.43 2.39
-9.73 -13.68 2.39
-9.49 -13.92 2.39
-9.25 -14.17 2.39
-8.99 -14.40 2.39
-8.74 -14.64 2.39
-8.47 -14.87 2.39
-8.21 -15.09 2.39
-7.93 -15.31 2.39
-7.65 -15.53 2.39
-7.37 -15.74 2.39
-7.08 -15.94 2.39
-6.78 -16.14 2.39
-6.48 -16.34 2.39
-6.18 -16.53 2.39
-6.12 -17.43 2.50
-5.79 -17.62 2.50
-5.46 -17.80 2.50
-5.12 -17.98 2.50
-4.78 -18.14 2.50
-4.43 -18.31 2.50
-4.08 -18.46 2.50
-3.72 -18.61 2.50
-3.36 -18.75 2.50
-2.99 -18.88 2.50
-2.62 -19.01 2.50
-2.25 -19.13 2.50
-1.87 -19.24 2.50
-1.49 -19.35 2.50
-1.11 -19.44 2.50
-0.72 -19.53 2.50
-0.33 -19.61 2.50
0.06 -16.67 2.50
0.39 -16.71 2.50
0.73 -16.75 2.50
1.07 -16.78 2.50
1.41 -16.80 2.50
1.75 -16.82 2.50
2.01 -16.13 2.39
2.33 -16.13 2.39
2.66 -16.12 2.39
2.99 -16.11 2.39
3.32 -16.09 2.39
3.66 -16.06 2.39
3.99 -16.02 2.39
4.32 -15.98 2.39
4.65 -15.93 2.39
4.98 -15.87 2.39
5.30 -15.81 2.39
5.63 -15.73 2.39
5.79 -15.21 2.32
5.81 -14.40 2.21
5.84 -13.68 2.12
5.86 -13.00 2.02
5.87 -12.35 1.94
5.89 -11.77 1.86
5.90 -11.22 1.79
5.91 -10.72 1.72
5.92 -10.25 1.66
6.09 -10.07 1.65
6.33 -10.01 1.66
6.57 -9.95 1.67
6.82 -9.88 1.68
7.07 -9.82 1.69
7.32 -9.76 1.70
6.93 -8.86 1.57
7.03 -8.62 1.55
7.35 -8.65 1.58
7.49 -8.47 1.57
7.65 -8.32 1.57
7.81 -8.15 1.56
7.48 -7.50 1.47
7.42 -7.15 1.43
7.43 -6.88 1.40
7.49 -6.67 1.39
7.75 -6.62 1.41
10.53 -8.64 1.88
10.60 -8.35 1.86
10.64 -8.04 1.84
10.68 -7.74 1.82
10.71 -7.44 1.80
10.75 -7.15 1.78
10.78 -6.86 1.76
10.81 -6.58 1.75
10.85 -6.31 1.73
10.90 -6.05 1.72
10.94 -5.80 1.71
10.99 -5.54 1.70
11.04 -5.29 1.69
11.08 -5.04 1.68
11.13 -4.80 1.68
11.17 -4.55 1.67
11.20 -4.31 1.66
11.22 -4.06 1.65
11.23 -3.81 1.65
11.25 -3.57 1.64
11.26 -3.33 1.63
11.28 -3.09 1.63
11.35 -2.86 1.63
11.45 -2.65 1.64
11.56 -2.43 1.65
11.57 -2.19 1.65
11.59 -1.95 1.65
11.61 -1.72 1.65
11.62 -1.48 1.65
11.68 -1.26 1.66
12.07 -1.05 1.71
12.48 -0.84 1.77
12.85 -0.61 1.82
12.92 -0.35 1.84
12.97 -0.09 1.85
13.01 0.17 1.86
13.06 0.43 1.87
13.10 0.69 1.88
13.15 0.96 1.89
13.19 1.23 1.91
13.44 1.53 1.95
13.50 1.81 1.97
13.50 2.08 1.98
13.50 2.36 1.99
13.50 2.64 2.00
13.50 2.92 2.02
15.15 3.59 2.28
15.15 3.92 2.30
15.15 4.24 2.32
15.15 4.57 2.34
15.15 4.91 2.36
15.15 5.24 2.38
15.43 5.69 2.45
15.45 6.05 2.48
15.48 6.42 2.51
15.50 6.80 2.54
15.54 7.19 2.58
10.37 5.05 1.74
10.23 5.24 1.74
15.60 8.39 2.70
15.56 8.77 2.73
15.52 9.16 2.76
15.58 9.63 2.81
15.52 10.03 2.85
15.45 10.42 2.88
15.37 10.83 2.92
6.48 4.76 1.25
6.41 4.91 1.26
6.41 5.12 1.28
6.32 5.26 1.29
6.27 5.43 1.31
14.20 12.80 3.03
10.34 9.71 2.25
9.85 9.62 2.19
9.56 9.72 2.18
9.36 9.91 2.19
9.23 10.17 2.21
9.07 10.40 2.23
8.91 10.65 2.25
8.75 10.90 2.27
6.39 8.29 1.71
6.65 8.99 1.83
6.38 9.00 1.81
6.14 9.05 1.80
5.91 9.10 1.79
5.71 9.19 1.79
5.54 9.32 1.80
5.41 9.54 1.83
5.46 10.09 1.92
5.59 10.84 2.05
5.40 11.00 2.06
5.28 11.34 2.11
5.60 12.68 2.35
5.35 12.81 2.36
5.14 13.05 2.39
4.87 13.11 2.39
4.59 13.16 2.39
4.31 13.21 2.39
4.03 13.26 2.39
3.75 13.29 2.39
3.47 13.33 2.39
3.20 13.36 2.39
2.92 13.38 2.39
2.64 13.40 2.39
2.47 13.99 2.50
2.18 13.99 2.50
1.89 14.00 2.50
1.61 13.99 2.50
1.32 13.98 2.50
1.04 13.97 2.50
0.75 13.95 2.50
0.47 13.93 2.50
0.19 13.90 2.50
-0.09 13.87 2.50
-0.37 13.83 2.50
-0.64 13.78 2.50
-0.92 13.73 2.50
-1.19 13.68 2.50
-1.46 13.62 2.50
-1.73 13.56 2.50
-2.00 13.49 2.50
-2.27 13.42 2.50
-2.53 13.34 2.50
-2.80 13.26 2.50
-3.06 13.17 2.50
-3.31 13.08 2.50
-3.57 12.99 2.50
-3.82 12.89 2.50
-4.07 12.79 2.50
-4.32 12.68 2.50
-4.57 12.57 2.50
-4.81 12.45 2.50
-5.06 12.33 2.50
-5.29 12.21 2.50
-5.50 12.02 2.48
-5.53 11.46 2.39
-5.75 11.33 2.39
-5.97 11.19 2.39
-6.18 11.05 2.39
-6.40 10.91 2.39
-6.61 10.77 2.39
-6.81 10.62 2.39
-7.02 10.47 2.39
-7.22 10.32 2.39
-7.42 10.16 2.39
-7.62 10.00 2.39
-7.81 9.83 2.39
-8.00 9.66 2.39
-8.19 9.49 2.39
-8.37 9.32 2.39
-8.55 9.14 2.39
-8.73 8.96 2.39
-8.90 8.78 2.39
-9.07 8.59 2.39
-9.24 8.41 2.39
-9.40 8.22 2.39
-9.56 8.02 2.39
-10.05 8.09 2.47
-10.18 7.86 2.47
-10.30 7.63 2.46
-10.42 7.39 2.45
-5.95 4.05 1.38
-10.61 6.90 2.43
-10.69 6.65 2.41
-10.77 6.41 2.40
-10.85 6.16 2.39
-10.95 5.93 2.39
-11.05 5.70 2.38
-11.15 5.47 2.38
-11.25 5.24 2.38
-11.35 5.01 2.37
-11.44 4.77 2.37
-11.54 4.54 2.37
-11.63 4.31 2.37
-11.72 4.08 2.37
-11.83 3.85 2.37
-11.93 3.62 2.38
-12.04 3.39 2.38
-12.14 3.15 2.39
-12.24 2.92 2.39
-12.18 2.65 2.37
-12.11 2.38 2.34
-12.06 2.12 2.32
-12.06 1.87 2.31
-12.06 1.62 2.30
-12.05 1.37 2.29
-12.05 1.12 2.28
-12.04 0.88 2.27
-12.03 0.63 2.26
-11.89 0.39 2.23
-11.75 0.15 2.20
-11.74 -0.09 2.20
-11.75 -0.33 2.19
-11.75 -0.57 2.19
-11.75 -0.80 2.19
-11.75 -1.04 2.19
-11.75 -1.28 2.19
-11.75 -1.52 2.19
-11.74 -1.76 2.19
-11.73 -2.00 2.19
-11.73 -2.24 2.20
-11.73 -2.49 2.20
-11.72 -2.74 2.21
-11.72 -2.99 2.21
-11.72 -3.24 2.22
-11.71 -3.49 2.22
-11.71 -3.75 2.23
-11.70 -4.01 2.24
-11.68 -4.27 2.25
-11.66 -4.52 2.25
-11.58 -4.77 2.25
-11.51 -5.01 2.25
-11.44 -5.25 2.25
-11.36 -5.50 2.25
-11.28 -5.74 2.25
-11.20 -5.99 2.25
-11.16 -6.26 2.26
-11.11 -6.53 2.27
-11.09 -6.82 2.29
-11.08 -7.13 2.31
-11.07 -7.44 2.33
-11.06 -7.76 2.36
-11.03 -8.07 2.38
-10.94 -8.34 2.39
-10.84 -8.62 2.40
-10.74 -8.90 2.41
-10.64 -9.18 2.42
-10.58 -9.51 2.44
-10.51 -9.83 2.46
-10.42 -10.15 2.48
-9.89 -10.03 2.39
-9.72 -10.26 2.39
-9.54 -10.48 2.39
-9.36 -10.71 2.39
-9.17 -10.93 2.39
-8.98 -11.15 2.39
-8.78 -11.36 2.39
-8.58 -11.57 2.39
-8.37 -11.78 2.39
-8.16 -11.98 2.39
-7.94 -12.19 2.39
-7.72 -12.38 2.39
-7.50 -12.58 2.39
-7.27 -12.77 2.39
-7.03 -12.95 2.39
-6.79 -13.14 2.39
-6.55 -13.31 2.39
-6.30 -13.49 2.39
-6.11 -13.78 2.41
-6.05 -14.42 2.50
-5.78 -14.58 2.50
-5.50 -14.74 2.50
-5.22 -14.90 2.50
-4.94 -15.05 2.50
-4.65 -15.20 2.50
-4.36 -15.34 2.50
-4.06 -15.47 2.50
-3.77 -15.60 2.50
-3.46 -15.73 2.50
-3.16 -15.84 2.50
-2.85 -15.95 2.50
-2.54 -16.06 2.50
-2.22 -16.16 2.50
-1.90 -16.25 2.50
-1.58 -16.34 2.50
-1.26 -16.42 2.50
-0.93 -16.49 2.50
-0.60 -16.55 2.50
-0.27 -16.61 2.50
0.06 -14.44 2.50
0.35 -14.47 2.50
0.64 -14.50 2.50
0.93 -14.52 2.50
1.23 -14.53 2.50
1.52 -14.54 2.50
1.82 -14.54 2.50
2.02 -13.94 2.39
2.31 -13.93 2.39
2.59 -13.91 2.39
2.88 -13.89 2.39
3.16 -13.86 2.39
3.44 -13.82 2.39
3.73 -13.78 2.39
4.01 -13.73 2.39
4.29 -13.68 2.39
4.58 -13.62 2.39
4.86 -13.55 2.39
5.14 -13.47 2.39
5.41 -13.39 2.39
5.69 -13.31 2.39
5.86 -12.99 2.35
5.87 -12.34 2.25
5.89 -11.76 2.16
5.90 -11.22 2.08
5.91 -10.71 2.01
5.92 -10.24 1.94
5.99 -9.89 1.89
6.18 -9.77 1.89
6.42 -9.71 1.90
6.60 -9.56 1.89
6.40 -8.89 1.78
6.47 -8.62 1.75
6.66 -8.51 1.75
6.85 -8.41 1.76
7.06 -8.31 1.77
6.78 -7.67 1.66
6.69 -7.27 1.60
6.71 -7.00 1.57
6.81 -6.83 1.56
6.98 -6.72 1.56
7.27 -6.73 1.60
7.41 -6.59 1.60
7.56 -6.46 1.60
7.87 -6.46 1.64
8.25 -6.50 1.69
8.59 -6.49 1.73
8.71 -6.31 1.73
8.83 -6.14 1.73
8.49 -5.65 1.64
8.63 -5.49 1.65
10.66 -6.49 2.01
10.71 -6.23 1.99
10.76 -5.98 1.98
10.81 -5.72 1.97
10.85 -5.47 1.96
10.90 -5.23 1.95
10.94 -4.98 1.94
10.99 -4.74 1.93
11.03 -4.50 1.92
11.06 -4.25 1.91
11.07 -4.01 1.90
11.09 -3.77 1.90
11.11 -3.52 1.89
11.13 -3.29 1.88
11.14 -3.05 1.88
11.17 -2.82 1.87
11.27 -2.61 1.88
11.36 -2.39 1.89
11.38 -2.16 1.89
11.39 -1.92 1.89
11.41 -1.69 1.89
11.43 -1.46 1.89
11.44 -1.23 1.89
11.58 -1.01 1.91
9.20 -0.62 1.52
9.11 -0.43 1.50
9.07 -0.25 1.50
9.08 -0.07 1.50
9.18 0.12 1.52
12.92 0.42 2.15
12.97 0.68 2.16
13.01 0.95 2.17
13.05 1.21 2.19
13.18 1.49 2.22
13.27 1.77 2.25
13.27 2.04 2.26
13.27 2.31 2.27
13.27 2.59 2.28
13.27 2.86 2.30
13.26 3.14 2.31
15.00 3.87 2.63
15.00 4.19 2.65
15.00 4.52 2.68
15.00 4.85 2.70
15.00 5.18 2.72
15.00 5.52 2.75
15.03 5.88 2.78
15.05 6.23 2.82
15.07 6.60 2.85
15.09 6.97 2.89
10.23 4.97 1.98
10.05 5.14 1.97
10.09 5.42 2.01
15.00 8.44 3.03
14.78 8.72 3.03
14.56 8.99 3.03
7.03 4.53 1.48
6.62 4.46 1.42
6.42 4.52 1.40
6.27 4.60 1.39
6.20 4.74 1.40
6.08 4.85 1.40
6.01 4.99 1.41
5.94 5.14 1.42
5.95 5.36 1.45
7.21 6.76 1.80
7.64 7.45 1.95
7.30 7.41 1.90
6.90 7.30 1.84
6.72 7.40 1.84
9.13 10.47 2.56
6.50 7.76 1.87
6.31 7.84 1.87
6.16 7.99 1.88
6.68 9.03 2.10
6.40 9.02 2.07
6.19 9.11 2.07
5.96 9.16 2.06
5.72 9.20 2.05
5.50 9.24 2.04
5.33 9.39 2.05
5.32 9.82 2.13
5.45 10.56 2.27
5.35 10.91 2.33
5.14 11.03 2.34
4.99 11.28 2.38
4.78 11.42 2.39
4.53 11.48 2.39
4.29 11.54 2.39
4.05 11.59 2.39
3.80 11.64 2.39
3.56 11.68 2.39
3.31 11.72 2.39
3.07 11.75 2.39
2.83 11.78 2.39
2.58 11.80 2.39
2.44 12.33 2.50
2.18 12.35 2.50
1.93 12.36 2.50
1.68 12.36 2.50
1.43 12.36 2.50
1.17 12.36 2.50
0.92 12.35 2.50
0.67 12.34 2.50
0.42 12.32 2.50
0.17 12.30 2.50
-0.07 12.27 2.50
-0.32 12.24 2.50
-0.56 12.21 2.50
-0.81 12.17 2.50
-1.05 12.12 2.50
-1.29 12.07 2.50
-1.53 12.02 2.50
-1.77 11.96 2.50
-2.01 11.90 2.50
-2.24 11.84 2.50
-2.48 11.77 2.50
-2.71 11.69 2.50
-2.94 11.62 2.50
-3.16 11.53 2.50
-3.39 11.45 2.50
-3.61 11.36 2.50
-3.84 11.27 2.50
-4.06 11.17 2.50
-4.27 11.07 2.50
-4.49 10.96 2.50
-4.70 10.86 2.50
-4.91 10.74 2.50
-5.12 10.63 2.50
-5.33 10.51 2.50
-5.53 10.39 2.50
-5.56 9.94 2.42
-5.69 9.71 2.39
-5.88 9.58 2.39
-6.06 9.45 2.39
-6.25 9.32 2.39
-6.43 9.18 2.39
-6.60 9.04 2.39
-6.78 8.90 2.39
-6.95 8.76 2.39
-7.12 8.61 2.39
-7.29 8.46 2.39
-7.45 8.30 2.39
-7.61 8.14 2.39
-7.77 7.99 2.39
-7.93 7.82 2.39
-8.08 7.66 2.39
-8.23 7.49 2.39
-8.38 7.32 2.39
-8.52 7.15 2.39
-8.66 6.97 2.39
-8.80 6.79 2.39
-8.93 6.61 2.39
-9.06 6.43 2.39
-5.95 4.05 1.55
-9.31 6.06 2.39
-9.44 5.87 2.39
-9.55 5.68 2.39
-9.67 5.49 2.39
-10.16 5.50 2.48
-10.25 5.28 2.48
-10.34 5.07 2.48
-10.43 4.85 2.47
-10.52 4.64 2.47
-10.60 4.42 2.47
-10.69 4.21 2.47
-10.76 3.99 2.46
-10.83 3.77 2.46
-10.91 3.55 2.46
-11.01 3.34 2.46
-11.11 3.13 2.47
-11.21 2.91 2.48
-11.31 2.69 2.48
-11.41 2.48 2.49
-11.50 2.25 2.50
-11.53 2.02 2.49
-11.53 1.78 2.48
-11.52 1.54 2.47
-11.51 1.31 2.46
-11.50 1.07 2.45
-11.49 0.83 2.44
-11.47 0.60 2.43
-11.46 0.37 2.42
-11.44 0.14 2.41
-11.44 -0.09 2.41
-11.43 -0.32 2.40
-11.42 -0.55 2.40
-11.41 -0.78 2.40
-11.39 -1.01 2.39
-11.38 -1.24 2.39
-11.36 -1.47 2.39
-11.34 -1.70 2.39
-11.31 -1.93 2.38
-11.28 -2.16 2.38
-11.25 -2.39 2.38
-11.22 -2.62 2.38
-11.19 -2.86 2.38
-11.15 -3.09 2.38
-11.12 -3.32 2.38
-11.08 -3.55 2.38
-11.03 -3.79 2.39
-10.99 -4.02 2.39
-10.95 -4.26 2.39
-10.91 -4.49 2.40
-10.86 -4.73 2.40
-10.79 -4.96 2.40
-10.72 -5.19 2.40
-10.64 -5.42 2.40
-10.56 -5.65 2.41
-10.48 -5.88 2.41
-10.41 -6.13 2.41
-10.36 -6.38 2.43
-10.31 -6.64 2.44
-10.25 -6.90 2.45
-9.90 -6.95 2.39
-9.78 -7.16 2.39
-9.66 -7.38 2.39
-9.54 -7.59 2.39
-9.41 -7.80 2.39
-9.27 -8.01 2.39
-9.13 -8.22 2.39
-8.99 -8.42 2.39
-8.84 -8.63 2.39
-8.69 -8.83 2.39
-8.54 -9.02 2.39
-8.38 -9.22 2.39
-8.22 -9.41 2.39
-8.05 -9.60 2.39
-7.88 -9.79 2.39
-7.70 -9.98 2.39
-7.52 -10.16 2.39
-7.33 -10.34 2.39
-7.15 -10.51 2.39
-6.95 -10.68 2.39
-6.76 -10.85 2.39
-6.56 -11.02 2.39
-6.35 -11.18 2.39
-6.15 -11.34 2.39
-6.05 -11.72 2.44
-5.97 -12.14 2.50
-5.74 -12.30 2.50
-5.51 -12.45 2.50
-5.27 -12.59 2.50
-5.03 -12.73 2.50
-4.79 -12.87 2.50
-4.55 -13.00 2.50
-4.30 -13.13 2.50
-4.04 -13.25 2.50
-3.79 -13.36 2.50
-3.53 -13.48 2.50
-3.27 -13.58 2.50
-3.01 -13.68 2.50
-2.74 -13.78 2.50
-2.47 -13.87 2.50
-2.20 -13.96 2.50
-1.92 -14.04 2.50
-1.64 -14.11 2.50
-1.37 -14.18 2.50
-1.08 -14.24 2.50
-0.80 -14.30 2.50
-0.52 -14.35 2.50
-0.23 -14.40 2.50
0.06 -12.72 2.50
0.31 -12.75 2.50
0.57 -12.77 2.50
0.83 -12.78 2.50
1.09 -12.79 2.50
1.34 -12.80 2.50
1.60 -12.79 2.50
1.86 -12.79 2.50
2.03 -12.25 2.39
2.28 -12.23 2.39
2.53 -12.20 2.39
2.78 -12.17 2.39
3.03 -12.14 2.39
3.28 -12.10 2.39
3.53 -12.05 2.39
3.77 -12.00 2.39
4.02 -11.95 2.39
4.26 -11.88 2.39
4.51 -11.82 2.39
4.75 -11.74 2.39
4.99 -11.67 2.39
5.23 -11.58 2.39
5.47 -11.49 2.39
5.71 -11.40 2.39
5.90 -11.21 2.37
5.91 -10.71 2.29
5.73 -9.90 2.14
5.85 -9.67 2.11
6.05 -9.55 2.11
6.24 -9.43 2.11
6.25 -9.05 2.05
6.17 -8.56 1.96
6.32 -8.41 1.95
6.29 -8.04 1.89
6.35 -7.79 1.86
6.40 -7.54 1.83
6.48 -7.33 1.81
6.56 -7.13 1.79
6.63 -6.91 1.77
6.72 -6.74 1.76
6.89 -6.64 1.77
7.12 -6.59 1.79
7.35 -6.53 1.81
7.48 -6.38 1.81
7.49 -6.14 1.78
7.67 -6.04 1.80
8.09 -6.11 1.87
7.85 -5.69 1.78
7.85 -5.45 1.76
6.57 -4.37 1.45
6.61 -4.21 1.44
6.89 -4.20 1.49
7.11 -4.14 1.52
10.51 -5.84 2.21
10.67 -5.65 2.23
10.72 -5.41 2.21
10.77 -5.16 2.20
10.81 -4.92 2.19
10.86 -4.68 2.18
10.90 -4.45 2.17
10.92 -4.20 2.16
10.94 -3.96 2.15
10.96 -3.72 2.14
10.97 -3.48 2.13
10.99 -3.25 2.12
11.01 -3.02 2.12
11.02 -2.78 2.11
11.10 -2.57 2.12
7.47 -1.57 1.42
7.45 -1.41 1.41
7.51 -1.27 1.42
7.54 -1.12 1.42
8.72 -1.12 1.64
8.67 -0.94 1.63
8.66 -0.76 1.63
8.67 -0.59 1.63
8.67 -0.41 1.63
8.66 -0.24 1.63
8.70 -0.07 1.64
8.74 0.11 1.65
8.80 0.28 1.67
8.86 0.46 1.68
12.87 0.93 2.45
12.92 1.19 2.47
12.96 1.46 2.49
12.54 1.67 2.41
12.31 1.89 2.38
12.29 2.14 2.39
12.32 2.40 2.41
13.04 2.81 2.57
13.04 3.08 2.58
13.04 3.36 2.60
13.88 3.87 2.79
13.97 4.20 2.83
14.05 4.53 2.87
13.99 4.82 2.88
13.92 5.12 2.90
13.86 5.41 2.91
13.78 5.70 2.93
13.69 5.98 2.94
13.59 6.27 2.95
10.05 4.88 2.21
9.91 5.06 2.20
9.86 5.29 2.22
9.88 5.56 2.26
13.06 7.69 3.03
7.11 4.38 1.67
6.53 4.21 1.56
6.39 4.30 1.55
6.29 4.42 1.55
6.09 4.46 1.53
6.00 4.59 1.53
5.97 4.75 1.55
5.93 4.92 1.57
5.89 5.09 1.59
5.92 5.32 1.63
5.94 5.56 1.67
6.79 6.62 1.95
6.68 6.78 1.96
6.66 7.03 2.00
6.52 7.17 2.01
6.54 7.48 2.07
6.52 7.77 2.11
6.31 7.84 2.10
6.15 7.95 2.11
6.19 8.35 2.19
6.47 9.10 2.35
6.29 9.24 2.36
5.99 9.19 2.32
5.69 9.13 2.28
5.48 9.19 2.28
5.29 9.30 2.28
5.19 9.56 2.33
5.12 9.90 2.39
4.91 9.98 2.39
4.69 10.05 2.39
4.48 10.12 2.39
4.27 10.18 2.39
4.05 10.24 2.39
3.83 10.29 2.39
3.62 10.34 2.39
3.40 10.39 2.39
3.18 10.43 2.39
2.97 10.46 2.39
2.75 10.50 2.39
2.53 10.52 2.39
2.41 11.00 2.50
2.19 11.03 2.50
1.96 11.04 2.50
1.73 11.05 2.50
1.51 11.06 2.50
1.28 11.07 2.50
1.06 11.06 2.50
0.83 11.06 2.50
0.61 11.05 2.50
0.38 11.04 2.50
0.16 11.02 2.50
-0.06 11.00 2.50
-0.28 10.97 2.50
-0.50 10.94 2.50
-0.72 10.91 2.50
-0.94 10.87 2.50
-1.15 10.83 2.50
-1.37 10.79 2.50
-1.58 10.74 2.50
-1.80 10.68 2.50
-2.01 10.63 2.50
-2.22 10.57 2.50
-2.43 10.50 2.50
-2.63 10.43 2.50
-2.84 10.36 2.50
-3.04 10.29 2.50
-3.24 10.21 2.50
-3.44 10.13 2.50
-3.64 10.04 2.50
-3.84 9.95 2.50
-4.03 9.86 2.50
-4.23 9.76 2.50
-4.42 9.66 2.50
-4.60 9.56 2.50
-4.79 9.45 2.50
-4.98 9.35 2.50
-5.16 9.23 2.50
-5.34 9.12 2.50
-5.51 9.00 2.50
-5.58 8.71 2.45
-5.62 8.39 2.39
-5.78 8.27 2.39
-5.94 8.14 2.39
-6.10 8.02 2.39
-6.26 7.89 2.39
-6.41 7.75 2.39
-6.56 7.62 2.39
-6.71 7.48 2.39
-6.86 7.34 2.39
-7.00 7.19 2.39
-7.14 7.05 2.39
-7.28 6.90 2.39
-7.41 6.75 2.39
-7.55 6.59 2.39
-7.67 6.44 2.39
-7.80 6.28 2.39
-7.93 6.12 2.39
-8.05 5.96 2.39
-8.16 5.80 2.39
-5.95 4.04 1.72
-8.39 5.46 2.39
-8.50 5.29 2.39
-8.61 5.12 2.39
-8.71 4.94 2.39
-8.81 4.77 2.39
-8.91 4.59 2.39
-9.00 4.41 2.39
-9.09 4.23 2.39
-9.18 4.05 2.39
-9.26 3.86 2.39
-9.34 3.68 2.39
-9.42 3.49 2.39
-9.49 3.30 2.39
-9.56 3.11 2.39
-9.63 2.92 2.39
-9.69 2.72 2.39
-10.36 2.69 2.54
-10.45 2.49 2.55
-10.53 2.28 2.55
-10.61 2.08 2.56
-10.66 1.86 2.56
-10.72 1.65 2.56
-10.77 1.44 2.57
-10.78 1.22 2.56
-10.77 1.00 2.55
-10.76 0.78 2.54
-10.74 0.56 2.53
-10.73 0.34 2.52
-10.71 0.13 2.51
-10.72 -0.09 2.51
-10.72 -0.31 2.51
-10.72 -0.52 2.51
-10.72 -0.74 2.51
-10.71 -0.96 2.50
-10.69 -1.17 2.50
-10.67 -1.39 2.50
-10.65 -1.61 2.50
-10.63 -1.82 2.50
-10.60 -2.04 2.49
-10.57 -2.25 2.49
-10.54 -2.47 2.49
-10.50 -2.68 2.49
-10.46 -2.90 2.49
-10.42 -3.12 2.49
-10.38 -3.33 2.49
-10.34 -3.55 2.49
-9.87 -3.61 2.39
-9.81 -3.82 2.39
-9.75 -4.02 2.39
-9.69 -4.23 2.39
-9.62 -4.43 2.39
-9.55 -4.63 2.39
-9.48 -4.84 2.39
-9.40 -5.04 2.39
-9.32 -5.24 2.39
-9.23 -5.44 2.39
-9.14 -5.63 2.39
-9.04 -5.83 2.39
-8.95 -6.02 2.39
-8.84 -6.22 2.39
-8.74 -6.41 2.39
-8.63 -6.60 2.39
-8.51 -6.79 2.39
-8.39 -6.97 2.39
-8.27 -7.16 2.39
-8.15 -7.34 2.39
-8.02 -7.52 2.39
-7.88 -7.70 2.39
-7.75 -7.87 2.39
-7.61 -8.05 2.39
-7.46 -8.22 2.39
-7.31 -8.39 2.39
-7.16 -8.56 2.39
-7.01 -8.72 2.39
-6.85 -8.88 2.39
-6.69 -9.04 2.39
-6.52 -9.20 2.39
-6.35 -9.35 2.39
-6.19 -9.53 2.40
-6.02 -9.67 2.40
-6.02 -10.12 2.47
-5.88 -10.36 2.50
-5.69 -10.51 2.50
-5.49 -10.65 2.50
-5.29 -10.78 2.50
-5.09 -10.91 2.50
-4.88 -11.04 2.50
-4.67 -11.17 2.50
-4.45 -11.29 2.50
-4.24 -11.40 2.50
-4.02 -11.52 2.50
-3.80 -11.63 2.50
-3.57 -11.73 2.50
-3.35 -11.83 2.50
-3.12 -11.92 2.50
-2.88 -12.02 2.50
-2.65 -12.10 2.50
-2.41 -12.18 2.50
-2.17 -12.26 2.50
-1.93 -12.33 2.50
-1.69 -12.40 2.50
-1.45 -12.46 2.50
-1.20 -12.52 2.50
-0.95 -12.57 2.50
-0.70 -12.62 2.50
-0.45 -12.66 2.50
-0.20 -12.69 2.50
0.06 -11.36 2.50
0.29 -11.38 2.50
0.51 -11.40 2.50
0.74 -11.41 2.50
0.97 -11.41 2.50
1.20 -11.41 2.50
1.43 -11.41 2.50
1.67 -11.40 2.50
1.90 -11.39 2.50
2.04 -10.90 2.39
2.26 -10.87 2.39
2.48 -10.85 2.39
2.70 -10.81 2.39
2.92 -10.77 2.39
3.14 -10.73 2.39
3.36 -10.68 2.39
3.58 -10.63 2.39
3.80 -10.58 2.39
4.02 -10.51 2.39
4.23 -10.45 2.39
4.45 -10.37 2.39
4.66 -10.30 2.39
4.87 -10.22 2.39
5.08 -10.13 2.39
5.29 -10.04 2.39
5.49 -9.94 2.39
5.70 -9.84 2.39
5.83 -9.63 2.36
6.02 -9.51 2.36
6.13 -9.27 2.33
6.21 -8.98 2.29
6.15 -8.53 2.20
6.19 -8.23 2.15
6.19 -7.91 2.10
6.32 -7.74 2.09
6.41 -7.54 2.06
6.43 -7.27 2.02
6.49 -7.04 1.99
6.56 -6.84 1.97
6.68 -6.69 1.97
6.88 -6.62 1.98
5.74 -5.31 1.63
5.95 -5.29 1.65
6.12 -5.23 1.67
6.31 -5.17 1.69
6.20 -4.88 1.64
6.12 -4.62 1.59
6.15 -4.46 1.58
6.30 -4.38 1.59
6.52 -4.34 1.62
6.49 -4.13 1.60
6.60 -4.02 1.60
6.78 -3.95 1.63
7.08 -3.94 1.68
10.10 -5.35 2.37
10.29 -5.19 2.39
10.48 -5.03 2.42
10.68 -4.86 2.44
10.72 -4.63 2.43
10.76 -4.39 2.42
10.78 -4.15 2.41
10.80 -3.91 2.39
10.82 -3.68 2.38
10.84 -3.44 2.37
10.85 -3.21 2.36
10.87 -2.98 2.36
10.89 -2.75 2.35
7.40 -1.71 1.59
7.32 -1.54 1.57
7.30 -1.39 1.56
7.29 -1.24 1.55
7.33 -1.09 1.56
7.40 -0.95 1.57
7.76 -0.84 1.64
7.74 -0.68 1.64
7.73 -0.53 1.64
7.65 -0.37 1.62
7.63 -0.21 1.62
7.64 -0.06 1.62
7.64 0.09 1.62
7.65 0.24 1.63
7.76 0.40 1.65
8.37 0.60 1.79
12.26 1.13 2.63
12.56 1.41 2.70
12.48 1.65 2.70
12.22 1.87 2.65
12.23 2.12 2.67
12.48 2.42 2.74
12.63 2.71 2.79
12.59 2.97 2.80
12.55 3.23 2.81
7.95 2.22 1.79
7.64 2.29 1.73
6.23 2.01 1.43
6.12 2.11 1.41
6.01 2.20 1.40
7.73 3.01 1.82
7.95 3.28 1.89
8.01 3.50 1.92
12.45 5.74 3.03
6.99 3.39 1.72
7.11 3.62 1.77
7.08 3.79 1.78
7.01 3.94 1.79
6.87 4.04 1.78
6.66 4.10 1.75
6.44 4.14 1.72
6.33 4.25 1.71
6.18 4.33 1.70
6.04 4.42 1.69
5.97 4.56 1.70
5.91 4.70 1.71
5.84 4.84 1.72
5.81 5.01 1.75
5.83 5.24 1.79
5.91 5.53 1.85
6.77 6.59 2.17
6.63 6.72 2.17
6.50 6.85 2.18
6.39 7.02 2.19
6.40 7.32 2.25
6.55 7.80 2.36
6.36 7.89 2.36
6.19 8.00 2.36
5.88 7.92 2.31
5.91 8.31 2.39
5.57 8.18 2.32
5.55 8.51 2.39
5.37 8.60 2.39
5.18 8.68 2.39
4.99 8.77 2.39
4.81 8.84 2.39
4.62 8.92 2.39
4.43 8.99 2.39
4.24 9.05 2.39
4.04 9.12 2.39
3.85 9.17 2.39
3.66 9.23 2.39
3.46 9.28 2.39
3.27 9.33 2.39
3.07 9.37 2.39
2.88 9.41 2.39
2.70 9.49 2.40
2.50 9.51 2.40
2.39 9.91 2.50
2.19 9.94 2.50
1.98 9.96 2.50
1.78 9.98 2.50
1.57 9.99 2.50
1.37 10.00 2.50
1.16 10.00 2.50
0.96 10.00 2.50
0.76 10.00 2.50
0.56 10.00 2.50
0.35 9.99 2.50
0.15 9.97 2.50
-0.05 9.95 2.50
-0.25 9.93 2.50
-0.45 9.91 2.50
-0.65 9.88 2.50
-0.84 9.85 2.50
-1.04 9.81 2.50
-1.24 9.77 2.50
-1.43 9.73 2.50
-1.62 9.68 2.50
-1.82 9.63 2.50
-2.01 9.58 2.50
-2.20 9.52 2.50
-2.38 9.46 2.50
-2.57 9.40 2.50
-2.76 9.33 2.50
-2.94 9.26 2.50
-3.12 9.19 2.50
-3.30 9.11 2.50
-3.48 9.03 2.50
-3.66 8.95 2.50
-3.83 8.86 2.50
-4.01 8.77 2.50
-4.18 8.68 2.50
-4.35 8.58 2.50
-4.51 8.49 2.50
-4.68 8.38 2.50
-4.84 8.28 2.50
-5.01 8.17 2.50
-5.17 8.06 2.50
-5.32 7.95 2.50
-5.48 7.84 2.50
-5.60 7.68 2.48
-5.62 7.38 2.42
-5.68 7.16 2.39
-5.82 7.04 2.39
-5.96 6.92 2.39
-6.10 6.80 2.39
-6.23 6.67 2.39
-6.36 6.54 2.39
-6.49 6.40 2.39
-6.61 6.27 2.39
-6.74 6.13 2.39
-6.86 5.99 2.39
-6.98 5.85 2.39
-7.09 5.71 2.39
-7.20 5.56 2.39
-7.31 5.42 2.39
-7.42 5.27 2.39
-5.95 4.04 1.89
-7.63 4.96 2.39
-7.73 4.81 2.39
-7.82 4.65 2.39
-7.92 4.49 2.39
-8.01 4.33 2.39
-8.09 4.17 2.39
-8.18 4.01 2.39
-8.26 3.84 2.39
-8.34 3.68 2.39
-8.42 3.51 2.39
-8.49 3.34 2.39
-8.56 3.17 2.39
-8.63 3.00 2.39
-8.69 2.82 2.39
-8.75 2.65 2.39
-8.81 2.47 2.39
-8.86 2.30 2.39
-8.91 2.12 2.39
-8.96 1.94 2.39
-9.01 1.76 2.39
-9.05 1.58 2.39
-9.08 1.40 2.39
-9.12 1.22 2.39
-9.15 1.03 2.39
-9.18 0.85 2.39
-9.20 0.66 2.39
-9.23 0.48 2.39
-9.24 0.29 2.39
-9.26 0.11 2.39
-9.27 -0.08 2.39
-9.28 -0.27 2.39
-9.28 -0.46 2.39
-9.28 -0.64 2.39
-9.28 -0.83 2.39
-9.28 -1.02 2.39
-9.27 -1.21 2.39
-9.25 -1.40 2.39
-9.24 -1.59 2.39
-9.22 -1.78 2.39
-9.19 -1.96 2.39
-9.17 -2.15 2.39
-9.14 -2.34 2.39
-9.10 -2.53 2.39
-9.07 -2.72 2.39
-9.03 -2.90 2.39
-8.98 -3.09 2.39
-8.93 -3.28 2.39
-8.88 -3.46 2.39
-8.83 -3.65 2.39
-8.77 -3.83 2.39
-8.70 -4.01 2.39
-8.64 -4.20 2.39
-8.57 -4.38 2.39
-8.50 -4.56 2.39
-8.42 -4.74 2.39
-8.34 -4.92 2.39
-8.26 -5.09 2.39
-8.17 -5.27 2.39
-8.08 -5.45 2.39
-7.98 -5.62 2.39
-7.89 -5.79 2.39
-7.78 -5.96 2.39
-7.68 -6.13 2.39
-7.57 -6.30 2.39
-7.46 -6.46 2.39
-7.34 -6.62 2.39
-7.23 -6.79 2.39
-7.10 -6.95 2.39
-6.98 -7.10 2.39
-6.85 -7.26 2.39
-6.72 -7.41 2.39
-6.58 -7.56 2.39
-6.45 -7.71 2.39
-6.30 -7.86 2.39
-6.16 -8.00 2.39
-6.01 -8.14 2.39
-5.98 -8.45 2.44
-5.95 -8.78 2.50
-5.79 -8.92 2.50
-5.62 -9.05 2.50
-5.45 -9.19 2.50
-5.28 -9.32 2.50
-5.10 -9.44 2.50
-4.93 -9.56 2.50
-4.74 -9.68 2.50
-4.56 -9.80 2.50
-4.37 -9.91 2.50
-4.18 -10.02 2.50
-3.99 -10.13 2.50
-3.80 -10.23 2.50
-3.60 -10.33 2.50
-3.40 -10.42 2.50
-3.20 -10.51 2.50
-2.99 -10.60 2.50
-2.79 -10.68 2.50
-2.58 -10.76 2.50
-2.37 -10.84 2.50
-2.15 -10.91 2.50
-1.94 -10.97 2.50
-1.72 -11.03 2.50
-1.51 -11.09 2.50
-1.29 -11.14 2.50
-1.07 -11.19 2.50
-0.84 -11.24 2.50
-0.62 -11.27 2.50
-0.39 -11.31 2.50
-0.17 -11.34 2.50
0.06 -10.26 2.50
0.26 -10.27 2.50
0.47 -10.28 2.50
0.68 -10.29 2.50
0.88 -10.29 2.50
1.09 -10.29 2.50
1.30 -10.29 2.50
1.51 -10.28 2.50
1.71 -10.26 2.50
1.92 -10.24 2.50
2.05 -9.83 2.40
2.25 -9.81 2.40
2.44 -9.74 2.39
2.64 -9.70 2.39
2.83 -9.66 2.39
3.03 -9.62 2.39
3.23 -9.57 2.39
3.42 -9.52 2.39
3.62 -9.46 2.39
3.81 -9.40 2.39
4.00 -9.33 2.39
4.19 -9.26 2.39
4.38 -9.19 2.39
4.57 -9.11 2.39
4.76 -9.03 2.39
