ply
format ascii 1.0
element vertex 2697
property float32 x
property float32 y
property float32 z
end_header
15.87 10.76 -1.11
15.88 11.24 -1.13
15.84 11.70 -1.15
15.80 12.17 -1.18
15.76 12.65 -1.20
15.72 13.14 -1.22
15.70 13.67 -1.25
15.65 14.19 -1.28
15.59 14.70 -1.30
15.52 15.24 -1.33
15.46 15.80 -1.36
15.60 16.60 -1.41
15.75 17.45 -1.47
16.07 18.54 -1.55
16.30 19.58 -1.62
16.38 20.49 -1.68
16.60 21.64 -1.76
16.81 22.85 -1.84
18.81 26.68 -2.13
18.32 27.12 -2.15
17.82 27.55 -2.18
17.32 27.99 -2.20
17.56 29.70 -2.32
5.31 34.40 -2.72
4.87 42.92 -3.43
3.06 41.89 -3.39
-12.10 25.11 -2.70
-17.75 31.78 -3.59
-17.52 29.94 -3.44
-17.38 28.37 -3.31
-17.48 27.29 -3.25
-17.56 26.24 -3.18
-17.95 25.70 -3.17
-18.45 25.30 -3.19
-18.29 24.06 -3.09
-18.22 22.99 -3.02
-16.96 20.54 -2.75
-16.55 19.25 -2.64
-16.30 18.20 -2.55
-16.16 17.33 -2.48
-16.07 16.55 -2.43
-15.88 15.71 -2.36
-15.61 14.84 -2.29
-15.26 13.93 -2.20
-14.64 12.84 -2.09
-14.42 12.14 -2.03
-14.40 11.63 -2.00
-14.32 11.10 -1.96
-14.24 10.59 -1.93
-14.17 10.10 -1.90
-6.93 4.73 -0.92
-14.09 9.21 -1.85
-14.07 8.80 -1.83
-14.05 8.40 -1.81
-14.02 8.00 -1.79
-13.97 7.60 -1.77
-13.95 7.23 -1.76
-13.93 6.87 -1.74
-13.91 6.51 -1.73
-13.89 6.17 -1.71
-13.66 5.74 -1.67
-13.44 5.33 -1.64
-13.24 4.95 -1.60
-13.22 4.64 -1.59
-13.22 4.34 -1.58
-13.14 4.02 -1.57
-12.97 3.69 -1.54
-12.81 3.36 -1.52
-12.65 3.05 -1.49
-12.50 2.75 -1.47
-12.35 2.46 -1.45
-12.27 2.19 -1.44
-12.31 1.94 -1.44
-12.43 1.70 -1.45
-12.60 1.47 -1.47
-12.76 1.23 -1.48
-12.94 0.98 -1.50
-13.02 0.72 -1.51
-13.01 0.46 -1.51
-13.00 0.20 -1.51
-13.07 -0.06 -1.52
-13.19 -0.33 -1.53
-13.32 -0.60 -1.55
-13.39 -0.87 -1.56
-13.39 -1.15 -1.56
-13.40 -1.42 -1.56
-13.40 -1.69 -1.57
-13.41 -1.97 -1.57
-13.49 -2.26 -1.58
-13.56 -2.55 -1.60
-13.66 -2.86 -1.61
-13.77 -3.17 -1.63
-13.87 -3.49 -1.65
-13.98 -3.82 -1.67
-14.07 -4.15 -1.69
-14.21 -4.50 -1.71
-14.35 -4.87 -1.74
-14.50 -5.25 -1.77
-14.60 -5.62 -1.79
-14.61 -5.96 -1.80
-14.71 -6.35 -1.83
-14.86 -6.77 -1.86
-14.97 -7.19 -1.89
-14.97 -7.57 -1.90
-14.98 -7.95 -1.92
-15.02 -8.36 -1.94
-15.09 -8.81 -1.97
-15.10 -9.22 -1.99
-15.08 -9.64 -2.00
-15.07 -10.06 -2.02
-15.00 -10.46 -2.04
-14.92 -10.86 -2.05
-14.87 -11.28 -2.06
-14.84 -11.74 -2.09
-14.80 -12.20 -2.11
-14.69 -12.61 -2.12
-14.56 -13.02 -2.13
-14.47 -13.47 -2.15
-14.47 -14.03 -2.18
-14.49 -14.62 -2.22
-14.52 -15.25 -2.26
-14.52 -15.88 -2.30
-14.49 -16.50 -2.34
-14.40 -17.08 -2.37
-14.41 -17.81 -2.42
-14.43 -18.59 -2.48
-14.36 -19.28 -2.52
-14.46 -20.26 -2.59
-14.29 -20.88 -2.62
-14.11 -21.55 -2.66
-14.11 -22.52 -2.73
-13.91 -23.23 -2.77
-13.90 -24.31 -2.85
-14.06 -25.78 -2.97
-14.16 -27.25 -3.09
-10.40 -21.04 -2.35
-14.11 -30.04 -3.30
-14.30 -32.11 -3.48
2.93 -15.87 -0.94
8.44 -41.11 -2.41
18.27 -42.85 -2.39
18.29 -40.62 -2.26
18.64 -39.27 -2.18
17.88 -35.79 -1.98
17.21 -32.79 -1.82
16.95 -30.78 -1.70
17.05 -29.54 -1.63
6.27 -10.38 -0.57
6.46 -10.22 -0.57
6.77 -10.25 -0.57
17.30 -25.10 -1.39
17.43 -24.22 -1.35
17.48 -23.29 -1.30
17.46 -22.32 -1.25
17.44 -21.40 -1.20
17.42 -20.52 -1.16
17.45 -19.74 -1.12
17.49 -19.00 -1.09
17.54 -18.30 -1.06
17.56 -17.61 -1.03
17.57 -16.92 -0.99
17.46 -16.16 -0.96
17.33 -15.40 -0.92
17.30 -14.77 -0.90
17.49 -14.33 -0.88
17.69 -13.91 -0.87
17.86 -13.48 -0.85
17.96 -13.00 -0.84
18.02 -12.50 -0.82
17.98 -11.94 -0.80
17.99 -11.44 -0.78
18.03 -10.96 -0.77
18.02 -10.47 -0.75
17.87 -9.91 -0.73
17.90 -9.46 -0.71
18.08 -9.09 -0.71
18.26 -8.73 -0.70
18.24 -8.27 -0.69
18.05 -7.76 -0.67
17.92 -7.28 -0.65
17.78 -6.81 -0.64
17.71 -6.38 -0.63
17.71 -5.98 -0.62
17.63 -5.56 -0.61
17.33 -5.09 -0.59
17.04 -4.63 -0.57
16.77 -4.20 -0.56
16.51 -3.79 -0.54
16.27 -3.39 -0.53
16.03 -3.01 -0.52
15.81 -2.64 -0.51
15.71 -2.30 -0.50
15.64 -1.97 -0.49
15.55 -1.64 -0.49
15.46 -1.32 -0.48
15.36 -1.00 -0.48
15.27 -0.69 -0.47
15.19 -0.38 -0.47
15.11 -0.07 -0.47
15.03 0.23 -0.46
14.96 0.53 -0.46
6.31 0.35 -0.19
6.31 0.48 -0.20
6.30 0.60 -0.20
6.30 0.73 -0.20
6.30 0.86 -0.20
6.29 0.99 -0.20
14.54 2.58 -0.46
14.45 2.86 -0.46
14.36 3.14 -0.46
14.43 3.46 -0.47
14.37 3.76 -0.47
14.31 4.05 -0.47
14.24 4.34 -0.47
14.17 4.63 -0.48
14.11 4.92 -0.48
14.04 5.22 -0.48
14.00 5.53 -0.49
13.99 5.85 -0.50
13.97 6.17 -0.50
13.96 6.50 -0.51
13.95 6.84 -0.52
13.93 7.19 -0.53
13.99 7.57 -0.54
14.12 8.01 -0.55
14.26 8.47 -0.57
14.40 8.95 -0.59
14.55 9.46 -0.61
15.19 10.31 -0.65
15.26 10.81 -0.67
15.34 11.34 -0.69
15.45 11.91 -0.71
15.38 12.35 -0.72
15.31 12.80 -0.74
15.23 13.27 -0.76
15.19 13.78 -0.78
15.19 14.35 -0.80
15.11 14.85 -0.82
15.03 15.38 -0.84
15.05 16.03 -0.87
15.16 16.80 -0.90
15.26 17.62 -0.94
15.66 18.83 -1.00
15.89 19.90 -1.05
15.94 20.81 -1.10
16.11 21.93 -1.15
16.09 22.84 -1.19
16.54 24.52 -1.28
16.71 25.87 -1.35
16.67 26.99 -1.40
16.53 28.00 -1.46
16.65 29.54 -1.54
5.28 34.40 -1.94
-12.80 37.47 -2.79
-18.22 44.40 -3.47
-18.03 41.53 -3.30
-17.95 39.19 -3.17
-12.11 25.09 -2.06
-17.80 35.06 -2.94
-16.64 31.21 -2.66
-16.56 29.60 -2.57
-16.55 28.24 -2.50
-16.75 27.31 -2.46
-16.87 26.31 -2.42
-17.18 25.64 -2.41
-17.25 24.67 -2.36
-17.24 23.63 -2.31
-17.20 22.60 -2.26
-16.68 21.03 -2.15
-16.19 19.58 -2.05
-15.89 18.45 -1.98
-15.74 17.56 -1.92
-15.63 16.74 -1.88
-15.49 15.94 -1.84
-15.24 15.06 -1.78
-15.02 14.26 -1.73
-14.64 13.35 -1.66
-14.34 12.56 -1.61
-14.24 11.97 -1.58
-14.22 11.48 -1.56
-14.15 10.96 -1.53
-14.08 10.45 -1.51
-14.01 9.98 -1.49
-6.94 4.73 -0.73
-13.93 9.10 -1.45
-13.91 8.69 -1.44
-13.90 8.30 -1.42
-13.86 7.90 -1.41
-13.82 7.51 -1.39
-13.79 7.14 -1.38
-13.77 6.79 -1.37
-13.76 6.44 -1.36
-13.69 6.07 -1.35
-13.47 5.66 -1.32
-11.14 4.41 -1.08
-13.06 4.88 -1.26
-12.95 4.54 -1.25
-12.95 4.25 -1.24
-12.83 3.93 -1.23
-12.67 3.60 -1.21
-12.51 3.28 -1.19
-12.37 2.98 -1.17
-12.29 2.70 -1.16
-12.21 2.43 -1.15
-12.14 2.16 -1.14
-12.15 1.91 -1.14
-12.21 1.67 -1.14
-12.26 1.43 -1.15
-12.36 1.19 -1.15
-12.52 0.95 -1.17
-12.69 0.70 -1.18
-12.75 0.45 -1.19
-12.74 0.19 -1.19
-12.82 -0.06 -1.20
-12.93 -0.32 -1.21
-13.05 -0.59 -1.22
-13.17 -0.86 -1.23
-13.20 -1.13 -1.24
-13.21 -1.40 -1.24
-13.21 -1.67 -1.24
-13.22 -1.94 -1.24
-13.29 -2.22 -1.25
-13.36 -2.51 -1.26
-13.45 -2.81 -1.28
-13.55 -3.12 -1.29
-13.65 -3.43 -1.30
-13.75 -3.75 -1.32
-13.85 -4.08 -1.33
-13.90 -4.40 -1.35
-13.95 -4.73 -1.36
-14.00 -5.06 -1.37
-14.11 -5.42 -1.39
-14.25 -5.81 -1.41
-14.29 -6.16 -1.42
-14.43 -6.57 -1.44
-14.58 -7.00 -1.47
-14.69 -7.42 -1.49
-14.69 -7.79 -1.50
-14.70 -8.18 -1.52
-14.77 -8.61 -1.54
-14.84 -9.06 -1.56
-14.84 -9.47 -1.57
-14.82 -9.89 -1.58
-14.78 -10.30 -1.60
-14.70 -10.68 -1.60
-14.61 -11.08 -1.61
-14.55 -11.49 -1.62
-14.51 -11.95 -1.64
-14.43 -12.38 -1.65
-14.31 -12.79 -1.66
-14.19 -13.20 -1.67
-14.06 -13.62 -1.68
-14.02 -14.13 -1.70
-14.03 -14.72 -1.72
-14.05 -15.35 -1.75
-14.05 -15.99 -1.79
-13.99 -16.58 -1.81
-13.90 -17.16 -1.83
-13.80 -17.75 -1.86
-13.79 -18.49 -1.89
-13.70 -19.17 -1.92
-13.62 -19.88 -1.95
-13.52 -20.61 -1.99
-13.31 -21.22 -2.00
-13.15 -21.94 -2.03
-13.03 -22.75 -2.07
-12.92 -23.65 -2.11
-12.80 -24.60 -2.16
-10.41 -21.03 -1.82
-12.75 -27.10 -2.30
-12.70 -28.47 -2.38
-12.62 -29.88 -2.46
-12.55 -31.48 -2.55
-12.57 -33.45 -2.66
-12.44 -35.23 -2.76
-12.17 -36.81 -2.85
-12.28 -39.81 -3.03
-12.48 -43.54 -3.27
-12.00 -45.29 -3.36
-4.89 -35.07 -2.41
-4.16 -34.93 -2.37
2.92 -15.86 -0.57
8.42 -41.13 -1.46
18.01 -44.79 -1.42
17.48 -41.05 -1.28
17.71 -39.40 -1.22
17.21 -36.31 -1.11
17.01 -34.11 -1.03
16.41 -31.31 -0.94
16.49 -29.98 -0.89
16.48 -28.60 -0.84
6.31 -10.47 -0.30
6.45 -10.22 -0.29
6.76 -10.25 -0.29
16.50 -23.97 -0.67
16.65 -23.17 -0.65
16.71 -22.29 -0.62
16.74 -21.43 -0.59
16.79 -20.62 -0.56
16.92 -19.96 -0.54
17.09 -19.35 -0.52
17.19 -18.70 -0.50
17.22 -18.00 -0.48
17.26 -17.32 -0.46
17.25 -16.64 -0.44
17.13 -15.86 -0.41
17.00 -15.13 -0.39
17.01 -14.53 -0.38
17.21 -14.12 -0.37
17.41 -13.70 -0.36
17.59 -13.29 -0.34
17.69 -12.81 -0.33
17.70 -12.28 -0.32
17.66 -11.74 -0.31
17.66 -11.24 -0.30
17.70 -10.77 -0.29
17.62 -10.24 -0.27
17.48 -9.70 -0.26
17.40 -9.20 -0.25
17.57 -8.84 -0.24
17.65 -8.45 -0.24
17.45 -7.92 -0.23
17.25 -7.42 -0.22
17.09 -6.95 -0.21
16.99 -6.51 -0.20
17.00 -6.13 -0.19
17.01 -5.75 -0.19
17.02 -5.37 -0.18
16.98 -4.99 -0.18
16.70 -4.55 -0.17
16.45 -4.12 -0.16
16.20 -3.72 -0.16
15.97 -3.33 -0.15
15.74 -2.95 -0.15
15.53 -2.59 -0.14
15.45 -2.26 -0.14
15.39 -1.94 -0.14
15.32 -1.62 -0.13
15.23 -1.30 -0.13
15.14 -0.99 -0.13
15.05 -0.68 -0.13
14.97 -0.38 -0.13
14.90 -0.07 -0.12
14.82 0.22 -0.12
14.75 0.52 -0.12
6.31 0.35 -0.05
6.31 0.48 -0.05
6.30 0.60 -0.05
6.30 0.73 -0.05
6.30 0.86 -0.05
6.29 0.99 -0.05
14.29 2.53 -0.12
14.20 2.81 -0.13
14.11 3.09 -0.13
14.01 3.37 -0.13
13.92 3.64 -0.13
13.85 3.92 -0.13
13.79 4.20 -0.13
13.72 4.49 -0.14
13.66 4.77 -0.14
13.59 5.06 -0.14
13.53 5.34 -0.14
13.46 5.63 -0.15
13.39 5.92 -0.15
13.36 6.23 -0.16
13.34 6.55 -0.16
13.32 6.87 -0.17
13.30 7.21 -0.17
13.30 7.56 -0.18
13.40 7.97 -0.19
13.42 8.35 -0.19
13.45 8.75 -0.20
13.48 9.16 -0.21
13.53 9.59 -0.22
13.72 10.15 -0.23
14.40 11.10 -0.25
14.46 11.62 -0.26
14.66 12.27 -0.28
14.69 12.81 -0.29
14.61 13.26 -0.30
14.56 13.77 -0.31
14.73 14.49 -0.33
14.64 15.00 -0.35
14.55 15.51 -0.36
14.64 16.25 -0.38
14.75 17.05 -0.40
14.83 17.85 -0.42
15.21 19.07 -0.46
15.47 20.21 -0.49
15.51 21.14 -0.52
15.58 22.15 -0.55
15.54 23.06 -0.58
15.74 24.40 -0.62
15.92 25.79 -0.66
16.08 27.27 -0.70
15.95 28.33 -0.74
16.01 29.82 -0.79
19.64 38.42 -1.03
19.07 39.22 -1.06
18.48 40.04 -1.10
17.81 40.70 -1.13
17.12 41.36 -1.16
16.42 42.03 -1.20
5.26 34.40 -1.15
-12.82 37.44 -1.90
-16.34 44.78 -2.31
-16.39 42.27 -2.23
-17.10 41.58 -2.24
-17.11 39.34 -2.16
-17.20 37.48 -2.10
-12.12 25.08 -1.43
-16.32 32.10 -1.87
-15.67 29.34 -1.75
-15.75 28.11 -1.71
-15.99 27.25 -1.70
-16.18 26.34 -1.68
-16.59 25.83 -1.68
-16.82 25.08 -1.67
-16.87 24.09 -1.64
-16.83 23.03 -1.61
-16.48 21.62 -1.55
-15.88 19.99 -1.47
-15.51 18.74 -1.41
-15.33 17.79 -1.37
-15.23 16.96 -1.34
-15.11 16.17 -1.32
-14.93 15.34 -1.28
-14.77 14.59 -1.25
-14.64 13.89 -1.23
-14.34 13.06 -1.19
-14.05 12.29 -1.15
-14.06 11.81 -1.14
-14.05 11.33 -1.13
-13.98 10.82 -1.11
-13.91 10.32 -1.10
-13.86 9.86 -1.09
-6.94 4.73 -0.54
-13.78 8.99 -1.06
-13.76 8.59 -1.05
-13.75 8.20 -1.05
-13.71 7.81 -1.04
-13.67 7.43 -1.03
-13.64 7.06 -1.02
-13.62 6.71 -1.01
-13.61 6.36 -1.01
-13.50 5.98 -0.99
-13.29 5.57 -0.97
-11.13 4.41 -0.81
-12.89 4.81 -0.94
-12.71 4.45 -0.92
-12.69 4.16 -0.91
-12.53 3.83 -0.90
-12.39 3.52 -0.89
-12.31 3.23 -0.88
-12.23 2.95 -0.87
-12.15 2.67 -0.86
-12.07 2.40 -0.86
-12.01 2.14 -0.85
-12.00 1.89 -0.85
-12.05 1.65 -0.85
-12.11 1.41 -0.86
-12.16 1.17 -0.86
-12.22 0.92 -0.86
-12.30 0.68 -0.87
-12.46 0.44 -0.88
-12.49 0.19 -0.88
-12.57 -0.06 -0.89
-12.69 -0.32 -0.90
-12.80 -0.58 -0.90
-12.92 -0.84 -0.91
-13.02 -1.11 -0.92
-13.03 -1.38 -0.92
-13.03 -1.64 -0.93
-13.03 -1.91 -0.93
-13.10 -2.19 -0.94
-13.17 -2.48 -0.94
-13.24 -2.77 -0.95
-13.33 -3.07 -0.96
-13.43 -3.38 -0.97
-13.53 -3.69 -0.98
-13.63 -4.01 -0.99
-13.68 -4.33 -1.00
-13.73 -4.65 -1.01
-13.77 -4.98 -1.01
-13.82 -5.31 -1.02
-13.88 -5.65 -1.03
-13.93 -6.01 -1.04
-14.02 -6.38 -1.05
-14.16 -6.79 -1.07
-14.30 -7.22 -1.09
-14.42 -7.64 -1.11
-14.42 -8.02 -1.11
-14.46 -8.43 -1.12
-14.53 -8.86 -1.14
-14.59 -9.31 -1.15
-14.58 -9.72 -1.16
-14.57 -10.14 -1.17
-14.48 -10.52 -1.17
-14.40 -10.91 -1.18
-14.31 -11.30 -1.18
-14.23 -11.71 -1.19
-14.19 -12.16 -1.20
-14.07 -12.56 -1.20
-13.95 -12.96 -1.21
-13.82 -13.37 -1.21
-13.69 -13.79 -1.22
-13.58 -14.24 -1.22
-13.58 -14.83 -1.24
-13.59 -15.45 -1.26
-13.60 -16.09 -1.28
-13.51 -16.66 -1.29
-13.42 -17.24 -1.31
-13.33 -17.86 -1.32
-13.27 -18.54 -1.34
-13.20 -19.25 -1.36
-13.13 -20.00 -1.39
-13.02 -20.73 -1.41
-12.90 -21.48 -1.43
-12.76 -22.26 -1.45
-12.61 -23.04 -1.47
-12.48 -23.95 -1.49
-10.42 -21.02 -1.28
-12.30 -26.10 -1.56
-12.28 -27.47 -1.61
-12.18 -28.79 -1.66
-12.06 -30.19 -1.71
-11.98 -31.83 -1.77
-12.10 -34.22 -1.87
-11.83 -35.71 -1.91
-11.54 -37.34 -1.96
-11.83 -41.16 -2.13
-11.71 -44.09 -2.24
-11.40 -46.66 -2.33
2.91 -15.87 -0.21
8.39 -41.15 -0.52
16.78 -44.36 -0.35
16.81 -41.86 -0.31
16.74 -39.39 -0.27
16.38 -36.50 -0.23
16.33 -34.52 -0.20
16.06 -32.25 -0.16
15.91 -30.40 -0.14
16.04 -29.22 -0.11
15.68 -27.24 -0.09
6.36 -10.55 -0.03
6.44 -10.21 -0.02
6.75 -10.24 -0.01
15.78 -22.95 -0.02
15.81 -22.03 -0.00
15.84 -21.16 0.01
15.91 -20.39 0.02
16.00 -19.67 0.04
16.17 -19.09 0.05
16.21 -18.38 0.06
16.26 -17.70 0.07
16.47 -17.22 0.08
16.68 -16.76 0.09
16.77 -16.19 0.10
16.56 -15.36 0.11
16.35 -14.56 0.11
16.35 -13.98 0.12
16.94 -13.91 0.13
17.13 -13.50 0.14
17.33 -13.10 0.15
17.42 -12.63 0.16
17.39 -12.08 0.16
17.35 -11.55 0.17
17.34 -11.04 0.17
17.37 -10.58 0.18
17.24 -10.03 0.18
17.11 -9.50 0.18
16.98 -8.99 0.19
17.09 -8.61 0.19
16.91 -8.10 0.19
16.73 -7.60 0.20
16.56 -7.13 0.20
16.40 -6.67 0.20
16.39 -6.29 0.20
16.39 -5.91 0.20
16.40 -5.55 0.21
16.40 -5.18 0.21
16.41 -4.83 0.21
16.38 -4.46 0.21
16.14 -4.05 0.21
15.90 -3.65 0.21
15.68 -3.27 0.21
15.46 -2.90 0.21
15.27 -2.55 0.21
15.20 -2.23 0.21
15.14 -1.91 0.21
15.08 -1.60 0.21
15.02 -1.28 0.21
14.93 -0.98 0.21
14.84 -0.67 0.21
14.76 -0.37 0.21
14.69 -0.07 0.21
14.62 0.22 0.21
14.54 0.51 0.21
6.31 0.35 0.09
6.31 0.48 0.09
6.30 0.60 0.09
6.30 0.73 0.09
6.30 0.86 0.09
6.29 0.99 0.09
14.01 2.49 0.20
13.89 2.75 0.20
13.78 3.02 0.19
13.66 3.28 0.19
13.55 3.55 0.19
13.46 3.81 0.19
13.36 4.08 0.19
13.30 4.35 0.18
13.24 4.63 0.18
13.17 4.90 0.18
13.11 5.18 0.18
13.05 5.46 0.18
12.98 5.74 0.17
12.91 6.02 0.17
12.84 6.31 0.17
12.77 6.60 0.16
12.75 6.91 0.16
12.73 7.23 0.16
12.74 7.58 0.16
12.83 7.99 0.16
12.91 8.40 0.15
12.93 8.79 0.15
12.95 9.19 0.15
13.00 9.62 0.15
13.14 10.14 0.14
13.33 10.72 0.14
13.54 11.34 0.14
13.70 11.96 0.14
13.88 12.61 0.13
14.01 13.26 0.13
13.97 13.76 0.13
14.12 14.47 0.12
14.18 15.13 0.12
14.09 15.65 0.11
14.24 16.47 0.10
14.35 17.29 0.09
14.39 18.07 0.09
14.57 19.06 0.08
14.82 20.22 0.07
14.94 21.27 0.06
14.97 22.24 0.05
14.90 23.13 0.04
14.94 24.24 0.02
15.15 25.72 0.01
15.49 27.55 -0.01
15.37 28.68 -0.02
15.36 30.09 -0.04
15.74 32.42 -0.07
16.61 36.04 -0.09
16.12 36.90 -0.12
15.47 37.44 -0.14
14.81 37.98 -0.17
14.27 38.90 -0.19
13.73 39.89 -0.22
13.22 41.06 -0.25
12.55 41.83 -0.28
11.86 42.63 -0.31
11.16 43.45 -0.34
10.68 45.35 -0.38
5.23 34.40 -0.37
4.70 42.19 -0.50
-15.10 47.05 -1.23
-12.84 37.42 -1.01
-15.86 43.35 -1.20
-16.06 41.32 -1.18
-16.31 39.59 -1.16
-16.39 37.62 -1.14
-16.10 35.01 -1.09
-12.13 25.06 -0.81
-15.34 30.12 -1.00
-15.32 28.65 -0.98
-15.38 27.41 -0.96
-15.49 26.37 -0.95
-15.91 25.88 -0.96
-16.32 25.38 -0.97
-16.48 24.53 -0.97
-16.45 23.46 -0.96
-16.43 22.46 -0.94
-15.58 20.42 -0.88
-15.21 19.13 -0.85
-14.99 18.09 -0.83
-14.91 17.27 -0.82
-14.83 16.50 -0.81
-14.70 15.72 -0.79
-14.56 14.95 -0.78
-14.42 14.23 -0.77
-14.33 13.58 -0.76
-14.04 12.78 -0.74
-13.87 12.12 -0.72
-13.89 11.66 -0.72
-13.89 11.19 -0.71
-13.82 10.68 -0.71
-13.76 10.20 -0.70
-13.70 9.74 -0.69
-6.94 4.72 -0.35
-13.63 8.89 -0.68
-13.62 8.49 -0.68
-13.60 8.11 -0.68
-13.56 7.72 -0.67
-13.52 7.34 -0.67
-13.49 6.98 -0.66
-13.48 6.63 -0.66
-13.46 6.29 -0.66
-13.31 5.90 -0.65
-13.11 5.49 -0.64
-11.12 4.40 -0.54
-12.73 4.74 -0.62
-12.55 4.39 -0.61
-12.41 4.07 -0.60
-12.33 3.77 -0.59
-12.25 3.47 -0.59
-12.17 3.19 -0.59
-12.09 2.91 -0.58
-12.01 2.64 -0.58
-11.94 2.37 -0.57
-11.89 2.11 -0.57
-11.87 1.87 -0.57
-11.90 1.62 -0.57
-11.95 1.39 -0.57
-12.01 1.15 -0.58
-12.07 0.91 -0.58
-12.12 0.67 -0.58
-12.18 0.43 -0.58
-12.24 0.19 -0.59
-12.34 -0.06 -0.59
-12.45 -0.31 -0.60
-12.56 -0.57 -0.60
-12.67 -0.83 -0.61
-12.78 -1.09 -0.62
-12.85 -1.36 -0.62
-12.85 -1.62 -0.62
-12.85 -1.89 -0.62
-12.91 -2.16 -0.63
-12.98 -2.44 -0.63
-13.05 -2.73 -0.64
-13.13 -3.02 -0.64
-13.22 -3.32 -0.65
-13.32 -3.63 -0.65
-13.42 -3.95 -0.66
-13.47 -4.26 -0.66
-13.51 -4.57 -0.67
-13.56 -4.90 -0.67
-13.60 -5.22 -0.68
-13.65 -5.56 -0.68
-13.70 -5.90 -0.69
-13.71 -6.24 -0.69
-13.80 -6.61 -0.70
-13.90 -7.01 -0.71
-14.03 -7.43 -0.72
-14.15 -7.86 -0.73
-14.17 -8.25 -0.73
-14.23 -8.67 -0.74
-14.29 -9.11 -0.75
-14.35 -9.56 -0.75
-14.33 -9.97 -0.76
-14.27 -10.36 -0.76
-14.19 -10.74 -0.76
-14.10 -11.12 -0.76
-14.01 -11.52 -0.76
-13.92 -11.92 -0.76
-13.84 -12.34 -0.76
-13.71 -12.73 -0.76
-13.60 -13.14 -0.76
-13.48 -13.57 -0.76
-13.37 -14.00 -0.77
-13.29 -14.50 -0.77
-13.28 -15.08 -0.78
-13.27 -15.69 -0.79
-13.24 -16.31 -0.79
-13.16 -16.89 -0.80
-13.07 -17.49 -0.80
-12.98 -18.12 -0.81
-12.94 -18.86 -0.82
-12.87 -19.58 -0.83
-12.78 -20.33 -0.84
-12.65 -21.04 -0.84
-12.51 -21.79 -0.85
-12.36 -22.55 -0.86
-12.18 -23.34 -0.86
-10.43 -21.01 -0.76
-11.90 -25.22 -0.88
-11.83 -26.43 -0.90
-11.80 -27.84 -0.92
-11.66 -29.12 -0.94
-11.51 -30.52 -0.96
-11.41 -32.18 -0.98
-11.54 -34.77 -1.04
-11.22 -36.19 -1.05
-10.91 -37.88 -1.07
-11.25 -42.23 -1.16
-11.09 -45.24 -1.21
-10.72 -47.88 -1.24
4.26 -42.39 0.30
3.36 -27.85 0.22
2.89 -15.87 0.15
8.36 -41.17 0.43
13.59 -47.15 0.62
14.26 -45.97 0.64
14.92 -44.88 0.66
15.46 -43.58 0.67
15.85 -41.99 0.68
15.73 -39.26 0.66
15.14 -35.69 0.63
15.29 -34.13 0.63
15.54 -32.90 0.63
14.97 -30.12 0.60
15.32 -29.33 0.61
13.99 -25.52 0.56
13.79 -23.99 0.54
6.40 -10.64 0.25
6.43 -10.21 0.25
6.73 -10.24 0.26
14.19 -20.66 0.55
14.27 -19.91 0.55
14.77 -19.75 0.56
15.19 -19.48 0.58
15.29 -18.83 0.58
15.26 -18.04 0.58
15.23 -17.28 0.57
15.37 -16.76 0.58
15.70 -16.44 0.59
16.03 -16.12 0.60
16.10 -15.56 0.60
15.92 -14.78 0.59
15.69 -13.98 0.58
15.64 -13.39 0.58
16.22 -13.33 0.60
16.82 -13.27 0.62
17.06 -12.91 0.63
17.11 -12.41 0.63
17.08 -11.88 0.63
17.06 -11.36 0.63
17.04 -10.86 0.62
16.99 -10.36 0.62
16.87 -9.82 0.62
16.75 -9.31 0.61
16.32 -8.64 0.60
16.41 -8.28 0.60
16.26 -7.79 0.59
16.11 -7.33 0.59
15.96 -6.88 0.58
15.89 -6.47 0.58
15.91 -6.11 0.58
15.92 -5.75 0.58
15.93 -5.39 0.58
15.94 -5.04 0.58
15.94 -4.69 0.58
15.91 -4.34 0.58
15.84 -3.98 0.58
15.61 -3.59 0.57
15.40 -3.22 0.56
15.19 -2.86 0.55
15.03 -2.51 0.55
14.97 -2.20 0.55
14.90 -1.88 0.54
14.84 -1.57 0.54
14.79 -1.27 0.54
14.72 -0.96 0.54
14.63 -0.66 0.54
14.56 -0.37 0.53
14.49 -0.07 0.53
14.42 0.22 0.53
6.31 0.22 0.23
6.31 0.35 0.23
6.30 0.48 0.23
6.30 0.60 0.23
6.30 0.73 0.23
6.29 0.86 0.23
6.29 0.99 0.23
13.67 2.43 0.51
13.55 2.69 0.50
13.44 2.95 0.50
13.33 3.20 0.50
13.22 3.46 0.49
13.13 3.72 0.49
13.03 3.98 0.49
12.94 4.24 0.49
12.85 4.49 0.48
12.78 4.76 0.48
12.72 5.03 0.48
12.65 5.30 0.48
12.59 5.57 0.48
12.52 5.84 0.48
12.45 6.12 0.47
12.38 6.40 0.47
12.31 6.68 0.47
12.23 6.96 0.47
12.19 7.26 0.47
12.21 7.61 0.47
12.28 8.00 0.48
12.36 8.41 0.48
12.43 8.83 0.49
12.45 9.22 0.49
12.50 9.65 0.49
12.62 10.16 0.50
12.76 10.70 0.51
12.94 11.31 0.52
13.13 11.94 0.53
13.22 12.52 0.53
13.30 13.11 0.54
13.39 13.74 0.55
13.53 14.45 0.56
13.67 15.20 0.56
13.69 15.86 0.57
13.84 16.69 0.58
13.95 17.53 0.59
13.96 18.28 0.59
13.95 19.06 0.60
14.16 20.18 0.61
14.07 20.93 0.61
14.12 21.94 0.62
13.99 22.74 0.62
13.90 23.63 0.63
14.18 25.26 0.65
14.80 27.65 0.68
14.78 28.99 0.69
14.59 30.11 0.69
14.54 31.59 0.70
14.14 32.42 0.69
14.08 34.15 0.70
13.58 34.92 0.69
13.28 36.28 0.69
12.88 37.50 0.69
12.25 38.12 0.67
11.59 38.74 0.65
10.93 39.39 0.64
5.56 21.73 0.34
9.82 41.84 0.62
9.37 43.83 0.62
9.17 47.55 0.64
5.21 34.39 0.41
4.67 42.20 0.45
-14.25 47.57 -0.08
-14.75 45.86 -0.11
-12.86 37.39 -0.11
-15.35 41.89 -0.16
-15.69 40.28 -0.18
-15.67 37.96 -0.19
-15.65 35.86 -0.21
-15.43 33.51 -0.22
-12.15 25.04 -0.18
-15.00 29.40 -0.23
-14.94 27.89 -0.24
-15.07 26.82 -0.25
-15.22 25.86 -0.26
-15.66 25.42 -0.28
-16.06 24.94 -0.29
-16.10 23.93 -0.30
-16.06 22.88 -0.30
-15.56 21.24 -0.30
-14.98 19.61 -0.29
-14.72 18.49 -0.29
-14.62 17.63 -0.30
-14.55 16.84 -0.30
-14.47 16.08 -0.30
-14.34 15.31 -0.30
-14.20 14.57 -0.30
-14.13 13.92 -0.30
-14.03 13.28 -0.30
-13.76 12.51 -0.30
-13.70 11.96 -0.30
-13.73 11.51 -0.31
-13.72 11.04 -0.31
-13.66 10.55 -0.31
-13.60 10.08 -0.31
-13.56 9.63 -0.31
-6.94 4.72 -0.16
-13.49 8.78 -0.31
-13.48 8.40 -0.32
-13.45 8.01 -0.32
-13.41 7.63 -0.32
-13.38 7.26 -0.32
-13.35 6.90 -0.32
-13.34 6.55 -0.32
-13.32 6.22 -0.32
-13.13 5.81 -0.32
-12.93 5.42 -0.31
-11.11 4.39 -0.27
-12.56 4.68 -0.31
-12.36 4.32 -0.30
-12.27 4.02 -0.30
-12.19 3.72 -0.30
-12.11 3.43 -0.30
-12.03 3.15 -0.30
-11.95 2.87 -0.30
-11.88 2.61 -0.30
-11.81 2.34 -0.29
-11.77 2.09 -0.29
-11.75 1.84 -0.29
-11.75 1.60 -0.30
-11.80 1.37 -0.30
-11.86 1.14 -0.30
-11.92 0.90 -0.30
-11.97 0.66 -0.30
-12.03 0.42 -0.31
-12.09 0.18 -0.31
-12.10 -0.06 -0.31
-12.22 -0.31 -0.31
-12.32 -0.56 -0.31
-12.43 -0.81 -0.32
-12.54 -1.07 -0.32
-12.65 -1.34 -0.32
-12.68 -1.60 -0.32
-12.68 -1.86 -0.32
-12.74 -2.13 -0.33
-12.80 -2.40 -0.33
-12.87 -2.69 -0.33
-12.94 -2.97 -0.33
-13.02 -3.27 -0.33
-13.11 -3.57 -0.34
-13.21 -3.88 -0.34
-13.26 -4.19 -0.34
-13.30 -4.50 -0.34
-13.35 -4.82 -0.34
-13.39 -5.14 -0.34
-13.44 -5.47 -0.34
-13.48 -5.80 -0.35
-13.51 -6.14 -0.35
-13.49 -6.46 -0.35
-13.58 -6.84 -0.35
-13.68 -7.24 -0.35
-13.78 -7.66 -0.35
-13.89 -8.08 -0.35
-13.94 -8.49 -0.36
-14.00 -8.92 -0.36
-14.05 -9.35 -0.36
-14.11 -9.81 -0.36
-14.07 -10.20 -0.36
-13.98 -10.58 -0.35
-13.90 -10.95 -0.35
-13.81 -11.34 -0.35
-13.71 -11.73 -0.34
-13.61 -12.13 -0.34
-13.52 -12.54 -0.34
-13.41 -12.95 -0.33
-13.30 -13.36 -0.33
-13.18 -13.79 -0.32
-13.07 -14.24 -0.32
-13.01 -14.75 -0.32
-12.99 -15.34 -0.32
-12.97 -15.96 -0.31
-12.91 -16.55 -0.31
-12.82 -17.14 -0.31
-12.73 -17.75 -0.30
-12.66 -18.42 -0.30
-12.62 -19.17 -0.29
-12.54 -19.91 -0.29
-12.42 -20.63 -0.28
-12.27 -21.34 -0.28
-12.13 -22.11 -0.27
-11.95 -22.85 -0.26
-10.45 -20.99 -0.23
-11.61 -24.56 -0.25
-11.45 -25.54 -0.24
-11.37 -26.77 -0.23
-11.32 -28.22 -0.23
-11.13 -29.45 -0.22
-10.96 -30.86 -0.21
-11.06 -33.24 -0.20
-10.95 -35.25 -0.19
-10.60 -36.70 -0.17
-10.26 -38.43 -0.16
-10.87 -44.25 -0.15
-10.43 -46.47 -0.13
4.24 -42.45 1.26
5.60 -46.67 1.42
2.88 -15.88 0.52
8.34 -41.18 1.37
5.11 -22.86 0.78
5.62 -22.97 0.80
12.11 -45.51 1.63
12.79 -44.48 1.63
7.55 -24.41 0.91
14.19 -42.79 1.64
14.68 -41.46 1.63
13.40 -35.55 1.43
13.57 -33.92 1.39
13.89 -32.81 1.38
14.32 -32.03 1.38
13.96 -29.60 1.31
13.75 -27.71 1.25
12.11 -23.22 1.08
12.05 -22.02 1.05
12.07 -21.04 1.02
6.44 -10.72 0.53
6.42 -10.21 0.52
6.72 -10.24 0.54
12.56 -18.31 0.99
12.99 -18.15 1.00
13.48 -18.06 1.02
13.99 -17.98 1.05
14.12 -17.41 1.04
14.14 -16.73 1.03
14.20 -16.13 1.02
14.68 -16.02 1.04
15.11 -15.84 1.06
15.43 -15.54 1.07
15.49 -14.98 1.06
15.28 -14.20 1.04
15.07 -13.45 1.02
14.98 -12.84 1.00
15.53 -12.77 1.03
15.93 -12.58 1.05
16.06 -12.16 1.05
16.13 -11.72 1.04
16.18 -11.26 1.04
16.23 -10.82 1.04
16.33 -10.42 1.04
15.86 -9.68 1.00
15.18 -8.85 0.95
15.24 -8.47 0.95
15.45 -8.19 0.96
15.67 -7.91 0.97
15.67 -7.52 0.96
15.54 -7.07 0.95
15.41 -6.64 0.94
15.43 -6.29 0.94
15.45 -5.94 0.94
15.47 -5.59 0.94
15.48 -5.25 0.93
15.49 -4.91 0.93
15.50 -4.57 0.93
15.44 -4.21 0.92
15.39 -3.87 0.92
15.34 -3.53 0.91
15.13 -3.16 0.90
14.93 -2.81 0.89
14.79 -2.48 0.88
14.73 -2.16 0.87
14.67 -1.85 0.87
14.62 -1.55 0.87
14.56 -1.25 0.86
14.50 -0.95 0.86
14.43 -0.65 0.85
14.36 -0.36 0.85
14.29 -0.07 0.85
14.22 0.21 0.84
6.31 0.22 0.37
6.31 0.35 0.37
6.30 0.48 0.37
6.30 0.60 0.38
6.30 0.73 0.38
6.29 0.86 0.38
6.29 0.99 0.38
13.34 2.37 0.80
13.23 2.62 0.80
13.12 2.88 0.79
13.01 3.13 0.79
12.90 3.38 0.78
12.81 3.63 0.78
12.72 3.88 0.78
12.63 4.14 0.77
12.54 4.39 0.77
12.45 4.64 0.77
12.36 4.89 0.77
12.28 5.15 0.77
12.22 5.41 0.77
12.15 5.68 0.77
12.08 5.94 0.76
12.01 6.21 0.76
11.94 6.48 0.76
11.87 6.76 0.76
11.80 7.03 0.77
11.73 7.32 0.77
11.71 7.64 0.77
11.77 8.01 0.78
11.83 8.41 0.79
11.90 8.82 0.80
11.96 9.25 0.81
12.01 9.68 0.82
12.12 10.18 0.84
12.24 10.70 0.86
12.38 11.27 0.88
12.54 11.89 0.90
12.70 12.53 0.92
12.77 13.11 0.93
12.83 13.72 0.95
12.91 14.37 0.97
13.04 15.12 0.99
13.12 15.85 1.01
13.44 16.91 1.05
13.54 17.76 1.08
13.53 18.50 1.10
13.51 19.28 1.12
13.53 20.15 1.14
13.42 20.88 1.15
13.31 21.66 1.17
13.19 22.45 1.18
13.03 23.24 1.19
13.11 24.52 1.23
13.78 27.08 1.33
14.03 28.98 1.39
13.82 30.08 1.41
13.40 30.78 1.41
12.97 31.50 1.42
12.53 32.27 1.42
12.06 33.00 1.42
11.57 33.75 1.42
11.07 34.55 1.42
10.56 35.38 1.43
10.06 36.34 1.44
5.54 21.70 0.84
9.20 39.30 1.49
8.78 41.23 1.53
8.54 44.45 1.61
8.17 47.70 1.70
5.18 34.39 1.20
4.64 42.20 1.41
-13.74 45.74 0.99
-14.46 44.86 0.95
-12.88 37.36 0.78
-15.05 40.97 0.83
-15.12 38.76 0.77
-15.09 36.50 0.70
-14.94 34.17 0.64
-14.93 32.36 0.59
-12.16 25.02 0.45
-14.67 28.71 0.50
-14.62 27.26 0.46
-14.71 26.14 0.43
-14.95 25.37 0.41
-15.40 24.98 0.39
-15.74 24.41 0.37
-15.71 23.33 0.34
-15.65 22.26 0.32
-14.69 20.03 0.28
-14.50 18.96 0.25
-14.34 17.99 0.23
-14.27 17.18 0.21
-14.21 16.43 0.20
-14.11 15.67 0.18
-13.99 14.92 0.17
-13.88 14.22 0.15
-13.85 13.63 0.14
-13.75 13.00 0.13
-13.51 12.27 0.11
-13.54 11.81 0.11
-13.56 11.36 0.10
-13.56 10.91 0.09
-13.51 10.42 0.08
-13.46 9.96 0.07
-13.41 9.51 0.06
-6.94 4.72 0.03
-13.34 8.68 0.05
-13.34 8.30 0.04
-13.31 7.92 0.04
-13.27 7.54 0.03
-13.24 7.17 0.02
-13.21 6.82 0.02
-13.20 6.48 0.01
-13.15 6.14 0.01
-12.95 5.73 0.01
-12.76 5.34 0.00
-11.10 4.38 -0.00
-12.38 4.61 -0.00
-12.13 4.24 -0.01
-12.11 3.96 -0.01
-12.05 3.67 -0.01
-11.97 3.39 -0.02
-11.90 3.11 -0.02
-11.82 2.84 -0.02
-11.75 2.57 -0.02
-11.68 2.31 -0.02
-11.65 2.07 -0.03
-11.63 1.82 -0.03
-11.62 1.58 -0.03
-11.66 1.35 -0.03
-11.71 1.12 -0.03
-11.77 0.89 -0.03
-11.82 0.65 -0.03
-11.88 0.42 -0.03
-11.93 0.18 -0.03
-11.92 -0.06 -0.03
-11.98 -0.30 -0.04
-12.09 -0.55 -0.04
-12.20 -0.80 -0.04
-12.31 -1.05 -0.04
-12.42 -1.31 -0.04
-12.51 -1.58 -0.04
-12.52 -1.83 -0.04
-12.56 -2.10 -0.03
-12.63 -2.37 -0.03
-12.69 -2.65 -0.03
-12.76 -2.93 -0.03
-12.82 -3.22 -0.03
-12.91 -3.52 -0.03
-13.00 -3.82 -0.03
-13.06 -4.13 -0.03
-13.10 -4.43 -0.02
-13.14 -4.74 -0.02
-13.19 -5.06 -0.02
-13.23 -5.38 -0.02
-13.27 -5.71 -0.01
-13.31 -6.04 -0.01
-13.29 -6.36 -0.01
-13.28 -6.69 -0.00
-13.37 -7.07 -0.00
-13.46 -7.47 0.00
-13.56 -7.89 0.01
-13.59 -8.27 0.01
-13.65 -8.69 0.02
-13.74 -9.14 0.02
-13.82 -9.59 0.03
-13.87 -10.05 0.03
-13.79 -10.42 0.04
-13.69 -10.78 0.05
-13.59 -11.15 0.05
-13.48 -11.53 0.06
-13.38 -11.91 0.07
-13.31 -12.33 0.08
-13.22 -12.76 0.09
-13.11 -13.17 0.09
-13.00 -13.59 0.10
-12.88 -14.02 0.11
-12.79 -14.49 0.12
-12.72 -15.01 0.13
-12.70 -15.61 0.15
-12.66 -16.22 0.16
-12.58 -16.79 0.17
-12.48 -17.39 0.19
-12.38 -18.00 0.20
-12.34 -18.73 0.22
-12.29 -19.49 0.23
-12.20 -20.23 0.25
-12.05 -20.93 0.27
-11.90 -21.65 0.29
-11.73 -22.41 0.31
-10.46 -20.98 0.30
-10.12 -21.38 0.32
-11.17 -24.87 0.38
-11.00 -25.86 0.41
-10.90 -27.12 0.44
-10.81 -28.54 0.48
-10.58 -29.74 0.51
-10.40 -31.19 0.55
-10.71 -34.41 0.63
-10.32 -35.66 0.67
-9.96 -37.20 0.71
-9.70 -39.36 0.78
-10.22 -45.37 0.92
-9.68 -47.38 0.98
-4.99 -35.11 0.79
1.91 -49.55 2.49
2.87 -48.89 2.49
3.80 -48.23 2.49
4.21 -42.45 2.22
5.37 -44.96 2.39
6.19 -44.32 2.39
7.00 -43.67 2.39
2.87 -15.88 0.88
8.31 -41.20 2.32
5.08 -22.82 1.31
5.57 -22.82 1.33
11.24 -42.39 2.50
11.90 -41.49 2.49
7.54 -24.41 1.49
11.46 -34.64 2.15
11.73 -33.19 2.10
11.91 -31.69 2.04
12.42 -31.11 2.03
12.09 -28.61 1.90
11.30 -25.30 1.72
10.98 -23.33 1.61
10.91 -22.02 1.55
10.88 -20.89 1.50
11.04 -20.19 1.48
11.24 -19.61 1.46
6.48 -10.81 0.82
6.40 -10.20 0.79
6.71 -10.23 0.81
7.03 -10.26 0.83
12.32 -17.24 1.43
12.74 -17.08 1.45
13.06 -16.79 1.46
13.14 -16.21 1.44
13.21 -15.66 1.43
13.38 -15.22 1.42
13.85 -15.13 1.45
14.34 -15.04 1.48
14.83 -14.95 1.51
14.61 -14.15 1.46
13.57 -12.62 1.34
13.33 -11.91 1.30
13.11 -11.24 1.27
13.14 -10.82 1.26
13.35 -10.55 1.26
13.56 -10.28 1.27
13.76 -10.00 1.28
13.84 -9.64 1.27
13.87 -9.25 1.26
13.89 -8.87 1.25
13.97 -8.53 1.25
14.08 -8.21 1.25
14.40 -8.02 1.27
14.68 -7.79 1.29
14.88 -7.52 1.30
15.09 -7.25 1.31
15.01 -6.84 1.29
14.97 -6.46 1.28
15.00 -6.12 1.28
15.02 -5.78 1.27
15.04 -5.44 1.27
15.06 -5.11 1.27
15.07 -4.78 1.26
15.05 -4.44 1.26
15.01 -4.10 1.25
14.96 -3.76 1.24
14.91 -3.44 1.24
14.87 -3.11 1.23
14.68 -2.76 1.21
14.56 -2.44 1.20
14.51 -2.13 1.19
14.45 -1.83 1.19
14.40 -1.53 1.18
14.34 -1.23 1.18
14.29 -0.94 1.17
14.22 -0.65 1.16
14.10 -0.36 1.15
13.98 -0.07 1.14
13.86 0.21 1.14
6.31 0.22 0.52
6.31 0.35 0.52
6.30 0.48 0.52
6.30 0.60 0.52
6.30 0.73 0.52
6.29 0.86 0.52
6.29 0.99 0.52
13.01 2.31 1.08
12.91 2.56 1.07
12.81 2.81 1.07
12.71 3.06 1.06
12.60 3.30 1.06
12.51 3.55 1.06
12.42 3.80 1.05
12.33 4.04 1.05
12.25 4.29 1.05
12.16 4.53 1.04
12.07 4.78 1.04
11.98 5.02 1.04
11.89 5.27 1.04
11.82 5.53 1.04
11.76 5.79 1.04
11.69 6.05 1.04
11.63 6.32 1.04
11.57 6.59 1.05
11.50 6.86 1.05
11.44 7.14 1.05
11.37 7.42 1.06
11.32 7.71 1.06
11.31 8.04 1.07
11.36 8.43 1.09
11.41 8.83 1.10
11.46 9.24 1.12
11.47 9.64 1.13
11.62 10.17 1.16
11.74 10.70 1.19
11.85 11.24 1.22
11.99 11.84 1.25
12.13 12.48 1.28
12.25 13.11 1.31
12.30 13.71 1.34
12.35 14.33 1.37
12.43 15.02 1.40
12.50 15.75 1.44
12.48 16.38 1.46
12.83 17.56 1.53
12.78 18.26 1.56
12.77 19.04 1.59
12.73 19.84 1.63
12.60 20.53 1.65
12.43 21.20 1.67
12.26 21.90 1.69
12.10 22.67 1.72
11.91 23.44 1.74
11.85 24.52 1.79
12.15 26.49 1.90
13.06 30.05 2.12
12.61 30.69 2.13
12.08 31.17 2.12
11.54 31.65 2.12
11.06 32.34 2.13
10.60 33.14 2.15
10.04 33.70 2.15
9.60 34.76 2.19
5.52 21.67 1.34
8.56 36.69 2.24
8.06 37.95 2.28
7.71 40.29 2.39
7.14 41.85 2.45
5.16 34.39 1.98
6.30 48.64 2.77
4.61 42.21 2.37
3.01 43.72 2.39
2.15 44.27 2.39
1.28 44.82 2.39
0.38 45.37 2.39
-0.53 45.92 2.39
-1.54 48.46 2.49
-2.54 49.02 2.49
-3.57 49.57 2.49
-12.82 45.88 2.09
-13.26 44.03 1.99
-14.07 43.56 1.96
-12.90 37.34 1.66
-14.55 39.52 1.75
-14.44 36.94 1.62
-14.40 34.76 1.52
-14.49 33.09 1.44
-14.51 31.40 1.36
-12.17 25.01 1.07
-14.31 27.96 1.19
-14.33 26.68 1.13
-14.28 25.35 1.07
-14.70 24.90 1.05
-15.14 24.51 1.03
-15.26 23.64 0.99
-15.29 22.67 0.95
-14.27 20.27 0.85
-14.27 19.43 0.81
-14.05 18.35 0.77
-13.99 17.53 0.73
-13.94 16.76 0.70
-13.86 16.01 0.67
-13.77 15.27 0.64
-13.66 14.55 0.61
-13.60 13.92 0.59
-13.58 13.35 0.57
-13.47 12.73 0.54
-13.35 12.11 0.52
-13.38 11.66 0.50
-13.41 11.22 0.49
-13.41 10.77 0.47
-13.35 10.29 0.46
-13.31 9.84 0.44
-13.27 9.40 0.43
-6.94 4.71 0.22
-13.21 8.59 0.40
-13.20 8.21 0.39
-13.16 7.83 0.38
-13.13 7.45 0.37
-13.10 7.09 0.36
-13.07 6.74 0.35
-13.06 6.41 0.34
-12.98 6.05 0.33
-12.78 5.65 0.32
-12.60 5.27 0.31
-11.09 4.38 0.27
-12.15 4.52 0.29
-11.96 4.17 0.28
-11.95 3.90 0.27
-11.91 3.63 0.27
-11.84 3.35 0.26
-11.76 3.07 0.26
-11.69 2.81 0.25
-11.62 2.54 0.25
-11.56 2.29 0.24
-11.53 2.04 0.24
-11.52 1.80 0.24
-11.51 1.57 0.23
-11.52 1.33 0.23
-11.57 1.11 0.23
-11.62 0.88 0.23
-11.68 0.64 0.23
-11.73 0.41 0.23
-11.79 0.18 0.23
-11.77 -0.06 0.23
-11.75 -0.29 0.23
-11.85 -0.54 0.23
-11.96 -0.78 0.23
-12.07 -1.03 0.24
-12.19 -1.29 0.24
-12.29 -1.55 0.24
-12.35 -1.81 0.25
-12.39 -2.07 0.25
-12.45 -2.34 0.25
-12.52 -2.61 0.26
-12.58 -2.89 0.26
-12.64 -3.17 0.26
-12.72 -3.46 0.27
-12.80 -3.76 0.27
-12.87 -4.06 0.28
-12.91 -4.36 0.28
-12.95 -4.67 0.29
-12.99 -4.98 0.29
-13.02 -5.29 0.30
-13.06 -5.62 0.31
-13.10 -5.95 0.31
-13.10 -6.26 0.32
-13.08 -6.58 0.33
-13.07 -6.91 0.33
-13.16 -7.30 0.34
-13.25 -7.70 0.35
-13.32 -8.10 0.36
-13.30 -8.46 0.37
-13.33 -8.86 0.38
-13.41 -9.30 0.40
-13.49 -9.76 0.41
-13.54 -10.23 0.42
-13.47 -10.60 0.43
-13.36 -10.96 0.44
-13.26 -11.32 0.45
-13.15 -11.70 0.46
-13.04 -12.08 0.48
-13.01 -12.54 0.49
-12.93 -12.98 0.51
-12.82 -13.39 0.52
-12.70 -13.81 0.53
-12.59 -14.25 0.55
-12.51 -14.75 0.57
-12.43 -15.27 0.59
-12.40 -15.87 0.61
-12.34 -16.46 0.63
-12.25 -17.03 0.66
-12.15 -17.63 0.68
-12.05 -18.27 0.70
-12.02 -19.04 0.74
-11.96 -19.82 0.77
-11.84 -20.53 0.80
-11.68 -21.23 0.83
-11.52 -21.96 0.86
-10.47 -20.97 0.83
-10.14 -21.37 0.85
-10.85 -24.11 0.96
-10.66 -25.02 1.01
-10.45 -25.95 1.05
-10.35 -27.29 1.11
-10.25 -28.74 1.18
-10.01 -29.96 1.24
-9.83 -31.51 1.32
-10.03 -34.55 1.46
-9.64 -35.89 1.53
-9.32 -37.70 1.62
-9.13 -40.41 1.75
-9.35 -45.60 1.99
-8.76 -47.57 2.10
-5.01 -35.04 1.58
-0.08 -34.81 2.49
0.61 -34.50 2.49
1.29 -34.18 2.49
1.96 -33.86 2.49
2.62 -33.53 2.49
3.18 -32.35 2.43
3.74 -31.48 2.39
4.33 -31.14 2.39
4.91 -30.79 2.39
2.86 -15.89 1.25
6.05 -30.08 2.39
5.07 -22.84 1.84
5.55 -22.80 1.86
8.68 -32.81 2.71
9.80 -34.24 2.86
7.52 -24.41 2.07
10.02 -30.36 2.61
10.19 -28.91 2.52
10.21 -27.22 2.41
10.36 -26.01 2.33
10.37 -24.59 2.24
10.26 -23.02 2.13
10.22 -21.75 2.05
10.20 -20.63 1.97
10.30 -19.81 1.93
10.47 -19.19 1.90
10.56 -18.47 1.86
6.53 -10.90 1.12
6.39 -10.20 1.07
6.70 -10.23 1.09
7.02 -10.26 1.11
11.12 -15.57 1.72
11.34 -15.23 1.72
11.56 -14.89 1.72
11.83 -14.62 1.72
12.09 -14.34 1.73
12.22 -13.92 1.72
12.29 -13.44 1.70
12.35 -12.97 1.68
12.44 -12.55 1.66
12.31 -11.93 1.62
12.19 -11.35 1.58
12.11 -10.82 1.55
12.17 -10.45 1.54
12.28 -10.12 1.53
12.41 -9.81 1.53
12.53 -9.51 1.53
12.66 -9.21 1.53
12.82 -8.94 1.53
12.90 -8.61 1.53
13.00 -8.31 1.52
13.10 -8.01 1.52
13.20 -7.71 1.52
13.35 -7.44 1.53
13.65 -7.25 1.55
13.95 -7.05 1.57
14.26 -6.85 1.59
14.53 -6.63 1.61
14.56 -6.29 1.61
14.58 -5.95 1.60
14.61 -5.62 1.60
14.63 -5.30 1.59
14.66 -4.98 1.59
14.67 -4.65 1.58
14.63 -4.32 1.57
14.59 -3.99 1.56
14.55 -3.66 1.55
14.51 -3.35 1.54
14.47 -3.03 1.53
14.42 -2.72 1.52
14.34 -2.41 1.51
14.25 -2.10 1.50
14.14 -1.79 1.48
14.03 -1.49 1.47
13.92 -1.20 1.46
13.81 -0.91 1.45
13.71 -0.62 1.43
13.65 -0.35 1.43
13.60 -0.07 1.42
13.49 0.20 1.41
6.31 0.22 0.66
6.31 0.35 0.66
6.30 0.48 0.66
6.30 0.60 0.66
6.30 0.73 0.66
6.29 0.86 0.66
6.29 0.99 0.67
12.68 2.25 1.34
12.59 2.50 1.34
12.50 2.75 1.33
12.41 2.99 1.33
12.31 3.23 1.32
12.22 3.47 1.32
12.13 3.71 1.32
12.05 3.95 1.31
11.96 4.19 1.31
11.87 4.43 1.31
11.79 4.67 1.31
11.70 4.91 1.30
11.61 5.15 1.30
11.52 5.39 1.30
11.47 5.65 1.31
11.41 5.91 1.31
11.35 6.17 1.31
11.28 6.43 1.32
11.22 6.70 1.32
11.15 6.96 1.32
11.08 7.24 1.33
11.02 7.52 1.34
10.97 7.81 1.34
10.92 8.11 1.35
10.91 8.45 1.37
10.95 8.84 1.39
10.99 9.24 1.41
10.99 9.62 1.43
10.95 9.99 1.45
11.02 10.46 1.48
11.18 11.05 1.52
11.27 11.60 1.56
11.58 12.41 1.63
11.71 13.07 1.68
11.78 13.69 1.72
11.82 14.30 1.75
11.85 14.94 1.79
11.91 15.65 1.84
11.87 16.26 1.87
11.82 16.91 1.91
11.92 17.79 1.97
11.81 18.43 2.01
11.70 19.09 2.04
11.62 19.84 2.08
11.50 20.57 2.12
11.37 21.33 2.16
11.19 22.05 2.20
10.99 22.79 2.24
10.78 23.53 2.27
10.68 24.62 2.34
10.57 25.78 2.42
10.18 26.32 2.43
10.12 27.81 2.53
9.63 28.22 2.54
9.13 28.63 2.54
8.65 29.12 2.55
8.25 29.95 2.59
5.50 21.64 1.85
7.47 32.10 2.70
7.04 33.30 2.77
6.52 34.17 2.81
5.80 34.16 2.78
4.86 32.53 2.62
3.87 30.00 2.39
3.29 30.31 2.39
2.70 30.61 2.39
2.10 30.91 2.39
1.50 31.19 2.39
0.88 31.47 2.39
0.25 31.75 2.39
-0.41 33.40 2.49
-1.09 33.66 2.49
-1.78 33.92 2.49
-2.48 34.17 2.49
-3.19 34.41 2.49
-3.92 34.64 2.49
-4.65 34.86 2.49
-5.40 35.07 2.49
-6.16 35.27 2.49
-6.92 35.45 2.49
-7.70 35.63 2.49
-8.14 34.31 2.39
-8.91 34.45 2.39
-9.69 34.58 2.39
-10.47 34.70 2.39
-11.27 34.80 2.39
-12.08 34.89 2.39
-13.24 35.90 2.45
-13.57 34.64 2.36
-13.96 33.63 2.29
-14.06 32.03 2.18
-14.02 30.30 2.06
-12.18 24.99 1.70
-13.95 27.21 1.85
-13.96 25.94 1.77
-14.01 24.83 1.70
-14.44 24.44 1.67
-14.43 23.34 1.60
-14.48 22.41 1.54
-14.07 20.83 1.44
-13.86 19.67 1.37
-13.82 18.79 1.31
-13.71 17.88 1.25
-13.66 17.10 1.21
-13.62 16.36 1.16
-13.53 15.60 1.12
-13.44 14.89 1.08
-13.36 14.22 1.04
-13.34 13.63 1.01
-13.31 13.08 0.98
-13.21 12.47 0.94
-13.19 11.95 0.91
-13.22 11.51 0.89
-13.25 11.08 0.87
-13.26 10.64 0.85
-13.21 10.17 0.83
-13.17 9.73 0.81
-13.13 9.30 0.79
-6.94 4.71 0.41
-13.07 8.49 0.75
-13.06 8.11 0.73
-13.03 7.74 0.72
-13.00 7.37 0.70
-12.97 7.02 0.69
-12.94 6.67 0.68
-12.93 6.34 0.66
-12.80 5.96 0.65
-12.62 5.57 0.63
-12.41 5.18 0.61
-11.08 4.37 0.54
-11.93 4.43 0.57
-11.80 4.11 0.56
-11.79 3.85 0.55
-11.78 3.58 0.54
-11.70 3.31 0.53
-11.63 3.04 0.52
-11.57 2.77 0.52
-11.50 2.52 0.51
-11.43 2.26 0.50
-11.41 2.02 0.50
-11.40 1.78 0.49
-11.39 1.55 0.49
-11.38 1.32 0.49
-11.43 1.09 0.49
-11.48 0.86 0.49
-11.54 0.64 0.49
-11.59 0.41 0.49
-11.64 0.17 0.49
-11.62 -0.06 0.49
-11.60 -0.29 0.49
-11.62 -0.53 0.49
-11.73 -0.77 0.50
-11.84 -1.01 0.50
-11.95 -1.26 0.51
-12.06 -1.52 0.51
-12.17 -1.78 0.52
-12.23 -2.04 0.52
-12.29 -2.30 0.53
-12.35 -2.57 0.54
-12.41 -2.85 0.54
-12.47 -3.12 0.55
-12.53 -3.41 0.56
-12.61 -3.70 0.56
-12.68 -4.00 0.57
-12.72 -4.30 0.58
-12.76 -4.59 0.59
-12.79 -4.90 0.60
-12.83 -5.21 0.61
-12.86 -5.53 0.62
-12.90 -5.85 0.63
-12.91 -6.17 0.64
-12.89 -6.48 0.65
-12.87 -6.80 0.65
-12.86 -7.13 0.67
-12.95 -7.52 0.68
-13.03 -7.92 0.70
-13.04 -8.29 0.71
-13.01 -8.64 0.73
-13.02 -9.03 0.74
-13.09 -9.47 0.76
-13.16 -9.93 0.78
-13.18 -10.36 0.80
-13.15 -10.77 0.82
-13.04 -11.13 0.83
-12.93 -11.49 0.85
-12.82 -11.86 0.86
-12.75 -12.27 0.88
-12.71 -12.74 0.90
-12.64 -13.19 0.92
-12.52 -13.60 0.94
-12.40 -14.03 0.96
-12.31 -14.50 0.99
-12.23 -15.00 1.01
-12.15 -15.52 1.04
-12.11 -16.13 1.07
-12.01 -16.69 1.11
-11.91 -17.27 1.14
-11.81 -17.88 1.17
-11.74 -18.57 1.21
-11.70 -19.36 1.26
-11.63 -20.14 1.31
-11.47 -20.82 1.35
-11.31 -21.53 1.40
-10.48 -20.96 1.36
-10.15 -21.36 1.38
-10.56 -23.43 1.52
-10.27 -24.05 1.56
-10.13 -25.11 1.63
-9.90 -26.04 1.69
-9.81 -27.46 1.79
-9.68 -28.89 1.88
-9.44 -30.18 1.97
-9.26 -31.83 2.09
-9.26 -34.39 2.27
-8.95 -36.11 2.39
-8.15 -35.95 2.39
-7.36 -35.77 2.39
-6.58 -35.58 2.39
-5.81 -35.38 2.39
-5.03 -35.02 2.38
-4.49 -36.45 2.49
-3.73 -36.20 2.49
-2.97 -35.94 2.49
-2.23 -35.67 2.49
-1.50 -35.39 2.49
-0.78 -35.11 2.49
-0.08 -26.44 2.49
0.45 -26.26 2.49
0.97 -26.07 2.49
1.48 -25.88 2.49
1.99 -25.68 2.49
2.49 -25.46 2.49
2.85 -24.20 2.39
3.32 -23.99 2.39
3.78 -23.76 2.39
2.85 -15.87 1.61
4.67 -23.30 2.39
5.10 -23.06 2.39
5.53 -22.81 2.39
5.95 -22.56 2.39
6.36 -22.30 2.39
7.38 -24.02 2.61
7.96 -24.17 2.65
8.61 -24.46 2.72
9.31 -24.87 2.80
9.54 -24.00 2.74
9.59 -22.77 2.64
9.56 -21.49 2.52
9.56 -20.37 2.43
9.60 -19.45 2.35
9.75 -18.78 2.31
9.84 -18.06 2.25
9.93 -17.39 2.21
10.02 -16.75 2.16
6.38 -10.20 1.34
6.69 -10.23 1.37
7.01 -10.25 1.40
10.38 -14.55 2.02
10.54 -14.16 2.00
10.69 -13.78 1.99
10.86 -13.44 1.98
11.08 -13.15 1.98
11.18 -12.74 1.96
11.28 -12.35 1.94
11.39 -11.98 1.92
11.45 -11.57 1.90
11.37 -11.03 1.86
11.40 -10.63 1.84
11.47 -10.27 1.82
11.54 -9.92 1.81
11.65 -9.61 1.80
11.77 -9.32 1.80
11.89 -9.03 1.79
11.98 -8.72 1.78
12.03 -8.39 1.77
12.12 -8.10 1.77
12.22 -7.82 1.76
12.33 -7.54 1.76
12.43 -7.26 1.76
12.53 -6.99 1.76
12.69 -6.75 1.77
12.82 -6.49 1.77
12.95 -6.23 1.78
13.08 -5.97 1.78
13.20 -5.71 1.79
13.33 -5.45 1.79
13.47 -5.19 1.80
13.61 -4.93 1.81
13.75 -4.67 1.82
13.97 -4.43 1.84
14.03 -4.15 1.84
13.97 -3.82 1.82
13.91 -3.51 1.81
13.85 -3.20 1.80
13.79 -2.89 1.78
13.75 -2.59 1.77
13.75 -2.31 1.77
13.73 -2.02 1.76
13.63 -1.73 1.74
13.53 -1.44 1.73
13.43 -1.16 1.71
13.33 -0.88 1.70
13.24 -0.60 1.69
13.19 -0.33 1.68
13.14 -0.07 1.67
13.08 0.19 1.67
6.31 0.22 0.80
6.30 0.35 0.80
6.30 0.48 0.81
6.30 0.60 0.81
6.29 0.73 0.81
6.29 0.86 0.81
6.29 0.99 0.81
12.37 2.20 1.60
12.28 2.44 1.59
12.19 2.68 1.59
12.11 2.92 1.58
12.02 3.15 1.58
11.92 3.39 1.57
11.86 3.63 1.57
11.77 3.86 1.57
11.68 4.10 1.56
11.60 4.33 1.56
11.51 4.56 1.56
11.43 4.80 1.56
11.34 5.03 1.56
11.25 5.27 1.56
11.18 5.51 1.56
11.13 5.77 1.56
11.07 6.02 1.57
11.01 6.28 1.57
10.94 6.54 1.58
10.88 6.80 1.58
10.81 7.06 1.59
10.74 7.33 1.60
10.68 7.61 1.61
10.63 7.90 1.62
10.57 8.19 1.63
10.52 8.49 1.64
10.51 8.84 1.66
10.54 9.24 1.69
10.53 9.61 1.72
10.48 9.96 1.73
10.44 10.33 1.76
10.43 10.74 1.78
10.56 11.33 1.84
10.53 11.76 1.87
10.46 12.17 1.89
10.39 12.58 1.91
10.78 13.61 2.03
10.65 14.01 2.05
10.50 14.41 2.07
10.89 15.59 2.19
10.66 15.94 2.20
10.43 16.29 2.21
10.19 16.64 2.22
9.97 17.04 2.24
9.75 17.46 2.26
9.45 17.75 2.26
9.21 18.17 2.28
9.06 18.80 2.32
8.89 19.46 2.37
8.92 20.60 2.47
9.54 23.30 2.76
9.33 24.17 2.82
9.15 25.18 2.90
8.83 25.91 2.95
8.37 26.30 2.96
7.91 26.70 2.97
7.44 27.10 2.98
5.47 21.62 2.35
6.27 27.05 2.91
5.27 25.01 2.66
4.31 22.67 2.39
3.87 22.89 2.39
3.43 23.10 2.39
2.99 23.31 2.39
2.53 23.51 2.39
2.07 23.70 2.39
1.61 23.88 2.39
1.14 24.06 2.39
0.66 24.23 2.39
0.18 25.45 2.49
-0.33 25.61 2.49
-0.85 25.77 2.49
-1.38 25.91 2.49
-1.91 26.05 2.49
-2.45 26.18 2.49
-2.99 26.30 2.49
-3.54 26.41 2.49
-4.10 26.51 2.49
-4.66 26.61 2.49
-5.23 26.69 2.49
-5.80 26.76 2.49
-6.38 26.82 2.49
-6.97 26.87 2.49
-7.56 26.91 2.49
-7.81 25.82 2.39
-8.39 25.84 2.39
-8.97 25.84 2.39
-9.55 25.84 2.39
-10.13 25.82 2.39
-10.72 25.79 2.39
-11.32 25.74 2.39
-13.70 29.55 2.75
-12.19 24.97 2.33
-13.62 26.54 2.48
-13.56 25.16 2.36
-13.65 24.16 2.28
-13.66 23.09 2.19
-13.68 22.09 2.10
-13.63 21.06 2.02
-13.46 19.90 1.92
-13.48 19.10 1.86
-13.42 18.24 1.79
-13.38 17.44 1.72
-13.34 16.68 1.66
-13.28 15.94 1.60
-13.20 15.22 1.55
-13.13 14.53 1.49
-13.09 13.92 1.45
-13.08 13.36 1.41
-13.06 12.82 1.37
-13.00 12.25 1.33
-13.03 11.80 1.30
-13.07 11.36 1.27
-13.10 10.94 1.25
-13.11 10.51 1.22
-13.07 10.05 1.19
-13.03 9.61 1.16
-12.99 9.19 1.14
-6.95 4.71 0.60
-12.94 8.39 1.09
-12.92 8.02 1.07
-12.89 7.65 1.05
-12.86 7.29 1.03
-12.84 6.94 1.01
-12.81 6.60 0.99
-12.80 6.27 0.98
-12.63 5.88 0.95
-12.43 5.48 0.92
-12.18 5.08 0.89
-11.07 4.36 0.80
-11.71 4.35 0.84
-11.64 4.06 0.83
-11.63 3.79 0.82
-11.63 3.54 0.81
-11.58 3.27 0.80
-11.51 3.00 0.79
-11.44 2.74 0.78
-11.38 2.49 0.77
-11.31 2.24 0.76
-11.30 2.00 0.75
-11.29 1.77 0.75
-11.28 1.53 0.74
-11.27 1.30 0.74
-11.30 1.08 0.74
-11.35 0.85 0.74
-11.40 0.63 0.74
-11.45 0.40 0.74
-11.50 0.17 0.75
-11.48 -0.06 0.74
-11.46 -0.29 0.74
-11.44 -0.52 0.74
-11.50 -0.75 0.75
-11.61 -0.99 0.75
-11.71 -1.24 0.76
-11.82 -1.49 0.77
-11.93 -1.74 0.78
-11.98 -2.00 0.79
-12.12 -2.27 0.80
-12.18 -2.54 0.81
-12.24 -2.81 0.82
-12.30 -3.08 0.83
-12.36 -3.36 0.84
-12.42 -3.65 0.85
-12.50 -3.94 0.86
-12.54 -4.23 0.87
-12.57 -4.52 0.88
-12.60 -4.82 0.89
-12.64 -5.13 0.91
-12.67 -5.44 0.92
-12.71 -5.76 0.93
-12.72 -6.08 0.95
-12.70 -6.38 0.96
-12.68 -6.69 0.97
-12.66 -7.01 0.98
-12.66 -7.35 1.00
-12.74 -7.74 1.02
-12.79 -8.12 1.04
-12.76 -8.47 1.06
-12.73 -8.82 1.07
-12.71 -9.19 1.09
-12.77 -9.63 1.12
-12.83 -10.08 1.15
-12.82 -10.50 1.17
-12.82 -10.93 1.20
-12.72 -11.30 1.22
-12.61 -11.66 1.24
-12.50 -12.03 1.25
-12.45 -12.47 1.28
-12.41 -12.94 1.31
-12.35 -13.41 1.34
-12.23 -13.82 1.37
-12.12 -14.26 1.39
-12.04 -14.75 1.43
-11.95 -15.25 1.46
-11.86 -15.78 1.50
-11.79 -16.36 1.54
-11.69 -16.92 1.58
-11.58 -17.51 1.62
-11.47 -18.12 1.67
-11.42 -18.87 1.73
-11.38 -19.67 1.79
-11.27 -20.43 1.85
-11.03 -20.96 1.89
-10.49 -20.95 1.89
-10.16 -21.35 1.92
-10.24 -22.69 2.03
-10.00 -23.38 2.09
-9.70 -24.00 2.14
-9.53 -25.03 2.23
-9.35 -26.11 2.33
-9.00 -26.81 2.39
-8.40 -26.80 2.39
-7.81 -26.78 2.39
-7.22 -26.74 2.39
-6.64 -26.70 2.39
-6.06 -26.64 2.39
-5.48 -26.57 2.39
-5.11 -27.53 2.48
-4.54 -27.54 2.49
-3.96 -27.44 2.49
-3.39 -27.33 2.49
-2.82 -27.20 2.49
-2.26 -27.07 2.49
-1.70 -26.92 2.49
-1.15 -26.77 2.49
-0.61 -26.61 2.49
-0.08 -21.30 2.49
0.35 -21.18 2.49
0.77 -21.06 2.49
1.18 -20.93 2.49
1.59 -20.79 2.49
2.00 -20.64 2.49
2.40 -20.49 2.49
2.68 -19.49 2.39
3.06 -19.33 2.39
2.84 -15.87 1.98
3.79 -19.00 2.39
4.15 -18.82 2.39
4.51 -18.64 2.39
4.85 -18.45 2.39
5.20 -18.26 2.39
5.54 -18.07 2.39
5.87 -17.86 2.39
6.20 -17.66 2.39
7.09 -18.97 2.60
7.49 -18.88 2.62
7.89 -18.78 2.64
8.29 -18.68 2.66
8.72 -18.62 2.69
9.05 -18.35 2.69
9.16 -17.67 2.62
9.27 -17.03 2.57
9.37 -16.43 2.52
9.47 -15.85 2.47
6.37 -10.19 1.61
6.68 -10.22 1.64
7.00 -10.25 1.68
9.84 -13.82 2.30
10.00 -13.46 2.29
10.15 -13.10 2.27
10.25 -12.70 2.24
10.34 -12.29 2.21
10.43 -11.90 2.19
10.51 -11.52 2.17
10.59 -11.15 2.14
10.67 -10.79 2.12
10.75 -10.44 2.10
10.83 -10.10 2.08
10.90 -9.77 2.07
10.97 -9.44 2.05
11.07 -9.14 2.04
11.18 -8.86 2.03
11.24 -8.55 2.02
11.30 -8.23 2.00
11.35 -7.93 1.99
11.41 -7.64 1.98
11.52 -7.37 1.98
11.62 -7.11 1.97
11.71 -6.85 1.97
11.82 -6.60 1.97
11.93 -6.35 1.97
12.00 -6.08 1.97
12.07 -5.81 1.96
12.13 -5.54 1.96
12.19 -5.27 1.95
12.24 -5.01 1.95
12.30 -4.74 1.95
12.42 -4.50 1.95
12.60 -4.29 1.97
12.79 -4.06 1.99
12.98 -3.84 2.01
13.18 -3.61 2.03
13.18 -3.33 2.03
13.13 -3.03 2.01
13.08 -2.74 2.00
13.08 -2.47 1.99
13.08 -2.20 1.99
13.09 -1.93 1.98
13.10 -1.66 1.98
13.06 -1.39 1.97
12.97 -1.12 1.95
12.88 -0.85 1.94
12.80 -0.58 1.93
12.75 -0.32 1.92
12.70 -0.07 1.91
12.65 0.19 1.90
6.31 0.22 0.95
6.30 0.35 0.95
6.30 0.48 0.95
6.30 0.60 0.95
6.29 0.73 0.95
6.29 0.86 0.95
6.29 0.99 0.96
12.06 2.15 1.84
11.95 2.38 1.83
11.85 2.60 1.82
11.74 2.83 1.81
11.63 3.05 1.80
11.52 3.27 1.79
11.49 3.52 1.80
11.48 3.77 1.80
11.42 4.01 1.81
11.33 4.23 1.80
11.25 4.46 1.80
11.17 4.69 1.80
11.08 4.92 1.80
10.99 5.15 1.80
10.91 5.38 1.80
10.86 5.63 1.81
10.80 5.88 1.81
10.74 6.13 1.82
10.68 6.38 1.83
10.61 6.64 1.83
10.55 6.90 1.84
10.48 7.16 1.85
10.41 7.42 1.86
10.36 7.70 1.87
10.30 7.99 1.89
10.24 8.28 1.90
10.18 8.57 1.92
10.11 8.87 1.93
10.10 9.23 1.96
10.08 9.59 1.99
10.04 9.94 2.01
9.99 10.30 2.04
9.93 10.66 2.06
9.88 11.04 2.09
9.89 11.52 2.14
9.82 11.90 2.16
9.74 12.30 2.19
9.65 12.71 2.22
9.56 13.13 2.25
9.46 13.56 2.29
9.32 13.96 2.31
9.19 14.37 2.34
9.04 14.78 2.37
8.89 15.22 2.40
8.72 15.64 2.43
8.54 16.07 2.46
8.36 16.52 2.49
8.18 17.00 2.53
8.02 17.58 2.58
8.03 18.57 2.69
7.85 19.22 2.75
7.67 19.89 2.81
7.47 20.62 2.88
7.31 21.51 2.97
7.04 22.15 3.02
6.15 20.80 2.81
5.37 19.59 2.62
4.56 18.07 2.39
4.22 18.25 2.39
3.87 18.42 2.39
3.52 18.58 2.39
3.16 18.74 2.39
2.79 18.89 2.39
2.43 19.04 2.39
2.05 19.18 2.39
1.68 19.32 2.39
1.30 19.45 2.39
0.91 19.57 2.39
0.54 20.53 2.49
0.13 20.65 2.49
-0.28 20.76 2.49
-0.70 20.86 2.49
-1.13 20.95 2.49
-1.56 21.03 2.49
-1.99 21.11 2.49
-2.43 21.18 2.49
-2.87 21.24 2.49
-3.31 21.30 2.49
-3.76 21.34 2.49
-4.21 21.38 2.49
-4.66 21.41 2.49
-5.12 21.43 2.49
-5.57 21.44 2.49
-6.04 21.44 2.49
-6.50 21.43 2.49
-6.97 21.41 2.49
-7.44 21.39 2.49
-7.58 20.47 2.39
-8.03 20.42 2.39
-8.49 20.37 2.39
-8.94 20.31 2.39
-9.40 20.23 2.39
-9.86 20.15 2.39
-10.31 20.06 2.39
-10.77 19.96 2.39
-11.23 19.84 2.39
-12.40 20.93 2.54
-12.53 20.20 2.46
-12.73 19.64 2.41
-12.91 19.07 2.36
-13.08 18.51 2.31
-13.10 17.78 2.24
-13.07 17.01 2.17
-13.04 16.28 2.10
-12.90 15.47 2.01
-12.77 14.70 1.94
-12.72 14.07 1.88
-12.74 13.53 1.83
-12.76 13.02 1.79
-12.78 12.52 1.75
-12.84 12.09 1.71
-12.88 11.65 1.68
-12.92 11.22 1.65
-12.95 10.81 1.62
-12.97 10.38 1.58
-12.93 9.94 1.55
-12.89 9.51 1.51
-12.86 9.09 1.48
-6.95 4.70 0.79
-12.80 8.30 1.42
-12.78 7.93 1.40
-12.76 7.56 1.37
-12.73 7.21 1.35
-12.71 6.86 1.33
-12.68 6.52 1.31
-12.65 6.19 1.29
-12.44 5.78 1.25
-12.19 5.37 1.21
-11.95 4.98 1.17
-11.06 4.35 1.07
-11.50 4.27 1.10
-11.49 4.00 1.09
-11.48 3.74 1.08
-11.48 3.49 1.07
-11.45 3.23 1.06
-11.38 2.97 1.05
-11.32 2.71 1.03
-11.26 2.46 1.02
-11.20 2.21 1.01
-11.19 1.98 1.00
-11.18 1.75 1.00
-11.17 1.52 0.99
-11.16 1.29 0.99
-11.16 1.06 0.98
-11.21 0.84 0.99
-11.26 0.62 0.99
-11.31 0.39 0.99
-11.36 0.17 0.99
-11.34 -0.06 0.99
-11.32 -0.28 0.99
-11.30 -0.51 0.99
-11.29 -0.74 0.99
-11.38 -0.97 1.00
-11.48 -1.21 1.01
-11.59 -1.46 1.02
-11.69 -1.71 1.03
-11.75 -1.96 1.04
-11.75 -2.20 1.05
-11.88 -2.47 1.06
-12.03 -2.76 1.08
-12.13 -3.04 1.10
-12.19 -3.31 1.11
-12.25 -3.59 1.13
-12.32 -3.88 1.14
-12.36 -4.17 1.15
-12.39 -4.46 1.17
-12.42 -4.75 1.18
-12.45 -5.05 1.20
-12.48 -5.36 1.21
-12.51 -5.67 1.23
-12.54 -5.99 1.25
-12.52 -6.29 1.26
-12.50 -6.59 1.28
-12.48 -6.90 1.29
-12.45 -7.22 1.31
-12.46 -7.56 1.33
-12.53 -7.95 1.36
-12.52 -8.30 1.38
-12.49 -8.64 1.40
-12.45 -8.99 1.42
-12.42 -9.35 1.44
-12.46 -9.78 1.47
-12.49 -10.21 1.51
-12.47 -10.63 1.54
-12.46 -11.05 1.57
-12.41 -11.46 1.60
-12.30 -11.82 1.62
-12.21 -12.21 1.65
-12.16 -12.67 1.68
-12.12 -13.14 1.72
-12.07 -13.62 1.76
-11.94 -14.03 1.79
-11.85 -14.50 1.83
-11.76 -14.99 1.87
-11.66 -15.50 1.91
-11.57 -16.03 1.96
-11.47 -16.59 2.01
-11.29 -17.05 2.05
-11.06 -17.44 2.08
-10.81 -17.84 2.11
-10.68 -18.45 2.17
-10.63 -19.25 2.25
-10.54 -20.01 2.32
-10.36 -20.66 2.39
-10.13 -21.26 2.44
-9.44 -20.87 2.39
-8.97 -20.94 2.39
-8.50 -21.00 2.39
-8.03 -21.05 2.39
-7.57 -21.09 2.39
-7.11 -21.13 2.39
-6.64 -21.15 2.39
-6.19 -21.16 2.39
-5.73 -21.16 2.39
-5.40 -21.64 2.44
-5.03 -22.05 2.49
-4.56 -22.03 2.49
-4.10 -21.99 2.49
-3.64 -21.95 2.49
-3.18 -21.90 2.49
-2.72 -21.84 2.49
-2.27 -21.77 2.49
-1.82 -21.69 2.49
-1.38 -21.60 2.49
-0.94 -21.51 2.49
-0.51 -21.41 2.49
-0.08 -17.82 2.49
0.28 -17.73 2.49
0.63 -17.64 2.49
0.98 -17.55 2.49
1.33 -17.45 2.49
1.67 -17.34 2.49
2.01 -17.23 2.49
2.34 -17.11 2.49
2.56 -16.28 2.39
2.83 -15.89 2.35
3.19 -16.02 2.39
3.49 -15.89 2.39
3.79 -15.75 2.39
4.09 -15.60 2.39
4.39 -15.45 2.39
4.68 -15.30 2.39
4.96 -15.14 2.39
5.24 -14.97 2.39
