ply
format ascii 1.0
element vertex 2935
property float32 x
property float32 y
property float32 z
end_header
-12.76 1.99 1.82
-12.75 1.73 1.82
-12.73 1.47 1.81
-12.71 1.21 1.80
-12.69 0.95 1.79
-12.67 0.69 1.79
-12.66 0.44 1.78
-12.66 0.18 1.78
-5.95 -0.03 0.84
-12.69 -0.32 1.78
-12.88 -0.59 1.81
-13.08 -0.86 1.84
-13.28 -1.14 1.87
-13.48 -1.43 1.90
-13.42 -1.70 1.90
-13.31 -1.96 1.89
-13.21 -2.21 1.88
-13.11 -2.47 1.87
-13.00 -2.72 1.86
-12.90 -2.97 1.85
-12.79 -3.22 1.84
-12.69 -3.46 1.84
-12.66 -3.73 1.84
-12.63 -4.00 1.85
-12.61 -4.27 1.86
-12.77 -4.61 1.89
-13.00 -4.99 1.94
-13.24 -5.39 1.99
-13.31 -5.73 2.02
-13.32 -6.06 2.04
-13.33 -6.39 2.06
-13.34 -6.73 2.08
-13.34 -7.07 2.10
-13.34 -7.41 2.12
-13.26 -7.72 2.13
-13.08 -7.97 2.13
-12.89 -8.21 2.12
-12.70 -8.46 2.12
-12.51 -8.70 2.12
-12.32 -8.94 2.11
-12.13 -9.18 2.11
-11.94 -9.41 2.11
-11.79 -9.68 2.12
-11.72 -10.03 2.14
-11.65 -10.38 2.16
-11.57 -10.74 2.19
-11.49 -11.10 2.22
-11.41 -11.48 2.24
-11.33 -11.85 2.27
-11.20 -12.20 2.30
-11.04 -12.53 2.31
-10.88 -12.85 2.33
-5.98 -7.36 1.31
-10.53 -13.50 2.37
-10.34 -13.83 2.39
-10.15 -14.15 2.41
-9.95 -14.48 2.43
-9.50 -14.44 2.39
-9.21 -14.63 2.39
-8.92 -14.81 2.39
-8.62 -14.99 2.39
-8.32 -15.16 2.39
-8.01 -15.32 2.39
-7.70 -15.48 2.39
-7.39 -15.63 2.39
-7.08 -15.78 2.39
-6.76 -15.92 2.39
-6.44 -16.05 2.39
-6.11 -16.18 2.39
-5.79 -16.30 2.39
-5.47 -16.46 2.40
-5.35 -17.23 2.49
-5.00 -17.33 2.49
-4.65 -17.43 2.49
-4.30 -17.52 2.49
-3.95 -17.60 2.49
-3.60 -17.67 2.49
-3.24 -17.74 2.49
-2.89 -17.80 2.49
-2.53 -17.85 2.49
-2.17 -17.90 2.49
-1.81 -17.94 2.49
-1.45 -17.97 2.49
-1.09 -17.99 2.49
-0.73 -18.01 2.49
-0.36 -18.01 2.49
-0.00 -15.45 2.49
0.31 -15.44 2.49
0.62 -15.43 2.49
0.93 -15.41 2.49
1.23 -15.39 2.49
1.54 -15.36 2.49
1.85 -15.32 2.49
2.16 -15.28 2.49
2.46 -15.23 2.49
2.65 -14.54 2.39
2.94 -14.48 2.39
3.23 -14.42 2.39
3.52 -14.35 2.39
3.81 -14.27 2.39
4.09 -14.19 2.39
4.37 -14.10 2.39
4.65 -14.01 2.39
4.93 -13.91 2.39
5.21 -13.80 2.39
5.48 -13.69 2.39
4.63 -10.91 1.92
4.79 -10.70 1.90
4.93 -10.44 1.87
4.95 -9.96 1.80
5.09 -9.75 1.79
4.71 -8.59 1.59
4.74 -8.25 1.55
4.77 -7.93 1.50
4.95 -7.86 1.51
5.16 -7.84 1.53
5.38 -7.83 1.55
5.60 -7.81 1.56
5.89 -7.87 1.60
5.99 -7.69 1.59
6.11 -7.53 1.58
6.26 -7.40 1.58
6.42 -7.28 1.58
6.58 -7.17 1.59
4.99 -5.22 1.18
4.87 -4.90 1.13
4.97 -4.80 1.13
5.11 -4.74 1.14
5.21 -4.65 1.14
5.35 -4.58 1.15
5.56 -4.57 1.18
5.78 -4.56 1.20
8.63 -6.53 1.77
8.85 -6.42 1.79
9.10 -6.33 1.82
9.42 -6.27 1.85
15.55 -9.92 3.02
15.74 -9.60 3.02
15.93 -9.28 3.02
16.10 -8.95 3.02
16.27 -8.62 3.02
16.44 -8.29 3.02
16.59 -7.96 3.02
16.74 -7.62 3.02
16.88 -7.28 3.02
17.02 -6.94 3.02
17.15 -6.59 3.02
17.27 -6.24 3.02
17.38 -5.89 3.02
17.49 -5.54 3.02
17.59 -5.18 3.02
17.69 -4.83 3.02
17.77 -4.47 3.02
17.85 -4.11 3.02
17.78 -3.72 3.00
17.56 -3.31 2.95
17.33 -2.91 2.91
17.11 -2.52 2.86
16.88 -2.14 2.81
16.64 -1.77 2.77
16.41 -1.41 2.73
16.18 -1.07 2.69
16.05 -0.73 2.66
15.92 -0.41 2.64
15.79 -0.09 2.62
15.66 0.23 2.60
15.51 0.54 2.58
15.37 0.84 2.56
15.23 1.14 2.54
15.10 1.44 2.52
14.98 1.73 2.51
14.83 2.01 2.49
14.68 2.29 2.47
14.52 2.57 2.45
14.37 2.84 2.44
14.23 3.11 2.43
14.11 3.38 2.42
13.98 3.65 2.41
13.86 3.92 2.40
13.76 4.19 2.40
13.69 4.47 2.40
13.62 4.75 2.41
13.54 5.03 2.41
13.45 5.31 2.41
13.35 5.58 2.42
4.47 1.98 0.82
4.41 2.05 0.81
4.36 2.14 0.81
4.36 2.25 0.82
4.33 2.34 0.82
4.27 2.43 0.82
12.59 7.49 2.45
12.48 7.77 2.46
12.37 8.05 2.47
12.26 8.33 2.48
12.14 8.61 2.49
12.02 8.89 2.51
11.89 9.18 2.52
11.76 9.46 2.53
11.63 9.74 2.54
5.71 4.98 1.27
5.47 4.97 1.24
5.26 4.98 1.22
5.02 4.94 1.18
4.88 5.01 1.17
4.77 5.09 1.17
4.66 5.18 1.17
4.55 5.27 1.17
4.46 5.38 1.17
4.40 5.53 1.19
4.52 5.91 1.25
4.44 6.06 1.26
4.44 6.31 1.30
4.58 6.81 1.38
4.67 7.26 1.45
4.63 7.52 1.48
2.54 4.32 0.84
2.46 4.37 0.84
5.08 9.47 1.81
5.00 9.80 1.85
4.98 10.26 1.92
4.83 10.50 1.94
4.68 10.72 1.97
4.88 11.81 2.15
4.76 12.21 2.20
4.64 12.66 2.27
4.62 13.45 2.39
4.35 13.54 2.39
4.08 13.62 2.39
3.81 13.70 2.39
3.53 13.77 2.39
3.25 13.84 2.39
2.97 13.91 2.39
2.69 13.96 2.39
2.41 14.02 2.39
2.14 14.10 2.40
1.93 14.71 2.49
1.63 14.75 2.49
1.34 14.78 2.49
1.04 14.81 2.49
0.74 14.83 2.49
0.44 14.84 2.49
0.15 14.85 2.49
-0.15 14.85 2.49
-0.45 14.84 2.49
-0.75 14.83 2.49
-1.05 14.82 2.49
-1.34 14.80 2.49
-1.64 14.77 2.49
-1.94 14.74 2.49
-2.23 14.70 2.49
-2.53 14.65 2.49
-2.82 14.60 2.49
-3.12 14.55 2.49
-3.41 14.48 2.49
-3.70 14.42 2.49
-3.99 14.34 2.49
-4.28 14.26 2.49
-4.56 14.18 2.49
-4.85 14.09 2.49
-5.13 13.99 2.49
-5.41 13.89 2.49
-5.69 13.78 2.49
-5.92 13.55 2.47
-5.99 12.99 2.39
-6.25 12.87 2.39
-6.51 12.74 2.39
-6.76 12.61 2.39
-7.02 12.48 2.39
-7.27 12.34 2.39
-7.52 12.20 2.39
-7.76 12.05 2.39
-8.01 11.89 2.39
-8.25 11.73 2.39
-8.48 11.57 2.39
-8.72 11.40 2.39
-8.95 11.23 2.39
-9.17 11.05 2.39
-9.40 10.87 2.39
-9.62 10.68 2.39
-9.83 10.49 2.39
-10.27 10.52 2.44
-10.42 10.25 2.43
-10.56 9.98 2.41
-10.69 9.71 2.40
-10.82 9.43 2.38
-10.93 9.15 2.37
-11.05 8.88 2.35
-11.16 8.61 2.34
-11.27 8.34 2.32
-11.34 8.04 2.30
-11.41 7.75 2.28
-11.47 7.46 2.26
-11.53 7.17 2.25
-11.58 6.88 2.23
-11.60 6.59 2.21
-11.64 6.30 2.19
-11.67 6.02 2.17
-11.70 5.74 2.15
-11.72 5.46 2.14
-11.75 5.19 2.12
-11.78 4.92 2.11
-11.84 4.67 2.10
-11.87 4.41 2.09
-11.89 4.15 2.07
-11.91 3.89 2.06
-11.93 3.63 2.05
-11.95 3.38 2.04
-11.97 3.13 2.04
-12.06 2.89 2.04
-12.18 2.66 2.05
-12.22 2.42 2.05
-12.23 2.16 2.04
-12.24 1.91 2.03
-12.24 1.66 2.03
-12.25 1.41 2.02
-12.24 1.16 2.02
-12.22 0.92 2.01
-12.20 0.67 2.00
-12.19 0.42 2.00
-12.20 0.18 2.00
-5.95 -0.03 0.97
-12.20 -0.31 2.00
-12.20 -0.56 2.00
-12.24 -0.81 2.01
-12.42 -1.07 2.04
-12.59 -1.34 2.07
-12.66 -1.60 2.08
-12.65 -1.86 2.09
-12.63 -2.12 2.09
-12.60 -2.37 2.09
-12.50 -2.62 2.08
-12.40 -2.86 2.07
-12.30 -3.09 2.07
-12.20 -3.33 2.06
-12.13 -3.57 2.06
-12.10 -3.83 2.07
-12.08 -4.09 2.07
-12.05 -4.35 2.08
-12.02 -4.62 2.09
-11.99 -4.89 2.10
-12.14 -5.23 2.15
-12.28 -5.59 2.19
-12.22 -5.86 2.20
-12.16 -6.13 2.21
-12.09 -6.40 2.22
-12.02 -6.68 2.23
-11.95 -6.96 2.24
-11.92 -7.27 2.26
-11.89 -7.58 2.28
-11.78 -7.84 2.29
-11.66 -8.11 2.30
-11.54 -8.37 2.31
-11.42 -8.64 2.32
-11.30 -8.91 2.33
-11.17 -9.17 2.34
-11.03 -9.44 2.35
-10.90 -9.72 2.36
-10.77 -9.99 2.38
-10.63 -10.27 2.39
-10.48 -10.54 2.40
-10.33 -10.81 2.42
-10.18 -11.09 2.43
-10.01 -11.36 2.45
-9.85 -11.64 2.46
-5.98 -7.36 1.53
-9.11 -11.68 2.39
-8.87 -11.86 2.39
-8.63 -12.04 2.39
-8.39 -12.21 2.39
-8.14 -12.38 2.39
-7.90 -12.54 2.39
-7.64 -12.70 2.39
-7.39 -12.85 2.39
-7.13 -12.99 2.39
-6.87 -13.14 2.39
-6.60 -13.27 2.39
-6.34 -13.40 2.39
-6.07 -13.53 2.39
-5.79 -13.65 2.39
-5.52 -13.76 2.39
-5.47 -14.47 2.49
-5.18 -14.57 2.49
-4.88 -14.67 2.49
-4.59 -14.77 2.49
-4.29 -14.86 2.49
-3.99 -14.94 2.49
-3.69 -15.02 2.49
-3.39 -15.09 2.49
-3.08 -15.15 2.49
-2.78 -15.21 2.49
-2.47 -15.26 2.49
-2.17 -15.31 2.49
-1.86 -15.34 2.49
-1.55 -15.38 2.49
-1.24 -15.40 2.49
-0.93 -15.42 2.49
-0.62 -15.44 2.49
-0.31 -15.45 2.49
-0.00 -13.51 2.49
0.27 -13.50 2.49
0.54 -13.49 2.49
0.81 -13.48 2.49
1.08 -13.46 2.49
1.35 -13.43 2.49
1.62 -13.40 2.49
1.89 -13.36 2.49
2.15 -13.32 2.49
2.42 -13.27 2.49
2.57 -12.67 2.39
2.83 -12.61 2.39
3.08 -12.55 2.39
3.33 -12.48 2.39
3.58 -12.41 2.39
3.83 -12.33 2.39
4.07 -12.25 2.39
4.32 -12.16 2.39
4.56 -12.07 2.39
4.80 -11.98 2.39
4.52 -10.66 2.15
4.56 -10.18 2.07
4.65 -9.85 2.02
4.79 -9.63 1.99
4.98 -9.53 1.99
4.61 -8.42 1.78
4.68 -8.15 1.75
4.73 -7.86 1.70
4.81 -7.65 1.68
4.95 -7.52 1.67
5.23 -7.62 1.72
5.56 -7.75 1.77
5.86 -7.84 1.82
5.94 -7.62 1.80
6.03 -7.42 1.78
6.17 -7.29 1.78
6.37 -7.24 1.80
6.52 -7.11 1.80
5.06 -5.30 1.37
4.92 -4.95 1.30
4.95 -4.78 1.28
5.06 -4.70 1.29
5.20 -4.64 1.30
5.30 -4.54 1.30
5.47 -4.49 1.32
5.69 -4.49 1.35
5.86 -4.43 1.37
8.56 -6.22 1.98
8.80 -6.12 2.01
9.26 -6.17 2.08
7.13 -4.55 1.58
7.19 -4.38 1.58
7.31 -4.26 1.59
7.35 -4.09 1.58
7.43 -3.94 1.58
7.52 -3.80 1.58
7.61 -3.65 1.58
7.74 -3.52 1.59
7.91 -3.41 1.62
14.91 -6.08 3.02
15.03 -5.78 3.02
15.14 -5.47 3.02
15.24 -5.17 3.02
15.33 -4.86 3.02
15.42 -4.55 3.02
15.50 -4.23 3.02
15.58 -3.92 3.02
15.65 -3.61 3.02
15.71 -3.29 3.02
15.75 -2.97 3.02
15.73 -2.64 3.01
15.71 -2.31 2.99
15.68 -1.99 2.98
15.60 -1.66 2.96
15.40 -1.33 2.92
15.22 -1.00 2.88
15.10 -0.69 2.86
14.99 -0.39 2.83
14.86 -0.08 2.81
14.73 0.21 2.79
14.59 0.50 2.76
14.45 0.79 2.74
14.31 1.07 2.72
14.19 1.35 2.70
14.06 1.62 2.68
13.93 1.89 2.67
13.80 2.16 2.65
13.66 2.42 2.63
13.52 2.67 2.61
13.38 2.92 2.60
6.38 1.53 1.25
6.07 1.58 1.19
6.08 1.72 1.20
12.92 3.93 2.57
12.80 4.18 2.56
12.70 4.43 2.56
12.59 4.68 2.55
4.92 1.94 1.01
4.58 1.92 0.95
4.38 1.93 0.91
4.32 2.01 0.91
4.27 2.09 0.90
4.22 2.18 0.90
4.20 2.27 0.91
4.18 2.37 0.92
4.56 2.71 1.01
11.71 7.28 2.63
11.57 7.52 2.63
7.87 5.35 1.82
7.87 5.58 1.84
7.88 5.83 1.87
7.90 6.09 1.90
7.65 6.15 1.87
7.25 6.07 1.80
5.56 4.85 1.41
5.40 4.91 1.39
5.21 4.92 1.37
4.93 4.85 1.32
4.81 4.92 1.31
4.65 4.96 1.30
4.55 5.06 1.30
4.46 5.16 1.30
4.37 5.26 1.31
4.34 5.45 1.33
4.31 5.64 1.36
4.36 5.94 1.41
4.31 6.14 1.44
4.25 6.32 1.46
4.52 7.02 1.60
4.60 7.47 1.68
2.54 4.32 0.96
5.09 9.06 1.99
4.97 9.28 2.02
4.95 9.71 2.09
5.01 10.33 2.20
4.80 10.42 2.20
4.65 10.64 2.22
4.77 11.55 2.39
4.53 11.64 2.39
4.30 11.73 2.39
4.06 11.81 2.39
3.82 11.89 2.39
3.58 11.97 2.39
3.34 12.04 2.39
3.10 12.10 2.39
2.86 12.16 2.39
2.61 12.22 2.39
2.38 12.33 2.40
2.15 12.48 2.42
1.95 12.89 2.49
1.69 12.92 2.49
1.43 12.96 2.49
1.17 12.98 2.49
0.91 13.01 2.49
0.65 13.02 2.49
0.39 13.04 2.49
0.13 13.04 2.49
-0.13 13.04 2.49
-0.40 13.04 2.49
-0.66 13.03 2.49
-0.92 13.02 2.49
-1.18 13.00 2.49
-1.44 12.97 2.49
-1.70 12.94 2.49
-1.96 12.91 2.49
-2.22 12.87 2.49
-2.48 12.82 2.49
-2.74 12.77 2.49
-2.99 12.72 2.49
-3.25 12.66 2.49
-3.50 12.59 2.49
-3.76 12.52 2.49
-4.01 12.45 2.49
-4.26 12.37 2.49
-4.51 12.28 2.49
-4.75 12.19 2.49
-5.00 12.10 2.49
-5.24 12.00 2.49
-5.48 11.89 2.49
-5.72 11.78 2.49
-5.87 11.49 2.46
-5.94 11.07 2.39
-6.16 10.95 2.39
-6.38 10.83 2.39
-6.60 10.70 2.39
-6.82 10.57 2.39
-7.03 10.44 2.39
-7.24 10.30 2.39
-7.45 10.15 2.39
-7.65 10.00 2.39
-7.85 9.85 2.39
-8.05 9.69 2.39
-8.25 9.53 2.39
-8.44 9.37 2.39
-8.63 9.20 2.39
-8.81 9.03 2.39
-9.00 8.85 2.39
-9.18 8.67 2.39
-9.35 8.49 2.39
-9.52 8.30 2.39
-9.69 8.11 2.39
-10.03 8.06 2.43
-10.15 7.82 2.42
-10.26 7.59 2.41
-10.35 7.34 2.40
-10.42 7.07 2.38
-10.48 6.81 2.36
-10.56 6.57 2.35
-10.64 6.33 2.34
-10.73 6.09 2.33
-10.81 5.86 2.32
-10.92 5.63 2.32
-11.02 5.41 2.31
-11.12 5.18 2.31
-11.21 4.95 2.31
-11.30 4.72 2.30
-11.37 4.49 2.30
-11.46 4.26 2.30
-11.54 4.03 2.30
-11.57 3.78 2.29
-11.59 3.53 2.28
-11.61 3.28 2.27
-11.63 3.04 2.26
-11.65 2.79 2.25
-11.72 2.56 2.25
-11.73 2.32 2.24
-11.74 2.08 2.23
-11.75 1.84 2.23
-11.76 1.60 2.22
-11.77 1.36 2.22
-11.77 1.12 2.21
-11.78 0.88 2.21
-11.76 0.64 2.20
-11.76 0.41 2.20
-11.76 0.17 2.20
-5.96 -0.03 1.11
-11.76 -0.30 2.20
-11.76 -0.54 2.20
-11.76 -0.78 2.20
-11.76 -1.01 2.20
-11.81 -1.26 2.21
-11.92 -1.51 2.24
-11.91 -1.75 2.24
-11.89 -1.99 2.25
-11.87 -2.24 2.25
-11.85 -2.48 2.25
-11.82 -2.72 2.26
-11.79 -2.97 2.26
-11.75 -3.21 2.27
-11.65 -3.43 2.26
-11.61 -3.68 2.26
-11.59 -3.93 2.27
-11.56 -4.18 2.28
-11.53 -4.43 2.29
-11.50 -4.68 2.31
-11.46 -4.94 2.32
-11.43 -5.20 2.33
-11.37 -5.45 2.34
-11.29 -5.69 2.35
-11.21 -5.94 2.35
-11.12 -6.18 2.36
-11.02 -6.42 2.36
-10.93 -6.66 2.37
-10.83 -6.90 2.38
-10.72 -7.14 2.39
-10.61 -7.38 2.39
-10.51 -7.62 2.40
-10.41 -7.88 2.42
-10.31 -8.13 2.43
-10.20 -8.38 2.44
-10.09 -8.63 2.46
-9.97 -8.89 2.47
-9.48 -8.80 2.39
-9.30 -8.99 2.39
-9.12 -9.17 2.39
-8.94 -9.36 2.39
-8.75 -9.54 2.39
-8.56 -9.71 2.39
-8.36 -9.88 2.39
-5.98 -7.36 1.75
-7.96 -10.21 2.39
-7.76 -10.37 2.39
-7.55 -10.53 2.39
-7.34 -10.68 2.39
-7.12 -10.82 2.39
-6.90 -10.96 2.39
-6.68 -11.10 2.39
-6.46 -11.23 2.39
-6.23 -11.36 2.39
-6.00 -11.48 2.39
-5.77 -11.60 2.39
-5.54 -11.73 2.39
-5.52 -12.32 2.49
-5.28 -12.45 2.49
-5.03 -12.55 2.49
-4.78 -12.65 2.49
-4.52 -12.74 2.49
-4.27 -12.83 2.49
-4.01 -12.91 2.49
-3.75 -12.99 2.49
-3.49 -13.06 2.49
-3.23 -13.13 2.49
-2.96 -13.19 2.49
-2.70 -13.25 2.49
-2.43 -13.30 2.49
-2.16 -13.34 2.49
-1.89 -13.38 2.49
-1.63 -13.42 2.49
-1.36 -13.45 2.49
-1.09 -13.47 2.49
-0.82 -13.49 2.49
-0.54 -13.50 2.49
-0.27 -13.51 2.49
-0.00 -11.99 2.49
0.24 -11.98 2.49
0.48 -11.98 2.49
0.72 -11.96 2.49
0.96 -11.94 2.49
1.20 -11.92 2.49
1.44 -11.89 2.49
1.67 -11.86 2.49
1.91 -11.82 2.49
2.15 -11.78 2.49
2.38 -11.73 2.49
2.52 -11.23 2.40
2.73 -11.14 2.39
2.95 -11.08 2.39
3.18 -11.02 2.39
3.40 -10.95 2.39
3.61 -10.88 2.39
3.83 -10.80 2.39
4.05 -10.72 2.39
4.26 -10.63 2.39
4.47 -10.54 2.39
4.45 -9.94 2.27
4.56 -9.66 2.23
4.70 -9.46 2.21
4.48 -8.59 2.02
4.51 -8.24 1.96
4.62 -8.04 1.94
4.72 -7.84 1.91
4.82 -7.66 1.89
4.95 -7.53 1.89
5.19 -7.56 1.92
5.45 -7.61 1.96
5.72 -7.65 2.00
6.00 -7.71 2.05
5.95 -7.33 1.98
6.07 -7.18 1.97
6.27 -7.12 1.99
6.47 -7.06 2.01
5.25 -5.50 1.59
5.01 -5.04 1.49
4.95 -4.78 1.44
5.06 -4.70 1.45
5.20 -4.64 1.46
5.29 -4.53 1.46
5.45 -4.48 1.48
5.65 -4.46 1.51
5.82 -4.40 1.53
5.99 -4.35 1.56
8.66 -6.03 2.22
6.79 -4.53 1.72
6.81 -4.34 1.70
6.87 -4.19 1.70
6.99 -4.07 1.70
7.08 -3.94 1.71
7.15 -3.79 1.71
7.22 -3.65 1.71
7.31 -3.51 1.71
7.42 -3.38 1.72
7.52 -3.24 1.73
7.60 -3.10 1.73
7.71 -2.96 1.74
13.46 -4.87 3.02
13.55 -4.59 3.02
13.63 -4.32 3.02
13.71 -4.04 3.02
13.79 -3.77 3.02
13.85 -3.49 3.02
13.92 -3.21 3.02
13.97 -2.93 3.02
14.03 -2.64 3.02
14.07 -2.36 3.02
14.08 -2.07 3.02
14.07 -1.78 3.01
14.05 -1.50 3.00
14.02 -1.21 2.99
5.79 -0.38 1.23
5.76 -0.26 1.23
5.82 -0.15 1.24
5.77 -0.03 1.23
5.72 0.08 1.22
5.73 0.20 1.22
5.80 0.32 1.24
5.81 0.43 1.24
5.74 0.55 1.23
5.71 0.66 1.22
5.65 0.77 1.21
5.59 0.87 1.20
5.61 0.99 1.21
5.67 1.12 1.23
5.73 1.25 1.25
6.28 1.51 1.38
6.10 1.59 1.35
6.02 1.70 1.34
5.98 1.82 1.33
6.14 2.00 1.38
12.07 4.21 2.73
4.98 1.85 1.14
4.71 1.86 1.08
4.51 1.88 1.04
4.39 1.94 1.03
4.33 2.02 1.02
4.28 2.10 1.02
4.24 2.19 1.02
4.22 2.28 1.03
4.19 2.38 1.03
4.28 2.54 1.06
4.67 2.90 1.18
4.53 2.95 1.16
4.44 3.02 1.15
6.12 4.34 1.61
5.98 4.42 1.59
5.98 4.61 1.62
5.96 4.79 1.64
5.65 4.73 1.58
5.49 4.79 1.56
5.34 4.85 1.55
5.17 4.88 1.52
4.84 4.76 1.46
4.69 4.80 1.44
4.54 4.84 1.42
4.44 4.93 1.42
4.35 5.03 1.43
4.31 5.19 1.45
4.34 5.45 1.50
4.29 5.61 1.52
4.24 5.78 1.54
4.18 5.95 1.56
4.12 6.12 1.58
4.07 6.31 1.61
4.56 7.41 1.87
2.54 4.32 1.08
5.08 9.04 2.23
4.97 9.28 2.26
4.93 9.65 2.33
4.86 10.01 2.39
4.66 10.11 2.39
4.45 10.20 2.39
4.25 10.29 2.39
4.04 10.37 2.39
3.83 10.45 2.39
3.62 10.52 2.39
3.41 10.59 2.39
3.19 10.66 2.39
2.98 10.72 2.39
2.76 10.78 2.39
2.55 10.83 2.39
2.33 10.88 2.39
2.18 11.30 2.47
1.97 11.44 2.49
1.74 11.48 2.49
1.51 11.51 2.49
1.28 11.54 2.49
1.05 11.57 2.49
0.81 11.59 2.49
0.58 11.60 2.49
0.35 11.61 2.49
0.11 11.62 2.49
-0.12 11.62 2.49
-0.35 11.62 2.49
-0.59 11.61 2.49
-0.82 11.59 2.49
-1.05 11.58 2.49
-1.28 11.56 2.49
-1.52 11.53 2.49
-1.75 11.50 2.49
-1.98 11.46 2.49
-2.21 11.42 2.49
-2.44 11.38 2.49
-2.67 11.33 2.49
-2.89 11.27 2.49
-3.12 11.22 2.49
-3.35 11.15 2.49
-3.57 11.09 2.49
-3.79 11.01 2.49
-4.01 10.94 2.49
-4.23 10.86 2.49
-4.45 10.77 2.49
-4.67 10.68 2.49
-4.88 10.59 2.49
-5.10 10.49 2.49
-5.31 10.39 2.49
-5.52 10.28 2.49
-5.72 10.17 2.49
-5.85 9.92 2.46
-5.88 9.53 2.39
-6.07 9.41 2.39
-6.26 9.29 2.39
-6.44 9.17 2.39
-6.63 9.04 2.39
-6.81 8.90 2.39
-6.99 8.77 2.39
-7.17 8.63 2.39
-7.34 8.49 2.39
-7.51 8.34 2.39
-7.68 8.19 2.39
-7.85 8.03 2.39
-8.01 7.88 2.39
-8.17 7.72 2.39
-8.32 7.55 2.39
-8.48 7.39 2.39
-8.62 7.22 2.39
-8.77 7.05 2.39
-8.91 6.87 2.39
-9.05 6.69 2.39
-9.19 6.51 2.39
-9.32 6.33 2.39
-9.45 6.14 2.39
-9.57 5.95 2.39
-9.69 5.76 2.39
-9.94 5.64 2.42
-10.02 5.42 2.41
-10.10 5.21 2.41
-10.19 5.00 2.40
-10.28 4.79 2.40
-10.36 4.58 2.40
-10.43 4.36 2.39
-10.49 4.14 2.39
-10.55 3.92 2.38
-10.61 3.70 2.38
-10.68 3.49 2.38
-10.75 3.27 2.37
-10.82 3.06 2.37
-10.88 2.84 2.37
-10.94 2.62 2.37
-10.98 2.40 2.37
-11.01 2.18 2.37
-11.04 1.95 2.36
-11.07 1.73 2.36
-11.09 1.50 2.36
-11.11 1.28 2.36
-11.13 1.06 2.35
-11.14 0.83 2.35
-11.15 0.61 2.35
-11.15 0.38 2.35
-11.16 0.16 2.35
-5.96 -0.03 1.25
-11.18 -0.29 2.35
-11.18 -0.51 2.35
-11.18 -0.74 2.35
-11.17 -0.96 2.35
-11.16 -1.19 2.36
-11.15 -1.41 2.36
-11.13 -1.64 2.36
-11.10 -1.86 2.36
-11.07 -2.09 2.36
-11.03 -2.31 2.36
-11.00 -2.53 2.36
-10.96 -2.76 2.37
-10.92 -2.98 2.37
-10.87 -3.20 2.37
-10.82 -3.43 2.38
-10.75 -3.64 2.37
-10.67 -3.86 2.37
-10.59 -4.07 2.37
-10.50 -4.28 2.37
-10.42 -4.49 2.37
-10.34 -4.71 2.37
-10.26 -4.92 2.38
-10.17 -5.13 2.38
-10.08 -5.34 2.38
-10.00 -5.56 2.39
-9.93 -5.79 2.40
-9.86 -6.01 2.41
-9.79 -6.24 2.42
-9.54 -6.36 2.39
-9.41 -6.55 2.39
-9.28 -6.74 2.39
-9.15 -6.92 2.39
-9.01 -7.11 2.39
-8.87 -7.29 2.39
-8.72 -7.46 2.39
-8.57 -7.64 2.39
-8.42 -7.81 2.39
-8.26 -7.98 2.39
-8.10 -8.14 2.39
-7.93 -8.31 2.39
-7.77 -8.46 2.39
-7.60 -8.62 2.39
-7.42 -8.77 2.39
-5.98 -7.36 1.97
-7.07 -9.06 2.39
-6.88 -9.20 2.39
-6.70 -9.34 2.39
-6.51 -9.48 2.39
-6.32 -9.60 2.39
-6.13 -9.73 2.39
-5.93 -9.85 2.39
-5.75 -10.00 2.40
-5.56 -10.14 2.41
-5.55 -10.62 2.49
-5.34 -10.74 2.49
-5.13 -10.85 2.49
-4.91 -10.95 2.49
-4.69 -11.04 2.49
-4.47 -11.14 2.49
-4.24 -11.22 2.49
-4.02 -11.31 2.49
-3.79 -11.39 2.49
-3.56 -11.46 2.49
-3.33 -11.53 2.49
-3.10 -11.59 2.49
-2.86 -11.65 2.49
-2.63 -11.71 2.49
-2.39 -11.76 2.49
-2.16 -11.80 2.49
-1.92 -11.84 2.49
-1.68 -11.88 2.49
-1.44 -11.91 2.49
-1.20 -11.93 2.49
-0.96 -11.95 2.49
-0.72 -11.97 2.49
-0.48 -11.98 2.49
-0.24 -11.99 2.49
-0.00 -10.77 2.49
0.21 -10.76 2.49
0.43 -10.76 2.49
0.64 -10.74 2.49
0.86 -10.73 2.49
1.07 -10.71 2.49
1.29 -10.68 2.49
1.50 -10.65 2.49
1.72 -10.62 2.49
1.93 -10.58 2.49
2.14 -10.54 2.49
2.35 -10.49 2.49
2.49 -10.17 2.43
2.65 -9.95 2.39
2.85 -9.90 2.39
3.05 -9.84 2.39
3.25 -9.77 2.39
3.44 -9.70 2.39
3.63 -9.63 2.39
3.83 -9.55 2.39
4.02 -9.47 2.39
4.20 -9.39 2.39
4.39 -9.30 2.39
4.58 -9.21 2.39
4.76 -9.11 2.39
4.50 -8.21 2.18
4.59 -7.99 2.14
4.69 -7.79 2.12
4.81 -7.64 2.10
4.96 -7.54 2.10
5.18 -7.54 2.13
5.37 -7.50 2.15
5.69 -7.61 2.22
5.78 -7.41 2.19
5.91 -7.28 2.18
6.03 -7.14 2.18
6.02 -6.83 2.12
6.18 -6.74 2.14
5.24 -5.49 1.77
5.12 -5.15 1.70
4.98 -4.81 1.62
5.08 -4.72 1.62
5.19 -4.63 1.62
5.28 -4.53 1.63
5.43 -4.46 1.64
5.64 -4.45 1.68
5.77 -4.37 1.69
5.93 -4.31 1.72
6.03 -4.19 1.72
6.02 -4.01 1.69
6.07 -3.87 1.69
6.08 -3.71 1.67
6.10 -3.55 1.65
6.16 -3.42 1.65
6.17 -3.27 1.64
6.24 -3.15 1.64
6.25 -3.00 1.63
6.30 -2.87 1.63
6.39 -2.76 1.63
6.51 -2.65 1.65
6.64 -2.55 1.67
6.80 -2.46 1.70
12.19 -4.13 3.02
12.26 -3.89 3.02
12.33 -3.64 3.02
12.40 -3.39 3.02
12.46 -3.14 3.02
6.38 -1.47 1.54
6.34 -1.33 1.53
6.47 -1.22 1.55
6.58 -1.10 1.57
6.69 -0.99 1.59
12.73 -1.62 3.02
5.72 -0.61 1.36
5.65 -0.49 1.34
5.61 -0.37 1.33
5.61 -0.26 1.32
5.55 -0.14 1.31
5.59 -0.03 1.32
5.58 0.08 1.32
5.58 0.19 1.32
5.61 0.31 1.33
4.45 0.33 1.05
4.43 0.42 1.05
4.42 0.51 1.05
4.49 0.61 1.07
4.58 0.72 1.10
4.71 0.83 1.13
4.73 0.93 1.14
4.64 1.01 1.13
4.71 1.13 1.15
4.82 1.26 1.18
5.95 1.68 1.47
5.90 1.80 1.46
5.89 1.92 1.47
6.12 2.14 1.54
4.87 1.81 1.23
4.64 1.83 1.18
4.52 1.89 1.16
4.40 1.94 1.14
4.34 2.02 1.14
4.29 2.10 1.13
4.26 2.20 1.14
4.24 2.30 1.15
4.21 2.39 1.15
4.19 2.49 1.16
4.41 2.74 1.23
4.37 2.84 1.24
4.36 2.96 1.25
6.03 4.27 1.76
5.77 4.27 1.71
5.65 4.35 1.70
5.56 4.47 1.70
5.50 4.60 1.71
5.40 4.71 1.71
5.28 4.79 1.70
5.13 4.86 1.68
4.73 4.66 1.58
4.61 4.72 1.57
4.46 4.76 1.55
4.35 4.83 1.55
4.26 4.93 1.55
4.22 5.08 1.57
4.26 5.34 1.63
4.24 5.54 1.66
4.16 5.68 1.68
4.05 5.76 1.68
3.94 5.86 1.68
3.86 5.99 1.70
3.79 6.15 1.72
2.54 4.32 1.20
4.59 8.17 2.24
4.74 8.84 2.39
4.56 8.93 2.39
4.38 9.02 2.39
4.19 9.10 2.39
4.01 9.19 2.39
3.82 9.27 2.39
3.64 9.34 2.39
3.45 9.41 2.39
3.26 9.48 2.39
3.07 9.54 2.39
2.88 9.60 2.39
2.68 9.66 2.39
2.49 9.71 2.39
2.29 9.76 2.39
2.19 10.23 2.49
1.98 10.27 2.49
1.77 10.31 2.49
1.57 10.34 2.49
1.36 10.37 2.49
1.15 10.40 2.49
0.94 10.42 2.49
0.73 10.44 2.49
0.52 10.45 2.49
0.31 10.46 2.49
0.10 10.46 2.49
-0.11 10.46 2.49
-0.32 10.46 2.49
-0.53 10.45 2.49
-0.74 10.44 2.49
-0.95 10.43 2.49
-1.16 10.41 2.49
-1.37 10.38 2.49
-1.57 10.35 2.49
-1.78 10.32 2.49
-1.99 10.29 2.49
-2.20 10.25 2.49
-2.40 10.20 2.49
-2.61 10.15 2.49
-2.81 10.10 2.49
-3.01 10.04 2.49
-3.22 9.98 2.49
-3.42 9.92 2.49
-3.62 9.85 2.49
-3.81 9.78 2.49
-4.01 9.70 2.49
-4.20 9.62 2.49
-4.40 9.53 2.49
-4.59 9.45 2.49
-4.78 9.35 2.49
-4.97 9.26 2.49
-5.15 9.16 2.49
-5.34 9.06 2.49
-5.52 8.95 2.49
-5.70 8.84 2.49
-5.83 8.65 2.47
-5.83 8.29 2.40
-5.97 8.13 2.39
-6.13 8.01 2.39
-6.29 7.89 2.39
-6.45 7.77 2.39
-6.61 7.64 2.39
-6.76 7.50 2.39
-6.91 7.37 2.39
-7.06 7.23 2.39
-7.21 7.09 2.39
-7.35 6.95 2.39
-7.49 6.80 2.39
-7.63 6.65 2.39
-7.76 6.50 2.39
-7.89 6.34 2.39
-8.02 6.18 2.39
-8.15 6.02 2.39
-8.27 5.86 2.39
-8.39 5.69 2.39
-8.50 5.53 2.39
-8.61 5.35 2.39
-8.72 5.18 2.39
-8.83 5.01 2.39
-8.93 4.83 2.39
-9.02 4.65 2.39
-9.12 4.47 2.39
-9.21 4.29 2.39
-9.30 4.10 2.39
-9.38 3.92 2.39
-9.46 3.73 2.39
-9.54 3.54 2.39
-9.61 3.35 2.39
-9.68 3.16 2.39
-9.74 2.96 2.39
-10.01 2.83 2.44
-10.06 2.63 2.44
-10.10 2.42 2.44
-10.14 2.21 2.44
-10.17 2.01 2.43
-10.20 1.80 2.43
-10.23 1.60 2.43
-10.26 1.39 2.43
-10.27 1.18 2.42
-10.29 0.98 2.42
-10.30 0.77 2.42
-10.31 0.56 2.42
-10.32 0.35 2.42
-10.32 0.15 2.41
-5.93 -0.03 1.39
-10.32 -0.27 2.41
-10.31 -0.47 2.41
-10.30 -0.68 2.41
-10.30 -0.89 2.41
-10.29 -1.10 2.42
-10.28 -1.30 2.42
-10.26 -1.51 2.42
-10.23 -1.72 2.42
-10.20 -1.92 2.42
-10.16 -2.13 2.42
-10.12 -2.33 2.42
-10.08 -2.54 2.42
-10.04 -2.74 2.42
-9.99 -2.95 2.43
-9.94 -3.15 2.43
-9.89 -3.35 2.43
-9.66 -3.49 2.39
-9.59 -3.69 2.39
-9.52 -3.88 2.39
-9.44 -4.07 2.39
-9.36 -4.26 2.39
-9.27 -4.45 2.39
-9.18 -4.63 2.39
-9.09 -4.82 2.39
-8.99 -5.00 2.39
-8.89 -5.18 2.39
-8.79 -5.36 2.39
-8.68 -5.54 2.39
-8.57 -5.71 2.39
-8.46 -5.88 2.39
-8.34 -6.05 2.39
-8.22 -6.22 2.39
-8.09 -6.38 2.39
-7.96 -6.54 2.39
-7.83 -6.70 2.39
-7.70 -6.86 2.39
-7.56 -7.01 2.39
-7.42 -7.17 2.39
-7.27 -7.31 2.39
-7.13 -7.46 2.39
-6.98 -7.60 2.39
-6.82 -7.74 2.39
-6.67 -7.88 2.39
-5.98 -7.36 2.20
-6.35 -8.14 2.39
-6.18 -8.27 2.39
-6.02 -8.39 2.39
-5.85 -8.51 2.39
-5.68 -8.63 2.39
-5.58 -8.86 2.42
-5.56 -9.23 2.49
-5.37 -9.34 2.49
-5.18 -9.45 2.49
-4.99 -9.55 2.49
-4.80 -9.65 2.49
-4.60 -9.74 2.49
-4.41 -9.83 2.49
-4.21 -9.92 2.49
-4.01 -10.00 2.49
-3.81 -10.08 2.49
-3.61 -10.15 2.49
-3.40 -10.22 2.49
-3.20 -10.29 2.49
-2.99 -10.35 2.49
-2.78 -10.41 2.49
-2.57 -10.46 2.49
-2.36 -10.51 2.49
-2.15 -10.56 2.49
-1.94 -10.60 2.49
-1.72 -10.63 2.49
-1.51 -10.67 2.49
-1.30 -10.69 2.49
-1.08 -10.72 2.49
-0.87 -10.74 2.49
-0.65 -10.75 2.49
-0.43 -10.76 2.49
-0.22 -10.77 2.49
-0.00 -9.76 2.49
0.19 -9.76 2.49
0.39 -9.75 2.49
0.58 -9.74 2.49
0.78 -9.73 2.49
0.97 -9.71 2.49
1.17 -9.68 2.49
1.36 -9.66 2.49
1.56 -9.63 2.49
1.75 -9.59 2.49
1.94 -9.55 2.49
2.13 -9.51 2.49
2.32 -9.47 2.49
2.48 -9.30 2.46
2.59 -8.98 2.39
2.77 -8.92 2.39
2.94 -8.86 2.39
3.12 -8.80 2.39
3.29 -8.73 2.39
3.47 -8.66 2.39
3.64 -8.59 2.39
3.81 -8.51 2.39
3.98 -8.43 2.39
4.15 -8.35 2.39
4.31 -8.26 2.39
4.48 -8.18 2.39
4.59 -7.98 2.36
4.68 -7.78 2.33
4.81 -7.65 2.32
4.98 -7.57 2.33
5.19 -7.56 2.36
5.42 -7.57 2.39
5.57 -7.46 2.39
5.72 -7.34 2.39
5.86 -7.22 2.39
6.00 -7.10 2.39
5.85 -6.64 2.28
5.96 -6.51 2.27
5.95 -6.23 2.22
5.21 -5.24 1.90
5.08 -4.91 1.82
5.10 -4.74 1.79
5.19 -4.63 1.79
4.90 -4.20 1.66
4.88 -4.02 1.63
4.94 -3.90 1.62
5.04 -3.82 1.63
5.17 -3.75 1.65
5.44 -3.78 1.71
5.92 -3.94 1.83
5.90 -3.77 1.81
5.90 -3.60 1.78
5.92 -3.45 1.77
5.95 -3.31 1.76
6.00 -3.18 1.75
5.97 -3.01 1.73
6.06 -2.91 1.74
6.13 -2.79 1.74
6.17 -2.66 1.74
6.28 -2.56 1.75
6.41 -2.47 1.78
6.55 -2.37 1.80
6.70 -2.27 1.83
11.13 -3.53 3.02
11.20 -3.30 3.02
11.26 -3.08 3.02
11.31 -2.85 3.02
6.25 -1.44 1.66
6.23 -1.31 1.65
6.29 -1.19 1.66
6.37 -1.07 1.68
6.52 -0.96 1.71
5.58 -0.71 1.46
5.53 -0.59 1.44
5.05 -0.44 1.32
4.97 -0.33 1.29
4.89 -0.23 1.27
4.57 -0.12 1.19
4.43 -0.03 1.15
4.31 0.06 1.12
4.20 0.14 1.09
4.21 0.23 1.10
4.21 0.31 1.10
4.19 0.40 1.10
4.16 0.48 1.09
4.19 0.57 1.10
4.23 0.66 1.12
4.33 0.76 1.15
4.42 0.87 1.18
4.55 0.99 1.22
4.64 1.11 1.24
4.72 1.23 1.27
4.96 1.40 1.35
5.82 1.77 1.59
5.81 1.90 1.60
5.17 1.80 1.43
4.79 1.78 1.33
4.62 1.82 1.30
4.51 1.88 1.28
4.41 1.95 1.26
4.35 2.03 1.25
4.30 2.11 1.25
4.28 2.21 1.26
4.26 2.31 1.27
4.23 2.40 1.27
4.20 2.49 1.28
4.31 2.68 1.33
4.26 2.77 1.33
4.23 2.88 1.34
6.04 4.28 1.94
5.80 4.29 1.89
5.60 4.32 1.85
5.49 4.41 1.85
5.41 4.53 1.85
5.28 4.61 1.84
5.15 4.68 1.82
4.89 4.63 1.77
4.63 4.56 1.70
4.51 4.63 1.69
4.39 4.68 1.68
4.28 4.75 1.68
4.18 4.83 1.67
4.12 4.97 1.69
4.16 5.23 1.75
4.16 5.44 1.80
4.05 5.53 1.80
3.94 5.61 1.80
3.83 5.69 1.80
3.71 5.76 1.80
3.64 5.91 1.82
2.54 4.32 1.32
3.59 6.39 1.92
4.30 8.03 2.39
4.14 8.11 2.39
3.98 8.20 2.39
3.81 8.27 2.39
3.64 8.35 2.39
3.48 8.42 2.39
3.31 8.49 2.39
3.13 8.55 2.39
2.96 8.61 2.39
2.79 8.67 2.39
2.61 8.73 2.39
2.44 8.78 2.39
2.26 8.82 2.39
2.17 9.25 2.49
1.99 9.29 2.49
1.80 9.33 2.49
1.61 9.37 2.49
1.42 9.40 2.49
1.24 9.42 2.49
1.05 9.45 2.49
0.86 9.47 2.49
0.67 9.48 2.49
0.47 9.50 2.49
0.28 9.50 2.49
0.09 9.51 2.49
-0.10 9.51 2.49
-0.29 9.51 2.49
-0.48 9.50 2.49
-0.67 9.49 2.49
-0.86 9.48 2.49
-1.05 9.46 2.49
-1.24 9.44 2.49
-1.43 9.41 2.49
-1.62 9.38 2.49
-1.81 9.35 2.49
-2.00 9.31 2.49
-2.18 9.27 2.49
-2.37 9.22 2.49
-2.55 9.18 2.49
-2.74 9.13 2.49
-2.92 9.07 2.49
-3.10 9.01 2.49
-3.29 8.95 2.49
-3.46 8.88 2.49
-3.64 8.81 2.49
-3.82 8.74 2.49
-4.00 8.66 2.49
-4.17 8.58 2.49
-4.34 8.50 2.49
-4.51 8.41 2.49
-4.68 8.32 2.49
-4.85 8.23 2.49
-5.01 8.13 2.49
-5.18 8.03 2.49
-5.34 7.92 2.49
-5.50 7.82 2.49
-5.66 7.71 2.49
-5.81 7.59 2.49
-5.81 7.29 2.43
-5.86 7.05 2.39
-6.00 6.94 2.39
-6.14 6.82 2.39
-6.28 6.69 2.39
-6.41 6.57 2.39
-6.55 6.44 2.39
-6.68 6.31 2.39
-6.80 6.17 2.39
-6.93 6.04 2.39
-7.05 5.90 2.39
-7.17 5.76 2.39
-7.28 5.61 2.39
-7.40 5.47 2.39
-7.51 5.32 2.39
-7.61 5.17 2.39
-7.72 5.02 2.39
-7.82 4.86 2.39
-7.92 4.70 2.39
-8.01 4.55 2.39
-8.10 4.39 2.39
-8.19 4.22 2.39
-8.28 4.06 2.39
-8.36 3.89 2.39
-8.44 3.73 2.39
-8.52 3.56 2.39
-8.59 3.39 2.39
-8.66 3.21 2.39
-8.72 3.04 2.39
-8.78 2.86 2.39
-8.84 2.69 2.39
-8.90 2.51 2.39
-8.95 2.33 2.39
-8.99 2.15 2.39
-9.04 1.97 2.39
-9.08 1.79 2.39
-9.12 1.61 2.39
-9.15 1.43 2.39
-9.18 1.24 2.39
-9.20 1.06 2.39
-9.22 0.87 2.39
-9.24 0.69 2.39
-9.26 0.50 2.39
-9.27 0.32 2.39
-9.28 0.13 2.39
-5.93 -0.03 1.53
-9.28 -0.24 2.39
-9.27 -0.43 2.39
-9.27 -0.61 2.39
-9.25 -0.80 2.39
-9.24 -0.98 2.39
-9.22 -1.17 2.39
-9.20 -1.36 2.39
-9.17 -1.54 2.39
-9.14 -1.72 2.39
-9.10 -1.91 2.39
-9.07 -2.09 2.39
-9.02 -2.27 2.39
-8.98 -2.45 2.39
-8.93 -2.63 2.39
-8.88 -2.81 2.39
-8.82 -2.99 2.39
-8.76 -3.17 2.39
-8.70 -3.34 2.39
-8.63 -3.52 2.39
-8.56 -3.69 2.39
-8.49 -3.86 2.39
-8.41 -4.03 2.39
-8.33 -4.20 2.39
-8.24 -4.37 2.39
-8.16 -4.53 2.39
-8.06 -4.70 2.39
-7.97 -4.86 2.39
-7.87 -5.02 2.39
-7.77 -5.18 2.39
-7.67 -5.33 2.39
-7.56 -5.49 2.39
-7.45 -5.64 2.39
-7.34 -5.79 2.39
-7.22 -5.93 2.39
-7.10 -6.08 2.39
-6.98 -6.22 2.39
-6.85 -6.36 2.39
-6.72 -6.50 2.39
-6.59 -6.63 2.39
-6.46 -6.76 2.39
-6.32 -6.89 2.39
-6.19 -7.02 2.39
-6.04 -7.14 2.39
-5.90 -7.26 2.39
-5.75 -7.38 2.39
-5.61 -7.50 2.39
-5.59 -7.80 2.45
-5.53 -8.05 2.49
-5.37 -8.16 2.49
-5.20 -8.26 2.49
-5.04 -8.37 2.49
-4.87 -8.47 2.49
-4.70 -8.56 2.49
-4.52 -8.66 2.49
-4.35 -8.75 2.49
-4.17 -8.83 2.49
-4.00 -8.91 2.49
-3.82 -8.99 2.49
-3.64 -9.07 2.49
-3.45 -9.14 2.49
-3.27 -9.21 2.49
-3.08 -9.27 2.49
-2.90 -9.33 2.49
-2.71 -9.39 2.49
-2.52 -9.44 2.49
-2.33 -9.49 2.49
-2.14 -9.53 2.49
-1.95 -9.57 2.49
-1.76 -9.61 2.49
-1.56 -9.64 2.49
-1.37 -9.67 2.49
-1.18 -9.69 2.49
-0.98 -9.72 2.49
-0.79 -9.73 2.49
-0.59 -9.75 2.49
-0.39 -9.76 2.49
-0.20 -9.76 2.49
-0.00 -8.92 2.49
0.18 -8.92 2.49
0.35 -8.91 2.49
0.53 -8.90 2.49
0.71 -8.89 2.49
0.89 -8.87 2.49
1.07 -8.85 2.49
1.24 -8.83 2.49
1.42 -8.80 2.49
1.60 -8.77 2.49
1.77 -8.73 2.49
1.95 -8.69 2.49
2.12 -8.65 2.49
2.29 -8.61 2.49
2.46 -8.56 2.49
2.53 -8.15 2.39
2.69 -8.10 2.39
2.85 -8.04 2.39
3.01 -7.98 2.39
3.17 -7.92 2.39
3.33 -7.85 2.39
3.48 -7.78 2.39
3.64 -7.71 2.39
3.79 -7.63 2.39
3.94 -7.55 2.39
4.09 -7.47 2.39
4.24 -7.39 2.39
4.39 -7.30 2.39
4.53 -7.21 2.39
4.68 -7.11 2.39
4.82 -7.02 2.39
4.95 -6.92 2.39
5.09 -6.82 2.39
5.23 -6.71 2.39
5.36 -6.60 2.39
5.49 -6.49 2.39
5.62 -6.38 2.39
5.74 -6.26 2.39
5.87 -6.15 2.39
5.10 -5.13 2.04
5.11 -4.94 2.00
5.06 -4.70 1.95
4.76 -4.24 1.80
4.74 -4.06 1.76
4.75 -3.91 1.73
4.80 -3.79 1.72
4.85 -3.67 1.71
4.89 -3.56 1.71
4.93 -3.43 1.69
4.95 -3.30 1.68
5.02 -3.20 1.68
5.20 -3.17 1.72
5.81 -3.39 1.90
5.83 -3.24 1.88
5.61 -2.97 1.79
5.68 -2.87 1.80
5.71 -2.74 1.79
5.74 -2.62 1.78
5.84 -2.52 1.80
6.14 -2.51 1.88
6.27 -2.41 1.90
6.34 -2.29 1.91
6.48 -2.20 1.94
6.66 -2.11 1.98
7.59 -2.24 2.24
7.24 -1.98 2.13
6.25 -1.58 1.83
6.11 -1.41 1.78
6.11 -1.28 1.77
6.18 -1.17 1.78
6.26 -1.05 1.80
6.32 -0.93 1.81
5.45 -0.69 1.56
5.07 -0.54 1.45
4.96 -0.43 1.41
4.64 -0.31 1.32
4.55 -0.21 1.29
4.43 -0.12 1.26
4.29 -0.03 1.22
4.15 0.06 1.18
4.10 0.14 1.17
4.07 0.22 1.16
4.04 0.30 1.15
4.06 0.38 1.16
4.08 0.47 1.17
4.11 0.56 1.18
4.14 0.65 1.19
4.20 0.74 1.21
4.29 0.85 1.25
4.43 0.97 1.29
4.55 1.09 1.33
4.65 1.21 1.37
4.78 1.35 1.42
5.22 1.59 1.56
5.73 1.87 1.72
5.24 1.83 1.58
4.76 1.77 1.45
4.60 1.82 1.41
4.50 1.88 1.39
4.42 1.95 1.38
4.37 2.03 1.38
4.33 2.13 1.38
4.30 2.22 1.38
4.28 2.31 1.39
4.24 2.41 1.39
4.21 2.50 1.40
4.32 2.69 1.46
4.28 2.78 1.46
4.23 2.87 1.46
4.43 3.14 1.55
5.80 4.29 2.06
5.60 4.32 2.02
5.47 4.39 2.01
5.26 4.40 1.96
5.14 4.48 1.95
5.02 4.56 1.94
4.80 4.54 1.89
4.61 4.53 1.85
4.47 4.58 1.83
4.33 4.61 1.81
4.24 4.71 1.82
4.15 4.80 1.82
4.10 4.94 1.84
4.14 5.20 1.90
4.04 5.28 1.90
3.93 5.36 1.90
3.82 5.43 1.90
3.72 5.53 1.91
3.64 5.64 1.92
3.55 5.76 1.94
2.54 4.32 1.44
3.43 6.10 2.01
3.37 6.29 2.04
3.79 7.43 2.39
3.64 7.50 2.39
3.49 7.58 2.39
3.34 7.64 2.39
3.18 7.71 2.39
3.03 7.77 2.39
2.87 7.83 2.39
2.71 7.89 2.39
2.55 7.94 2.39
2.39 7.99 2.39
2.24 8.06 2.40
2.16 8.43 2.49
1.99 8.47 2.49
1.82 8.51 2.49
1.65 8.54 2.49
1.48 8.58 2.49
1.30 8.60 2.49
1.13 8.63 2.49
0.96 8.65 2.49
0.78 8.67 2.49
0.61 8.68 2.49
0.43 8.69 2.49
0.26 8.70 2.49
0.08 8.71 2.49
-0.09 8.71 2.49
-0.27 8.70 2.49
-0.44 8.70 2.49
-0.61 8.69 2.49
-0.79 8.67 2.49
-0.96 8.66 2.49
-1.14 8.64 2.49
-1.31 8.61 2.49
-1.48 8.59 2.49
-1.66 8.56 2.49
-1.83 8.52 2.49
-2.00 8.48 2.49
-2.17 8.44 2.49
-2.34 8.40 2.49
-2.51 8.35 2.49
-2.68 8.30 2.49
-2.84 8.25 2.49
-3.01 8.19 2.49
-3.17 8.13 2.49
-3.33 8.07 2.49
-3.50 8.00 2.49
-3.66 7.93 2.49
-3.82 7.85 2.49
-3.97 7.78 2.49
-4.13 7.70 2.49
-4.29 7.61 2.49
-4.44 7.53 2.49
-4.59 7.44 2.49
-4.74 7.35 2.49
-4.89 7.25 2.49
-5.03 7.15 2.49
-5.18 7.05 2.49
-5.32 6.95 2.49
-5.46 6.84 2.49
-5.59 6.73 2.49
-5.73 6.62 2.49
-5.80 6.43 2.47
-5.80 6.18 2.41
-5.87 6.01 2.39
-5.99 5.89 2.39
-6.11 5.77 2.39
-6.22 5.65 2.39
-6.34 5.52 2.39
-6.45 5.40 2.39
-6.56 5.27 2.39
-6.66 5.14 2.39
-6.77 5.00 2.39
-6.87 4.87 2.39
-6.97 4.73 2.39
-7.06 4.59 2.39
-7.15 4.45 2.39
-7.24 4.30 2.39
-7.33 4.16 2.39
-7.41 4.01 2.39
-7.50 3.86 2.39
-7.57 3.71 2.39
-7.65 3.56 2.39
-7.72 3.41 2.39
-7.79 3.25 2.39
-7.85 3.10 2.39
-7.92 2.94 2.39
-7.98 2.78 2.39
-8.03 2.62 2.39
-8.09 2.46 2.39
-8.14 2.30 2.39
-8.18 2.13 2.39
-8.23 1.97 2.39
-8.27 1.80 2.39
-8.30 1.64 2.39
-8.34 1.47 2.39
-8.37 1.30 2.39
-8.39 1.14 2.39
-8.42 0.97 2.39
-8.44 0.80 2.39
-8.45 0.63 2.39
-8.46 0.46 2.39
-8.47 0.29 2.39
-8.48 0.12 2.39
-5.93 -0.04 1.67
-8.48 -0.22 2.39
-8.48 -0.39 2.39
-8.47 -0.56 2.39
-8.46 -0.73 2.39
-8.45 -0.90 2.39
-8.43 -1.07 2.39
-8.41 -1.24 2.39
-8.38 -1.41 2.39
-8.35 -1.58 2.39
-8.32 -1.74 2.39
-8.29 -1.91 2.39
-8.25 -2.08 2.39
-8.21 -2.24 2.39
-8.16 -2.41 2.39
-8.11 -2.57 2.39
-8.06 -2.73 2.39
-8.01 -2.90 2.39
-7.95 -3.06 2.39
-7.89 -3.22 2.39
-7.82 -3.37 2.39
-7.76 -3.53 2.39
-7.69 -3.69 2.39
-7.61 -3.84 2.39
-7.53 -3.99 2.39
-7.45 -4.14 2.39
-7.37 -4.29 2.39
-7.28 -4.44 2.39
-7.19 -4.59 2.39
-7.10 -4.73 2.39
-7.01 -4.87 2.39
-6.91 -5.01 2.39
-6.81 -5.15 2.39
-6.70 -5.29 2.39
-6.60 -5.42 2.39
-6.49 -5.56 2.39
-6.38 -5.68 2.39
-6.26 -5.81 2.39
-6.14 -5.94 2.39
-6.02 -6.06 2.39
-5.90 -6.18 2.39
-5.78 -6.30 2.39
-5.65 -6.41 2.39
-5.61 -6.63 2.43
-5.60 -6.90 2.49
-5.48 -7.03 2.49
-5.34 -7.14 2.49
-5.20 -7.25 2.49
-5.05 -7.35 2.49
-4.90 -7.45 2.49
-4.75 -7.55 2.49
-4.60 -7.64 2.49
-4.45 -7.74 2.49
-4.29 -7.82 2.49
-4.13 -7.91 2.49
-3.97 -7.99 2.49
-3.81 -8.07 2.49
-3.65 -8.14 2.49
-3.49 -8.22 2.49
-3.32 -8.28 2.49
-3.16 -8.35 2.49
-2.99 -8.41 2.49
-2.82 -8.47 2.49
-2.65 -8.52 2.49
-2.48 -8.57 2.49
-2.30 -8.62 2.49
-2.13 -8.67 2.49
-1.96 -8.71 2.49
-1.78 -8.74 2.49
-1.60 -8.78 2.49
-1.43 -8.81 2.49
-1.25 -8.84 2.49
-1.07 -8.86 2.49
-0.90 -8.88 2.49
-0.72 -8.89 2.49
-0.54 -8.90 2.49
-0.36 -8.91 2.49
-0.18 -8.92 2.49
-0.00 -8.20 2.49
0.16 -8.20 2.49
0.33 -8.19 2.49
0.49 -8.19 2.49
0.65 -8.17 2.49
0.82 -8.16 2.49
0.98 -8.14 2.49
1.14 -8.12 2.49
1.31 -8.09 2.49
1.47 -8.06 2.49
1.63 -8.03 2.49
1.79 -7.99 2.49
1.95 -7.96 2.49
2.11 -7.91 2.49
2.27 -7.87 2.49
2.42 -7.82 2.49
2.47 -7.45 2.39
2.62 -7.40 2.39
2.77 -7.34 2.39
2.92 -7.28 2.39
3.06 -7.22 2.39
3.20 -7.16 2.39
3.35 -7.09 2.39
3.49 -7.02 2.39
3.63 -6.95 2.39
3.76 -6.87 2.39
3.90 -6.80 2.39
4.04 -6.71 2.39
4.17 -6.63 2.39
4.30 -6.54 2.39
4.43 -6.46 2.39
4.56 -6.36 2.39
4.68 -6.27 2.39
4.81 -6.17 2.39
4.93 -6.08 2.39
5.05 -5.97 2.39
5.17 -5.87 2.39
5.28 -5.76 2.39
5.40 -5.66 2.39
5.04 -5.08 2.19
5.07 -4.90 2.16
5.03 -4.67 2.10
4.65 -4.15 1.91
4.62 -3.96 1.86
4.66 -3.84 1.85
4.72 -3.73 1.84
4.78 -3.62 1.84
4.83 -3.51 1.83
4.87 -3.39 1.82
4.90 -3.27 1.80
4.92 -3.14 1.79
4.99 -3.05 1.79
5.05 -2.95 1.80
5.16 -2.87 1.81
5.40 -2.87 1.88
5.47 -2.76 1.88
5.53 -2.66 1.88
5.57 -2.54 1.88
5.70 -2.46 1.91
6.07 -2.48 2.02
6.14 -2.36 2.02
6.21 -2.25 2.03
6.29 -2.13 2.04
6.42 -2.04 2.07
6.61 -1.95 2.12
6.76 -1.85 2.16
6.08 -1.53 1.93
6.03 -1.39 1.91
6.01 -1.26 1.89
6.09 -1.15 1.91
6.15 -1.03 1.92
6.11 -0.90 1.90
5.02 -0.64 1.56
4.98 -0.53 1.54
4.87 -0.42 1.51
4.56 -0.30 1.41
4.43 -0.20 1.37
4.30 -0.11 1.33
4.16 -0.02 1.29
4.07 0.06 1.26
4.04 0.14 1.25
4.01 0.22 1.24
3.99 0.30 1.24
4.00 0.38 1.24
4.02 0.46 1.25
4.03 0.55 1.26
4.06 0.63 1.27
4.08 0.72 1.28
4.16 0.82 1.31
4.30 0.94 1.36
4.45 1.06 1.42
4.54 1.18 1.45
4.75 1.34 1.53
5.25 1.60 1.70
5.53 1.80 1.80
5.24 1.83 1.72
4.72 1.75 1.56
4.59 1.81 1.53
4.52 1.89 1.52
4.44 1.96 1.51
4.39 2.04 1.50
4.37 2.14 1.51
4.34 2.24 1.52
4.32 2.34 1.52
4.29 2.43 1.53
4.26 2.53 1.54
4.34 2.70 1.59
4.30 2.79 1.59
4.25 2.88 1.59
4.29 3.04 1.63
5.30 3.92 2.05
5.18 4.00 2.03
5.25 4.22 2.09
5.07 4.25 2.05
4.96 4.32 2.04
4.87 4.42 2.04
4.78 4.51 2.04
4.61 4.54 2.01
4.45 4.56 1.98
4.30 4.58 1.95
4.23 4.69 1.96
4.15 4.80 1.97
4.11 4.95 2.00
4.02 5.04 2.01
3.91 5.12 2.00
3.82 5.21 2.01
3.73 5.31 2.02
3.65 5.42 2.03
3.56 5.53 2.05
3.48 5.64 2.06
2.54 4.32 1.56
3.35 5.96 2.13
3.31 6.17 2.18
3.49 6.84 2.39
3.35 6.91 2.39
3.21 6.98 2.39
3.07 7.04 2.39
2.93 7.10 2.39
2.79 7.16 2.39
2.64 7.21 2.39
2.50 7.26 2.39
2.35 7.31 2.39
2.24 7.48 2.43
2.14 7.72 2.49
1.99 7.76 2.49
1.83 7.80 2.49
1.68 7.84 2.49
1.52 7.87 2.49
1.36 7.90 2.49
1.20 7.93 2.49
1.04 7.95 2.49
0.88 7.97 2.49
0.72 7.98 2.49
0.56 8.00 2.49
0.40 8.01 2.49
0.24 8.01 2.49
0.08 8.02 2.49
-0.08 8.02 2.49
-0.24 8.02 2.49
-0.41 8.01 2.49
-0.57 8.00 2.49
-0.73 7.99 2.49
-0.89 7.97 2.49
-1.05 7.96 2.49
-1.21 7.93 2.49
-1.37 7.91 2.49
-1.53 7.88 2.49
-1.68 7.85 2.49
-1.84 7.81 2.49
-2.00 7.78 2.49
-2.15 7.74 2.49
-2.31 7.69 2.49
-2.46 7.65 2.49
-2.62 7.60 2.49
-2.77 7.54 2.49
-2.92 7.49 2.49
-3.07 7.43 2.49
-3.22 7.37 2.49
-3.37 7.30 2.49
-3.52 7.23 2.49
-3.66 7.16 2.49
-3.80 7.09 2.49
-3.95 7.01 2.49
-4.09 6.93 2.49
-4.23 6.85 2.49
-4.36 6.77 2.49
-4.50 6.68 2.49
-4.63 6.59 2.49
-4.77 6.49 2.49
-4.90 6.40 2.49
-5.03 6.30 2.49
-5.15 6.20 2.49
-5.28 6.10 2.49
-5.40 5.99 2.49
-5.52 5.88 2.49
-5.64 5.77 2.49
-5.75 5.66 2.49
-5.78 5.46 2.46
-5.78 5.25 2.41
-5.84 5.08 2.39
-5.94 4.97 2.39
-6.04 4.85 2.39
-6.14 4.73 2.39
-6.23 4.60 2.39
-6.32 4.48 2.39
-6.41 4.35 2.39
-6.50 4.22 2.39
-6.59 4.09 2.39
-6.67 3.96 2.39
-6.75 3.83 2.39
-6.83 3.69 2.39
-6.90 3.55 2.39
-6.97 3.42 2.39
-7.04 3.28 2.39
-7.11 3.14 2.39
-7.17 2.99 2.39
-7.23 2.85 2.39
-7.29 2.70 2.39
-7.34 2.56 2.39
-7.39 2.41 2.39
-7.44 2.26 2.39
-7.49 2.11 2.39
-7.53 1.96 2.39
-7.57 1.81 2.39
-7.61 1.66 2.39
-7.64 1.51 2.39
-7.67 1.35 2.39
-7.70 1.20 2.39
-7.72 1.04 2.39
-7.74 0.89 2.39
-7.76 0.73 2.39
-7.78 0.58 2.39
-7.79 0.42 2.39
-7.80 0.27 2.39
-7.80 0.11 2.39
-5.92 -0.04 1.82
-7.80 -0.20 2.39
-7.80 -0.36 2.39
-7.79 -0.52 2.39
-7.78 -0.67 2.39
-7.77 -0.83 2.39
-7.75 -0.99 2.39
-7.73 -1.14 2.39
-7.71 -1.30 2.39
-7.69 -1.45 2.39
-7.66 -1.60 2.39
-7.62 -1.76 2.39
-7.59 -1.91 2.39
-7.55 -2.06 2.39
-7.51 -2.22 2.39
-7.46 -2.37 2.39
-7.42 -2.52 2.39
-7.37 -2.66 2.39
-7.31 -2.81 2.39
-7.26 -2.96 2.39
-7.20 -3.10 2.39
-7.13 -3.25 2.39
-7.07 -3.39 2.39
-7.00 -3.53 2.39
-6.93 -3.67 2.39
-6.86 -3.81 2.39
-6.78 -3.95 2.39
-6.70 -4.09 2.39
-6.62 -4.22 2.39
-6.53 -4.35 2.39
-6.44 -4.48 2.39
-6.35 -4.61 2.39
-6.26 -4.74 2.39
-6.17 -4.86 2.39
-6.07 -4.99 2.39
-5.97 -5.11 2.39
-5.86 -5.23 2.39
-5.76 -5.35 2.39
-5.65 -5.46 2.39
-5.62 -5.66 2.43
-5.62 -5.88 2.47
-5.54 -6.04 2.49
-5.42 -6.15 2.49
-5.30 -6.26 2.49
-5.17 -6.37 2.49
-5.04 -6.47 2.49
-4.91 -6.57 2.49
-4.78 -6.67 2.49
-4.65 -6.76 2.49
-4.51 -6.85 2.49
-4.37 -6.94 2.49
-4.23 -7.03 2.49
-4.09 -7.11 2.49
-3.95 -7.20 2.49
-3.80 -7.27 2.49
-3.66 -7.35 2.49
-3.51 -7.42 2.49
-3.36 -7.49 2.49
-3.21 -7.56 2.49
-3.05 -7.62 2.49
-2.90 -7.68 2.49
-2.75 -7.73 2.49
-2.59 -7.79 2.49
-2.43 -7.84 2.49
-2.28 -7.89 2.49
-2.12 -7.93 2.49
-1.96 -7.97 2.49
-1.80 -8.01 2.49
-1.64 -8.04 2.49
-1.48 -8.07 2.49
-1.31 -8.10 2.49
-1.15 -8.12 2.49
-0.99 -8.15 2.49
-0.82 -8.16 2.49
-0.66 -8.18 2.49
-0.50 -8.19 2.49
-0.33 -8.20 2.49
-0.17 -8.20 2.49
-0.00 -7.58 2.49
0.15 -7.58 2.49
0.30 -7.58 2.49
0.45 -7.57 2.49
0.60 -7.56 2.49
0.76 -7.54 2.49
0.91 -7.53 2.49
1.06 -7.51 2.49
1.21 -7.48 2.49
1.36 -7.46 2.49
1.51 -7.43 2.49
1.66 -7.39 2.49
1.80 -7.36 2.49
1.95 -7.32 2.49
2.10 -7.28 2.49
2.24 -7.23 2.49
2.39 -7.19 2.49
2.45 -6.91 2.42
2.56 -6.79 2.39
2.70 -6.74 2.39
2.83 -6.68 2.39
2.96 -6.62 2.39
3.09 -6.56 2.39
3.22 -6.49 2.39
3.35 -6.43 2.39
3.48 -6.36 2.39
3.61 -6.28 2.39
3.73 -6.21 2.39
3.86 -6.13 2.39
3.98 -6.05 2.39
4.10 -5.97 2.39
4.21 -5.89 2.39
4.33 -5.80 2.39
4.45 -5.71 2.39
4.56 -5.62 2.39
4.67 -5.53 2.39
4.78 -5.43 2.39
4.89 -5.33 2.39
4.99 -5.23 2.39
5.07 -5.11 2.38
5.08 -4.91 2.34
5.01 -4.66 2.26
4.62 -4.12 2.05
4.56 -3.91 1.99
4.61 -3.79 1.97
4.66 -3.68 1.97
4.72 -3.57 1.96
4.77 -3.47 1.95
4.81 -3.35 1.94
4.84 -3.23 1.93
4.88 -3.11 1.92
4.94 -3.02 1.92
5.00 -2.91 1.92
5.06 -2.82 1.92
5.14 -2.73 1.93
5.31 -2.68 1.97
5.37 -2.58 1.98
5.47 -2.49 1.99
5.58 -2.41 2.02
5.85 -2.39 2.10
6.03 -2.32 2.15
6.11 -2.21 2.16
6.19 -2.10 2.17
6.27 -1.99 2.19
6.41 -1.89 2.22
6.06 -1.66 2.09
5.99 -1.51 2.06
5.94 -1.37 2.03
5.95 -1.25 2.02
5.31 -1.00 1.80
5.16 -0.87 1.74
4.93 -0.73 1.66
4.93 -0.63 1.65
4.91 -0.52 1.64
4.80 -0.42 1.61
4.50 -0.30 1.50
4.30 -0.20 1.43
4.17 -0.11 1.39
4.04 -0.02 1.35
4.00 0.06 1.34
3.98 0.14 1.33
3.96 0.21 1.32
3.94 0.29 1.32
3.95 0.37 1.33
3.97 0.46 1.33
3.98 0.54 1.34
3.99 0.62 1.35
4.01 0.71 1.36
4.04 0.80 1.38
4.17 0.91 1.43
4.35 1.04 1.50
4.60 1.20 1.59
4.94 1.39 1.72
5.25 1.60 1.83
5.43 1.77 1.91
5.01 1.75 1.78
4.67 1.73 1.67
4.58 1.80 1.65
4.52 1.89 1.64
4.46 1.97 1.63
4.43 2.06 1.64
4.41 2.16 1.65
4.38 2.26 1.65
4.36 2.36 1.66
4.33 2.46 1.67
4.30 2.56 1.68
4.38 2.72 1.73
4.33 2.81 1.73
4.28 2.91 1.73
4.34 3.08 1.79
4.81 3.56 2.01
4.71 3.63 2.00
4.68 3.76 2.01
5.05 4.23 2.21
4.87 4.25 2.17
4.79 4.35 2.17
4.70 4.44 2.17
4.63 4.56 2.18
4.46 4.57 2.14
4.29 4.58 2.11
4.20 4.66 2.11
4.13 4.77 2.12
4.04 4.87 2.12
3.94 4.94 2.12
3.86 5.04 2.13
3.78 5.15 2.15
3.70 5.27 2.16
3.62 5.38 2.18
3.54 5.49 2.20
3.46 5.61 2.21
2.54 4.32 1.69
3.31 5.89 2.27
3.36 6.27 2.39
3.23 6.34 2.39
3.11 6.40 2.39
2.98 6.46 2.39
2.85 6.52 2.39
2.71 6.58 2.39
2.58 6.63 2.39
2.46 6.71 2.40
2.31 6.73 2.39
2.24 6.98 2.46
2.13 7.11 2.49
1.99 7.15 2.49
1.84 7.19 2.49
1.70 7.22 2.49
1.55 7.26 2.49
1.41 7.29 2.49
1.26 7.31 2.49
1.11 7.34 2.49
0.96 7.36 2.49
0.82 7.38 2.49
0.67 7.39 2.49
0.52 7.41 2.49
0.37 7.42 2.49
0.22 7.42 2.49
0.07 7.42 2.49
-0.08 7.43 2.49
-0.23 7.42 2.49
-0.38 7.42 2.49
-0.52 7.41 2.49
-0.67 7.40 2.49
-0.82 7.38 2.49
-0.97 7.37 2.49
-1.12 7.35 2.49
-1.27 7.32 2.49
-1.41 7.30 2.49
-1.56 7.27 2.49
-1.71 7.24 2.49
-1.85 7.20 2.49
-2.00 7.16 2.49
-2.14 7.12 2.49
-2.28 7.08 2.49
-2.42 7.03 2.49
-2.57 6.98 2.49
-2.71 6.93 2.49
-2.84 6.88 2.49
-2.98 6.82 2.49
-3.12 6.76 2.49
-3.25 6.70 2.49
-3.39 6.63 2.49
-3.52 6.56 2.49
-3.65 6.49 2.49
-3.78 6.42 2.49
-3.91 6.34 2.49
-4.04 6.26 2.49
-4.17 6.18 2.49
-4.29 6.10 2.49
-4.41 6.01 2.49
-4.53 5.92 2.49
-4.65 5.83 2.49
-4.77 5.74 2.49
-4.88 5.64 2.49
-5.00 5.54 2.49
-5.11 5.44 2.49
-5.22 5.34 2.49
-5.33 5.24 2.49
-5.43 5.13 2.49
-5.53 5.02 2.49
-5.63 4.91 2.49
-5.73 4.80 2.49
-5.77 4.63 2.47
-5.77 4.44 2.43
-5.77 4.27 2.39
-5.85 4.14 2.39
-5.95 4.04 2.40
-6.02 3.91 2.39
-6.10 3.79 2.39
-6.17 3.67 2.39
-6.25 3.54 2.39
-6.32 3.42 2.39
-6.39 3.29 2.39
-6.45 3.16 2.39
-6.52 3.03 2.39
-6.58 2.90 2.39
-6.63 2.77 2.39
-6.69 2.64 2.39
-6.74 2.50 2.39
-6.79 2.37 2.39
-6.84 2.23 2.39
-6.89 2.09 2.39
-6.93 1.95 2.39
-6.97 1.82 2.39
-7.00 1.68 2.39
-7.04 1.53 2.39
-7.07 1.39 2.39
-7.10 1.25 2.39
-7.12 1.11 2.39
-7.14 0.97 2.39
-7.16 0.82 2.39
-7.18 0.68 2.39
-7.19 0.53 2.39
-7.21 0.39 2.39
-7.21 0.25 2.39
-7.22 0.10 2.39
-5.92 -0.04 1.96
-7.22 -0.19 2.39
-7.22 -0.33 2.39
-7.21 -0.48 2.39
-7.20 -0.62 2.39
-7.19 -0.77 2.39
-7.17 -0.91 2.39
-7.15 -1.06 2.39
-7.13 -1.20 2.39
-7.11 -1.34 2.39
-7.08 -1.49 2.39
-7.05 -1.63 2.39
-7.02 -1.77 2.39
-6.98 -1.91 2.39
-6.95 -2.05 2.39
-6.90 -2.19 2.39
-6.86 -2.33 2.39
-6.81 -2.46 2.39
-6.76 -2.60 2.39
-6.71 -2.74 2.39
-6.66 -2.87 2.39
-6.60 -3.01 2.39
-6.54 -3.14 2.39
-6.47 -3.27 2.39
-6.41 -3.40 2.39
-6.34 -3.53 2.39
-6.27 -3.65 2.39
-6.20 -3.78 2.39
-6.12 -3.90 2.39
-6.04 -4.03 2.39
-5.96 -4.15 2.39
-5.88 -4.27 2.39
-5.79 -4.38 2.39
-5.70 -4.50 2.39
-5.64 -4.64 2.41
-5.63 -4.82 2.44
-5.63 -5.02 2.48
-5.55 -5.16 2.49
-5.45 -5.27 2.49
-5.34 -5.38 2.49
-5.24 -5.48 2.49
-5.13 -5.59 2.49
-5.01 -5.69 2.49
-4.90 -5.79 2.49
-4.78 -5.89 2.49
-4.66 -5.98 2.49
-4.54 -6.07 2.49
-4.42 -6.16 2.49
-4.30 -6.25 2.49
-4.17 -6.34 2.49
-4.04 -6.42 2.49
-3.91 -6.50 2.49
-3.78 -6.58 2.49
-3.65 -6.65 2.49
-3.51 -6.72 2.49
-3.38 -6.79 2.49
-3.24 -6.86 2.49
-3.10 -6.92 2.49
-2.97 -6.99 2.49
-2.82 -7.04 2.49
-2.68 -7.10 2.49
-2.54 -7.15 2.49
-2.40 -7.20 2.49
-2.25 -7.25 2.49
-2.11 -7.29 2.49
-1.96 -7.33 2.49
-1.81 -7.37 2.49
-1.66 -7.40 2.49
-1.51 -7.44 2.49
-1.36 -7.46 2.49
-1.21 -7.49 2.49
-1.06 -7.51 2.49
-0.91 -7.53 2.49
-0.76 -7.55 2.49
-0.61 -7.56 2.49
-0.46 -7.57 2.49
-0.31 -7.58 2.49
-0.15 -7.58 2.49
-0.00 -7.05 2.49
0.14 -7.04 2.49
0.28 -7.04 2.49
0.42 -7.03 2.49
0.56 -7.02 2.49
0.70 -7.01 2.49
0.84 -6.99 2.49
0.98 -6.97 2.49
1.12 -6.95 2.49
1.26 -6.93 2.49
1.40 -6.90 2.49
1.54 -6.87 2.49
1.67 -6.84 2.49
1.81 -6.80 2.49
1.95 -6.76 2.49
2.08 -6.72 2.49
2.22 -6.68 2.49
2.35 -6.63 2.49
2.44 -6.47 2.45
2.50 -6.26 2.39
2.64 -6.24 2.41
2.75 -6.15 2.39
2.87 -6.09 2.39
3.00 -6.03 2.39
3.12 -5.97 2.39
3.23 -5.91 2.39
3.35 -5.84 2.39
3.47 -5.77 2.39
3.58 -5.70 2.39
3.69 -5.62 2.39
3.81 -5.55 2.39
3.92 -5.47 2.39
4.02 -5.39 2.39
4.13 -5.31 2.39
4.24 -5.22 2.39
4.34 -5.14 2.39
4.44 -5.05 2.39
4.54 -4.96 2.39
4.64 -4.86 2.39
4.73 -4.77 2.39
4.83 -4.67 2.39
4.92 -4.57 2.39
4.60 -4.11 2.20
4.58 -3.93 2.15
4.61 -3.79 2.13
4.65 -3.68 2.11
4.70 -3.56 2.10
4.75 -3.45 2.09
4.79 -3.33 2.08
4.82 -3.21 2.07
4.86 -3.10 2.06
4.91 -3.00 2.05
4.96 -2.89 2.05
5.02 -2.79 2.05
5.08 -2.70 2.05
5.14 -2.60 2.06
5.23 -2.51 2.07
5.31 -2.42 2.08
5.47 -2.36 2.13
5.82 -2.37 2.25
5.96 -2.30 2.28
5.97 -2.16 2.27
6.07 -2.06 2.29
6.17 -1.96 2.32
6.27 -1.85 2.34
5.92 -1.62 2.20
5.45 -1.37 2.01
5.09 -1.18 1.87
4.99 -1.05 1.83
4.90 -0.93 1.79
4.84 -0.82 1.76
4.84 -0.71 1.75
4.83 -0.62 1.75
4.83 -0.52 1.74
4.68 -0.41 1.69
4.35 -0.29 1.56
4.22 -0.20 1.52
4.07 -0.11 1.46
3.97 -0.02 1.43
3.96 0.06 1.42
3.94 0.13 1.41
3.92 0.21 1.41
3.90 0.29 1.40
3.91 0.37 1.41
3.93 0.45 1.42
3.95 0.53 1.43
3.96 0.62 1.44
3.98 0.70 1.45
4.02 0.79 1.47
4.18 0.91 1.54
4.44 1.06 1.64
4.72 1.23 1.76
5.03 1.42 1.88
5.16 1.57 1.94
5.33 1.74 2.02
4.79 1.67 1.83
4.64 1.72 1.78
4.56 1.80 1.77
4.52 1.89 1.76
4.48 1.98 1.76
4.47 2.08 1.78
4.45 2.18 1.79
4.42 2.28 1.79
4.40 2.38 1.80
4.37 2.48 1.81
4.40 2.61 1.84
4.42 2.75 1.88
4.37 2.84 1.88
4.32 2.93 1.88
4.41 3.13 1.95
4.64 3.43 2.08
4.57 3.52 2.08
4.51 3.62 2.09
4.51 3.78 2.12
4.89 4.26 2.34
4.73 4.29 2.30
4.64 4.39 2.31
4.57 4.50 2.32
4.50 4.61 2.33
4.33 4.62 2.29
4.19 4.65 2.26
4.09 4.73 2.26
4.01 4.83 2.27
3.92 4.92 2.27
3.84 5.03 2.29
3.77 5.14 2.30
3.69 5.25 2.32
3.61 5.36 2.33
3.52 5.47 2.35
3.44 5.58 2.37
2.55 4.32 1.81
3.24 5.77 2.39
3.13 5.83 2.39
3.01 5.89 2.39
2.89 5.95 2.39
2.77 6.01 2.39
2.65 6.06 2.39
2.52 6.12 2.39
2.40 6.17 2.39
2.28 6.21 2.39
2.24 6.53 2.49
2.11 6.57 2.49
1.98 6.61 2.49
1.85 6.65 2.49
1.71 6.69 2.49
1.58 6.72 2.49
1.44 6.75 2.49
1.31 6.78 2.49
1.17 6.80 2.49
1.03 6.83 2.49
0.90 6.85 2.49
0.76 6.86 2.49
0.62 6.88 2.49
0.48 6.89 2.49
0.34 6.90 2.49
0.21 6.90 2.49
0.07 6.91 2.49
-0.07 6.91 2.49
-0.21 6.90 2.49
-0.35 6.90 2.49
-0.49 6.89 2.49
-0.63 6.88 2.49
-0.76 6.87 2.49
-0.90 6.85 2.49
-1.04 6.83 2.49
-1.18 6.81 2.49
-1.31 6.79 2.49
-1.45 6.76 2.49
-1.59 6.73 2.49
-1.72 6.70 2.49
-1.86 6.66 2.49
-1.99 6.62 2.49
-2.12 6.58 2.49
-2.25 6.54 2.49
-2.39 6.49 2.49
-2.52 6.45 2.49
-2.65 6.39 2.49
-2.77 6.34 2.49
-2.90 6.29 2.49
-3.03 6.23 2.49
-3.15 6.17 2.49
-3.28 6.10 2.49
-3.40 6.04 2.49
-3.52 5.97 2.49
-3.64 5.90 2.49
-3.76 5.82 2.49
-3.87 5.75 2.49
-3.99 5.67 2.49
-4.10 5.59 2.49
-4.22 5.51 2.49
-4.33 5.42 2.49
-4.44 5.33 2.49
-4.54 5.25 2.49
-4.65 5.15 2.49
-4.75 5.06 2.49
-4.85 4.97 2.49
-4.95 4.87 2.49
-5.05 4.77 2.49
-5.15 4.67 2.49
-5.24 4.56 2.49
-5.33 4.46 2.49
-5.42 4.35 2.49
-5.51 4.24 2.49
-5.59 4.13 2.49
-5.68 4.02 2.49
-5.76 3.91 2.49
-5.76 3.74 2.46
-5.76 3.58 2.43
-5.76 3.42 2.40
-5.81 3.29 2.39
-5.87 3.17 2.39
-5.94 3.06 2.39
-6.00 2.94 2.39
-6.06 2.82 2.39
-6.11 2.70 2.39
-6.17 2.57 2.39
-6.22 2.45 2.39
-6.27 2.32 2.39
-6.32 2.20 2.39
-6.36 2.07 2.39
-6.40 1.94 2.39
-6.44 1.82 2.39
-6.48 1.69 2.39
-6.51 1.56 2.39
-6.54 1.43 2.39
-6.57 1.29 2.39
-6.60 1.16 2.39
-6.62 1.03 2.39
-6.64 0.90 2.39
-6.66 0.76 2.39
-6.67 0.63 2.39
-6.69 0.50 2.39
-6.70 0.36 2.39
-6.70 0.23 2.39
-6.71 0.09 2.39
-5.92 -0.04 2.11
-6.71 -0.18 2.39
-6.71 -0.31 2.39
-6.70 -0.45 2.39
-6.69 -0.58 2.39
-6.68 -0.71 2.39
-6.66 -0.85 2.39
-6.65 -0.98 2.39
-6.63 -1.11 2.39
-6.61 -1.25 2.39
-6.58 -1.38 2.39
-6.55 -1.51 2.39
-6.52 -1.64 2.39
-6.49 -1.77 2.39
-6.45 -1.90 2.39
-6.41 -2.03 2.39
-6.37 -2.16 2.39
-6.33 -2.29 2.39
-6.28 -2.42 2.39
-6.24 -2.54 2.39
-6.18 -2.67 2.39
-6.13 -2.79 2.39
-6.07 -2.92 2.39
-6.01 -3.04 2.39
-5.95 -3.16 2.39
-5.89 -3.28 2.39
-5.84 -3.41 2.40
-5.76 -3.51 2.39
-5.68 -3.63 2.39
-5.66 -3.77 2.41
-5.65 -3.93 2.44
-5.64 -4.10 2.47
-5.61 -4.25 2.49
-5.52 -4.36 2.49
-5.44 -4.47 2.49
-5.35 -4.58 2.49
-5.25 -4.69 2.49
-5.16 -4.79 2.49
-5.06 -4.89 2.49
-4.96 -4.99 2.49
-4.86 -5.09 2.49
-4.76 -5.19 2.49
-4.66 -5.29 2.49
-4.55 -5.38 2.49
-4.44 -5.47 2.49
-4.33 -5.56 2.49
-4.22 -5.64 2.49
-4.11 -5.73 2.49
-3.99 -5.81 2.49
-3.87 -5.89 2.49
-3.75 -5.96 2.49
-3.63 -6.04 2.49
-3.51 -6.11 2.49
-3.39 -6.18 2.49
-3.27 -6.25 2.49
-3.14 -6.31 2.49
-3.01 -6.37 2.49
-2.88 -6.43 2.49
-2.75 -6.49 2.49
-2.62 -6.54 2.49
-2.49 -6.59 2.49
-2.36 -6.64 2.49
-2.23 -6.69 2.49
-2.09 -6.73 2.49
-1.96 -6.77 2.49
-1.82 -6.81 2.49
-1.68 -6.85 2.49
-1.54 -6.88 2.49
-1.41 -6.91 2.49
-1.27 -6.93 2.49
-1.13 -6.96 2.49
-0.99 -6.98 2.49
-0.85 -7.00 2.49
-0.71 -7.01 2.49
-0.57 -7.02 2.49
-0.43 -7.03 2.49
-0.29 -7.04 2.49
-0.14 -7.04 2.49
-0.00 -6.57 2.49
0.13 -6.57 2.49
0.26 -6.57 2.49
0.39 -6.56 2.49
0.52 -6.55 2.49
0.65 -6.54 2.49
0.79 -6.52 2.49
0.92 -6.50 2.49
1.05 -6.48 2.49
1.18 -6.46 2.49
1.30 -6.43 2.49
1.43 -6.41 2.49
1.56 -6.38 2.49
1.69 -6.34 2.49
1.82 -6.31 2.49
1.94 -6.27 2.49
2.07 -6.23 2.49
2.19 -6.18 2.49
2.31 -6.14 2.49
2.43 -6.08 2.49
2.45 -5.79 2.39
2.57 -5.74 2.39
2.68 -5.68 2.39
2.79 -5.63 2.39
2.91 -5.57 2.39
3.02 -5.51 2.39
3.13 -5.45 2.39
3.23 -5.38 2.39
3.34 -5.32 2.39
3.45 -5.25 2.39
3.55 -5.18 2.39
3.65 -5.10 2.39
