ply
format ascii 1.0
element vertex 2887
property float32 x
property float32 y
property float32 z
end_header
-10.13 -20.29 1.81
-10.02 -21.11 1.87
-9.86 -21.88 1.93
-9.82 -23.01 2.03
-9.72 -24.12 2.12
-9.58 -25.20 2.20
-9.39 -26.30 2.29
-9.25 -27.63 2.40
-8.60 -27.53 2.39
-8.01 -27.56 2.39
-7.42 -27.58 2.39
-6.83 -27.58 2.39
-6.25 -27.58 2.39
-5.66 -27.56 2.39
-5.12 -27.73 2.41
-4.70 -28.67 2.49
-4.11 -28.61 2.49
-3.51 -28.54 2.49
-2.93 -28.46 2.49
-2.34 -28.37 2.49
-1.76 -28.26 2.49
-1.19 -28.15 2.49
-0.62 -28.02 2.49
-0.06 -22.23 2.49
0.38 -22.14 2.49
0.82 -22.03 2.49
1.26 -21.92 2.49
1.69 -21.80 2.49
2.12 -21.67 2.49
2.54 -21.53 2.49
2.85 -20.59 2.40
3.24 -20.36 2.39
3.63 -20.21 2.39
4.02 -20.05 2.39
4.40 -19.88 2.39
2.79 -11.52 1.40
5.00 -18.94 2.32
5.52 -19.34 2.39
5.89 -19.15 2.39
6.24 -18.95 2.39
7.18 -20.39 2.60
7.67 -20.49 2.64
8.18 -20.57 2.69
8.70 -20.65 2.73
9.20 -20.67 2.77
9.39 -20.00 2.71
9.55 -19.33 2.66
9.51 -18.31 2.55
9.50 -17.44 2.47
9.53 -16.68 2.39
9.54 -15.94 2.32
9.59 -15.32 2.27
9.73 -14.88 2.24
9.81 -14.36 2.20
9.88 -13.86 2.16
9.96 -13.39 2.13
10.03 -12.93 2.09
10.09 -12.49 2.06
10.16 -12.07 2.03
10.24 -11.68 2.01
10.32 -11.30 1.98
10.40 -10.94 1.96
6.38 -6.45 1.18
6.17 -5.99 1.13
6.34 -5.91 1.14
6.63 -5.94 1.17
6.94 -5.97 1.21
11.20 -9.24 1.92
11.27 -8.93 1.91
11.33 -8.61 1.90
11.41 -8.31 1.89
11.48 -8.02 1.88
11.55 -7.72 1.87
11.55 -7.39 1.85
11.49 -7.03 1.82
11.43 -6.68 1.79
11.46 -6.40 1.78
11.51 -6.12 1.78
11.55 -5.85 1.77
11.61 -5.59 1.76
11.70 -5.34 1.76
11.78 -5.10 1.77
11.87 -4.86 1.77
11.96 -4.61 1.77
11.99 -4.35 1.77
12.01 -4.09 1.76
12.09 -3.84 1.76
12.16 -3.60 1.77
12.23 -3.35 1.77
12.30 -3.11 1.77
12.37 -2.86 1.78
12.44 -2.62 1.78
12.51 -2.37 1.79
12.59 -2.12 1.80
12.67 -1.88 1.80
12.75 -1.63 1.81
12.83 -1.37 1.82
12.90 -1.12 1.83
12.99 -0.86 1.84
13.07 -0.60 1.85
13.21 -0.34 1.87
13.39 -0.08 1.90
13.58 0.19 1.93
13.59 0.47 1.93
13.52 0.74 1.93
13.45 1.01 1.92
13.38 1.27 1.92
13.31 1.54 1.91
13.29 1.81 1.91
13.28 2.08 1.92
13.26 2.35 1.92
13.24 2.62 1.93
13.14 2.88 1.92
13.04 3.13 1.92
12.93 3.38 1.91
12.84 3.64 1.91
12.78 3.90 1.91
12.71 4.16 1.91
12.64 4.42 1.91
12.58 4.68 1.92
12.51 4.95 1.92
12.44 5.21 1.93
12.34 5.46 1.93
12.23 5.72 1.93
12.13 5.97 1.93
12.01 6.21 1.93
11.88 6.45 1.93
11.75 6.69 1.92
11.62 6.93 1.92
11.49 7.17 1.92
11.36 7.41 1.92
11.25 7.67 1.93
6.31 4.49 1.10
6.31 4.68 1.11
6.30 4.88 1.13
6.30 5.08 1.14
6.30 5.29 1.16
10.77 9.42 2.01
10.66 9.72 2.03
10.58 10.04 2.04
10.49 10.36 2.06
10.40 10.70 2.08
10.31 11.04 2.11
10.21 11.38 2.13
10.11 11.74 2.15
10.03 12.13 2.18
9.94 12.52 2.21
9.84 12.93 2.24
9.73 13.33 2.27
9.57 13.68 2.30
9.41 14.04 2.32
9.27 14.46 2.35
9.14 14.90 2.39
8.99 15.34 2.42
8.85 15.82 2.46
8.71 16.34 2.51
8.55 16.86 2.56
8.38 17.37 2.60
8.19 17.89 2.65
7.99 18.42 2.69
7.78 18.97 2.74
7.56 19.54 2.79
7.12 19.58 2.77
6.58 19.29 2.70
6.06 19.01 2.64
5.55 18.69 2.57
4.83 17.55 2.39
4.49 17.70 2.39
4.15 17.85 2.39
3.80 17.99 2.39
3.45 18.12 2.39
3.10 18.25 2.39
2.74 18.37 2.39
2.38 18.48 2.39
2.01 18.59 2.39
1.64 18.69 2.39
1.27 18.79 2.39
0.94 19.70 2.49
0.54 19.78 2.49
0.15 19.86 2.49
-0.25 19.94 2.49
-0.66 20.00 2.49
-1.06 20.06 2.49
-1.47 20.11 2.49
-1.88 20.16 2.49
-2.29 20.19 2.49
-2.71 20.22 2.49
-3.13 20.24 2.49
-3.55 20.25 2.49
-3.97 20.26 2.49
-4.39 20.26 2.49
-4.82 20.25 2.49
-5.24 20.23 2.49
-5.67 20.20 2.49
-6.10 20.16 2.49
-6.53 20.12 2.49
-6.96 20.07 2.49
-7.09 19.18 2.39
-7.50 19.11 2.39
-7.92 19.04 2.39
-8.33 18.95 2.39
-8.75 18.86 2.39
-9.16 18.76 2.39
-9.57 18.65 2.39
-9.99 18.53 2.39
-10.40 18.40 2.39
-10.81 18.26 2.39
-11.66 18.82 2.48
-11.71 18.09 2.41
-11.76 17.39 2.34
-11.81 16.73 2.27
-11.90 16.16 2.21
-6.96 9.06 1.26
-12.34 15.42 2.16
-12.58 15.09 2.14
-12.68 14.60 2.10
-12.64 13.98 2.04
-12.58 13.37 1.98
-12.48 12.74 1.91
-12.45 12.21 1.86
-12.41 11.69 1.81
-12.37 11.19 1.77
-12.32 10.71 1.72
-12.07 10.07 1.65
-11.00 8.81 1.48
-11.25 8.65 1.48
-11.25 8.29 1.45
-11.25 7.95 1.43
-11.25 7.62 1.40
-11.18 7.25 1.37
-11.09 6.88 1.34
-11.04 6.55 1.31
-11.04 6.25 1.29
-11.03 5.96 1.27
-11.03 5.67 1.26
-11.03 5.40 1.24
-11.09 5.15 1.23
-11.15 4.91 1.22
-11.22 4.68 1.21
-11.22 4.42 1.20
-11.21 4.15 1.19
-11.20 3.90 1.17
-11.18 3.64 1.16
-11.26 3.42 1.16
-11.36 3.20 1.16
-11.46 2.98 1.16
-11.56 2.76 1.16
-11.66 2.54 1.16
-11.66 2.30 1.16
-11.69 2.06 1.15
-11.83 1.84 1.16
-11.96 1.62 1.17
-12.10 1.39 1.18
-12.17 1.15 1.18
-12.22 0.91 1.18
-12.28 0.67 1.18
-12.34 0.43 1.18
-12.38 0.18 1.19
-12.41 -0.07 1.19
-12.45 -0.32 1.19
-12.48 -0.57 1.19
-12.51 -0.82 1.19
-12.55 -1.08 1.20
-12.58 -1.34 1.20
-12.61 -1.59 1.21
-12.60 -1.85 1.21
-12.59 -2.11 1.21
-12.57 -2.36 1.21
-12.56 -2.62 1.22
-12.55 -2.88 1.22
-12.59 -3.16 1.23
-12.66 -3.45 1.24
-12.68 -3.73 1.25
-12.66 -4.00 1.26
-12.65 -4.28 1.27
-12.63 -4.55 1.27
-12.61 -4.83 1.28
-12.66 -5.14 1.30
-12.71 -5.46 1.31
-12.73 -5.78 1.33
-12.73 -6.09 1.34
-12.74 -6.41 1.36
-12.73 -6.73 1.37
-12.65 -7.01 1.38
-12.57 -7.30 1.39
-12.49 -7.59 1.40
-12.45 -7.92 1.41
-12.43 -8.26 1.43
-12.41 -8.60 1.45
-12.38 -8.96 1.47
-12.29 -9.28 1.48
-12.20 -9.60 1.50
-12.14 -9.95 1.52
-12.08 -10.31 1.54
-12.02 -10.68 1.56
-11.95 -11.06 1.59
-11.90 -11.46 1.61
-11.85 -11.88 1.64
-11.78 -12.29 1.67
-11.71 -12.71 1.70
-11.63 -13.15 1.73
-11.55 -13.60 1.76
-11.51 -14.12 1.81
-11.48 -14.67 1.85
-11.45 -15.25 1.90
-11.40 -15.83 1.95
-11.20 -16.23 1.98
-10.80 -16.34 1.97
-10.54 -16.66 1.99
-10.27 -16.98 2.01
-10.36 -17.93 2.10
-10.20 -18.51 2.15
-10.02 -19.06 2.20
-9.78 -19.55 2.24
-9.64 -20.28 2.31
-9.54 -21.16 2.40
-9.06 -21.21 2.39
-8.60 -21.31 2.39
-8.14 -21.40 2.39
-7.68 -21.48 2.39
-7.22 -21.54 2.39
-6.76 -21.60 2.39
-6.30 -21.65 2.39
-5.85 -21.69 2.39
-5.39 -21.72 2.39
-5.15 -22.67 2.49
-4.67 -22.68 2.49
-4.20 -22.68 2.49
-3.73 -22.67 2.49
-3.26 -22.64 2.49
-2.80 -22.61 2.49
-2.33 -22.57 2.49
-1.87 -22.52 2.49
-1.41 -22.46 2.49
-0.96 -22.40 2.49
-0.51 -22.32 2.49
-0.06 -18.47 2.49
0.31 -18.40 2.49
0.68 -18.33 2.49
1.04 -18.25 2.49
1.40 -18.16 2.49
1.76 -18.06 2.49
2.11 -17.96 2.49
2.46 -17.85 2.49
2.71 -17.08 2.40
3.03 -16.89 2.39
3.35 -16.77 2.39
3.68 -16.64 2.39
2.79 -11.52 1.67
4.31 -16.36 2.39
4.62 -16.22 2.39
4.93 -16.07 2.39
5.23 -15.91 2.39
5.53 -15.75 2.39
5.83 -15.58 2.39
6.12 -15.41 2.39
6.40 -15.23 2.39
7.40 -16.65 2.65
7.85 -16.76 2.70
8.31 -16.85 2.75
8.80 -16.97 2.80
9.01 -16.55 2.77
9.03 -15.82 2.69
9.05 -15.14 2.61
9.15 -14.63 2.56
9.24 -14.13 2.52
9.32 -13.65 2.47
9.40 -13.19 2.43
9.48 -12.76 2.39
9.56 -12.33 2.35
9.63 -11.93 2.32
9.71 -11.54 2.29
9.79 -11.18 2.26
9.87 -10.82 2.23
9.92 -10.44 2.20
6.39 -6.46 1.39
6.18 -6.00 1.33
6.33 -5.91 1.34
6.62 -5.94 1.38
6.93 -5.97 1.42
10.50 -8.67 2.12
10.55 -8.37 2.10
10.61 -8.07 2.08
10.68 -7.79 2.07
10.75 -7.52 2.06
10.82 -7.25 2.05
10.89 -6.98 2.04
10.86 -6.65 2.01
10.91 -6.39 2.00
10.96 -6.12 1.99
11.01 -5.86 1.99
11.05 -5.60 1.98
11.10 -5.35 1.97
11.16 -5.10 1.97
11.24 -4.87 1.97
11.33 -4.64 1.97
11.36 -4.39 1.96
11.39 -4.14 1.96
11.42 -3.89 1.95
11.44 -3.64 1.94
11.49 -3.41 1.95
11.56 -3.17 1.95
11.63 -2.94 1.95
11.69 -2.71 1.96
11.76 -2.48 1.96
11.83 -2.24 1.97
11.90 -2.01 1.98
11.94 -1.77 1.98
11.97 -1.53 1.98
12.01 -1.29 1.98
12.04 -1.05 1.99
12.07 -0.80 1.99
12.10 -0.56 2.00
12.11 -0.32 2.00
12.20 -0.07 2.01
12.30 0.17 2.03
12.44 0.43 2.06
12.59 0.68 2.09
12.75 0.95 2.12
12.76 1.21 2.12
12.70 1.46 2.12
12.67 1.72 2.12
12.65 1.98 2.12
12.64 2.24 2.13
12.62 2.50 2.13
12.60 2.76 2.14
12.58 3.02 2.15
12.54 3.28 2.15
12.44 3.52 2.15
12.37 3.77 2.15
12.31 4.03 2.15
12.24 4.28 2.15
12.18 4.53 2.16
12.08 4.78 2.15
11.97 5.02 2.15
11.87 5.26 2.15
11.76 5.49 2.15
11.69 5.75 2.16
11.63 6.02 2.17
11.51 6.25 2.17
11.38 6.48 2.17
11.26 6.72 2.17
11.13 6.95 2.17
11.00 7.18 2.17
10.87 7.41 2.17
6.31 4.49 1.27
6.31 4.68 1.29
6.30 4.88 1.31
6.30 5.08 1.33
6.30 5.29 1.35
10.51 9.20 2.29
10.39 9.47 2.30
10.29 9.77 2.32
10.21 10.09 2.34
10.12 10.41 2.36
10.02 10.74 2.39
9.93 11.07 2.41
9.81 11.39 2.44
9.66 11.69 2.45
9.53 12.01 2.48
9.38 12.34 2.50
9.24 12.66 2.52
9.09 13.00 2.55
8.93 13.34 2.57
8.76 13.67 2.60
8.57 14.00 2.62
8.38 14.32 2.64
8.19 14.65 2.67
7.98 14.99 2.69
7.77 15.34 2.72
7.49 15.55 2.72
7.11 15.54 2.69
6.73 15.52 2.66
6.35 15.51 2.63
5.98 15.49 2.60
5.61 15.45 2.56
4.96 14.55 2.39
4.68 14.69 2.39
4.39 14.82 2.39
4.10 14.94 2.39
3.81 15.06 2.39
3.52 15.18 2.39
3.22 15.29 2.39
2.92 15.39 2.39
2.62 15.49 2.39
2.32 15.59 2.39
2.01 15.68 2.39
1.70 15.76 2.39
1.38 15.84 2.39
1.11 16.50 2.48
0.78 16.67 2.49
0.45 16.74 2.49
0.11 16.79 2.49
-0.22 16.85 2.49
-0.56 16.89 2.49
-0.91 16.93 2.49
-1.25 16.97 2.49
-1.60 16.99 2.49
-1.94 17.01 2.49
-2.29 17.03 2.49
-2.64 17.03 2.49
-2.99 17.03 2.49
-3.35 17.03 2.49
-3.70 17.02 2.49
-4.05 17.00 2.49
-4.41 16.97 2.49
-4.77 16.93 2.49
-5.12 16.89 2.49
-5.48 16.85 2.49
-5.84 16.79 2.49
-6.19 16.73 2.49
-6.55 16.66 2.49
-6.91 16.58 2.49
-6.96 15.81 2.39
-7.30 15.73 2.39
-7.64 15.63 2.39
-7.98 15.53 2.39
-8.32 15.42 2.39
-8.66 15.30 2.39
-9.00 15.18 2.39
-9.33 15.05 2.39
-9.66 14.91 2.39
-10.00 14.76 2.39
-10.33 14.61 2.39
-10.65 14.45 2.39
-6.95 9.04 1.51
-11.85 14.79 2.51
-11.97 14.34 2.46
-11.97 13.77 2.40
-11.90 13.15 2.32
-11.86 12.59 2.26
-11.91 12.15 2.21
-11.89 11.65 2.16
-11.86 11.16 2.11
-11.83 10.70 2.06
-11.88 10.31 2.02
-11.68 9.74 1.95
-10.99 8.80 1.80
-11.07 8.51 1.78
-11.08 8.16 1.75
-11.08 7.82 1.72
-11.08 7.50 1.69
-11.02 7.14 1.65
-10.95 6.78 1.61
-10.92 6.47 1.59
-10.92 6.17 1.56
-10.91 5.89 1.54
-10.91 5.61 1.52
-10.91 5.33 1.50
-10.96 5.09 1.49
-11.02 4.85 1.48
-11.08 4.62 1.47
-11.07 4.35 1.46
-11.06 4.09 1.44
-11.05 3.84 1.43
-11.04 3.59 1.41
-11.08 3.36 1.40
-11.17 3.15 1.41
-11.27 2.93 1.41
-11.37 2.72 1.41
-11.44 2.49 1.41
-11.45 2.25 1.40
-11.46 2.02 1.39
-11.52 1.79 1.40
-11.66 1.58 1.41
-11.79 1.35 1.42
-11.92 1.13 1.43
-12.06 0.90 1.44
-12.13 0.66 1.44
-12.19 0.42 1.45
-12.22 0.17 1.45
-12.25 -0.07 1.45
-12.29 -0.32 1.45
-12.32 -0.56 1.46
-12.35 -0.81 1.46
-12.38 -1.07 1.47
-12.42 -1.32 1.47
-12.44 -1.57 1.48
-12.43 -1.83 1.48
-12.42 -2.08 1.48
-12.41 -2.33 1.49
-12.40 -2.59 1.49
-12.39 -2.85 1.49
-12.37 -3.11 1.50
-12.43 -3.39 1.51
-12.46 -3.66 1.53
-12.45 -3.93 1.53
-12.43 -4.20 1.54
-12.41 -4.47 1.55
-12.40 -4.75 1.56
-12.38 -5.03 1.57
-12.41 -5.34 1.59
-12.45 -5.65 1.61
-12.45 -5.95 1.63
-12.45 -6.26 1.64
-12.45 -6.58 1.66
-12.45 -6.90 1.68
-12.38 -7.19 1.69
-12.30 -7.48 1.70
-12.24 -7.78 1.72
-12.22 -8.11 1.74
-12.19 -8.45 1.76
-12.16 -8.80 1.79
-12.13 -9.15 1.81
-12.05 -9.47 1.83
-11.97 -9.81 1.85
-11.91 -10.16 1.87
-11.85 -10.53 1.90
-11.79 -10.90 1.93
-11.72 -11.28 1.96
-11.66 -11.68 1.99
-11.59 -12.08 2.02
-11.47 -12.45 2.05
-11.30 -12.77 2.07
-11.12 -13.09 2.09
-10.94 -13.41 2.11
-10.80 -13.80 2.14
-10.82 -14.40 2.21
-10.76 -14.93 2.26
-10.69 -15.48 2.31
-10.58 -15.99 2.37
-10.43 -16.48 2.41
-10.24 -16.92 2.45
-10.02 -17.33 2.49
-9.26 -16.79 2.39
-8.90 -16.92 2.39
-8.54 -17.05 2.39
-8.17 -17.17 2.39
-7.80 -17.28 2.39
-7.43 -17.38 2.39
-7.06 -17.47 2.39
-6.69 -17.56 2.39
-6.32 -17.63 2.39
-5.94 -17.70 2.39
-5.57 -17.76 2.39
-5.42 -18.58 2.49
-5.03 -18.63 2.49
-4.64 -18.66 2.49
-4.25 -18.69 2.49
-3.86 -18.71 2.49
-3.48 -18.72 2.49
-3.09 -18.73 2.49
-2.71 -18.72 2.49
-2.32 -18.71 2.49
-1.94 -18.69 2.49
-1.56 -18.66 2.49
-1.18 -18.62 2.49
-0.81 -18.58 2.49
-0.43 -18.53 2.49
-0.06 -15.78 2.49
0.26 -15.73 2.49
0.57 -15.68 2.49
0.88 -15.61 2.49
1.19 -15.55 2.49
1.50 -15.47 2.49
1.80 -15.39 2.49
2.10 -15.31 2.49
2.40 -15.22 2.49
2.60 -14.58 2.40
2.87 -14.40 2.39
3.15 -14.29 2.39
2.78 -11.52 1.94
3.70 -14.07 2.39
3.97 -13.95 2.39
4.23 -13.83 2.39
4.50 -13.70 2.39
4.76 -13.57 2.39
5.01 -13.43 2.39
5.27 -13.29 2.39
5.52 -13.14 2.39
5.76 -12.99 2.39
6.01 -12.83 2.39
6.24 -12.68 2.39
7.06 -13.64 2.61
7.36 -13.54 2.62
7.67 -13.46 2.64
7.99 -13.40 2.67
8.32 -13.32 2.69
8.64 -13.24 2.72
8.87 -13.01 2.72
8.96 -12.59 2.67
9.04 -12.18 2.63
9.12 -11.79 2.59
9.20 -11.41 2.56
9.29 -11.05 2.52
9.36 -10.70 2.49
9.42 -10.33 2.46
9.47 -9.98 2.42
6.40 -6.48 1.61
6.19 -6.02 1.53
6.32 -5.90 1.53
6.61 -5.93 1.58
6.92 -5.96 1.63
9.98 -8.25 2.31
10.04 -7.96 2.29
10.10 -7.69 2.28
10.16 -7.41 2.26
10.21 -7.15 2.25
10.27 -6.88 2.23
10.32 -6.62 2.22
10.38 -6.37 2.21
10.44 -6.11 2.20
10.49 -5.87 2.19
10.54 -5.62 2.18
10.59 -5.37 2.17
10.63 -5.13 2.16
10.68 -4.89 2.15
10.75 -4.66 2.15
10.78 -4.42 2.14
10.81 -4.18 2.14
10.84 -3.94 2.13
10.87 -3.71 2.12
10.90 -3.47 2.12
10.92 -3.24 2.11
10.96 -3.01 2.11
11.02 -2.79 2.11
11.08 -2.57 2.12
11.15 -2.35 2.13
11.22 -2.13 2.13
11.29 -1.91 2.14
11.36 -1.69 2.15
11.41 -1.46 2.15
11.44 -1.23 2.16
11.47 -1.00 2.16
11.50 -0.77 2.16
11.52 -0.54 2.17
11.53 -0.30 2.17
11.54 -0.07 2.17
11.54 0.16 2.18
11.60 0.40 2.19
11.69 0.63 2.21
11.79 0.88 2.23
11.88 1.13 2.25
11.97 1.38 2.28
12.01 1.63 2.29
11.99 1.87 2.29
11.97 2.12 2.30
11.95 2.36 2.30
11.92 2.61 2.31
11.89 2.86 2.32
11.87 3.10 2.32
11.83 3.35 2.33
11.79 3.60 2.33
11.74 3.84 2.34
11.67 4.08 2.34
11.57 4.31 2.34
11.48 4.54 2.33
11.38 4.77 2.33
11.28 5.00 2.33
11.17 5.22 2.33
11.07 5.45 2.33
10.99 5.69 2.34
10.94 5.94 2.35
10.88 6.20 2.36
10.81 6.45 2.37
10.75 6.71 2.39
10.66 6.96 2.40
10.53 7.18 2.40
6.31 4.49 1.45
6.31 4.68 1.47
6.30 4.88 1.49
6.30 5.08 1.52
6.29 5.29 1.54
10.15 8.89 2.52
10.10 9.21 2.55
10.03 9.52 2.58
9.93 9.82 2.60
9.80 10.09 2.62
9.65 10.34 2.63
9.49 10.60 2.64
9.34 10.85 2.65
9.18 11.11 2.66
9.01 11.37 2.68
8.86 11.66 2.70
8.74 11.98 2.73
8.61 12.32 2.76
8.47 12.66 2.79
8.33 13.01 2.83
8.16 13.34 2.86
7.99 13.66 2.89
7.80 13.97 2.91
7.51 14.12 2.91
7.16 14.13 2.87
6.65 13.80 2.77
6.12 13.40 2.66
5.27 12.17 2.39
5.03 12.30 2.39
4.79 12.43 2.39
4.55 12.55 2.39
4.31 12.67 2.39
4.06 12.78 2.39
3.81 12.89 2.39
3.56 12.99 2.39
3.31 13.10 2.39
3.05 13.19 2.39
2.79 13.28 2.39
2.53 13.37 2.39
2.27 13.45 2.39
2.00 13.53 2.39
1.73 13.60 2.39
1.46 13.67 2.39
1.21 13.98 2.43
0.96 14.38 2.49
0.67 14.44 2.49
0.38 14.49 2.49
0.09 14.53 2.49
-0.20 14.57 2.49
-0.50 14.61 2.49
-0.79 14.64 2.49
-1.09 14.66 2.49
-1.39 14.67 2.49
-1.69 14.69 2.49
-1.99 14.69 2.49
-2.29 14.69 2.49
-2.59 14.68 2.49
-2.89 14.67 2.49
-3.19 14.65 2.49
-3.50 14.63 2.49
-3.80 14.60 2.49
-4.11 14.56 2.49
-4.41 14.52 2.49
-4.72 14.47 2.49
-5.02 14.42 2.49
-5.32 14.36 2.49
-5.63 14.29 2.49
-5.93 14.22 2.49
-6.23 14.14 2.49
-6.54 14.05 2.49
-6.84 13.96 2.49
-6.84 13.29 2.39
-7.13 13.19 2.39
-7.41 13.08 2.39
-7.70 12.97 2.39
-7.98 12.85 2.39
-8.26 12.73 2.39
-8.54 12.60 2.39
-8.82 12.46 2.39
-9.09 12.32 2.39
-6.95 9.03 1.78
-9.63 12.01 2.39
-9.90 11.85 2.39
-10.16 11.68 2.39
-10.43 11.51 2.39
-10.69 11.33 2.39
-11.39 11.61 2.49
-11.38 11.14 2.43
-11.36 10.69 2.37
-11.42 10.31 2.34
-11.46 9.94 2.30
-11.31 9.42 2.22
-10.92 8.73 2.11
-10.91 8.37 2.06
-10.91 8.03 2.03
-10.92 7.70 2.00
-10.92 7.38 1.96
-10.87 7.04 1.93
-10.80 6.69 1.88
-10.80 6.39 1.86
-10.80 6.10 1.83
-10.79 5.82 1.81
-10.79 5.54 1.78
-10.79 5.27 1.76
-10.83 5.03 1.75
-10.90 4.79 1.74
-10.94 4.55 1.73
-10.93 4.29 1.71
-10.92 4.04 1.69
-10.91 3.79 1.67
-10.89 3.54 1.66
-10.90 3.30 1.64
-10.99 3.09 1.64
-11.09 2.88 1.65
-11.18 2.67 1.65
-11.23 2.44 1.65
-11.24 2.21 1.64
-11.25 1.98 1.63
-11.25 1.75 1.62
-11.36 1.53 1.63
-11.49 1.32 1.64
-11.62 1.10 1.66
-11.75 0.87 1.67
-11.88 0.64 1.69
-11.95 0.41 1.69
-12.06 0.17 1.71
-12.10 -0.07 1.71
-12.13 -0.31 1.71
-12.16 -0.56 1.72
-12.19 -0.80 1.72
-12.22 -1.05 1.73
-12.26 -1.30 1.73
-12.28 -1.56 1.74
-12.27 -1.80 1.74
-12.26 -2.05 1.75
-12.25 -2.30 1.75
-12.24 -2.56 1.76
-12.23 -2.81 1.76
-12.21 -3.07 1.77
-12.21 -3.33 1.78
-12.26 -3.60 1.79
-12.24 -3.87 1.80
-12.22 -4.13 1.81
-12.20 -4.40 1.82
-12.18 -4.67 1.83
-12.16 -4.94 1.85
-12.14 -5.22 1.86
-12.17 -5.52 1.88
-12.18 -5.82 1.90
-12.17 -6.12 1.92
-12.17 -6.43 1.94
-12.16 -6.74 1.96
-12.16 -7.06 1.98
-12.12 -7.36 2.00
-12.04 -7.65 2.02
-12.01 -7.97 2.04
-11.98 -8.30 2.07
-11.95 -8.64 2.09
-11.92 -8.99 2.12
-11.89 -9.34 2.15
-11.81 -9.67 2.17
-11.75 -10.02 2.20
-11.69 -10.38 2.23
-11.62 -10.74 2.26
-11.47 -11.03 2.28
-11.28 -11.29 2.29
-11.09 -11.56 2.30
-10.93 -11.86 2.32
-10.78 -12.18 2.35
-10.63 -12.50 2.37
-10.46 -12.81 2.39
-10.28 -13.12 2.42
-10.10 -13.43 2.44
-9.60 -13.31 2.39
-9.31 -13.48 2.39
-9.02 -13.63 2.39
-8.73 -13.78 2.39
-8.43 -13.92 2.39
-8.13 -14.05 2.39
-7.83 -14.18 2.39
-7.53 -14.30 2.39
-7.22 -14.41 2.39
-6.91 -14.52 2.39
-6.61 -14.62 2.39
-6.30 -14.71 2.39
-5.99 -14.79 2.39
-5.67 -14.87 2.39
-5.59 -15.59 2.49
-5.26 -15.66 2.49
-4.94 -15.72 2.49
-4.61 -15.77 2.49
-4.28 -15.81 2.49
-3.95 -15.85 2.49
-3.62 -15.88 2.49
-3.29 -15.91 2.49
-2.97 -15.93 2.49
-2.64 -15.94 2.49
-2.31 -15.94 2.49
-1.99 -15.94 2.49
-1.66 -15.93 2.49
-1.34 -15.91 2.49
-1.02 -15.89 2.49
-0.70 -15.86 2.49
-0.38 -15.82 2.49
-0.06 -13.76 2.49
0.22 -13.73 2.49
0.49 -13.68 2.49
0.76 -13.63 2.49
1.03 -13.58 2.49
1.30 -13.52 2.49
1.57 -13.46 2.49
1.83 -13.39 2.49
2.10 -13.31 2.49
2.33 -13.10 2.47
2.52 -12.70 2.41
2.75 -12.52 2.39
2.78 -11.52 2.22
3.23 -12.33 2.39
3.47 -12.23 2.39
3.71 -12.13 2.39
3.94 -12.02 2.39
4.17 -11.91 2.39
4.39 -11.79 2.39
4.62 -11.67 2.39
4.84 -11.54 2.39
5.06 -11.42 2.39
5.27 -11.28 2.39
5.48 -11.15 2.39
5.69 -11.01 2.39
5.90 -10.86 2.39
6.10 -10.72 2.39
6.86 -11.51 2.60
7.12 -11.42 2.62
7.41 -11.37 2.65
7.72 -11.34 2.69
8.03 -11.30 2.72
8.34 -11.25 2.75
8.65 -11.19 2.79
8.81 -10.93 2.77
8.88 -10.57 2.74
8.94 -10.22 2.70
8.99 -9.88 2.66
9.05 -9.54 2.62
6.41 -6.49 1.82
6.19 -6.03 1.73
6.31 -5.90 1.73
6.60 -5.93 1.79
6.91 -5.96 1.84
9.50 -7.86 2.49
9.56 -7.60 2.47
9.62 -7.33 2.45
9.69 -7.08 2.44
9.74 -6.82 2.42
9.80 -6.58 2.41
9.86 -6.33 2.40
9.92 -6.09 2.38
9.98 -5.85 2.37
10.03 -5.62 2.36
10.09 -5.38 2.35
10.14 -5.15 2.34
10.19 -4.92 2.34
10.23 -4.69 2.33
10.26 -4.45 2.32
10.29 -4.22 2.31
10.32 -3.99 2.30
10.35 -3.77 2.29
10.38 -3.54 2.28
10.40 -3.32 2.28
10.43 -3.10 2.27
10.45 -2.87 2.27
10.47 -2.66 2.26
10.54 -2.45 2.27
10.60 -2.24 2.27
10.67 -2.03 2.28
10.73 -1.82 2.29
10.79 -1.60 2.30
10.85 -1.39 2.31
10.91 -1.17 2.31
10.94 -0.96 2.32
10.97 -0.74 2.32
10.99 -0.51 2.33
11.00 -0.29 2.33
11.01 -0.07 2.33
11.01 0.15 2.33
11.01 0.37 2.34
11.02 0.60 2.34
11.04 0.82 2.35
11.12 1.05 2.37
11.20 1.29 2.39
11.26 1.53 2.41
11.24 1.76 2.42
11.22 1.99 2.42
11.20 2.22 2.43
11.17 2.45 2.43
11.15 2.68 2.44
11.12 2.91 2.44
11.09 3.14 2.45
11.05 3.37 2.46
11.01 3.60 2.46
10.95 3.83 2.47
10.89 4.06 2.47
10.83 4.29 2.48
10.77 4.51 2.48
10.70 4.74 2.49
10.64 4.97 2.49
10.54 5.19 2.49
10.44 5.40 2.49
10.36 5.63 2.50
10.30 5.87 2.51
10.24 6.11 2.53
10.17 6.35 2.54
10.10 6.60 2.55
10.03 6.84 2.57
6.31 4.49 1.64
6.30 4.68 1.66
6.30 4.88 1.68
6.30 5.09 1.71
6.29 5.30 1.73
9.57 8.38 2.68
9.49 8.66 2.70
9.41 8.94 2.72
9.32 9.23 2.75
9.24 9.51 2.78
9.12 9.78 2.80
9.00 10.05 2.82
8.87 10.32 2.84
8.74 10.59 2.86
8.59 10.85 2.88
8.43 11.09 2.89
8.26 11.34 2.91
8.10 11.61 2.93
7.97 11.92 2.97
7.83 12.24 3.00
7.46 12.20 2.95
6.95 11.90 2.84
6.45 11.57 2.72
5.98 11.25 2.61
5.27 10.42 2.39
5.07 10.54 2.39
4.87 10.66 2.39
4.66 10.78 2.39
4.45 10.89 2.39
4.24 11.00 2.39
4.02 11.11 2.39
3.81 11.21 2.39
3.59 11.30 2.39
3.37 11.40 2.39
3.14 11.49 2.39
2.92 11.57 2.39
2.69 11.65 2.39
2.46 11.73 2.39
2.23 11.80 2.39
2.00 11.87 2.39
1.76 11.94 2.39
1.52 12.00 2.39
1.30 12.15 2.41
1.09 12.63 2.49
0.84 12.68 2.49
0.58 12.72 2.49
0.33 12.76 2.49
0.07 12.80 2.49
-0.18 12.83 2.49
-0.44 12.85 2.49
-0.70 12.88 2.49
-0.96 12.89 2.49
-1.23 12.90 2.49
-1.49 12.91 2.49
-1.75 12.91 2.49
-2.02 12.90 2.49
-2.28 12.89 2.49
-2.54 12.88 2.49
-2.81 12.86 2.49
-3.08 12.83 2.49
-3.34 12.80 2.49
-3.61 12.76 2.49
-3.87 12.72 2.49
-4.14 12.68 2.49
-4.40 12.62 2.49
-4.67 12.57 2.49
-4.93 12.50 2.49
-5.20 12.43 2.49
-5.46 12.36 2.49
-5.72 12.28 2.49
-5.98 12.20 2.49
-6.24 12.11 2.49
-6.50 12.01 2.49
-6.75 11.90 2.49
-6.74 11.35 2.40
-6.97 11.21 2.39
-7.21 11.09 2.39
-7.45 10.97 2.39
-7.69 10.85 2.39
-7.92 10.72 2.39
-6.96 9.03 2.04
-8.39 10.45 2.39
-8.62 10.31 2.39
-8.85 10.16 2.39
-9.07 10.00 2.39
-9.29 9.84 2.39
-9.51 9.68 2.39
-9.73 9.51 2.39
-9.94 9.34 2.39
-10.15 9.16 2.39
-10.35 8.97 2.39
-10.56 8.78 2.39
-10.73 8.57 2.39
-10.74 8.23 2.35
-10.75 7.90 2.31
-10.76 7.58 2.27
-10.76 7.27 2.24
-10.73 6.94 2.19
-10.67 6.60 2.15
-10.68 6.31 2.12
-10.68 6.03 2.09
-10.68 5.75 2.07
-10.68 5.48 2.04
-10.68 5.21 2.02
-10.71 4.96 2.00
-10.77 4.73 1.99
-10.79 4.49 1.97
-10.78 4.23 1.95
-10.77 3.98 1.93
-10.76 3.73 1.91
-10.76 3.49 1.90
-10.75 3.25 1.88
-10.81 3.04 1.88
-10.91 2.83 1.88
-11.00 2.62 1.88
-11.02 2.39 1.88
-11.03 2.17 1.87
-11.04 1.94 1.86
-11.05 1.71 1.85
-11.08 1.49 1.85
-11.20 1.28 1.86
-11.32 1.07 1.88
-11.45 0.85 1.89
-11.57 0.62 1.91
-11.62 0.39 1.91
-11.62 0.16 1.91
-11.71 -0.07 1.92
-11.83 -0.31 1.94
-11.95 -0.55 1.96
-12.04 -0.80 1.98
-12.07 -1.04 1.99
-12.10 -1.29 1.99
-12.13 -1.54 2.00
-12.12 -1.78 2.00
-12.10 -2.03 2.01
-12.09 -2.28 2.01
-12.08 -2.52 2.02
-12.07 -2.77 2.02
-12.05 -3.03 2.03
-12.04 -3.28 2.04
-12.05 -3.54 2.05
-12.04 -3.80 2.06
-12.02 -4.06 2.07
-12.00 -4.32 2.09
-11.98 -4.59 2.10
-11.96 -4.86 2.11
-11.94 -5.13 2.13
-11.91 -5.40 2.14
-11.91 -5.69 2.16
-11.91 -5.99 2.18
-11.90 -6.28 2.21
-11.89 -6.59 2.23
-11.88 -6.90 2.26
-11.88 -7.21 2.28
-11.86 -7.53 2.31
-11.81 -7.84 2.33
-11.78 -8.16 2.36
-11.75 -8.49 2.39
-11.71 -8.83 2.42
-11.68 -9.17 2.45
-11.61 -9.50 2.48
-11.48 -9.78 2.50
-11.31 -10.03 2.51
-11.13 -10.28 2.52
-10.96 -10.53 2.53
-10.78 -10.78 2.54
-10.59 -11.03 2.55
-9.70 -10.52 2.39
-9.48 -10.70 2.39
-9.25 -10.87 2.39
-9.01 -11.03 2.39
-8.77 -11.19 2.39
-8.53 -11.34 2.39
-8.29 -11.49 2.39
-8.04 -11.63 2.39
-7.80 -11.77 2.39
-7.54 -11.90 2.39
-7.29 -12.03 2.39
-7.03 -12.14 2.39
-6.78 -12.26 2.39
-6.52 -12.37 2.39
-6.25 -12.47 2.39
-5.99 -12.56 2.39
-5.75 -12.70 2.40
-5.69 -13.29 2.49
-5.41 -13.37 2.49
-5.13 -13.44 2.49
-4.85 -13.51 2.49
-4.57 -13.58 2.49
-4.29 -13.63 2.49
-4.01 -13.68 2.49
-3.72 -13.73 2.49
-3.44 -13.77 2.49
-3.15 -13.80 2.49
-2.87 -13.82 2.49
-2.59 -13.84 2.49
-2.30 -13.86 2.49
-2.02 -13.87 2.49
-1.74 -13.87 2.49
-1.45 -13.87 2.49
-1.17 -13.86 2.49
-0.89 -13.84 2.49
-0.61 -13.82 2.49
-0.34 -13.80 2.49
-0.06 -12.19 2.49
0.19 -12.16 2.49
0.43 -12.13 2.49
0.67 -12.09 2.49
0.91 -12.04 2.49
1.15 -11.99 2.49
1.38 -11.94 2.49
1.62 -11.88 2.49
1.85 -11.82 2.49
2.09 -11.75 2.49
2.26 -11.42 2.44
2.44 -11.12 2.39
2.65 -11.05 2.39
2.87 -10.96 2.39
3.08 -10.88 2.39
3.29 -10.79 2.39
3.50 -10.70 2.39
3.70 -10.60 2.39
3.91 -10.50 2.39
4.11 -10.39 2.39
4.30 -10.29 2.39
4.50 -10.17 2.39
4.69 -10.06 2.39
4.88 -9.94 2.39
5.07 -9.82 2.39
5.25 -9.69 2.39
5.44 -9.56 2.39
5.61 -9.43 2.39
5.79 -9.29 2.39
5.96 -9.16 2.39
6.13 -9.01 2.39
6.87 -9.68 2.61
7.12 -9.61 2.64
7.37 -9.55 2.66
7.63 -9.48 2.69
7.88 -9.40 2.72
8.14 -9.32 2.75
8.39 -9.23 2.78
8.65 -9.13 2.80
6.42 -6.51 2.04
6.20 -6.04 1.94
6.30 -5.90 1.94
6.59 -5.93 1.99
6.90 -5.96 2.05
9.07 -7.51 2.66
9.13 -7.26 2.63
9.19 -7.01 2.62
9.25 -6.77 2.60
9.32 -6.53 2.58
9.38 -6.30 2.57
9.44 -6.07 2.56
9.50 -5.84 2.55
9.56 -5.61 2.53
9.61 -5.38 2.52
9.66 -5.16 2.51
9.71 -4.94 2.50
9.76 -4.72 2.49
9.80 -4.49 2.48
9.83 -4.27 2.47
9.85 -4.05 2.46
9.89 -3.83 2.45
9.91 -3.61 2.44
9.94 -3.40 2.44
9.97 -3.18 2.43
9.99 -2.97 2.42
10.01 -2.76 2.42
10.03 -2.55 2.41
10.05 -2.34 2.41
10.09 -2.13 2.41
10.15 -1.93 2.42
10.21 -1.73 2.42
10.27 -1.53 2.43
10.33 -1.33 2.44
10.38 -1.12 2.45
10.44 -0.91 2.46
10.49 -0.70 2.47
10.50 -0.49 2.47
10.51 -0.28 2.47
10.52 -0.07 2.48
10.52 0.14 2.48
10.52 0.36 2.48
10.53 0.57 2.48
10.52 0.78 2.49
10.52 1.00 2.49
10.52 1.21 2.50
10.59 1.43 2.52
10.58 1.65 2.53
10.56 1.87 2.53
10.53 2.08 2.54
10.51 2.30 2.54
10.48 2.52 2.55
10.45 2.73 2.55
10.42 2.95 2.56
10.39 3.17 2.57
10.35 3.39 2.57
10.30 3.60 2.58
10.25 3.82 2.58
10.19 4.03 2.59
10.13 4.25 2.59
10.07 4.46 2.60
10.01 4.68 2.61
9.95 4.90 2.62
9.88 5.12 2.62
9.82 5.34 2.63
9.75 5.56 2.64
9.69 5.79 2.66
9.62 6.01 2.67
9.55 6.24 2.68
9.48 6.47 2.70
6.31 4.49 1.82
6.30 4.69 1.84
6.30 4.88 1.87
6.30 5.09 1.90
6.29 5.30 1.93
8.98 7.87 2.79
8.89 8.11 2.81
8.79 8.36 2.83
8.69 8.60 2.85
8.59 8.85 2.87
8.50 9.12 2.90
8.40 9.38 2.93
8.28 9.64 2.95
8.16 9.89 2.97
8.02 10.14 3.00
7.89 10.39 3.02
7.49 10.30 2.94
7.04 10.10 2.84
6.62 9.92 2.75
6.23 9.74 2.66
5.43 8.88 2.39
5.25 9.00 2.39
5.08 9.12 2.39
4.90 9.23 2.39
4.72 9.35 2.39
4.54 9.46 2.39
4.36 9.56 2.39
4.17 9.66 2.39
3.98 9.76 2.39
3.79 9.86 2.39
3.60 9.95 2.39
3.40 10.04 2.39
3.21 10.12 2.39
3.01 10.20 2.39
2.81 10.28 2.39
2.61 10.36 2.39
2.40 10.43 2.39
2.20 10.49 2.39
1.99 10.56 2.39
1.78 10.62 2.39
1.57 10.67 2.39
1.36 10.74 2.39
1.19 11.24 2.49
0.97 11.28 2.49
0.74 11.32 2.49
0.52 11.36 2.49
0.29 11.39 2.49
0.06 11.42 2.49
-0.17 11.45 2.49
-0.40 11.47 2.49
-0.63 11.48 2.49
-0.87 11.49 2.49
-1.10 11.50 2.49
-1.33 11.50 2.49
-1.57 11.50 2.49
-1.80 11.49 2.49
-2.04 11.48 2.49
-2.27 11.46 2.49
-2.51 11.44 2.49
-2.74 11.42 2.49
-2.98 11.38 2.49
-3.21 11.35 2.49
-3.45 11.31 2.49
-3.68 11.26 2.49
-3.92 11.21 2.49
-4.15 11.16 2.49
-4.39 11.10 2.49
-4.62 11.04 2.49
-4.85 10.97 2.49
-5.08 10.89 2.49
-5.31 10.82 2.49
-5.54 10.73 2.49
-5.77 10.64 2.49
-5.99 10.55 2.49
-6.22 10.45 2.49
-6.44 10.35 2.49
-6.66 10.24 2.49
-6.67 9.82 2.42
-6.81 9.60 2.39
-7.02 9.48 2.39
-6.96 9.03 2.31
-7.42 9.24 2.39
-7.62 9.11 2.39
-7.82 8.97 2.39
-8.02 8.83 2.39
-8.21 8.69 2.39
-8.40 8.54 2.39
-8.59 8.39 2.39
-8.78 8.24 2.39
-8.96 8.08 2.39
-9.14 7.91 2.39
-9.31 7.74 2.39
-9.49 7.57 2.39
-9.66 7.39 2.39
-9.82 7.21 2.39
-9.98 7.03 2.39
-10.14 6.84 2.39
-10.30 6.65 2.39
-10.45 6.46 2.39
-10.56 6.24 2.38
-10.56 5.96 2.35
-10.56 5.68 2.32
-10.56 5.41 2.29
-10.56 5.15 2.27
-10.59 4.90 2.25
-10.65 4.67 2.24
-10.65 4.42 2.21
-10.64 4.17 2.19
-10.63 3.93 2.17
-10.63 3.68 2.15
-10.62 3.44 2.13
-10.61 3.21 2.11
-10.64 2.99 2.10
-10.73 2.78 2.11
-10.82 2.57 2.11
-10.83 2.35 2.10
-10.84 2.12 2.09
-10.84 1.90 2.08
-10.85 1.68 2.07
-10.86 1.46 2.07
-10.92 1.25 2.07
-11.04 1.04 2.09
-11.16 0.82 2.11
-11.28 0.61 2.12
-11.31 0.38 2.13
-11.31 0.16 2.12
-11.31 -0.07 2.12
-11.36 -0.30 2.13
-11.47 -0.53 2.15
-11.58 -0.77 2.17
-11.70 -1.01 2.20
-11.82 -1.26 2.22
-11.93 -1.51 2.25
-11.92 -1.75 2.25
-11.90 -2.00 2.25
-11.89 -2.24 2.26
-11.87 -2.48 2.26
-11.85 -2.72 2.27
-11.83 -2.97 2.28
-11.80 -3.21 2.28
-11.77 -3.46 2.29
-11.75 -3.71 2.30
-11.71 -3.96 2.31
-11.68 -4.21 2.32
-11.64 -4.46 2.33
-11.60 -4.71 2.34
-11.56 -4.97 2.35
-11.52 -5.22 2.36
-11.47 -5.48 2.38
-11.43 -5.75 2.39
-11.39 -6.01 2.41
-11.38 -6.30 2.44
-11.38 -6.60 2.46
-11.36 -6.90 2.49
-11.35 -7.21 2.52
-11.33 -7.52 2.55
-11.26 -7.80 2.58
-11.17 -8.07 2.59
-11.08 -8.35 2.61
-11.00 -8.63 2.64
-9.81 -8.02 2.39
-9.64 -8.21 2.39
-9.46 -8.39 2.39
-9.28 -8.57 2.39
-9.09 -8.74 2.39
-8.91 -8.91 2.39
-8.72 -9.07 2.39
-8.52 -9.23 2.39
-8.32 -9.39 2.39
-8.12 -9.54 2.39
-7.92 -9.69 2.39
-7.71 -9.83 2.39
-7.50 -9.96 2.39
-7.29 -10.10 2.39
-7.08 -10.22 2.39
-6.86 -10.35 2.39
-6.64 -10.46 2.39
-6.42 -10.58 2.39
-6.19 -10.68 2.39
-5.97 -10.79 2.39
-5.81 -11.02 2.42
-5.75 -11.45 2.49
-5.51 -11.54 2.49
-5.27 -11.62 2.49
-5.02 -11.70 2.49
-4.78 -11.78 2.49
-4.53 -11.85 2.49
-4.29 -11.91 2.49
-4.04 -11.97 2.49
-3.79 -12.02 2.49
-3.54 -12.07 2.49
-3.29 -12.12 2.49
-3.04 -12.15 2.49
-2.79 -12.18 2.49
-2.54 -12.21 2.49
-2.29 -12.23 2.49
-2.04 -12.25 2.49
-1.79 -12.26 2.49
-1.54 -12.27 2.49
-1.29 -12.27 2.49
-1.04 -12.26 2.49
-0.80 -12.25 2.49
-0.55 -12.24 2.49
-0.30 -12.22 2.49
-0.06 -10.93 2.49
0.16 -10.91 2.49
0.38 -10.88 2.49
0.59 -10.85 2.49
0.81 -10.81 2.49
1.02 -10.77 2.49
1.24 -10.72 2.49
1.45 -10.67 2.49
1.66 -10.62 2.49
1.87 -10.56 2.49
2.07 -10.50 2.49
2.21 -10.13 2.42
2.38 -9.93 2.39
2.57 -9.86 2.39
2.77 -9.79 2.39
2.95 -9.71 2.39
3.14 -9.63 2.39
3.33 -9.54 2.39
3.51 -9.45 2.39
3.69 -9.36 2.39
3.87 -9.26 2.39
4.05 -9.17 2.39
4.22 -9.06 2.39
4.39 -8.96 2.39
4.56 -8.85 2.39
4.73 -8.74 2.39
4.90 -8.62 2.39
5.06 -8.51 2.39
5.22 -8.39 2.39
5.37 -8.26 2.39
5.53 -8.14 2.39
5.68 -8.01 2.39
5.83 -7.88 2.39
5.97 -7.74 2.39
6.12 -7.61 2.39
6.81 -8.13 2.60
7.03 -8.05 2.63
7.24 -7.97 2.65
7.45 -7.88 2.68
6.43 -6.52 2.26
6.21 -6.06 2.15
6.29 -5.90 2.14
6.59 -5.92 2.20
6.89 -5.95 2.27
8.66 -7.19 2.81
8.73 -6.94 2.79
8.79 -6.71 2.77
8.86 -6.49 2.75
8.92 -6.26 2.74
8.99 -6.04 2.72
9.05 -5.82 2.71
9.11 -5.60 2.70
9.16 -5.38 2.68
9.22 -5.17 2.67
9.27 -4.96 2.66
9.32 -4.74 2.65
9.36 -4.53 2.64
9.39 -4.31 2.63
9.42 -4.10 2.62
9.45 -3.89 2.60
9.48 -3.68 2.59
9.51 -3.47 2.59
9.54 -3.26 2.58
9.56 -3.06 2.57
9.59 -2.85 2.56
9.61 -2.65 2.56
9.63 -2.45 2.55
9.64 -2.24 2.54
9.65 -2.04 2.54
9.68 -1.85 2.54
9.74 -1.65 2.55
9.79 -1.46 2.55
9.84 -1.27 2.56
9.90 -1.07 2.57
9.95 -0.87 2.58
9.99 -0.67 2.59
10.00 -0.47 2.59
9.99 -0.27 2.59
10.00 -0.07 2.59
10.01 0.13 2.60
10.01 0.34 2.60
10.01 0.54 2.60
10.02 0.74 2.61
10.01 0.95 2.61
10.01 1.15 2.62
10.00 1.35 2.62
9.99 1.56 2.63
9.96 1.76 2.63
9.94 1.97 2.64
9.92 2.17 2.64
9.89 2.37 2.65
9.86 2.58 2.65
9.83 2.78 2.66
9.80 2.99 2.67
9.76 3.20 2.67
9.72 3.40 2.68
9.69 3.61 2.69
9.65 3.82 2.70
9.61 4.03 2.71
9.55 4.23 2.72
9.49 4.44 2.72
9.43 4.64 2.73
9.37 4.85 2.74
9.30 5.06 2.75
9.23 5.26 2.76
9.16 5.47 2.77
9.10 5.69 2.78
9.03 5.90 2.80
8.97 6.12 2.81
6.31 4.49 2.00
6.30 4.69 2.03
6.30 4.88 2.06
6.30 5.09 2.09
6.29 5.30 2.12
8.48 7.44 2.91
8.39 7.67 2.93
8.30 7.89 2.95
8.20 8.12 2.97
8.10 8.35 2.99
7.99 8.58 3.01
7.78 8.70 2.99
7.39 8.61 2.91
7.02 8.52 2.82
6.67 8.43 2.75
6.32 8.33 2.67
5.99 8.24 2.60
5.37 7.71 2.39
5.22 7.82 2.39
5.07 7.94 2.39
4.91 8.05 2.39
4.76 8.16 2.39
4.60 8.26 2.39
4.44 8.37 2.39
4.27 8.47 2.39
4.11 8.56 2.39
3.94 8.66 2.39
3.77 8.75 2.39
3.60 8.84 2.39
3.43 8.92 2.39
3.25 9.00 2.39
3.08 9.08 2.39
2.90 9.16 2.39
2.72 9.23 2.39
2.54 9.30 2.39
2.35 9.36 2.39
2.17 9.43 2.39
1.98 9.49 2.39
1.79 9.54 2.39
1.61 9.61 2.40
1.41 9.64 2.39
1.27 10.10 2.49
1.07 10.15 2.49
0.87 10.19 2.49
0.67 10.22 2.49
0.46 10.25 2.49
0.25 10.28 2.49
0.05 10.30 2.49
-0.16 10.32 2.49
-0.37 10.34 2.49
-0.58 10.35 2.49
-0.79 10.36 2.49
-1.00 10.36 2.49
-1.21 10.36 2.49
-1.42 10.36 2.49
-1.63 10.35 2.49
-1.84 10.33 2.49
-2.05 10.32 2.49
-2.26 10.30 2.49
-2.47 10.27 2.49
-2.69 10.24 2.49
-2.90 10.21 2.49
-3.11 10.17 2.49
-3.32 10.13 2.49
-3.53 10.08 2.49
-3.74 10.03 2.49
-3.95 9.97 2.49
-4.15 9.91 2.49
-4.36 9.85 2.49
-4.57 9.78 2.49
-4.77 9.71 2.49
-4.98 9.63 2.49
-5.18 9.55 2.49
-5.38 9.46 2.49
-5.58 9.37 2.49
-5.78 9.28 2.49
-5.98 9.18 2.49
-6.17 9.08 2.49
-6.37 8.97 2.49
-6.56 8.86 2.49
-6.62 8.57 2.44
-6.65 8.27 2.39
-6.83 8.15 2.39
-7.01 8.03 2.39
-7.18 7.90 2.39
-7.35 7.77 2.39
-7.52 7.64 2.39
-7.69 7.50 2.39
-7.85 7.36 2.39
-8.01 7.22 2.39
-8.17 7.07 2.39
-8.33 6.92 2.39
-8.48 6.76 2.39
-8.63 6.60 2.39
-8.77 6.44 2.39
-8.92 6.27 2.39
-9.06 6.10 2.39
-9.19 5.93 2.39
-9.32 5.76 2.39
-9.45 5.58 2.39
-9.58 5.40 2.39
-9.70 5.21 2.39
-9.82 5.03 2.39
-9.93 4.84 2.39
-10.04 4.64 2.39
-10.15 4.45 2.39
-10.25 4.25 2.39
-10.35 4.05 2.39
-10.44 3.85 2.39
-10.49 3.63 2.38
-10.48 3.40 2.36
-10.48 3.16 2.34
-10.47 2.94 2.32
-10.56 2.73 2.33
-10.62 2.52 2.33
-10.63 2.30 2.32
-10.64 2.08 2.31
-10.65 1.87 2.30
-10.66 1.65 2.29
-10.67 1.43 2.28
-10.68 1.22 2.28
-10.77 1.01 2.29
-10.88 0.80 2.31
-11.00 0.59 2.33
-11.01 0.37 2.33
-11.01 0.15 2.33
-11.01 -0.07 2.32
-11.01 -0.29 2.32
-11.02 -0.51 2.32
-11.13 -0.74 2.35
-11.23 -0.97 2.37
-11.34 -1.21 2.40
-11.44 -1.45 2.43
-11.44 -1.68 2.43
-11.42 -1.91 2.43
-11.40 -2.15 2.44
-11.38 -2.38 2.44
-11.36 -2.61 2.45
-11.33 -2.85 2.45
-11.31 -3.08 2.46
-11.28 -3.32 2.47
-11.25 -3.55 2.48
-11.22 -3.79 2.49
-11.19 -4.03 2.50
-11.15 -4.27 2.51
-11.11 -4.51 2.52
-11.07 -4.76 2.53
-11.03 -5.00 2.55
-10.98 -5.25 2.56
-10.93 -5.49 2.58
-10.04 -5.30 2.39
-9.93 -5.50 2.39
-9.81 -5.69 2.39
-9.69 -5.88 2.39
-9.56 -6.07 2.39
-9.43 -6.25 2.39
-9.30 -6.44 2.39
-9.16 -6.62 2.39
-9.02 -6.79 2.39
-8.88 -6.96 2.39
-8.73 -7.13 2.39
-8.57 -7.30 2.39
-8.42 -7.46 2.39
-8.26 -7.62 2.39
-8.10 -7.78 2.39
-7.93 -7.93 2.39
-7.76 -8.07 2.39
-7.59 -8.22 2.39
-7.41 -8.36 2.39
-7.24 -8.49 2.39
-7.06 -8.63 2.39
-6.87 -8.75 2.39
-6.69 -8.88 2.39
-6.50 -9.00 2.39
-6.31 -9.11 2.39
-6.12 -9.22 2.39
-5.92 -9.33 2.39
-5.86 -9.66 2.45
-5.77 -9.94 2.49
-5.56 -10.03 2.49
-5.35 -10.13 2.49
-5.13 -10.21 2.49
-4.92 -10.30 2.49
-4.71 -10.38 2.49
-4.49 -10.45 2.49
-4.27 -10.52 2.49
-4.05 -10.58 2.49
-3.83 -10.64 2.49
-3.61 -10.70 2.49
-3.39 -10.75 2.49
-3.17 -10.79 2.49
-2.95 -10.83 2.49
-2.73 -10.87 2.49
-2.50 -10.90 2.49
-2.28 -10.92 2.49
-2.06 -10.95 2.49
-1.83 -10.96 2.49
-1.61 -10.98 2.49
-1.39 -10.98 2.49
-1.16 -10.99 2.49
-0.94 -10.98 2.49
-0.72 -10.98 2.49
-0.50 -10.97 2.49
-0.28 -10.95 2.49
-0.06 -9.90 2.49
0.14 -9.88 2.49
0.34 -9.86 2.49
0.53 -9.83 2.49
0.73 -9.80 2.49
0.92 -9.76 2.49
1.12 -9.72 2.49
1.31 -9.68 2.49
1.50 -9.63 2.49
1.69 -9.58 2.49
1.88 -9.52 2.49
2.06 -9.47 2.49
2.17 -9.09 2.41
2.33 -8.95 2.39
2.51 -8.89 2.39
2.68 -8.82 2.39
2.85 -8.74 2.39
3.02 -8.67 2.39
3.18 -8.59 2.39
3.35 -8.51 2.39
3.51 -8.42 2.39
3.67 -8.33 2.39
3.83 -8.24 2.39
3.99 -8.15 2.39
4.15 -8.05 2.39
4.30 -7.95 2.39
4.45 -7.85 2.39
4.60 -7.74 2.39
4.74 -7.63 2.39
4.89 -7.52 2.39
5.03 -7.41 2.39
5.17 -7.29 2.39
5.30 -7.18 2.39
5.44 -7.05 2.39
5.57 -6.93 2.39
5.70 -6.81 2.39
5.82 -6.68 2.39
5.94 -6.55 2.39
6.07 -6.42 2.39
6.44 -6.54 2.49
6.22 -6.07 2.36
6.28 -5.89 2.34
6.58 -5.92 2.41
6.88 -5.95 2.48
7.69 -6.38 2.73
7.87 -6.27 2.76
8.10 -6.19 2.79
8.36 -6.13 2.85
8.56 -6.01 2.88
8.62 -5.80 2.86
8.68 -5.59 2.85
8.74 -5.38 2.84
8.80 -5.17 2.82
8.85 -4.97 2.81
8.91 -4.77 2.80
8.95 -4.56 2.79
8.98 -4.35 2.77
9.02 -4.14 2.76
9.05 -3.94 2.75
9.08 -3.74 2.74
9.10 -3.53 2.73
9.13 -3.33 2.72
9.16 -3.14 2.71
9.19 -2.94 2.70
9.21 -2.74 2.70
9.23 -2.55 2.69
9.25 -2.35 2.68
9.26 -2.16 2.68
9.28 -1.97 2.67
9.29 -1.77 2.66
9.30 -1.58 2.66
9.35 -1.40 2.67
9.40 -1.21 2.68
9.45 -1.02 2.68
9.49 -0.83 2.69
9.54 -0.64 2.70
9.53 -0.45 2.70
9.52 -0.26 2.70
9.51 -0.07 2.70
9.50 0.13 2.69
9.50 0.32 2.70
9.50 0.51 2.70
9.50 0.70 2.70
9.49 0.90 2.71
9.49 1.09 2.71
9.48 1.28 2.72
9.47 1.48 2.72
9.45 1.67 2.73
9.42 1.86 2.73
9.39 2.05 2.73
9.36 2.25 2.74
9.33 2.44 2.74
9.30 2.63 2.75
9.27 2.83 2.76
9.23 3.02 2.76
9.20 3.22 2.77
9.16 3.41 2.78
9.12 3.61 2.79
9.08 3.81 2.80
9.04 4.01 2.81
8.99 4.21 2.82
8.94 4.41 2.83
8.89 4.61 2.84
8.83 4.80 2.85
8.77 5.00 2.86
8.70 5.20 2.87
8.62 5.39 2.88
8.56 5.59 2.90
8.49 5.80 2.91
6.31 4.50 2.19
6.30 4.69 2.22
6.30 4.89 2.25
6.29 5.09 2.29
6.29 5.30 2.32
8.03 7.05 3.01
7.81 7.14 2.98
7.49 7.13 2.91
7.18 7.11 2.84
6.87 7.09 2.77
6.57 7.06 2.71
6.29 7.03 2.65
6.02 7.02 2.59
5.43 6.59 2.39
5.30 6.71 2.39
5.17 6.82 2.39
5.04 6.93 2.39
4.90 7.04 2.39
4.77 7.15 2.39
4.63 7.25 2.39
4.48 7.35 2.39
4.34 7.45 2.39
4.20 7.54 2.39
4.05 7.64 2.39
3.90 7.73 2.39
3.75 7.82 2.39
3.59 7.90 2.39
3.44 7.98 2.39
3.28 8.06 2.39
3.12 8.14 2.39
2.96 8.21 2.39
2.80 8.28 2.39
2.64 8.35 2.39
2.47 8.42 2.39
2.31 8.48 2.39
2.14 8.54 2.39
1.97 8.59 2.39
1.80 8.64 2.39
1.64 8.75 2.41
1.46 8.74 2.39
1.34 9.16 2.49
1.15 9.20 2.49
0.97 9.24 2.49
0.79 9.27 2.49
0.60 9.31 2.49
0.41 9.33 2.49
0.23 9.36 2.49
0.04 9.38 2.49
-0.15 9.39 2.49
-0.34 9.40 2.49
-0.53 9.41 2.49
-0.72 9.42 2.49
-0.91 9.42 2.49
-1.10 9.42 2.49
-1.29 9.41 2.49
-1.48 9.40 2.49
-1.68 9.39 2.49
-1.87 9.37 2.49
-2.06 9.35 2.49
-2.25 9.33 2.49
-2.44 9.30 2.49
-2.63 9.26 2.49
-2.83 9.23 2.49
-3.02 9.19 2.49
-3.21 9.14 2.49
-3.40 9.09 2.49
-3.58 9.04 2.49
-3.77 8.99 2.49
-3.96 8.93 2.49
-4.15 8.86 2.49
-4.33 8.79 2.49
-4.52 8.72 2.49
-4.70 8.65 2.49
-4.88 8.57 2.49
-5.06 8.49 2.49
-5.24 8.40 2.49
-5.42 8.31 2.49
-5.59 8.21 2.49
-5.77 8.12 2.49
-5.94 8.01 2.49
-6.11 7.91 2.49
-6.28 7.80 2.49
-6.45 7.69 2.49
-6.57 7.53 2.48
-6.57 7.22 2.42
-6.65 7.02 2.39
-6.80 6.90 2.39
-6.95 6.78 2.39
-7.10 6.65 2.39
-7.24 6.51 2.39
-7.38 6.38 2.39
-7.52 6.24 2.39
-7.66 6.10 2.39
-7.79 5.96 2.39
-7.92 5.81 2.39
-8.05 5.66 2.39
-8.17 5.50 2.39
-8.29 5.35 2.39
-8.41 5.19 2.39
-8.53 5.03 2.39
-8.64 4.86 2.39
-8.75 4.70 2.39
-8.85 4.53 2.39
-8.95 4.36 2.39
-9.05 4.18 2.39
-9.15 4.01 2.39
-9.24 3.83 2.39
-9.32 3.65 2.39
-9.41 3.46 2.39
-9.49 3.28 2.39
-9.56 3.09 2.39
-9.63 2.91 2.39
-9.70 2.72 2.39
-9.76 2.52 2.39
-9.82 2.33 2.39
-9.87 2.14 2.39
-9.93 1.94 2.39
-9.97 1.74 2.39
-10.01 1.55 2.39
-10.05 1.35 2.39
-10.08 1.15 2.39
-10.11 0.95 2.39
-10.14 0.74 2.39
-10.16 0.54 2.39
-10.17 0.34 2.39
-10.18 0.14 2.39
-10.19 -0.07 2.39
-10.19 -0.27 2.39
-10.19 -0.47 2.39
-10.18 -0.68 2.39
-10.17 -0.88 2.39
-10.16 -1.08 2.39
-10.14 -1.29 2.39
-10.11 -1.49 2.39
-10.08 -1.69 2.39
-10.05 -1.89 2.39
-10.01 -2.09 2.39
-9.97 -2.29 2.39
-9.92 -2.49 2.39
-9.87 -2.69 2.39
-9.82 -2.89 2.39
-9.76 -3.08 2.39
-9.69 -3.27 2.39
-9.62 -3.47 2.39
-9.55 -3.66 2.39
-9.47 -3.85 2.39
-9.39 -4.03 2.39
-9.31 -4.22 2.39
-9.22 -4.40 2.39
-9.12 -4.58 2.39
-9.03 -4.76 2.39
-8.93 -4.94 2.39
-8.82 -5.11 2.39
-8.71 -5.29 2.39
-8.60 -5.46 2.39
-8.48 -5.62 2.39
-8.37 -5.79 2.39
-8.24 -5.95 2.39
-8.12 -6.11 2.39
-7.99 -6.26 2.39
-7.85 -6.42 2.39
-7.72 -6.57 2.39
-7.58 -6.71 2.39
-7.43 -6.86 2.39
-7.29 -7.00 2.39
-7.14 -7.13 2.39
-6.99 -7.27 2.39
-6.83 -7.40 2.39
-6.68 -7.52 2.39
-6.52 -7.65 2.39
-6.36 -7.77 2.39
-6.19 -7.88 2.39
-6.03 -7.99 2.39
-5.93 -8.20 2.42
-5.91 -8.53 2.48
-5.75 -8.67 2.49
-5.57 -8.77 2.49
-5.39 -8.86 2.49
-5.20 -8.96 2.49
-5.01 -9.05 2.49
-4.83 -9.13 2.49
-4.63 -9.21 2.49
-4.44 -9.29 2.49
-4.25 -9.36 2.49
-4.05 -9.43 2.49
-3.86 -9.49 2.49
-3.66 -9.55 2.49
-3.47 -9.61 2.49
-3.27 -9.66 2.49
-3.07 -9.70 2.49
-2.87 -9.75 2.49
-2.67 -9.78 2.49
-2.47 -9.82 2.49
-2.27 -9.85 2.49
-2.06 -9.87 2.49
-1.86 -9.90 2.49
-1.66 -9.91 2.49
-1.46 -9.93 2.49
-1.26 -9.93 2.49
-1.06 -9.94 2.49
-0.86 -9.94 2.49
-0.66 -9.93 2.49
-0.46 -9.93 2.49
-0.26 -9.92 2.49
-0.06 -9.04 2.49
0.12 -9.02 2.49
0.30 -9.00 2.49
0.48 -8.97 2.49
0.66 -8.95 2.49
0.84 -8.92 2.49
1.01 -8.88 2.49
1.19 -8.84 2.49
1.36 -8.80 2.49
1.54 -8.76 2.49
1.71 -8.71 2.49
1.88 -8.65 2.49
2.05 -8.60 2.49
2.14 -8.24 2.41
2.29 -8.13 2.39
2.44 -8.07 2.39
2.60 -8.00 2.39
2.76 -7.93 2.39
2.91 -7.86 2.39
3.06 -7.79 2.39
3.21 -7.71 2.39
3.36 -7.63 2.39
3.51 -7.55 2.39
3.65 -7.46 2.39
3.79 -7.38 2.39
3.93 -7.28 2.39
4.07 -7.19 2.39
4.21 -7.10 2.39
4.34 -7.00 2.39
4.48 -6.90 2.39
4.61 -6.79 2.39
4.73 -6.69 2.39
4.86 -6.58 2.39
4.98 -6.47 2.39
5.10 -6.36 2.39
5.22 -6.25 2.39
5.34 -6.13 2.39
5.45 -6.01 2.39
5.56 -5.89 2.39
5.67 -5.77 2.39
5.78 -5.65 2.39
5.88 -5.52 2.39
5.98 -5.39 2.39
6.59 -5.71 2.59
6.75 -5.61 2.61
6.91 -5.51 2.63
7.06 -5.40 2.66
7.27 -5.33 2.70
7.49 -5.26 2.74
7.70 -5.19 2.78
7.92 -5.10 2.83
8.14 -5.02 2.87
8.36 -4.92 2.92
8.51 -4.78 2.94
8.55 -4.58 2.93
8.59 -4.38 2.91
8.63 -4.18 2.90
8.66 -3.99 2.89
8.70 -3.79 2.87
8.73 -3.59 2.86
8.75 -3.40 2.85
8.78 -3.21 2.84
8.81 -3.02 2.83
8.83 -2.83 2.83
8.86 -2.64 2.82
8.88 -2.45 2.81
8.89 -2.27 2.80
8.91 -2.08 2.80
8.92 -1.89 2.79
8.93 -1.71 2.79
8.95 -1.52 2.78
8.95 -1.34 2.78
8.99 -1.16 2.78
9.03 -0.98 2.79
9.07 -0.80 2.80
9.11 -0.62 2.81
9.10 -0.43 2.80
9.09 -0.25 2.80
9.08 -0.06 2.80
9.07 0.12 2.79
9.05 0.30 2.79
9.04 0.48 2.79
9.02 0.67 2.79
9.02 0.85 2.80
9.02 1.03 2.80
9.01 1.22 2.81
9.00 1.40 2.81
8.98 1.59 2.81
8.95 1.77 2.82
8.92 1.95 2.82
8.89 2.13 2.83
8.86 2.32 2.83
8.83 2.50 2.83
8.79 2.68 2.84
8.76 2.87 2.85
8.72 3.05 2.85
8.68 3.24 2.86
8.64 3.42 2.87
8.60 3.61 2.88
8.56 3.79 2.89
8.51 3.98 2.90
8.46 4.17 2.91
8.41 4.36 2.92
8.36 4.55 2.94
8.31 4.74 2.95
8.25 4.93 2.96
8.19 5.12 2.97
8.13 5.31 2.99
8.05 5.50 3.00
6.30 4.50 2.38
6.30 4.69 2.41
6.30 4.89 2.45
6.29 5.09 2.48
6.29 5.30 2.52
6.64 5.83 2.71
6.42 5.87 2.66
6.19 5.90 2.62
5.55 5.51 2.39
5.45 5.62 2.39
5.34 5.74 2.39
5.22 5.85 2.39
5.11 5.96 2.39
4.99 6.07 2.39
4.87 6.17 2.39
4.75 6.27 2.39
4.63 6.38 2.39
4.51 6.47 2.39
4.38 6.57 2.39
4.25 6.67 2.39
4.12 6.76 2.39
3.99 6.85 2.39
3.85 6.94 2.39
3.72 7.02 2.39
3.58 7.10 2.39
3.44 7.18 2.39
3.30 7.26 2.39
3.16 7.34 2.39
3.01 7.41 2.39
2.86 7.48 2.39
2.72 7.54 2.39
2.57 7.61 2.39
2.42 7.67 2.39
2.27 7.73 2.39
2.11 7.78 2.39
1.96 7.84 2.39
1.80 7.89 2.39
1.65 7.93 2.39
1.49 7.98 2.39
1.39 8.36 2.49
1.22 8.40 2.49
1.05 8.44 2.49
0.89 8.47 2.49
0.72 8.50 2.49
0.55 8.53 2.49
0.37 8.55 2.49
0.20 8.58 2.49
0.03 8.59 2.49
-0.14 8.61 2.49
-0.32 8.62 2.49
-0.49 8.62 2.49
-0.66 8.63 2.49
-0.84 8.63 2.49
-1.01 8.62 2.49
-1.19 8.62 2.49
-1.36 8.61 2.49
-1.54 8.59 2.49
-1.71 8.58 2.49
-1.89 8.55 2.49
-2.07 8.53 2.49
-2.24 8.50 2.49
-2.41 8.47 2.49
-2.59 8.44 2.49
-2.76 8.40 2.49
-2.94 8.36 2.49
-3.11 8.31 2.49
-3.28 8.26 2.49
-3.45 8.21 2.49
-3.62 8.15 2.49
-3.79 8.09 2.49
-3.96 8.03 2.49
-4.13 7.96 2.49
-4.29 7.89 2.49
-4.46 7.82 2.49
-4.62 7.74 2.49
-4.79 7.66 2.49
-4.95 7.58 2.49
-5.11 7.49 2.49
-5.27 7.40 2.49
-5.42 7.31 2.49
-5.58 7.21 2.49
-5.73 7.11 2.49
-5.88 7.00 2.49
-6.03 6.90 2.49
-6.18 6.79 2.49
-6.32 6.67 2.49
-6.47 6.56 2.49
-6.53 6.36 2.46
-6.52 6.10 2.41
-6.60 5.93 2.39
-6.73 5.81 2.39
-6.85 5.68 2.39
-6.97 5.55 2.39
-7.10 5.42 2.39
-7.21 5.28 2.39
-7.33 5.15 2.39
-7.44 5.01 2.39
-7.55 4.86 2.39
-7.66 4.72 2.39
-7.76 4.57 2.39
-7.86 4.42 2.39
-7.96 4.27 2.39
-8.05 4.11 2.39
-8.14 3.96 2.39
-8.23 3.80 2.39
-8.32 3.64 2.39
-8.40 3.48 2.39
-8.48 3.31 2.39
-8.55 3.15 2.39
-8.62 2.98 2.39
-8.69 2.81 2.39
-8.75 2.64 2.39
-8.81 2.46 2.39
-8.87 2.29 2.39
-8.92 2.11 2.39
-8.97 1.94 2.39
-9.01 1.76 2.39
-9.06 1.58 2.39
-9.09 1.40 2.39
-9.13 1.22 2.39
-9.16 1.04 2.39
-9.18 0.86 2.39
-9.20 0.67 2.39
-9.22 0.49 2.39
-9.23 0.31 2.39
-9.24 0.12 2.39
-9.25 -0.06 2.39
-9.25 -0.25 2.39
-9.25 -0.43 2.39
-9.24 -0.62 2.39
-9.23 -0.80 2.39
-9.22 -0.98 2.39
-9.20 -1.17 2.39
-9.18 -1.35 2.39
-9.15 -1.54 2.39
-9.12 -1.72 2.39
-9.08 -1.90 2.39
-9.05 -2.08 2.39
-9.00 -2.26 2.39
-8.96 -2.44 2.39
-8.91 -2.62 2.39
-8.85 -2.80 2.39
-8.79 -2.97 2.39
-8.73 -3.15 2.39
-8.67 -3.32 2.39
-8.60 -3.49 2.39
-8.52 -3.66 2.39
-8.45 -3.83 2.39
-8.36 -3.99 2.39
-8.28 -4.16 2.39
-8.19 -4.32 2.39
-8.10 -4.48 2.39
-8.01 -4.64 2.39
-7.91 -4.80 2.39
-7.81 -4.95 2.39
-7.70 -5.10 2.39
-7.59 -5.25 2.39
-7.48 -5.40 2.39
-7.37 -5.54 2.39
-7.25 -5.69 2.39
-7.13 -5.82 2.39
-7.01 -5.96 2.39
-6.88 -6.09 2.39
-6.75 -6.23 2.39
-6.62 -6.35 2.39
-6.49 -6.48 2.39
-6.35 -6.60 2.39
-6.21 -6.72 2.39
-6.07 -6.83 2.39
-5.98 -7.01 2.41
-5.96 -7.28 2.47
-5.87 -7.47 2.49
-5.72 -7.58 2.49
-5.56 -7.68 2.49
-5.40 -7.78 2.49
-5.23 -7.88 2.49
-5.07 -7.97 2.49
-4.90 -8.06 2.49
-4.73 -8.14 2.49
-4.56 -8.23 2.49
-4.39 -8.30 2.49
-4.22 -8.38 2.49
-4.05 -8.45 2.49
-3.87 -8.52 2.49
-3.69 -8.58 2.49
-3.52 -8.64 2.49
-3.34 -8.69 2.49
-3.16 -8.75 2.49
-2.98 -8.79 2.49
-2.80 -8.84 2.49
-2.62 -8.88 2.49
-2.43 -8.91 2.49
-2.25 -8.95 2.49
-2.07 -8.97 2.49
-1.89 -9.00 2.49
-1.70 -9.02 2.49
-1.52 -9.04 2.49
-1.34 -9.05 2.49
-1.15 -9.06 2.49
-0.97 -9.06 2.49
-0.79 -9.07 2.49
-0.60 -9.06 2.49
-0.42 -9.06 2.49
-0.24 -9.05 2.49
-0.06 -8.30 2.49
0.11 -8.29 2.49
0.27 -8.27 2.49
0.44 -8.25 2.49
0.60 -8.22 2.49
0.77 -8.20 2.49
0.93 -8.17 2.49
1.09 -8.13 2.49
1.25 -8.09 2.49
1.41 -8.05 2.49
1.57 -8.01 2.49
1.73 -7.96 2.49
1.88 -7.91 2.49
2.04 -7.86 2.49
2.11 -7.52 2.40
2.25 -7.43 2.39
2.39 -7.37 2.39
2.53 -7.31 2.39
2.68 -7.24 2.39
2.82 -7.17 2.39
2.95 -7.10 2.39
3.09 -7.03 2.39
3.23 -6.96 2.39
3.36 -6.88 2.39
3.49 -6.80 2.39
3.62 -6.72 2.39
3.75 -6.63 2.39
3.88 -6.54 2.39
4.00 -6.45 2.39
4.12 -6.36 2.39
4.24 -6.27 2.39
4.36 -6.17 2.39
4.48 -6.07 2.39
4.59 -5.97 2.39
4.70 -5.87 2.39
4.81 -5.77 2.39
4.92 -5.66 2.39
5.03 -5.55 2.39
5.13 -5.44 2.39
5.23 -5.33 2.39
5.33 -5.21 2.39
5.43 -5.10 2.39
5.52 -4.98 2.39
5.61 -4.86 2.39
5.70 -4.74 2.39
5.79 -4.62 2.39
5.87 -4.50 2.39
5.95 -4.37 2.39
6.56 -4.62 2.60
6.72 -4.53 2.63
6.88 -4.44 2.66
7.04 -4.34 2.69
7.19 -4.24 2.72
7.35 -4.13 2.75
7.50 -4.02 2.78
7.65 -3.91 2.81
7.81 -3.79 2.84
7.97 -3.67 2.87
8.13 -3.55 2.91
8.28 -3.42 2.94
8.43 -3.28 2.97
8.45 -3.09 2.96
8.48 -2.91 2.95
8.50 -2.73 2.94
8.52 -2.55 2.93
8.54 -2.36 2.93
8.56 -2.18 2.92
8.58 -2.00 2.91
8.59 -1.83 2.91
8.60 -1.65 2.90
8.61 -1.47 2.89
8.62 -1.29 2.89
8.63 -1.12 2.89
8.64 -0.94 2.89
8.68 -0.77 2.90
8.71 -0.59 2.90
8.70 -0.41 2.90
8.69 -0.24 2.89
8.68 -0.06 2.89
8.67 0.11 2.89
8.66 0.29 2.89
8.64 0.46 2.88
8.63 0.64 2.88
8.61 0.81 2.88
8.59 0.98 2.88
8.57 1.16 2.89
8.56 1.33 2.89
8.54 1.51 2.90
8.52 1.68 2.90
8.49 1.86 2.90
8.46 2.03 2.91
8.43 2.21 2.91
8.40 2.38 2.91
8.37 2.55 2.92
8.33 2.73 2.93
8.29 2.90 2.93
8.25 3.08 2.94
8.20 3.25 2.94
8.16 3.42 2.95
8.06 3.58 2.94
7.93 3.71 2.92
7.78 3.84 2.89
7.64 3.96 2.87
7.48 4.07 2.84
7.33 4.18 2.81
7.17 4.28 2.78
7.01 4.39 2.75
6.85 4.48 2.72
6.69 4.57 2.69
6.30 4.50 2.57
6.30 4.69 2.61
6.20 4.81 2.61
5.60 4.53 2.39
5.51 4.65 2.39
5.42 4.76 2.39
5.33 4.88 2.39
5.23 4.99 2.39
5.13 5.09 2.39
5.03 5.20 2.39
4.93 5.31 2.39
4.83 5.41 2.39
4.72 5.51 2.39
4.61 5.61 2.39
4.50 5.71 2.39
4.39 5.80 2.39
4.28 5.90 2.39
4.16 5.99 2.39
4.05 6.08 2.39
3.93 6.16 2.39
3.80 6.25 2.39
3.68 6.33 2.39
3.56 6.41 2.39
3.43 6.49 2.39
3.30 6.56 2.39
3.17 6.64 2.39
3.04 6.71 2.39
2.91 6.78 2.39
2.78 6.84 2.39
2.64 6.91 2.39
2.51 6.97 2.39
2.37 7.03 2.39
2.23 7.08 2.39
2.09 7.14 2.39
1.95 7.19 2.39
1.81 7.23 2.39
1.66 7.28 2.39
1.52 7.32 2.39
1.43 7.68 2.49
1.28 7.72 2.49
1.12 7.75 2.49
0.97 7.79 2.49
0.81 7.82 2.49
0.66 7.84 2.49
0.50 7.87 2.49
0.34 7.89 2.49
0.18 7.91 2.49
0.02 7.92 2.49
-0.14 7.93 2.49
-0.30 7.94 2.49
-0.46 7.95 2.49
-0.62 7.95 2.49
-0.78 7.95 2.49
-0.94 7.94 2.49
-1.10 7.94 2.49
-1.26 7.93 2.49
-1.42 7.91 2.49
-1.58 7.90 2.49
-1.74 7.88 2.49
-1.91 7.85 2.49
-2.07 7.83 2.49
-2.23 7.80 2.49
-2.39 7.76 2.49
-2.55 7.73 2.49
-2.71 7.69 2.49
-2.86 7.64 2.49
-3.02 7.60 2.49
-3.18 7.55 2.49
-3.34 7.50 2.49
-3.49 7.44 2.49
-3.65 7.38 2.49
-3.80 7.32 2.49
-3.95 7.25 2.49
-4.10 7.19 2.49
-4.25 7.11 2.49
-4.40 7.04 2.49
-4.55 6.96 2.49
-4.70 6.88 2.49
-4.84 6.80 2.49
-4.98 6.71 2.49
-5.13 6.62 2.49
-5.27 6.52 2.49
-5.40 6.43 2.49
-5.54 6.33 2.49
-5.67 6.23 2.49
-5.81 6.12 2.49
-5.94 6.01 2.49
-6.07 5.90 2.49
-6.19 5.79 2.49
-6.32 5.67 2.49
-6.44 5.55 2.49
-6.48 5.37 2.47
-6.48 5.15 2.42
-6.51 4.97 2.39
-6.61 4.84 2.39
-6.72 4.71 2.39
-6.82 4.59 2.39
-6.92 4.45 2.39
-7.02 4.32 2.39
-7.11 4.19 2.39
-7.20 4.05 2.39
-7.29 3.91 2.39
-7.38 3.77 2.39
-7.46 3.62 2.39
-7.54 3.48 2.39
-7.62 3.33 2.39
-7.69 3.18 2.39
-7.76 3.03 2.39
-7.83 2.88 2.39
-7.89 2.72 2.39
-7.95 2.57 2.39
-8.01 2.41 2.39
-8.07 2.25 2.39
-8.12 2.09 2.39
-8.16 1.93 2.39
-8.21 1.77 2.39
-8.25 1.61 2.39
-8.29 1.44 2.39
-8.32 1.28 2.39
-8.35 1.12 2.39
-8.38 0.95 2.39
-8.40 0.78 2.39
-8.42 0.62 2.39
-8.43 0.45 2.39
-8.45 0.28 2.39
-8.45 0.11 2.39
-8.46 -0.06 2.39
-8.46 -0.23 2.39
-8.46 -0.40 2.39
-8.45 -0.56 2.39
-8.44 -0.73 2.39
-8.43 -0.90 2.39
-8.41 -1.07 2.39
-8.39 -1.24 2.39
-8.36 -1.40 2.39
-8.34 -1.57 2.39
-8.31 -1.74 2.39
-8.27 -1.90 2.39
-8.23 -2.07 2.39
-8.19 -2.23 2.39
-8.14 -2.39 2.39
-8.09 -2.56 2.39
-8.04 -2.72 2.39
-7.98 -2.88 2.39
-7.92 -3.03 2.39
-7.86 -3.19 2.39
-7.79 -3.35 2.39
-7.72 -3.50 2.39
-7.65 -3.65 2.39
-7.57 -3.80 2.39
-7.49 -3.95 2.39
-7.41 -4.10 2.39
-7.32 -4.24 2.39
-7.23 -4.39 2.39
-7.14 -4.53 2.39
-7.05 -4.67 2.39
-6.95 -4.80 2.39
-6.85 -4.94 2.39
-6.74 -5.07 2.39
-6.63 -5.20 2.39
-6.52 -5.33 2.39
-6.41 -5.45 2.39
-6.30 -5.57 2.39
-6.18 -5.69 2.39
-6.06 -5.81 2.39
-6.02 -6.01 2.42
-6.00 -6.24 2.47
-5.93 -6.41 2.49
-5.80 -6.52 2.49
-5.66 -6.63 2.49
-5.52 -6.74 2.49
-5.38 -6.84 2.49
-5.24 -6.94 2.49
-5.09 -7.03 2.49
-4.94 -7.12 2.49
-4.80 -7.21 2.49
-4.65 -7.30 2.49
-4.49 -7.38 2.49
-4.34 -7.46 2.49
-4.18 -7.54 2.49
-4.03 -7.61 2.49
-3.87 -7.68 2.49
-3.71 -7.74 2.49
-3.55 -7.80 2.49
-3.39 -7.86 2.49
-3.23 -7.92 2.49
-3.06 -7.97 2.49
-2.90 -8.02 2.49
-2.74 -8.06 2.49
-2.57 -8.10 2.49
-2.40 -8.14 2.49
-2.24 -8.18 2.49
-2.07 -8.21 2.49
-1.90 -8.23 2.49
-1.74 -8.26 2.49
-1.57 -8.28 2.49
-1.40 -8.29 2.49
-1.23 -8.31 2.49
-1.06 -8.32 2.49
-0.90 -8.32 2.49
-0.73 -8.33 2.49
-0.56 -8.32 2.49
-0.39 -8.32 2.49
-0.22 -8.31 2.49
-0.06 -7.67 2.49
0.10 -7.66 2.49
0.25 -7.64 2.49
0.40 -7.62 2.49
0.55 -7.60 2.49
0.70 -7.58 2.49
0.85 -7.55 2.49
1.00 -7.52 2.49
1.15 -7.49 2.49
1.30 -7.45 2.49
1.45 -7.41 2.49
1.59 -7.37 2.49
1.74 -7.32 2.49
1.88 -7.28 2.49
2.02 -7.22 2.49
2.09 -6.91 2.40
2.21 -6.82 2.39
2.34 -6.76 2.39
2.47 -6.70 2.39
2.60 -6.64 2.39
2.73 -6.58 2.39
2.86 -6.51 2.39
2.98 -6.44 2.39
3.11 -6.37 2.39
3.23 -6.30 2.39
3.35 -6.22 2.39
3.47 -6.15 2.39
3.59 -6.07 2.39
3.70 -5.98 2.39
3.82 -5.90 2.39
3.93 -5.81 2.39
4.04 -5.72 2.39
4.15 -5.63 2.39
4.25 -5.54 2.39
4.36 -5.44 2.39
4.46 -5.35 2.39
4.56 -5.25 2.39
4.66 -5.15 2.39
4.76 -5.05 2.39
4.85 -4.94 2.39
4.94 -4.84 2.39
5.03 -4.73 2.39
5.12 -4.62 2.39
5.20 -4.51 2.39
5.29 -4.40 2.39
5.37 -4.29 2.39
5.45 -4.18 2.39
