ply
format ascii 1.0
element vertex 2968
property float32 x
property float32 y
property float32 z
end_header
-11.00 3.61 2.14
-10.98 3.36 2.13
-10.86 3.08 2.09
-10.75 2.82 2.06
-10.64 2.56 2.03
-10.53 2.31 2.00
-10.54 2.10 1.99
-10.54 1.88 1.99
-10.55 1.66 1.99
-10.56 1.45 1.98
-10.57 1.23 1.98
-10.57 1.02 1.98
-10.59 0.81 1.98
-10.64 0.60 1.99
-10.69 0.38 1.99
-10.72 0.17 2.00
-10.72 -0.05 2.00
-10.72 -0.26 2.00
-10.73 -0.48 2.00
-10.73 -0.69 2.01
-10.73 -0.91 2.01
-10.74 -1.13 2.02
-10.76 -1.35 2.03
-10.78 -1.57 2.04
-10.50 -1.75 1.99
-10.44 -1.95 1.99
-10.39 -2.16 1.99
-10.33 -2.37 1.99
-10.28 -2.57 1.99
-10.79 -2.93 2.10
-10.83 -3.18 2.12
-10.92 -3.44 2.15
-11.01 -3.72 2.18
-11.02 -3.97 2.20
-11.01 -4.22 2.22
-11.00 -4.47 2.23
-10.99 -4.72 2.25
-10.97 -4.98 2.27
-10.96 -5.24 2.29
-10.95 -5.51 2.31
-10.94 -5.78 2.33
-10.92 -6.05 2.36
-10.90 -6.33 2.38
-10.88 -6.61 2.40
-10.86 -6.90 2.43
-10.86 -7.22 2.46
-10.39 -7.21 2.39
-10.24 -7.41 2.39
-10.09 -7.61 2.39
-9.93 -7.81 2.39
-9.76 -8.01 2.39
-9.60 -8.20 2.39
-9.43 -8.38 2.39
-9.25 -8.57 2.39
-9.07 -8.75 2.39
-8.89 -8.92 2.39
-8.71 -9.10 2.39
-8.52 -9.27 2.39
-8.33 -9.43 2.39
-8.13 -9.59 2.39
-7.94 -9.75 2.39
-7.74 -9.91 2.39
-7.53 -10.05 2.39
-7.33 -10.20 2.39
-7.12 -10.34 2.39
-7.01 -10.64 2.43
-6.98 -11.07 2.49
-6.76 -11.20 2.49
-6.53 -11.33 2.49
-6.30 -11.46 2.49
-6.06 -11.58 2.49
-5.83 -11.70 2.49
-5.59 -11.81 2.49
-5.35 -11.92 2.50
-5.11 -12.02 2.50
-4.87 -12.11 2.50
-4.62 -12.21 2.50
-4.37 -12.30 2.50
-4.12 -12.38 2.50
-3.87 -12.46 2.50
-3.62 -12.53 2.50
-3.37 -12.60 2.50
-3.12 -12.66 2.50
-2.86 -12.72 2.50
-2.60 -12.77 2.50
-2.35 -12.81 2.50
-2.09 -12.85 2.50
-1.83 -12.89 2.50
-1.57 -12.92 2.50
-1.31 -12.94 2.50
-1.05 -12.96 2.50
-0.79 -12.98 2.50
-0.53 -12.99 2.50
-0.26 -12.99 2.49
-0.00 -11.58 2.49
0.23 -11.57 2.49
0.46 -11.57 2.49
0.69 -11.55 2.49
0.93 -11.53 2.49
1.16 -11.51 2.49
1.39 -11.48 2.49
1.55 -10.98 2.39
1.79 -11.05 2.41
1.99 -10.91 2.39
2.21 -10.86 2.39
2.03 -9.07 2.01
2.00 -8.14 1.81
2.07 -7.76 1.73
2.24 -7.78 1.75
3.29 -10.58 2.39
3.50 -10.52 2.39
3.71 -10.44 2.39
3.92 -10.37 2.39
4.13 -10.29 2.39
4.33 -10.20 2.39
4.54 -10.11 2.39
4.74 -10.02 2.39
4.94 -9.92 2.39
5.14 -9.82 2.39
5.33 -9.72 2.39
5.53 -9.61 2.39
5.63 -9.35 2.35
5.72 -9.07 2.31
5.79 -8.80 2.27
5.87 -8.53 2.23
5.94 -8.28 2.20
6.03 -8.06 2.17
6.14 -7.87 2.15
6.24 -7.67 2.13
6.34 -7.48 2.11
6.43 -7.29 2.09
6.52 -7.10 2.08
6.61 -6.91 2.06
6.68 -6.71 2.04
6.70 -6.46 2.00
6.72 -6.22 1.97
6.76 -6.01 1.95
6.80 -5.81 1.92
6.84 -5.61 1.90
6.88 -5.42 1.88
6.91 -5.22 1.86
6.95 -5.03 1.84
6.98 -4.85 1.83
7.01 -4.66 1.81
7.04 -4.48 1.79
7.07 -4.30 1.78
7.09 -4.12 1.76
7.11 -3.94 1.75
7.14 -3.77 1.73
7.16 -3.60 1.72
7.18 -3.43 1.71
7.20 -3.27 1.69
7.21 -3.10 1.68
7.22 -2.93 1.67
7.23 -2.77 1.66
7.24 -2.61 1.65
7.25 -2.45 1.64
7.26 -2.29 1.63
7.26 -2.13 1.62
7.27 -1.98 1.61
7.28 -1.82 1.61
7.29 -1.67 1.60
7.30 -1.52 1.59
7.30 -1.37 1.59
7.31 -1.22 1.58
7.32 -1.07 1.58
7.34 -0.92 1.58
7.35 -0.77 1.58
7.36 -0.62 1.58
7.37 -0.48 1.57
7.38 -0.33 1.57
7.39 -0.18 1.57
7.40 -0.03 1.58
7.41 0.12 1.58
7.41 0.27 1.58
2.31 0.13 0.49
2.28 0.17 0.49
2.29 0.22 0.49
7.44 0.87 1.59
7.44 1.02 1.60
7.45 1.18 1.60
7.46 1.33 1.61
7.46 1.49 1.61
7.47 1.64 1.62
7.47 1.80 1.63
7.47 1.96 1.64
7.47 2.12 1.65
7.47 2.29 1.65
7.47 2.45 1.66
7.47 2.62 1.67
7.46 2.79 1.68
7.47 2.96 1.70
7.47 3.13 1.71
7.47 3.31 1.73
7.47 3.49 1.74
7.47 3.68 1.76
7.47 3.87 1.77
7.46 4.05 1.79
7.45 4.25 1.81
7.44 4.44 1.82
7.43 4.64 1.84
7.42 4.84 1.86
7.43 5.06 1.89
7.49 5.33 1.93
7.55 5.60 1.98
7.62 5.89 2.02
7.61 6.13 2.05
7.57 6.35 2.07
7.52 6.58 2.10
7.48 6.81 2.12
7.45 7.06 2.15
7.49 7.39 2.20
7.52 7.72 2.26
7.53 8.05 2.31
7.45 8.29 2.33
7.36 8.53 2.36
3.93 4.74 1.29
3.76 4.73 1.26
3.64 4.77 1.26
3.55 4.85 1.26
3.49 4.98 1.27
6.87 10.23 2.57
6.68 10.39 2.58
6.00 9.76 2.39
5.80 9.88 2.39
5.61 10.00 2.39
5.41 10.11 2.39
5.21 10.22 2.39
5.00 10.32 2.39
4.79 10.43 2.39
4.59 10.52 2.39
4.37 10.62 2.39
4.16 10.70 2.39
3.95 10.79 2.39
3.73 10.87 2.39
3.51 10.94 2.39
3.29 11.02 2.39
3.07 11.08 2.39
2.85 11.14 2.39
2.63 11.20 2.39
2.40 11.25 2.39
2.18 11.30 2.39
2.03 11.84 2.49
1.80 11.88 2.49
1.56 11.91 2.49
1.32 11.95 2.49
1.08 11.97 2.49
0.84 11.99 2.49
0.60 12.01 2.49
0.36 12.02 2.49
0.12 12.03 2.49
-0.12 12.03 2.49
-0.37 12.03 2.49
-0.61 12.02 2.49
-0.85 12.00 2.49
-1.09 11.99 2.49
-1.33 11.96 2.49
-1.57 11.94 2.49
-1.81 11.90 2.49
-2.05 11.87 2.49
-2.28 11.82 2.49
-2.52 11.78 2.49
-2.76 11.72 2.49
-2.99 11.67 2.49
-3.23 11.60 2.49
-3.46 11.54 2.49
-3.69 11.47 2.49
-3.92 11.39 2.49
-4.15 11.31 2.49
-4.37 11.22 2.49
-4.60 11.13 2.49
-4.82 11.04 2.49
-5.04 10.94 2.49
-5.26 10.84 2.49
-5.47 10.73 2.49
-5.69 10.62 2.49
-5.90 10.50 2.49
-6.01 10.21 2.45
-6.05 9.83 2.39
-6.25 9.71 2.39
-6.44 9.58 2.39
-6.63 9.44 2.39
-6.82 9.31 2.39
-7.00 9.17 2.39
-7.18 9.03 2.39
-7.36 8.88 2.39
-7.54 8.73 2.39
-7.71 8.57 2.39
-7.88 8.42 2.39
-8.04 8.26 2.39
-8.21 8.09 2.39
-8.37 7.92 2.39
-8.52 7.75 2.39
-8.67 7.58 2.39
-8.82 7.40 2.39
-8.97 7.22 2.39
-9.11 7.04 2.39
-9.25 6.85 2.39
-9.38 6.66 2.39
-9.51 6.47 2.39
-9.63 6.28 2.39
-9.76 6.08 2.39
-9.87 5.89 2.39
-9.99 5.68 2.39
-10.10 5.48 2.39
-10.47 5.42 2.45
-10.50 5.16 2.44
-10.53 4.92 2.42
-10.58 4.69 2.41
-10.64 4.46 2.40
-10.68 4.23 2.39
-10.70 3.99 2.38
-10.72 3.75 2.37
-10.74 3.52 2.36
-10.75 3.29 2.35
-10.71 3.04 2.32
-10.60 2.78 2.29
-10.49 2.53 2.25
-10.40 2.29 2.23
-10.41 2.07 2.22
-10.42 1.86 2.21
-10.42 1.64 2.21
-10.43 1.43 2.20
-10.44 1.22 2.20
-10.44 1.01 2.20
-10.45 0.80 2.20
-10.49 0.59 2.20
-10.54 0.38 2.21
-10.56 0.17 2.22
-10.56 -0.04 2.22
-10.57 -0.26 2.22
-10.57 -0.47 2.22
-10.57 -0.68 2.23
-10.57 -0.90 2.23
-10.58 -1.11 2.24
-10.59 -1.33 2.24
-10.61 -1.55 2.26
-10.49 -1.74 2.24
-10.44 -1.95 2.24
-10.38 -2.16 2.23
-10.33 -2.36 2.23
-10.27 -2.57 2.23
-10.61 -2.88 2.32
-10.60 -3.11 2.33
-10.64 -3.35 2.35
-10.73 -3.62 2.39
-10.77 -3.88 2.42
-10.76 -4.12 2.44
-10.75 -4.36 2.45
-10.73 -4.61 2.47
-10.29 -4.66 2.39
-10.19 -4.87 2.39
-10.08 -5.07 2.39
-9.97 -5.27 2.39
-9.86 -5.47 2.39
-9.75 -5.66 2.39
-9.63 -5.85 2.39
-9.50 -6.04 2.39
-9.38 -6.23 2.39
-9.25 -6.41 2.39
-9.11 -6.59 2.39
-8.97 -6.77 2.39
-8.83 -6.95 2.39
-8.69 -7.12 2.39
-8.54 -7.29 2.39
-8.39 -7.46 2.39
-8.23 -7.62 2.39
-8.08 -7.79 2.39
-7.92 -7.94 2.39
-7.75 -8.10 2.39
-7.59 -8.25 2.39
-7.42 -8.40 2.39
-7.24 -8.54 2.39
-7.07 -8.68 2.39
-6.89 -8.82 2.39
-6.71 -8.95 2.39
-6.60 -9.19 2.42
-6.61 -9.60 2.49
-6.42 -9.73 2.49
-6.22 -9.86 2.49
-6.02 -9.98 2.49
-5.81 -10.09 2.49
-5.61 -10.20 2.49
-5.40 -10.31 2.49
-5.19 -10.42 2.49
-4.98 -10.52 2.50
-4.77 -10.61 2.50
-4.55 -10.70 2.50
-4.34 -10.79 2.50
-4.12 -10.87 2.50
-3.90 -10.95 2.50
-3.68 -11.03 2.50
-3.45 -11.10 2.50
-3.23 -11.16 2.50
-3.00 -11.22 2.50
-2.78 -11.28 2.50
-2.55 -11.33 2.50
-2.32 -11.37 2.50
-2.09 -11.42 2.50
-1.86 -11.45 2.50
-1.63 -11.48 2.50
-1.40 -11.51 2.50
-1.17 -11.53 2.50
-0.93 -11.55 2.50
-0.70 -11.57 2.50
-0.47 -11.57 2.50
-0.24 -11.58 2.49
-0.00 -10.43 2.49
0.21 -10.43 2.49
0.42 -10.42 2.49
0.62 -10.41 2.49
0.83 -10.39 2.49
1.04 -10.37 2.49
1.25 -10.35 2.49
1.46 -10.32 2.49
1.60 -9.91 2.40
1.79 -9.83 2.39
1.99 -9.79 2.39
2.19 -9.75 2.39
2.00 -8.14 2.01
1.97 -7.37 1.83
2.24 -7.77 1.94
2.96 -9.54 2.39
3.15 -9.48 2.39
3.34 -9.41 2.39
3.53 -9.34 2.39
3.72 -9.27 2.39
3.90 -9.19 2.39
4.09 -9.11 2.39
4.27 -9.03 2.39
4.45 -8.94 2.39
4.63 -8.85 2.39
4.81 -8.76 2.39
4.98 -8.66 2.39
5.15 -8.56 2.39
5.33 -8.45 2.39
5.46 -8.30 2.38
5.54 -8.05 2.34
5.61 -7.81 2.30
5.71 -7.63 2.28
5.83 -7.47 2.27
5.95 -7.32 2.26
6.07 -7.16 2.24
6.17 -6.99 2.23
6.25 -6.81 2.21
6.34 -6.63 2.19
6.41 -6.44 2.17
6.44 -6.21 2.14
6.48 -6.01 2.11
6.53 -5.81 2.09
6.57 -5.61 2.06
6.61 -5.42 2.04
6.65 -5.24 2.02
6.69 -5.05 2.00
6.72 -4.87 1.98
6.76 -4.69 1.96
6.79 -4.51 1.94
6.82 -4.34 1.93
6.85 -4.16 1.91
6.87 -3.99 1.89
6.90 -3.82 1.88
6.92 -3.66 1.87
6.94 -3.49 1.85
6.96 -3.33 1.84
6.98 -3.17 1.83
7.00 -3.01 1.81
7.02 -2.85 1.80
7.03 -2.69 1.79
7.04 -2.53 1.78
7.05 -2.38 1.77
7.05 -2.22 1.76
7.06 -2.07 1.75
7.07 -1.92 1.74
7.08 -1.77 1.73
7.09 -1.62 1.73
7.10 -1.48 1.72
7.11 -1.33 1.72
7.11 -1.18 1.71
7.12 -1.04 1.71
7.13 -0.89 1.70
7.14 -0.75 1.70
7.15 -0.61 1.70
7.16 -0.46 1.70
7.17 -0.32 1.70
7.18 -0.17 1.70
7.19 -0.03 1.70
7.20 0.11 1.70
7.20 0.26 1.70
2.31 0.13 0.55
2.28 0.17 0.54
2.29 0.22 0.54
7.22 0.84 1.72
7.22 0.99 1.72
7.23 1.14 1.73
7.23 1.29 1.73
7.24 1.44 1.74
7.24 1.59 1.75
7.24 1.75 1.75
7.24 1.90 1.76
7.24 2.06 1.77
7.24 2.22 1.78
7.24 2.38 1.79
7.23 2.54 1.80
7.23 2.70 1.81
7.22 2.86 1.83
7.21 3.03 1.84
7.21 3.20 1.85
7.21 3.37 1.87
7.21 3.55 1.88
7.20 3.73 1.90
7.20 3.91 1.92
7.19 4.09 1.94
7.17 4.28 1.96
7.16 4.47 1.98
7.14 4.66 2.00
7.13 4.86 2.02
7.11 5.05 2.04
7.09 5.26 2.06
7.12 5.51 2.10
7.17 5.78 2.15
7.19 6.04 2.19
7.15 6.25 2.22
7.10 6.47 2.24
7.05 6.69 2.27
7.00 6.91 2.29
6.95 7.14 2.32
6.89 7.37 2.35
6.83 7.60 2.38
6.83 7.92 2.43
3.93 4.74 1.43
3.64 4.58 1.36
3.64 4.77 1.40
3.54 4.84 1.40
3.49 4.98 1.41
5.73 8.54 2.39
5.56 8.65 2.39
5.39 8.77 2.39
5.21 8.87 2.39
5.04 8.98 2.39
4.86 9.08 2.39
4.67 9.18 2.39
4.49 9.27 2.39
4.31 9.36 2.39
4.12 9.45 2.39
3.93 9.54 2.39
3.74 9.61 2.39
3.54 9.69 2.39
3.35 9.76 2.39
3.15 9.83 2.39
2.96 9.89 2.39
2.76 9.95 2.39
2.56 10.01 2.39
2.36 10.06 2.39
2.16 10.11 2.39
2.04 10.59 2.49
1.83 10.63 2.49
1.61 10.67 2.49
1.40 10.70 2.49
1.18 10.73 2.49
0.97 10.75 2.49
0.75 10.77 2.49
0.54 10.78 2.49
0.32 10.79 2.49
0.10 10.80 2.49
-0.11 10.80 2.49
-0.33 10.80 2.49
-0.55 10.79 2.49
-0.76 10.78 2.49
-0.98 10.76 2.49
-1.19 10.74 2.49
-1.41 10.72 2.49
-1.62 10.69 2.49
-1.84 10.65 2.49
-2.05 10.61 2.49
-2.26 10.57 2.49
-2.47 10.52 2.49
-2.69 10.47 2.49
-2.90 10.42 2.49
-3.10 10.36 2.49
-3.31 10.29 2.49
-3.52 10.22 2.49
-3.72 10.15 2.49
-3.92 10.08 2.49
-4.12 9.99 2.49
-4.32 9.91 2.49
-4.52 9.82 2.49
-4.72 9.73 2.49
-4.91 9.63 2.49
-5.10 9.53 2.49
-5.29 9.43 2.49
-5.48 9.32 2.49
-5.67 9.20 2.49
-5.85 9.09 2.49
-6.03 8.97 2.49
-6.05 8.61 2.43
-6.12 8.36 2.39
-6.29 8.23 2.39
-6.45 8.10 2.39
-6.61 7.97 2.39
-6.77 7.84 2.39
-6.92 7.70 2.39
-7.07 7.56 2.39
-7.22 7.41 2.39
-7.37 7.26 2.39
-7.51 7.11 2.39
-7.65 6.96 2.39
-7.79 6.80 2.39
-7.92 6.65 2.39
-8.05 6.48 2.39
-8.18 6.32 2.39
-8.30 6.15 2.39
-8.42 5.98 2.39
-8.54 5.81 2.39
-8.65 5.64 2.39
-8.76 5.46 2.39
-8.87 5.29 2.39
-8.97 5.11 2.39
-9.07 4.92 2.39
-9.16 4.74 2.39
-9.25 4.55 2.39
-9.34 4.37 2.39
-9.42 4.18 2.39
-9.50 3.99 2.39
-9.58 3.79 2.39
-9.65 3.60 2.39
-9.72 3.40 2.39
-9.78 3.21 2.39
-9.84 3.01 2.39
-9.89 2.81 2.39
-9.95 2.61 2.39
-9.99 2.41 2.39
-10.04 2.21 2.39
-10.08 2.01 2.39
-10.11 1.80 2.39
-10.14 1.60 2.39
-10.17 1.40 2.39
-10.19 1.19 2.39
-10.21 0.99 2.39
-10.22 0.78 2.39
-10.23 0.57 2.39
-10.24 0.37 2.39
-10.24 0.16 2.39
-10.24 -0.04 2.39
-10.23 -0.25 2.39
-10.22 -0.45 2.39
-10.21 -0.66 2.39
-10.19 -0.86 2.39
-10.16 -1.07 2.39
-10.14 -1.27 2.39
-10.11 -1.47 2.39
-10.07 -1.67 2.39
-10.03 -1.87 2.39
-9.99 -2.07 2.39
-9.94 -2.27 2.39
-9.89 -2.47 2.39
-9.83 -2.67 2.39
-9.78 -2.86 2.39
-9.71 -3.06 2.39
-9.64 -3.25 2.39
-9.57 -3.44 2.39
-9.50 -3.63 2.39
-9.42 -3.82 2.39
-9.34 -4.01 2.39
-9.25 -4.19 2.39
-9.16 -4.38 2.39
-9.07 -4.56 2.39
-8.97 -4.74 2.39
-8.87 -4.92 2.39
-8.77 -5.09 2.39
-8.66 -5.26 2.39
-8.55 -5.44 2.39
-8.44 -5.60 2.39
-8.32 -5.77 2.39
-8.20 -5.93 2.39
-8.08 -6.09 2.39
-7.95 -6.25 2.39
-7.82 -6.41 2.39
-7.69 -6.56 2.39
-7.55 -6.71 2.39
-7.41 -6.86 2.39
-7.27 -7.01 2.39
-7.13 -7.15 2.39
-6.98 -7.29 2.39
-6.83 -7.42 2.39
-6.68 -7.56 2.39
-6.52 -7.69 2.39
-6.46 -7.93 2.43
-6.47 -8.27 2.49
-6.30 -8.41 2.49
-6.13 -8.53 2.49
-5.95 -8.65 2.49
-5.78 -8.76 2.49
-5.60 -8.87 2.49
-5.42 -8.98 2.49
-5.24 -9.09 2.49
-5.05 -9.19 2.49
-4.86 -9.29 2.49
-4.68 -9.38 2.49
-4.48 -9.47 2.49
-4.29 -9.56 2.49
-4.10 -9.64 2.49
-3.90 -9.72 2.49
-3.71 -9.79 2.49
-3.51 -9.86 2.49
-3.31 -9.93 2.50
-3.11 -9.99 2.50
-2.91 -10.05 2.50
-2.70 -10.10 2.50
-2.50 -10.15 2.50
-2.30 -10.20 2.50
-2.09 -10.24 2.50
-1.88 -10.28 2.50
-1.68 -10.31 2.50
-1.47 -10.34 2.50
-1.26 -10.37 2.50
-1.05 -10.39 2.50
-0.84 -10.41 2.50
-0.63 -10.42 2.49
-0.42 -10.43 2.49
-0.21 -10.43 2.49
-0.00 -9.48 2.49
0.19 -9.48 2.49
0.38 -9.47 2.49
0.57 -9.46 2.49
0.76 -9.45 2.49
0.95 -9.43 2.49
1.14 -9.41 2.49
1.32 -9.38 2.49
1.51 -9.35 2.49
1.64 -8.99 2.40
1.81 -8.90 2.39
1.99 -8.86 2.39
2.16 -8.82 2.39
1.97 -7.37 2.01
2.01 -6.96 1.91
2.01 -6.48 1.79
2.21 -6.65 1.85
3.04 -8.55 2.39
3.21 -8.49 2.39
3.38 -8.43 2.39
3.55 -8.36 2.39
3.72 -8.28 2.39
3.88 -8.21 2.39
4.05 -8.13 2.39
4.21 -8.04 2.39
4.37 -7.96 2.39
4.53 -7.87 2.39
4.69 -7.78 2.39
4.84 -7.68 2.39
4.99 -7.58 2.39
5.15 -7.48 2.39
5.30 -7.38 2.39
5.43 -7.25 2.38
5.54 -7.10 2.37
5.65 -6.95 2.36
5.77 -6.80 2.35
5.87 -6.66 2.34
5.98 -6.51 2.33
6.09 -6.36 2.32
6.17 -6.19 2.30
6.22 -6.00 2.27
6.26 -5.80 2.25
6.31 -5.62 2.22
6.35 -5.43 2.20
6.40 -5.25 2.17
6.44 -5.07 2.15
6.48 -4.89 2.13
6.51 -4.72 2.11
6.55 -4.54 2.09
6.58 -4.37 2.07
6.61 -4.20 2.06
6.64 -4.04 2.04
6.66 -3.87 2.02
6.69 -3.71 2.01
6.71 -3.55 1.99
6.74 -3.39 1.98
6.76 -3.23 1.96
6.78 -3.07 1.95
6.80 -2.92 1.94
6.82 -2.77 1.93
6.83 -2.61 1.91
6.84 -2.46 1.90
6.85 -2.31 1.89
6.86 -2.16 1.88
6.87 -2.01 1.87
6.88 -1.87 1.86
6.89 -1.72 1.86
6.90 -1.58 1.85
6.91 -1.44 1.84
6.91 -1.29 1.84
6.92 -1.15 1.83
6.93 -1.01 1.83
6.93 -0.87 1.82
6.94 -0.73 1.82
6.95 -0.59 1.82
6.96 -0.45 1.82
6.97 -0.31 1.82
6.98 -0.17 1.82
6.99 -0.03 1.82
6.99 0.11 1.82
7.00 0.25 1.82
2.31 0.13 0.60
2.28 0.17 0.59
2.29 0.22 0.60
7.01 0.82 1.84
7.01 0.96 1.84
7.01 1.11 1.85
7.02 1.25 1.85
7.02 1.40 1.86
7.02 1.55 1.87
7.02 1.70 1.87
7.02 1.85 1.88
7.02 2.00 1.89
7.02 2.15 1.90
7.02 2.30 1.91
7.01 2.46 1.92
7.00 2.62 1.94
7.00 2.77 1.95
6.99 2.93 1.96
6.98 3.10 1.97
6.97 3.26 1.99
6.96 3.43 2.01
6.95 3.60 2.02
6.95 3.78 2.04
6.94 3.95 2.06
6.92 4.13 2.08
6.91 4.31 2.10
6.89 4.49 2.12
6.87 4.68 2.14
6.85 4.87 2.17
6.82 5.06 2.19
6.80 5.26 2.22
6.77 5.46 2.24
6.76 5.67 2.27
6.79 5.94 2.32
6.76 6.15 2.35
6.71 6.36 2.38
6.65 6.57 2.40
6.60 6.78 2.43
6.54 7.00 2.46
6.48 7.21 2.49
6.40 7.42 2.52
3.93 4.74 1.58
3.76 4.73 1.55
3.64 4.77 1.54
3.53 4.83 1.53
3.49 4.98 1.56
5.20 7.74 2.39
5.04 7.85 2.39
4.89 7.95 2.39
4.73 8.05 2.39
4.57 8.14 2.39
4.40 8.24 2.39
4.24 8.32 2.39
4.07 8.41 2.39
3.90 8.49 2.39
3.73 8.57 2.39
3.56 8.65 2.39
3.39 8.72 2.39
3.21 8.79 2.39
3.04 8.85 2.39
2.86 8.91 2.39
2.68 8.97 2.39
2.50 9.02 2.39
2.32 9.07 2.39
2.14 9.12 2.39
2.03 9.49 2.48
1.85 9.60 2.49
1.65 9.64 2.49
1.46 9.67 2.49
1.27 9.70 2.49
1.07 9.72 2.49
0.88 9.74 2.49
0.68 9.76 2.49
0.49 9.77 2.49
0.29 9.78 2.49
0.09 9.79 2.49
-0.10 9.79 2.49
-0.30 9.79 2.49
-0.49 9.78 2.49
-0.69 9.77 2.49
-0.89 9.75 2.49
-1.08 9.73 2.49
-1.28 9.71 2.49
-1.47 9.68 2.49
-1.67 9.65 2.49
-1.86 9.62 2.49
-2.05 9.58 2.49
-2.24 9.54 2.49
-2.43 9.49 2.49
-2.62 9.44 2.49
-2.81 9.39 2.49
-3.00 9.33 2.49
-3.19 9.27 2.49
-3.37 9.20 2.49
-3.56 9.13 2.49
-3.74 9.06 2.49
-3.92 8.98 2.49
-4.10 8.90 2.49
-4.28 8.82 2.49
-4.45 8.73 2.49
-4.63 8.64 2.49
-4.80 8.54 2.49
-4.97 8.44 2.49
-5.14 8.34 2.49
-5.30 8.24 2.49
-5.47 8.13 2.49
-5.63 8.02 2.49
-5.79 7.90 2.49
-5.94 7.78 2.49
-6.07 7.62 2.48
-6.08 7.33 2.42
-6.13 7.10 2.39
-6.27 6.98 2.39
-6.41 6.85 2.39
-6.55 6.72 2.39
-6.68 6.59 2.39
-6.81 6.45 2.39
-6.94 6.31 2.39
-7.06 6.17 2.39
-7.18 6.02 2.39
-7.30 5.88 2.39
-7.41 5.73 2.39
-7.53 5.58 2.39
-7.63 5.43 2.39
-7.74 5.27 2.39
-7.84 5.11 2.39
-7.94 4.95 2.39
-8.04 4.79 2.39
-8.13 4.63 2.39
-8.22 4.46 2.39
-8.31 4.30 2.39
-8.39 4.13 2.39
-8.47 3.96 2.39
-8.54 3.79 2.39
-8.62 3.61 2.39
-8.68 3.44 2.39
-8.75 3.26 2.39
-8.81 3.09 2.39
-8.87 2.91 2.39
-8.92 2.73 2.39
-8.97 2.55 2.39
-9.02 2.37 2.39
-9.06 2.19 2.39
-9.10 2.00 2.39
-9.14 1.82 2.39
-9.17 1.64 2.39
-9.20 1.45 2.39
-9.22 1.27 2.39
-9.24 1.08 2.39
-9.26 0.89 2.39
-9.27 0.71 2.39
-9.28 0.52 2.39
-9.29 0.34 2.39
-9.29 0.15 2.39
-9.29 -0.04 2.39
-9.28 -0.22 2.39
-9.27 -0.41 2.39
-9.26 -0.60 2.39
-9.24 -0.78 2.39
-9.22 -0.97 2.39
-9.20 -1.15 2.39
-9.17 -1.33 2.39
-9.14 -1.52 2.39
-9.10 -1.70 2.39
-9.06 -1.88 2.39
-9.02 -2.06 2.39
-8.98 -2.24 2.39
-8.93 -2.42 2.39
-8.87 -2.60 2.39
-8.82 -2.78 2.39
-8.75 -2.95 2.39
-8.69 -3.13 2.39
-8.62 -3.30 2.39
-8.55 -3.47 2.39
-8.48 -3.64 2.39
-8.40 -3.81 2.39
-8.32 -3.97 2.39
-8.24 -4.14 2.39
-8.15 -4.30 2.39
-8.06 -4.46 2.39
-7.96 -4.62 2.39
-7.87 -4.78 2.39
-7.77 -4.93 2.39
-7.66 -5.09 2.39
-7.56 -5.24 2.39
-7.45 -5.39 2.39
-7.34 -5.53 2.39
-7.22 -5.68 2.39
-7.10 -5.82 2.39
-6.98 -5.96 2.39
-6.86 -6.10 2.39
-6.73 -6.23 2.39
-6.60 -6.36 2.39
-6.47 -6.49 2.39
-6.40 -6.69 2.41
-6.41 -6.97 2.47
-6.33 -7.16 2.49
-6.18 -7.28 2.49
-6.03 -7.40 2.49
-5.88 -7.52 2.49
-5.72 -7.64 2.49
-5.57 -7.75 2.49
-5.41 -7.86 2.49
-5.25 -7.96 2.49
-5.09 -8.06 2.49
-4.92 -8.16 2.49
-4.76 -8.26 2.49
-4.59 -8.35 2.49
-4.42 -8.44 2.49
-4.25 -8.52 2.49
-4.07 -8.60 2.49
-3.90 -8.68 2.49
-3.72 -8.76 2.49
-3.55 -8.83 2.49
-3.37 -8.89 2.49
-3.19 -8.96 2.49
-3.01 -9.02 2.49
-2.83 -9.08 2.49
-2.64 -9.13 2.49
-2.46 -9.18 2.49
-2.27 -9.22 2.49
-2.09 -9.27 2.49
-1.90 -9.31 2.49
-1.71 -9.34 2.49
-1.52 -9.37 2.49
-1.33 -9.40 2.49
-1.15 -9.42 2.49
-0.96 -9.44 2.49
-0.77 -9.46 2.49
-0.58 -9.47 2.49
-0.38 -9.48 2.49
-0.19 -9.48 2.49
-0.00 -8.68 2.49
0.17 -8.68 2.49
0.35 -8.67 2.49
0.52 -8.66 2.49
0.69 -8.65 2.49
0.87 -8.63 2.49
1.04 -8.61 2.49
1.21 -8.59 2.49
1.39 -8.56 2.49
1.56 -8.53 2.49
1.66 -8.17 2.40
1.82 -8.11 2.39
1.98 -8.07 2.39
2.14 -8.03 2.39
2.24 -7.77 2.33
2.02 -6.51 1.96
2.05 -6.16 1.87
2.07 -5.82 1.77
2.15 -5.70 1.75
2.30 -5.74 1.78
3.25 -7.65 2.39
3.40 -7.59 2.39
3.55 -7.52 2.39
3.70 -7.44 2.39
3.85 -7.37 2.39
4.00 -7.29 2.39
4.15 -7.21 2.39
4.29 -7.12 2.39
4.43 -7.04 2.39
4.57 -6.95 2.39
4.71 -6.85 2.39
4.85 -6.76 2.39
4.99 -6.66 2.39
5.12 -6.56 2.39
5.25 -6.45 2.39
5.38 -6.35 2.39
5.51 -6.24 2.39
5.63 -6.13 2.39
5.74 -6.00 2.38
5.77 -5.80 2.35
5.87 -5.66 2.34
5.97 -5.53 2.34
6.06 -5.39 2.33
6.15 -5.25 2.32
6.19 -5.08 2.30
6.23 -4.91 2.28
6.27 -4.74 2.25
6.31 -4.57 2.23
6.35 -4.40 2.22
6.38 -4.24 2.20
6.41 -4.08 2.18
6.44 -3.91 2.16
6.47 -3.76 2.14
6.49 -3.60 2.13
6.52 -3.44 2.11
6.54 -3.29 2.10
6.56 -3.14 2.08
6.58 -2.99 2.07
6.60 -2.84 2.06
6.62 -2.69 2.05
6.64 -2.54 2.03
6.65 -2.39 2.02
6.66 -2.25 2.01
6.67 -2.10 2.00
6.68 -1.96 1.99
6.70 -1.82 1.98
6.71 -1.68 1.97
6.72 -1.54 1.97
6.72 -1.40 1.96
6.73 -1.26 1.95
6.74 -1.12 1.95
6.74 -0.98 1.94
6.75 -0.84 1.94
6.75 -0.71 1.94
6.76 -0.57 1.93
6.77 -0.43 1.93
6.78 -0.30 1.93
6.79 -0.16 1.93
6.79 -0.03 1.93
6.80 0.11 1.94
6.81 0.25 1.94
2.31 0.13 0.66
2.28 0.17 0.65
2.29 0.22 0.65
6.82 0.80 1.95
6.82 0.94 1.96
6.82 1.08 1.96
6.82 1.22 1.97
6.82 1.36 1.97
6.82 1.50 1.98
6.82 1.65 1.99
6.82 1.79 2.00
6.81 1.94 2.01
6.81 2.09 2.02
6.80 2.23 2.03
6.80 2.38 2.04
6.79 2.54 2.05
6.78 2.69 2.06
6.77 2.84 2.08
6.76 3.00 2.09
6.75 3.16 2.11
6.74 3.32 2.12
6.72 3.48 2.14
6.71 3.65 2.16
6.70 3.82 2.18
6.68 3.99 2.20
6.67 4.16 2.22
6.65 4.34 2.24
6.63 4.52 2.26
6.60 4.70 2.28
6.58 4.88 2.31
6.55 5.07 2.33
6.52 5.26 2.36
6.50 5.46 2.39
6.46 5.65 2.42
6.43 5.86 2.45
6.38 6.05 2.47
6.29 6.21 2.48
5.93 6.09 2.39
5.81 6.21 2.39
5.68 6.33 2.39
5.56 6.44 2.39
3.93 4.74 1.73
3.76 4.73 1.70
3.64 4.77 1.69
3.55 4.85 1.69
3.49 4.98 1.71
4.75 7.08 2.39
4.61 7.17 2.39
4.47 7.26 2.39
4.32 7.35 2.39
4.17 7.44 2.39
4.02 7.53 2.39
3.87 7.61 2.39
3.72 7.68 2.39
3.57 7.76 2.39
3.41 7.83 2.39
3.25 7.90 2.39
3.09 7.97 2.39
2.94 8.03 2.39
2.77 8.09 2.39
2.61 8.14 2.39
2.45 8.19 2.39
2.28 8.24 2.39
2.12 8.29 2.39
2.00 8.55 2.45
1.86 8.73 2.49
1.69 8.77 2.49
1.51 8.80 2.49
1.33 8.83 2.49
1.16 8.86 2.49
0.98 8.88 2.49
0.80 8.90 2.49
0.62 8.92 2.49
0.44 8.93 2.49
0.27 8.94 2.49
0.09 8.94 2.49
-0.09 8.94 2.49
-0.27 8.94 2.49
-0.45 8.93 2.49
-0.63 8.92 2.49
-0.81 8.91 2.49
-0.99 8.89 2.49
-1.17 8.87 2.49
-1.34 8.85 2.49
-1.52 8.82 2.49
-1.70 8.79 2.49
-1.87 8.75 2.49
-2.05 8.71 2.49
-2.22 8.67 2.49
-2.40 8.62 2.49
-2.57 8.57 2.49
-2.74 8.52 2.49
-2.91 8.46 2.49
-3.08 8.40 2.49
-3.25 8.34 2.49
-3.41 8.27 2.49
-3.58 8.20 2.49
-3.74 8.13 2.49
-3.91 8.05 2.49
-4.07 7.97 2.49
-4.23 7.89 2.49
-4.38 7.80 2.49
-4.54 7.71 2.49
-4.69 7.62 2.49
-4.84 7.52 2.49
-4.99 7.43 2.49
-5.14 7.32 2.49
-5.28 7.22 2.49
-5.43 7.11 2.49
-5.57 7.00 2.49
-5.71 6.88 2.49
-5.84 6.77 2.49
-5.98 6.65 2.49
-6.09 6.51 2.49
-6.10 6.26 2.44
-6.11 6.03 2.39
-6.22 5.89 2.39
-6.34 5.76 2.39
-6.45 5.64 2.39
-6.56 5.50 2.39
-6.67 5.37 2.39
-6.77 5.24 2.39
-6.88 5.10 2.39
-6.97 4.96 2.39
-7.07 4.82 2.39
-7.17 4.67 2.39
-7.26 4.53 2.39
-7.34 4.38 2.39
-7.43 4.23 2.39
-7.51 4.08 2.39
-7.59 3.93 2.39
-7.67 3.77 2.39
-7.74 3.62 2.39
-7.81 3.46 2.39
-7.87 3.30 2.39
-7.94 3.14 2.39
-8.00 2.98 2.39
-8.05 2.82 2.39
-8.10 2.66 2.39
-8.15 2.50 2.39
-8.20 2.33 2.39
-8.24 2.17 2.39
-8.28 2.00 2.39
-8.32 1.83 2.39
-8.35 1.66 2.39
-8.38 1.50 2.39
-8.41 1.33 2.39
-8.43 1.16 2.39
-8.45 0.99 2.39
-8.46 0.82 2.39
-8.48 0.65 2.39
-8.49 0.48 2.39
-8.49 0.31 2.39
-8.49 0.14 2.39
-8.49 -0.03 2.39
-8.49 -0.20 2.39
-8.48 -0.37 2.39
-8.47 -0.54 2.39
-8.45 -0.71 2.39
-8.43 -0.88 2.39
-8.41 -1.05 2.39
-8.39 -1.22 2.39
-8.36 -1.39 2.39
-8.32 -1.55 2.39
-8.29 -1.72 2.39
-8.25 -1.89 2.39
-8.21 -2.05 2.39
-8.16 -2.21 2.39
-8.11 -2.38 2.39
-8.06 -2.54 2.39
-8.01 -2.70 2.39
-7.95 -2.86 2.39
-7.89 -3.02 2.39
-7.82 -3.17 2.39
-7.75 -3.33 2.39
-7.68 -3.48 2.39
-7.61 -3.63 2.39
-7.53 -3.78 2.39
-7.45 -3.93 2.39
-7.37 -4.08 2.39
-7.29 -4.23 2.39
-7.20 -4.37 2.39
-7.10 -4.51 2.39
-7.01 -4.65 2.39
-6.91 -4.79 2.39
-6.81 -4.93 2.39
-6.71 -5.06 2.39
-6.61 -5.19 2.39
-6.50 -5.32 2.39
-6.39 -5.45 2.39
-6.37 -5.66 2.43
-6.38 -5.90 2.47
-6.30 -6.07 2.49
-6.18 -6.20 2.49
-6.05 -6.32 2.49
-5.92 -6.44 2.49
-5.79 -6.55 2.49
-5.66 -6.67 2.49
-5.52 -6.78 2.49
-5.38 -6.88 2.49
-5.24 -6.99 2.49
-5.10 -7.09 2.49
-4.95 -7.19 2.49
-4.81 -7.29 2.49
-4.66 -7.38 2.49
-4.51 -7.47 2.49
-4.35 -7.56 2.49
-4.20 -7.64 2.49
-4.05 -7.72 2.49
-3.89 -7.80 2.49
-3.73 -7.87 2.49
-3.57 -7.95 2.49
-3.41 -8.01 2.49
-3.25 -8.08 2.49
-3.08 -8.14 2.49
-2.92 -8.20 2.49
-2.75 -8.25 2.49
-2.59 -8.31 2.49
-2.42 -8.36 2.49
-2.25 -8.40 2.49
-2.08 -8.44 2.49
-1.91 -8.48 2.49
-1.74 -8.52 2.49
-1.57 -8.55 2.49
-1.39 -8.58 2.49
-1.22 -8.60 2.49
-1.05 -8.62 2.49
-0.87 -8.64 2.49
-0.70 -8.66 2.49
-0.53 -8.67 2.49
-0.35 -8.68 2.49
-0.18 -8.68 2.49
-0.00 -8.00 2.49
0.16 -7.99 2.49
0.32 -7.99 2.49
0.48 -7.98 2.49
0.64 -7.97 2.49
0.80 -7.95 2.49
0.96 -7.94 2.49
1.12 -7.91 2.49
1.28 -7.89 2.49
1.43 -7.86 2.49
1.59 -7.83 2.49
1.68 -7.47 2.39
1.83 -7.44 2.39
1.98 -7.40 2.39
2.12 -7.36 2.39
2.27 -7.31 2.39
2.04 -6.12 2.01
2.08 -5.85 1.94
2.08 -5.49 1.83
2.11 -5.26 1.77
2.99 -7.05 2.39
3.13 -6.99 2.39
3.27 -6.92 2.39
3.41 -6.86 2.39
3.55 -6.79 2.39
3.69 -6.72 2.39
3.82 -6.64 2.39
3.95 -6.56 2.39
4.08 -6.48 2.39
4.21 -6.40 2.39
4.34 -6.31 2.39
4.47 -6.22 2.39
4.59 -6.13 2.39
4.72 -6.04 2.39
4.84 -5.95 2.39
4.96 -5.85 2.39
5.07 -5.75 2.39
5.19 -5.65 2.39
5.30 -5.54 2.39
5.39 -5.41 2.38
5.48 -5.29 2.37
5.57 -5.16 2.37
5.66 -5.04 2.36
5.74 -4.91 2.35
5.83 -4.78 2.35
5.91 -4.65 2.34
5.98 -4.52 2.34
6.06 -4.39 2.33
6.13 -4.25 2.32
6.19 -4.11 2.31
6.22 -3.95 2.29
6.25 -3.80 2.28
6.28 -3.65 2.26
6.30 -3.49 2.24
6.33 -3.34 2.23
6.35 -3.19 2.21
6.38 -3.05 2.20
6.40 -2.90 2.18
6.42 -2.76 2.17
6.44 -2.61 2.16
6.46 -2.47 2.15
6.47 -2.33 2.14
6.48 -2.19 2.12
6.49 -2.05 2.11
6.51 -1.91 2.10
6.52 -1.77 2.10
6.53 -1.63 2.09
6.54 -1.50 2.08
6.55 -1.36 2.07
6.56 -1.22 2.07
6.56 -1.09 2.06
6.57 -0.96 2.06
6.57 -0.82 2.05
6.58 -0.69 2.05
6.58 -0.56 2.04
6.59 -0.42 2.04
6.59 -0.29 2.04
6.60 -0.16 2.04
6.61 -0.03 2.04
6.61 0.11 2.05
6.62 0.24 2.05
2.31 0.13 0.71
2.28 0.17 0.71
2.29 0.22 0.71
6.63 0.78 2.06
6.63 0.91 2.07
6.63 1.05 2.07
6.63 1.18 2.08
6.63 1.32 2.08
6.62 1.46 2.09
6.62 1.60 2.10
6.62 1.74 2.11
6.61 1.88 2.12
6.61 2.03 2.13
6.60 2.17 2.14
6.60 2.31 2.15
6.59 2.46 2.16
6.58 2.61 2.18
6.57 2.76 2.19
6.55 2.91 2.20
6.54 3.06 2.22
6.53 3.22 2.24
6.51 3.37 2.25
6.50 3.53 2.27
6.48 3.69 2.29
6.46 3.86 2.31
6.44 4.02 2.33
6.42 4.19 2.35
6.40 4.36 2.37
6.37 4.53 2.40
6.31 4.69 2.41
6.25 4.84 2.42
6.19 4.99 2.43
6.12 5.14 2.45
5.88 5.14 2.39
5.78 5.26 2.39
5.67 5.38 2.39
5.56 5.49 2.39
5.45 5.61 2.39
5.34 5.72 2.39
5.23 5.82 2.39
5.11 5.93 2.39
3.92 4.74 1.88
3.76 4.73 1.84
3.64 4.77 1.83
3.55 4.85 1.83
3.49 4.98 1.85
4.37 6.51 2.39
4.24 6.60 2.39
4.11 6.68 2.39
3.97 6.77 2.39
3.84 6.84 2.39
3.70 6.92 2.39
3.56 7.00 2.39
3.42 7.07 2.39
3.28 7.14 2.39
3.14 7.20 2.39
2.99 7.27 2.39
2.85 7.33 2.39
2.70 7.38 2.39
2.55 7.44 2.39
2.40 7.49 2.39
2.25 7.54 2.39
2.10 7.58 2.39
1.99 7.78 2.44
1.87 7.99 2.49
1.71 8.03 2.49
1.55 8.06 2.49
1.39 8.09 2.49
1.23 8.12 2.49
1.06 8.15 2.49
0.90 8.17 2.49
0.74 8.18 2.49
0.57 8.20 2.49
0.41 8.21 2.49
0.24 8.22 2.49
0.08 8.22 2.49
-0.09 8.22 2.49
-0.25 8.22 2.49
-0.42 8.21 2.49
-0.58 8.20 2.49
-0.74 8.19 2.49
-0.91 8.18 2.49
-1.07 8.16 2.49
-1.24 8.13 2.49
-1.40 8.11 2.49
-1.56 8.08 2.49
-1.72 8.05 2.49
-1.88 8.01 2.49
-2.04 7.97 2.49
-2.20 7.93 2.49
-2.36 7.88 2.49
-2.52 7.83 2.49
-2.68 7.78 2.49
-2.83 7.73 2.49
-2.99 7.67 2.49
-3.14 7.61 2.49
-3.29 7.54 2.49
-3.44 7.47 2.49
-3.59 7.40 2.49
-3.74 7.33 2.49
-3.88 7.25 2.49
-4.03 7.17 2.49
-4.17 7.09 2.49
-4.31 7.01 2.49
-4.45 6.92 2.49
-4.59 6.83 2.49
-4.73 6.73 2.49
-4.86 6.64 2.49
-4.99 6.54 2.49
-5.12 6.44 2.49
-5.25 6.33 2.49
-5.37 6.22 2.49
-5.50 6.11 2.49
-5.62 6.00 2.49
-5.74 5.89 2.49
-5.85 5.77 2.49
-5.97 5.65 2.49
-6.08 5.53 2.49
-6.12 5.35 2.47
-6.12 5.14 2.43
-6.14 4.94 2.39
-6.23 4.81 2.39
-6.32 4.69 2.39
-6.41 4.56 2.39
-6.50 4.43 2.39
-6.59 4.30 2.39
-6.67 4.16 2.39
-6.75 4.03 2.39
-6.83 3.89 2.39
-6.91 3.75 2.39
-6.98 3.61 2.39
-7.05 3.47 2.39
-7.12 3.33 2.39
-7.18 3.18 2.39
-7.24 3.04 2.39
-7.30 2.89 2.39
-7.35 2.74 2.39
-7.41 2.60 2.39
-7.45 2.45 2.39
-7.50 2.30 2.39
-7.54 2.14 2.39
-7.58 1.99 2.39
-7.62 1.84 2.39
-7.65 1.69 2.39
-7.68 1.53 2.39
-7.71 1.38 2.39
-7.73 1.22 2.39
-7.75 1.07 2.39
-7.77 0.91 2.39
-7.79 0.75 2.39
-7.80 0.60 2.39
-7.81 0.44 2.39
-7.81 0.28 2.39
-7.81 0.13 2.39
-7.81 -0.03 2.39
-7.81 -0.19 2.39
-7.80 -0.34 2.39
-7.79 -0.50 2.39
-7.78 -0.66 2.39
-7.76 -0.81 2.39
-7.74 -0.97 2.39
-7.72 -1.12 2.39
-7.69 -1.28 2.39
-7.66 -1.43 2.39
-7.63 -1.58 2.39
-7.59 -1.73 2.39
-7.55 -1.89 2.39
-7.51 -2.04 2.39
-7.47 -2.19 2.39
-7.42 -2.33 2.39
-7.37 -2.48 2.39
-7.32 -2.63 2.39
-7.26 -2.77 2.39
-7.20 -2.92 2.39
-7.14 -3.06 2.39
-7.07 -3.20 2.39
-7.01 -3.34 2.39
-6.93 -3.48 2.39
-6.86 -3.62 2.39
-6.79 -3.76 2.39
-6.71 -3.89 2.39
-6.63 -4.02 2.39
-6.54 -4.15 2.39
-6.45 -4.28 2.39
-6.37 -4.41 2.39
-6.35 -4.59 2.42
-6.35 -4.79 2.46
-6.35 -4.99 2.49
-6.24 -5.11 2.49
-6.14 -5.24 2.49
-6.03 -5.36 2.49
-5.92 -5.48 2.49
-5.81 -5.59 2.49
-5.69 -5.71 2.49
-5.57 -5.82 2.49
-5.45 -5.93 2.49
-5.33 -6.03 2.49
-5.21 -6.14 2.49
-5.08 -6.24 2.49
-4.96 -6.34 2.49
-4.83 -6.44 2.49
-4.69 -6.53 2.49
-4.56 -6.62 2.49
-4.43 -6.71 2.49
-4.29 -6.80 2.49
-4.15 -6.88 2.49
-4.01 -6.96 2.49
-3.87 -7.04 2.49
-3.73 -7.11 2.49
-3.58 -7.18 2.49
-3.44 -7.25 2.49
-3.29 -7.32 2.49
-3.14 -7.38 2.49
-2.99 -7.44 2.49
-2.84 -7.50 2.49
-2.69 -7.55 2.49
-2.54 -7.60 2.49
-2.38 -7.65 2.49
-2.23 -7.70 2.49
-2.07 -7.74 2.49
-1.92 -7.78 2.49
-1.76 -7.81 2.49
-1.60 -7.85 2.49
-1.44 -7.87 2.49
-1.29 -7.90 2.49
-1.13 -7.92 2.49
-0.97 -7.94 2.49
-0.81 -7.96 2.49
-0.65 -7.97 2.49
-0.49 -7.98 2.49
-0.33 -7.99 2.49
-0.16 -8.00 2.49
-0.00 -7.41 2.49
0.15 -7.40 2.49
0.29 -7.40 2.49
0.44 -7.39 2.49
0.59 -7.38 2.49
0.74 -7.37 2.49
0.89 -7.35 2.49
1.03 -7.33 2.49
1.18 -7.31 2.49
1.33 -7.28 2.49
1.47 -7.25 2.49
1.62 -7.22 2.49
1.69 -6.89 2.39
1.83 -6.85 2.39
1.97 -6.82 2.39
2.10 -6.77 2.39
2.21 -6.66 2.36
2.37 -6.68 2.39
2.08 -5.50 1.98
2.12 -5.29 1.92
2.10 -4.95 1.81
2.14 -4.76 1.76
3.03 -6.41 2.39
2.29 -4.61 1.73
2.39 -4.58 1.74
3.41 -6.22 2.39
3.54 -6.15 2.39
3.66 -6.08 2.39
3.78 -6.00 2.39
3.90 -5.93 2.39
4.02 -5.85 2.39
4.14 -5.76 2.39
4.25 -5.68 2.39
4.37 -5.59 2.39
4.48 -5.51 2.39
4.59 -5.42 2.39
4.70 -5.32 2.39
4.80 -5.23 2.39
4.91 -5.13 2.39
5.01 -5.03 2.39
5.11 -4.93 2.39
5.21 -4.83 2.39
5.31 -4.72 2.39
5.39 -4.60 2.38
5.46 -4.48 2.38
5.54 -4.36 2.37
5.61 -4.24 2.37
5.69 -4.12 2.36
5.76 -3.99 2.36
5.82 -3.87 2.35
5.89 -3.74 2.34
5.94 -3.61 2.34
6.00 -3.48 2.33
6.05 -3.35 2.32
6.10 -3.22 2.32
6.15 -3.09 2.31
6.19 -2.96 2.30
6.22 -2.82 2.29
6.24 -2.68 2.28
6.26 -2.54 2.27
6.28 -2.40 2.26
6.30 -2.26 2.24
6.31 -2.13 2.23
6.32 -1.99 2.22
6.34 -1.86 2.21
6.35 -1.72 2.20
6.36 -1.59 2.20
6.37 -1.46 2.19
6.38 -1.32 2.18
6.39 -1.19 2.18
6.39 -1.06 2.17
6.40 -0.93 2.16
6.41 -0.80 2.16
6.41 -0.67 2.16
6.41 -0.54 2.15
6.42 -0.41 2.15
6.42 -0.28 2.15
6.43 -0.15 2.15
6.43 -0.02 2.15
6.44 0.11 2.15
6.44 0.23 2.15
2.31 0.13 0.77
2.28 0.17 0.76
2.29 0.22 0.77
6.45 0.76 2.17
6.45 0.89 2.17
6.45 1.02 2.18
6.45 1.15 2.18
6.44 1.29 2.19
6.44 1.42 2.20
6.43 1.56 2.20
6.43 1.69 2.21
6.42 1.83 2.22
6.42 1.97 2.23
6.41 2.11 2.24
6.40 2.25 2.26
6.39 2.39 2.27
6.38 2.53 2.28
6.37 2.68 2.30
6.36 2.82 2.31
6.34 2.97 2.33
6.31 3.11 2.34
6.27 3.25 2.34
6.22 3.38 2.35
6.17 3.52 2.36
6.12 3.66 2.36
6.07 3.79 2.37
6.01 3.93 2.38
5.96 4.07 2.39
5.88 4.19 2.39
5.80 4.30 2.39
5.71 4.42 2.39
5.62 4.54 2.39
5.53 4.65 2.39
5.44 4.76 2.39
5.34 4.87 2.39
5.25 4.98 2.39
5.15 5.08 2.39
5.04 5.19 2.39
4.94 5.29 2.39
4.83 5.39 2.39
4.73 5.48 2.39
3.92 4.74 2.03
3.76 4.73 1.99
3.64 4.77 1.98
3.55 4.86 1.98
3.49 4.98 2.00
4.04 6.02 2.39
3.92 6.10 2.39
3.80 6.18 2.39
3.67 6.26 2.39
3.55 6.33 2.39
3.42 6.40 2.39
3.29 6.47 2.39
3.16 6.54 2.39
3.03 6.60 2.39
2.90 6.66 2.39
2.77 6.72 2.39
2.63 6.77 2.39
2.49 6.83 2.39
2.36 6.88 2.39
2.22 6.92 2.39
2.08 6.97 2.39
1.97 7.13 2.43
1.88 7.35 2.49
1.73 7.39 2.49
1.58 7.42 2.49
1.43 7.46 2.49
1.28 7.48 2.49
1.13 7.51 2.49
0.98 7.53 2.49
0.83 7.55 2.49
0.68 7.57 2.49
0.53 7.58 2.49
0.38 7.59 2.49
0.22 7.60 2.49
0.07 7.60 2.49
-0.08 7.60 2.49
-0.23 7.60 2.49
-0.38 7.59 2.49
-0.54 7.58 2.49
-0.69 7.57 2.49
-0.84 7.56 2.49
-0.99 7.54 2.49
-1.14 7.52 2.49
-1.29 7.50 2.49
-1.44 7.47 2.49
-1.59 7.44 2.49
-1.74 7.40 2.49
-1.89 7.37 2.49
-2.04 7.33 2.49
-2.18 7.29 2.49
-2.33 7.24 2.49
-2.47 7.19 2.49
-2.62 7.14 2.49
-2.76 7.09 2.49
-2.90 7.03 2.49
-3.04 6.97 2.49
-3.18 6.91 2.49
-3.32 6.85 2.49
-3.46 6.78 2.49
-3.59 6.71 2.49
-3.72 6.63 2.49
-3.86 6.56 2.49
-3.99 6.48 2.49
-4.12 6.40 2.49
-4.24 6.31 2.49
-4.37 6.22 2.49
-4.49 6.14 2.49
-4.61 6.04 2.49
-4.73 5.95 2.49
-4.85 5.85 2.49
-4.97 5.75 2.49
-5.08 5.65 2.49
-5.19 5.55 2.49
-5.30 5.44 2.49
-5.41 5.34 2.49
-5.52 5.22 2.49
-5.62 5.11 2.49
-5.72 5.00 2.49
-5.82 4.88 2.49
-5.91 4.76 2.49
-6.01 4.64 2.49
-6.10 4.52 2.49
-6.14 4.36 2.48
-6.14 4.18 2.44
-6.15 4.01 2.41
-6.17 3.85 2.39
-6.24 3.72 2.39
-6.32 3.60 2.39
-6.39 3.47 2.39
-6.45 3.34 2.39
-6.52 3.21 2.39
-6.58 3.08 2.39
-6.64 2.95 2.39
-6.70 2.81 2.39
-6.75 2.68 2.39
-6.80 2.54 2.39
-6.85 2.40 2.39
-6.89 2.26 2.39
-6.94 2.12 2.39
-6.98 1.98 2.39
-7.01 1.84 2.39
-7.05 1.70 2.39
-7.08 1.56 2.39
-7.11 1.42 2.39
-7.13 1.27 2.39
-7.15 1.13 2.39
-7.17 0.99 2.39
-7.19 0.84 2.39
-7.20 0.70 2.39
-7.21 0.55 2.39
-7.22 0.41 2.39
-7.23 0.26 2.39
-7.23 0.12 2.39
-7.23 -0.03 2.39
-7.22 -0.17 2.39
-7.22 -0.32 2.39
-7.21 -0.46 2.39
-7.19 -0.61 2.39
-7.18 -0.75 2.39
-7.16 -0.89 2.39
-7.14 -1.04 2.39
-7.11 -1.18 2.39
-7.09 -1.32 2.39
-7.06 -1.46 2.39
-7.02 -1.60 2.39
-6.99 -1.74 2.39
-6.95 -1.88 2.39
-6.91 -2.02 2.39
-6.87 -2.16 2.39
-6.82 -2.30 2.39
-6.77 -2.43 2.39
-6.72 -2.57 2.39
-6.66 -2.70 2.39
-6.61 -2.83 2.39
-6.55 -2.96 2.39
-6.50 -3.10 2.40
-6.42 -3.22 2.39
-6.35 -3.35 2.39
-6.32 -3.50 2.41
-6.32 -3.67 2.44
-6.32 -3.84 2.47
-6.32 -4.01 2.49
-6.23 -4.13 2.49
-6.15 -4.26 2.49
-6.06 -4.38 2.49
-5.97 -4.50 2.49
-5.87 -4.62 2.49
-5.78 -4.73 2.49
-5.68 -4.85 2.49
-5.58 -4.96 2.49
-5.48 -5.07 2.49
-5.37 -5.18 2.49
-5.27 -5.28 2.49
-5.16 -5.38 2.49
-5.05 -5.49 2.49
-4.94 -5.58 2.49
-4.82 -5.68 2.49
-4.71 -5.78 2.49
-4.59 -5.87 2.49
-4.47 -5.96 2.49
-4.35 -6.04 2.49
-4.22 -6.13 2.49
-4.10 -6.21 2.49
-3.97 -6.29 2.49
-3.84 -6.37 2.49
-3.71 -6.44 2.49
-3.58 -6.51 2.49
-3.45 -6.58 2.49
-3.32 -6.65 2.49
-3.18 -6.71 2.49
-3.05 -6.78 2.49
-2.91 -6.83 2.49
-2.77 -6.89 2.49
-2.63 -6.94 2.49
-2.49 -6.99 2.49
-2.35 -7.04 2.49
-2.21 -7.08 2.49
-2.06 -7.13 2.49
-1.92 -7.17 2.49
-1.78 -7.20 2.49
-1.63 -7.23 2.49
-1.48 -7.26 2.49
-1.34 -7.29 2.49
-1.19 -7.32 2.49
-1.04 -7.34 2.49
-0.90 -7.36 2.49
-0.75 -7.37 2.49
-0.60 -7.38 2.49
-0.45 -7.39 2.49
-0.30 -7.40 2.49
-0.15 -7.40 2.49
-0.00 -6.89 2.49
0.13 -6.89 2.49
0.27 -6.88 2.49
0.41 -6.87 2.49
0.55 -6.86 2.49
0.69 -6.85 2.49
0.82 -6.84 2.49
0.96 -6.82 2.49
1.10 -6.80 2.49
1.24 -6.77 2.49
1.37 -6.75 2.49
1.51 -6.72 2.49
1.64 -6.69 2.49
1.70 -6.38 2.39
1.83 -6.34 2.39
1.96 -6.30 2.39
2.08 -6.26 2.39
2.21 -6.22 2.39
2.33 -6.17 2.39
2.09 -5.22 2.04
2.12 -4.99 1.96
2.12 -4.73 1.88
2.11 -4.46 1.79
2.27 -4.56 1.85
2.39 -4.58 1.87
3.18 -5.78 2.39
3.29 -5.72 2.39
3.41 -5.65 2.39
3.52 -5.58 2.39
3.63 -5.51 2.39
3.74 -5.44 2.39
3.85 -5.36 2.39
3.96 -5.28 2.39
4.06 -5.20 2.39
4.17 -5.12 2.39
4.27 -5.04 2.39
4.37 -4.95 2.39
4.47 -4.86 2.39
4.57 -4.77 2.39
4.66 -4.68 2.39
4.76 -4.59 2.39
4.85 -4.49 2.39
4.94 -4.39 2.39
5.03 -4.29 2.39
5.11 -4.19 2.39
5.20 -4.09 2.39
5.28 -3.98 2.39
5.35 -3.87 2.39
5.42 -3.76 2.38
5.48 -3.64 2.38
5.55 -3.53 2.38
5.60 -3.40 2.37
5.65 -3.28 2.36
5.70 -3.16 2.35
5.75 -3.04 2.35
5.80 -2.91 2.34
5.84 -2.79 2.34
5.88 -2.67 2.33
5.92 -2.54 2.33
5.96 -2.42 2.32
5.99 -2.29 2.31
6.03 -2.17 2.31
6.06 -2.04 2.30
6.08 -1.91 2.30
6.11 -1.79 2.29
6.13 -1.66 2.29
6.15 -1.54 2.28
6.17 -1.41 2.28
6.19 -1.28 2.28
6.20 -1.16 2.27
6.21 -1.03 2.27
6.22 -0.90 2.26
6.23 -0.78 2.26
6.24 -0.65 2.26
6.24 -0.53 2.25
6.25 -0.40 2.25
6.25 -0.27 2.25
6.25 -0.15 2.25
6.25 -0.02 2.25
6.26 0.10 2.25
6.26 0.23 2.25
2.31 0.13 0.83
2.28 0.18 0.82
2.29 0.22 0.83
6.27 0.74 2.26
6.26 0.86 2.27
6.25 0.99 2.27
6.25 1.12 2.27
6.23 1.25 2.28
6.22 1.37 2.28
6.21 1.50 2.29
6.19 1.63 2.29
6.17 1.76 2.30
6.15 1.89 2.30
6.12 2.01 2.30
6.09 2.14 2.31
6.06 2.26 2.31
6.03 2.39 2.32
6.00 2.52 2.32
5.96 2.65 2.33
5.92 2.78 2.34
5.89 2.90 2.34
5.84 3.03 2.35
5.80 3.16 2.36
5.75 3.28 2.36
5.70 3.41 2.37
5.65 3.53 2.38
5.60 3.66 2.38
5.54 3.78 2.39
5.46 3.89 2.39
5.39 4.00 2.39
5.31 4.11 2.39
5.22 4.22 2.39
5.14 4.32 2.39
5.05 4.42 2.39
4.96 4.53 2.39
4.87 4.62 2.39
4.78 4.72 2.39
4.69 4.82 2.39
4.59 4.91 2.39
4.49 5.01 2.39
4.39 5.10 2.39
4.29 5.18 2.39
3.77 4.75 2.16
3.65 4.79 2.14
3.56 4.87 2.14
3.51 5.02 2.17
3.75 5.59 2.39
3.64 5.67 2.39
3.53 5.74 2.39
3.41 5.81 2.39
3.30 5.88 2.39
3.18 5.95 2.39
3.06 6.01 2.39
2.94 6.07 2.39
2.82 6.13 2.39
2.69 6.19 2.39
2.57 6.24 2.39
2.44 6.29 2.39
2.32 6.34 2.39
2.19 6.39 2.39
2.06 6.43 2.39
1.96 6.57 2.43
1.88 6.79 2.49
1.74 6.83 2.49
1.61 6.86 2.49
1.47 6.90 2.49
1.33 6.93 2.49
1.19 6.95 2.49
1.05 6.98 2.49
0.91 7.00 2.49
0.77 7.01 2.49
0.63 7.03 2.49
0.49 7.04 2.49
0.35 7.05 2.49
0.21 7.06 2.49
0.07 7.06 2.49
-0.07 7.06 2.49
-0.22 7.06 2.49
-0.36 7.05 2.49
-0.50 7.04 2.49
-0.64 7.03 2.49
-0.78 7.02 2.49
-0.92 7.00 2.49
-1.06 6.98 2.49
-1.20 6.96 2.49
-1.34 6.94 2.49
-1.48 6.91 2.49
-1.62 6.88 2.49
-1.76 6.84 2.49
-1.89 6.81 2.49
-2.03 6.77 2.49
-2.16 6.73 2.49
-2.30 6.68 2.49
-2.43 6.63 2.49
-2.56 6.58 2.49
-2.70 6.53 2.49
-2.83 6.48 2.49
-2.96 6.42 2.49
-3.08 6.36 2.49
-3.21 6.29 2.49
-3.34 6.23 2.49
-3.46 6.16 2.49
-3.58 6.09 2.49
-3.70 6.02 2.49
-3.82 5.94 2.49
-3.94 5.86 2.49
-4.06 5.78 2.49
-4.17 5.70 2.49
-4.29 5.61 2.49
-4.40 5.53 2.49
-4.51 5.44 2.49
-4.61 5.34 2.49
-4.72 5.25 2.49
-4.82 5.15 2.49
-4.92 5.06 2.49
-5.02 4.96 2.49
-5.12 4.85 2.49
-5.22 4.75 2.49
-5.31 4.64 2.49
-5.40 4.54 2.49
-5.49 4.43 2.49
-5.58 4.31 2.49
-5.66 4.20 2.49
-5.75 4.09 2.49
-5.83 3.97 2.49
-5.90 3.85 2.49
-5.98 3.73 2.49
-6.05 3.61 2.49
-6.12 3.49 2.49
-6.16 3.35 2.48
-6.17 3.19 2.46
-6.17 3.04 2.44
-6.18 2.89 2.42
-6.19 2.74 2.40
-6.22 2.61 2.39
-6.27 2.49 2.39
-6.32 2.36 2.39
-6.38 2.24 2.40
-6.40 2.10 2.39
-6.44 1.97 2.39
-6.48 1.84 2.39
-6.51 1.71 2.39
-6.55 1.58 2.39
-6.58 1.45 2.39
-6.60 1.32 2.39
-6.63 1.18 2.39
-6.65 1.05 2.39
-6.66 0.92 2.39
-6.68 0.78 2.39
-6.69 0.65 2.39
-6.70 0.51 2.39
-6.71 0.38 2.39
-6.71 0.25 2.39
-6.72 0.11 2.39
-6.72 -0.02 2.39
-6.71 -0.16 2.39
-6.71 -0.29 2.39
-6.70 -0.43 2.39
-6.69 -0.56 2.39
-6.67 -0.70 2.39
-6.65 -0.83 2.39
-6.63 -0.96 2.39
-6.61 -1.10 2.39
-6.59 -1.23 2.39
-6.56 -1.36 2.39
-6.53 -1.49 2.39
-6.50 -1.62 2.39
-6.47 -1.75 2.39
-6.42 -1.88 2.39
-6.38 -2.01 2.39
-6.34 -2.13 2.39
-6.30 -2.26 2.39
-6.30 -2.41 2.41
-6.30 -2.55 2.43
-6.30 -2.70 2.45
-6.30 -2.85 2.48
-6.29 -3.00 2.49
-6.22 -3.12 2.49
-6.16 -3.25 2.49
-6.09 -3.37 2.49
-6.02 -3.49 2.49
-5.95 -3.61 2.49
-5.87 -3.73 2.49
-5.79 -3.84 2.49
-5.71 -3.96 2.49
-5.63 -4.07 2.49
-5.55 -4.18 2.49
-5.46 -4.29 2.49
-5.37 -4.40 2.49
-5.28 -4.51 2.49
-5.19 -4.61 2.49
-5.09 -4.71 2.49
-5.00 -4.81 2.49
-4.90 -4.91 2.49
-4.80 -5.01 2.49
-4.70 -5.10 2.49
-4.59 -5.19 2.49
-4.48 -5.28 2.49
-4.38 -5.37 2.49
-4.27 -5.46 2.49
-4.16 -5.54 2.49
-4.04 -5.62 2.49
-3.93 -5.70 2.49
-3.81 -5.78 2.49
-3.69 -5.85 2.49
-3.58 -5.92 2.49
-3.45 -5.99 2.49
-3.33 -6.06 2.49
-3.21 -6.12 2.49
-3.09 -6.18 2.49
-2.96 -6.24 2.49
-2.83 -6.30 2.49
-2.71 -6.36 2.49
-2.58 -6.41 2.49
-2.45 -6.46 2.49
-2.32 -6.50 2.49
-2.19 -6.55 2.49
-2.05 -6.59 2.49
-1.92 -6.63 2.49
-1.79 -6.66 2.49
-1.65 -6.70 2.49
-1.52 -6.73 2.49
-1.38 -6.76 2.49
-1.24 -6.78 2.49
-1.11 -6.81 2.49
-0.97 -6.83 2.49
-0.83 -6.84 2.49
-0.70 -6.86 2.49
-0.56 -6.87 2.49
-0.42 -6.88 2.49
-0.28 -6.88 2.49
-0.14 -6.89 2.49
-0.00 -6.43 2.49
0.13 -6.43 2.49
0.25 -6.43 2.49
0.38 -6.42 2.49
0.51 -6.41 2.49
0.64 -6.40 2.49
0.77 -6.38 2.49
0.90 -6.37 2.49
1.03 -6.35 2.49
1.15 -6.32 2.49
1.28 -6.30 2.49
1.41 -6.27 2.49
1.53 -6.24 2.49
1.66 -6.21 2.49
1.71 -5.92 2.39
1.83 -5.88 2.39
1.95 -5.88 2.40
2.06 -5.81 2.39
2.18 -5.76 2.39
2.29 -5.72 2.39
2.41 -5.67 2.39
2.10 -4.69 2.00
2.13 -4.51 1.94
2.11 -4.23 1.83
2.13 -4.07 1.78
2.97 -5.40 2.39
3.07 -5.34 2.39
3.18 -5.28 2.39
3.29 -5.21 2.39
3.39 -5.15 2.39
3.49 -5.08 2.39
3.60 -5.01 2.39
3.70 -4.93 2.39
3.79 -4.86 2.39
3.89 -4.78 2.39
3.99 -4.70 2.39
4.08 -4.62 2.39
4.17 -4.54 2.39
4.26 -4.46 2.39
4.35 -4.37 2.39
4.44 -4.28 2.39
4.53 -4.19 2.39
4.61 -4.10 2.39
4.69 -4.01 2.39
4.77 -3.91 2.39
4.85 -3.82 2.39
4.93 -3.72 2.39
5.00 -3.62 2.39
5.07 -3.52 2.39
5.14 -3.42 2.39
5.21 -3.31 2.39
5.28 -3.21 2.39
5.34 -3.10 2.39
5.39 -2.99 2.38
5.44 -2.87 2.38
5.48 -2.75 2.37
5.52 -2.64 2.37
5.56 -2.52 2.36
5.60 -2.40 2.36
5.64 -2.29 2.35
5.67 -2.17 2.35
5.70 -2.05 2.34
5.73 -1.93 2.33
5.75 -1.81 2.33
5.78 -1.69 2.32
5.80 -1.57 2.32
5.82 -1.45 2.32
5.84 -1.33 2.31
5.86 -1.21 2.31
5.87 -1.09 2.30
5.88 -0.97 2.30
5.89 -0.86 2.30
5.90 -0.74 2.29
5.91 -0.62 2.29
5.91 -0.50 2.29
5.92 -0.38 2.28
5.92 -0.26 2.28
5.92 -0.14 2.28
5.92 -0.02 2.28
5.92 0.10 2.28
5.92 0.22 2.28
2.31 0.13 0.89
2.28 0.18 0.88
2.29 0.22 0.88
5.92 0.70 2.29
5.91 0.82 2.29
5.90 0.94 2.30
5.89 1.06 2.30
5.88 1.18 2.30
5.87 1.30 2.31
5.85 1.42 2.31
5.84 1.54 2.32
5.82 1.66 2.32
5.80 1.78 2.33
5.77 1.90 2.33
5.74 2.02 2.33
5.71 2.14 2.34
5.67 2.25 2.34
5.64 2.37 2.34
5.60 2.49 2.35
5.56 2.60 2.35
5.51 2.72 2.35
5.47 2.83 2.36
5.43 2.95 2.36
5.38 3.07 2.37
5.33 3.19 2.38
5.28 3.30 2.38
5.23 3.42 2.39
5.17 3.53 2.39
5.10 3.63 2.39
5.02 3.73 2.39
4.95 3.83 2.39
4.87 3.93 2.39
4.79 4.03 2.39
4.71 4.13 2.39
4.63 4.22 2.39
4.55 4.32 2.39
4.46 4.41 2.39
4.37 4.50 2.39
4.28 4.58 2.39
4.19 4.67 2.39
4.10 4.75 2.39
4.00 4.84 2.39
3.78 4.76 2.32
3.81 5.00 2.39
3.70 5.06 2.39
3.60 5.15 2.39
3.50 5.22 2.39
3.40 5.29 2.39
3.29 5.36 2.39
3.18 5.42 2.39
3.07 5.49 2.39
2.96 5.55 2.39
2.85 5.61 2.39
2.74 5.66 2.39
2.63 5.72 2.39
2.51 5.77 2.39
2.40 5.82 2.39
2.28 5.87 2.39
2.16 5.92 2.39
2.04 5.96 2.39
1.95 6.09 2.43
1.88 6.30 2.49
1.75 6.34 2.49
1.63 6.37 2.49
1.50 6.40 2.49
1.37 6.43 2.49
1.24 6.46 2.49
1.11 6.48 2.49
0.98 6.51 2.49
0.85 6.52 2.49
0.72 6.54 2.49
0.59 6.55 2.49
0.46 6.57 2.49
0.33 6.57 2.49
0.19 6.58 2.49
0.06 6.58 2.49
-0.07 6.58 2.49
-0.20 6.58 2.49
-0.33 6.58 2.49
-0.47 6.57 2.49
-0.60 6.56 2.49
-0.73 6.55 2.49
-0.86 6.53 2.49
-0.99 6.51 2.49
-1.12 6.49 2.49
-1.25 6.47 2.49
-1.38 6.44 2.49
-1.51 6.41 2.49
-1.64 6.38 2.49
-1.76 6.35 2.49
-1.89 6.31 2.49
-2.02 6.27 2.49
-2.14 6.23 2.49
-2.27 6.19 2.49
-2.39 6.14 2.49
-2.51 6.09 2.49
-2.64 6.04 2.49
-2.76 5.99 2.49
-2.88 5.93 2.49
-2.99 5.87 2.49
-3.11 5.81 2.49
-3.23 5.74 2.49
-3.34 5.68 2.49
-3.45 5.61 2.49
-3.56 5.54 2.49
-3.67 5.47 2.49
-3.78 5.39 2.49
-3.89 5.31 2.49
-4.00 5.24 2.49
-4.10 5.15 2.49
-4.20 5.07 2.49
-4.30 4.98 2.49
-4.40 4.90 2.49
-4.50 4.81 2.49
-4.59 4.72 2.49
-4.69 4.62 2.49
-4.78 4.53 2.49
-4.87 4.43 2.49
-4.95 4.33 2.49
-5.04 4.23 2.49
-5.12 4.13 2.49
-5.20 4.02 2.49
-5.28 3.92 2.49
-5.36 3.81 2.49
-5.43 3.70 2.49
-5.51 3.59 2.49
-5.58 3.48 2.49
-5.64 3.37 2.49
-5.71 3.25 2.49
-5.77 3.14 2.49
-5.83 3.02 2.49
-5.89 2.90 2.49
-5.95 2.78 2.49
-6.00 2.66 2.49
-6.05 2.54 2.49
-6.10 2.42 2.49
-6.15 2.30 2.49
-6.19 2.17 2.49
-6.19 2.03 2.48
-6.19 1.90 2.46
-6.20 1.76 2.45
-6.20 1.63 2.44
-6.21 1.50 2.43
-6.21 1.37 2.42
-6.22 1.24 2.41
-6.22 1.11 2.41
-6.22 0.98 2.40
-6.23 0.86 2.39
-6.23 0.73 2.39
-6.24 0.61 2.39
-6.25 0.48 2.39
-6.26 0.36 2.39
-6.26 0.23 2.39
-6.27 0.10 2.39
-6.27 -0.02 2.39
-6.26 -0.15 2.39
-6.26 -0.27 2.39
-6.26 -0.40 2.39
-6.26 -0.53 2.40
-6.26 -0.65 2.40
-6.26 -0.78 2.41
-6.26 -0.91 2.42
-6.26 -1.04 2.43
-6.26 -1.17 2.44
-6.27 -1.30 2.45
-6.27 -1.43 2.46
-6.27 -1.56 2.47
-6.27 -1.70 2.49
-6.25 -1.83 2.49
-6.21 -1.95 2.49
-6.17 -2.08 2.49
-6.13 -2.20 2.49
-6.08 -2.32 2.49
-6.03 -2.44 2.49
-5.98 -2.56 2.49
-5.92 -2.68 2.49
-5.87 -2.80 2.49
-5.81 -2.92 2.49
-5.75 -3.03 2.49
-5.68 -3.14 2.49
-5.62 -3.26 2.49
-5.55 -3.37 2.49
-5.48 -3.48 2.49
-5.41 -3.59 2.49
-5.33 -3.69 2.49
-5.26 -3.80 2.49
-5.18 -3.90 2.49
-5.10 -4.01 2.49
-5.02 -4.11 2.49
-4.93 -4.20 2.49
-4.84 -4.30 2.49
-4.76 -4.40 2.49
-4.67 -4.49 2.49
-4.57 -4.58 2.49
-4.48 -4.67 2.49
-4.38 -4.76 2.49
-4.29 -4.85 2.49
-4.19 -4.93 2.49
-4.09 -5.01 2.49
-3.98 -5.09 2.49
-3.88 -5.17 2.49
-3.77 -5.25 2.49
-3.67 -5.32 2.49
-3.56 -5.39 2.49
-3.45 -5.46 2.49
-3.34 -5.53 2.49
-3.23 -5.59 2.49
-3.11 -5.66 2.49
-3.00 -5.72 2.49
-2.88 -5.77 2.49
-2.76 -5.83 2.49
-2.65 -5.88 2.49
-2.53 -5.93 2.49
-2.41 -5.98 2.49
-2.29 -6.03 2.49
-2.16 -6.07 2.49
-2.04 -6.11 2.49
-1.92 -6.15 2.49
-1.79 -6.19 2.49
-1.67 -6.22 2.49
-1.54 -6.25 2.49
-1.42 -6.28 2.49
-1.29 -6.31 2.49
-1.16 -6.33 2.49
-1.03 -6.35 2.49
-0.91 -6.37 2.49
-0.78 -6.39 2.49
-0.65 -6.40 2.49
-0.52 -6.41 2.49
-0.39 -6.42 2.49
-0.26 -6.43 2.49
-0.13 -6.43 2.49
-0.00 -6.03 2.49
0.12 -6.02 2.49
0.24 -6.02 2.49
0.36 -6.01 2.49
0.48 -6.01 2.49
0.60 -5.99 2.49
0.72 -5.98 2.49
0.84 -5.96 2.49
0.96 -5.95 2.49
1.08 -5.93 2.49
1.20 -5.90 2.49
1.32 -5.88 2.49
1.44 -5.85 2.49
1.55 -5.82 2.49
1.67 -5.78 2.49
1.71 -5.51 2.39
1.82 -5.48 2.39
1.95 -5.50 2.42
2.04 -5.40 2.39
2.15 -5.36 2.39
2.26 -5.31 2.39
2.36 -5.27 2.39
2.11 -4.45 2.04
2.12 -4.26 1.97
2.14 -4.09 1.91
2.11 -3.84 1.82
2.14 -3.71 1.77
2.24 -3.72 1.80
2.37 -3.75 1.84
3.18 -4.82 2.39
3.27 -4.76 2.39
3.37 -4.69 2.39
3.46 -4.62 2.39
3.55 -4.55 2.39
3.65 -4.48 2.39
3.74 -4.41 2.39
3.82 -4.33 2.39
3.91 -4.25 2.39
4.00 -4.17 2.39
4.08 -4.09 2.39
4.16 -4.01 2.39
4.24 -3.93 2.39
4.32 -3.84 2.39
4.40 -3.75 2.39
4.47 -3.67 2.39
4.54 -3.58 2.39
4.62 -3.48 2.39
4.69 -3.39 2.39
4.75 -3.30 2.39
4.82 -3.20 2.39
4.88 -3.10 2.39
4.95 -3.00 2.39
5.01 -2.91 2.39
5.06 -2.80 2.39
5.12 -2.70 2.39
5.17 -2.60 2.39
5.23 -2.50 2.39
5.27 -2.39 2.39
5.31 -2.28 2.38
5.34 -2.17 2.38
5.37 -2.05 2.37
5.40 -1.94 2.37
5.43 -1.83 2.36
5.46 -1.72 2.36
5.48 -1.60 2.35
5.50 -1.49 2.35
5.52 -1.38 2.34
5.54 -1.26 2.34
5.55 -1.15 2.34
5.57 -1.04 2.33
5.58 -0.92 2.33
5.59 -0.81 2.33
5.60 -0.70 2.32
5.61 -0.58 2.32
5.61 -0.47 2.32
5.61 -0.36 2.31
5.62 -0.24 2.31
5.61 -0.13 2.31
5.62 -0.02 2.31
5.62 0.09 2.31
5.62 0.21 2.31
2.31 0.13 0.95
2.28 0.18 0.94
2.29 0.22 0.94
5.60 0.66 2.31
5.59 0.77 2.32
5.58 0.89 2.32
5.57 1.00 2.32
5.56 1.11 2.33
5.55 1.23 2.33
5.54 1.34 2.33
5.52 1.45 2.34
5.50 1.57 2.34
5.48 1.68 2.35
5.46 1.79 2.35
5.43 1.91 2.36
5.40 2.02 2.36
5.37 2.13 2.36
5.33 2.24 2.37
5.29 2.35 2.37
5.25 2.46 2.37
5.21 2.57 2.38
5.17 2.68 2.38
5.12 2.79 2.38
5.07 2.90 2.39
5.02 3.00 2.39
4.96 3.10 2.39
4.90 3.20 2.39
4.84 3.30 2.39
4.77 3.40 2.39
4.70 3.49 2.39
4.63 3.59 2.39
4.56 3.68 2.39
4.49 3.77 2.39
4.41 3.86 2.39
4.34 3.95 2.39
4.26 4.04 2.39
4.17 4.13 2.39
4.09 4.21 2.39
4.01 4.29 2.39
3.92 4.37 2.39
3.83 4.45 2.39
3.74 4.53 2.39
3.65 4.60 2.39
3.56 4.68 2.39
3.47 4.75 2.39
3.37 4.82 2.39
3.28 4.88 2.39
3.18 4.95 2.39
3.08 5.01 2.39
2.98 5.08 2.39
2.88 5.14 2.39
2.77 5.19 2.39
2.67 5.25 2.39
2.56 5.30 2.39
2.46 5.35 2.39
2.35 5.40 2.39
2.24 5.45 2.39
2.15 5.53 2.40
2.02 5.54 2.39
1.94 5.67 2.43
1.88 5.86 2.49
1.76 5.89 2.49
1.64 5.93 2.49
1.52 5.96 2.49
1.40 5.99 2.49
1.28 6.02 2.49
1.16 6.04 2.49
1.04 6.07 2.49
0.92 6.09 2.49
0.80 6.11 2.49
0.67 6.12 2.49
0.55 6.13 2.49
0.43 6.14 2.49
0.30 6.15 2.49
0.18 6.16 2.49
0.06 6.16 2.49
-0.07 6.16 2.49
-0.19 6.16 2.49
-0.31 6.15 2.49
-0.44 6.15 2.49
-0.56 6.14 2.49
-0.68 6.13 2.49
-0.80 6.11 2.49
-0.93 6.09 2.49
-1.05 6.08 2.49
-1.17 6.05 2.49
-1.29 6.03 2.49
-1.41 6.00 2.49
-1.53 5.97 2.49
-1.65 5.94 2.49
-1.77 5.91 2.49
-1.89 5.87 2.49
-2.01 5.83 2.49
-2.12 5.79 2.49
-2.24 5.75 2.49
-2.35 5.70 2.49
-2.47 5.65 2.49
-2.58 5.60 2.49
-2.69 5.55 2.49
-2.80 5.49 2.49
-2.91 5.44 2.49
-3.02 5.38 2.49
-3.13 5.31 2.49
-3.23 5.25 2.49
-3.34 5.18 2.49
-3.44 5.12 2.49
-3.54 5.05 2.49
-3.64 4.97 2.49
-3.74 4.90 2.49
-3.84 4.82 2.49
-3.93 4.74 2.49
-4.03 4.66 2.49
-4.12 4.58 2.49
-4.21 4.50 2.49
-4.30 4.41 2.49
-4.38 4.33 2.49
-4.47 4.24 2.49
-4.55 4.15 2.49
-4.64 4.05 2.49
-4.72 3.96 2.49
-4.79 3.86 2.49
-4.87 3.77 2.49
-4.94 3.67 2.49
-5.01 3.57 2.49
-5.08 3.46 2.49
-5.15 3.36 2.49
-5.22 3.26 2.49
-5.28 3.15 2.49
-5.34 3.04 2.49
-5.40 2.94 2.49
-5.46 2.83 2.49
-5.51 2.72 2.49
-5.57 2.61 2.49
-5.62 2.49 2.49
-5.66 2.38 2.49
-5.71 2.26 2.49
-5.75 2.15 2.49
-5.79 2.03 2.49
-5.83 1.92 2.49
-5.87 1.80 2.49
-5.90 1.68 2.49
-5.93 1.56 2.49
-5.96 1.44 2.49
-5.99 1.32 2.49
-6.01 1.20 2.49
-6.03 1.08 2.49
-6.05 0.96 2.49
-6.07 0.84 2.49
-6.08 0.71 2.49
-6.10 0.59 2.49
-6.11 0.47 2.49
-6.11 0.35 2.49
-6.12 0.22 2.49
-6.12 0.10 2.49
-6.12 -0.02 2.49
-6.12 -0.14 2.49
-6.11 -0.27 2.49
-6.10 -0.39 2.49
-6.09 -0.51 2.49
-6.08 -0.63 2.49
-6.06 -0.75 2.49
-6.05 -0.88 2.49
-6.03 -1.00 2.49
-6.00 -1.12 2.49
-5.98 -1.24 2.49
-5.95 -1.36 2.49
-5.92 -1.48 2.49
-5.89 -1.59 2.49
-5.85 -1.71 2.49
-5.82 -1.83 2.49
-5.78 -1.94 2.49
-5.74 -2.06 2.49
-5.69 -2.17 2.49
-5.65 -2.29 2.49
-5.60 -2.40 2.49
-5.55 -2.51 2.49
-5.49 -2.62 2.49
-5.44 -2.73 2.49
-5.38 -2.84 2.49
-5.32 -2.94 2.49
-5.26 -3.05 2.49
-5.20 -3.15 2.49
-5.13 -3.26 2.49
-5.06 -3.36 2.49
-5.00 -3.46 2.49
-4.92 -3.56 2.49
-4.85 -3.65 2.49
-4.77 -3.75 2.49
-4.70 -3.84 2.49
-4.62 -3.94 2.49
-4.54 -4.03 2.49
-4.45 -4.12 2.49
-4.37 -4.21 2.49
-4.28 -4.29 2.49
-4.20 -4.38 2.49
-4.11 -4.46 2.49
-4.01 -4.54 2.49
-3.92 -4.62 2.49
-3.83 -4.69 2.49
-3.73 -4.77 2.49
-3.63 -4.84 2.49
-3.54 -4.91 2.49
-3.44 -4.98 2.49
-3.33 -5.05 2.49
-3.23 -5.11 2.49
-3.13 -5.18 2.49
-3.02 -5.24 2.49
-2.92 -5.30 2.49
-2.81 -5.35 2.49
-2.70 -5.41 2.49
-2.59 -5.46 2.49
-2.48 -5.51 2.49
-2.37 -5.56 2.49
-2.25 -5.60 2.49
-2.14 -5.65 2.49
-2.03 -5.69 2.49
-1.91 -5.73 2.49
-1.80 -5.76 2.49
-1.68 -5.80 2.49
-1.56 -5.83 2.49
-1.45 -5.86 2.49
-1.33 -5.89 2.49
-1.21 -5.91 2.49
-1.09 -5.93 2.49
-0.97 -5.95 2.49
-0.85 -5.97 2.49
-0.73 -5.99 2.49
-0.61 -6.00 2.49
-0.49 -6.01 2.49
-0.37 -6.02 2.49
-0.25 -6.02 2.49
-0.12 -6.03 2.49
-0.00 -5.66 2.49
0.11 -5.66 2.49
0.22 -5.66 2.49
0.34 -5.65 2.49
0.45 -5.64 2.49
0.56 -5.63 2.49
0.68 -5.62 2.49
0.79 -5.60 2.49
0.90 -5.59 2.49
1.01 -5.57 2.49
1.13 -5.55 2.49
1.24 -5.52 2.49
1.35 -5.50 2.49
1.46 -5.47 2.49
1.57 -5.44 2.49
1.68 -5.40 2.49
1.71 -5.15 2.39
1.82 -5.11 2.39
1.95 -5.16 2.43
2.02 -5.03 2.39
2.12 -4.99 2.39
2.22 -4.95 2.39
2.32 -4.90 2.39
2.28 -4.58 2.26
2.11 -4.03 2.00
2.14 -3.89 1.96
2.12 -3.69 1.87
2.11 -3.51 1.80
2.15 -3.40 1.77
2.98 -4.53 2.39
3.08 -4.47 2.39
3.16 -4.41 2.39
3.25 -4.34 2.39
3.34 -4.28 2.39
3.43 -4.21 2.39
3.51 -4.14 2.39
3.59 -4.07 2.39
3.67 -4.00 2.39
3.75 -3.92 2.39
3.83 -3.85 2.39
3.91 -3.77 2.39
3.98 -3.69 2.39
4.06 -3.61 2.39
4.13 -3.53 2.39
4.20 -3.44 2.39
4.27 -3.36 2.39
4.34 -3.27 2.39
4.40 -3.19 2.39
4.47 -3.10 2.39
4.53 -3.01 2.39
4.59 -2.92 2.39
4.65 -2.82 2.39
4.70 -2.73 2.39
4.76 -2.63 2.39
4.81 -2.54 2.39
4.86 -2.44 2.39
4.91 -2.34 2.39
