ply
format ascii 1.0
element vertex 2785
property float32 x
property float32 y
property float32 z
end_header
25.77 40.05 -0.64
25.31 41.14 -0.63
24.88 42.32 -0.62
2.99 22.81 -0.10
-5.79 44.00 -0.01
-14.77 45.89 0.11
-14.93 43.39 0.11
-14.89 40.59 0.11
-14.99 38.46 0.12
-14.83 35.92 0.12
-13.38 30.65 0.11
-13.46 29.21 0.11
-13.81 28.46 0.11
-14.44 28.29 0.12
-15.01 28.02 0.12
-15.02 26.73 0.12
-14.96 25.42 0.12
-13.26 21.52 0.11
-13.12 20.37 0.11
-13.25 19.69 0.11
-13.43 19.12 0.11
-13.92 19.00 0.11
-14.05 18.39 0.11
-14.21 17.84 0.11
-14.36 17.31 0.11
-14.38 16.64 0.11
-14.49 16.10 0.11
-14.66 15.64 0.11
-14.70 15.07 0.11
-14.71 14.49 0.11
-14.83 14.03 0.11
-14.95 13.58 0.11
-14.95 13.05 0.10
-14.96 12.53 0.10
-14.96 12.04 0.10
-14.97 11.55 0.10
-14.97 11.08 0.10
-14.98 10.63 0.09
-14.99 10.19 0.09
-15.01 9.77 0.09
-15.01 9.35 0.09
-15.02 8.94 0.08
-15.02 8.54 0.08
-15.05 8.16 0.08
-15.14 7.82 0.08
-15.15 7.44 0.07
-15.16 7.07 0.07
-15.17 6.71 0.07
-15.18 6.35 0.07
-15.22 6.01 0.06
-15.42 5.74 0.06
-6.01 2.10 0.02
-16.99 5.56 0.06
-16.99 5.18 0.06
-17.00 4.81 0.05
-17.01 4.45 0.05
-16.94 4.07 0.04
-16.66 3.65 0.04
-16.39 3.25 0.04
-16.13 2.86 0.03
-15.88 2.49 0.03
-15.75 2.15 0.02
-15.57 1.80 0.02
-15.51 1.48 0.01
-15.46 1.17 0.01
-15.40 0.85 0.01
-15.35 0.54 0.00
-15.30 0.23 -0.00
-15.14 -0.08 -0.01
-14.92 -0.37 -0.01
-14.71 -0.66 -0.02
-14.50 -0.95 -0.02
-14.33 -1.23 -0.02
-14.37 -1.52 -0.03
-14.40 -1.82 -0.03
-14.32 -2.10 -0.04
-14.15 -2.37 -0.04
-14.00 -2.63 -0.05
-13.84 -2.89 -0.05
-13.69 -3.14 -0.06
-13.58 -3.41 -0.06
-13.55 -3.69 -0.07
-13.51 -3.97 -0.07
-13.52 -4.27 -0.08
-13.52 -4.57 -0.09
-13.53 -4.88 -0.09
-13.53 -5.19 -0.10
-13.53 -5.51 -0.11
-13.54 -5.83 -0.11
-13.55 -6.16 -0.12
-13.60 -6.51 -0.13
-14.52 -7.31 -0.14
-14.57 -7.71 -0.15
-14.69 -8.15 -0.16
-15.03 -8.74 -0.18
-15.07 -9.17 -0.19
-15.11 -9.62 -0.20
-15.18 -10.10 -0.21
-15.41 -10.70 -0.22
-15.44 -11.19 -0.23
-15.48 -11.70 -0.25
-15.58 -12.27 -0.26
-15.67 -12.86 -0.27
-17.29 -14.78 -0.32
-17.47 -15.56 -0.34
-17.62 -16.34 -0.36
2.69 -18.99 -0.22
13.69 -17.55 -0.36
12.73 -15.66 -0.33
12.51 -14.77 -0.32
12.36 -14.02 -0.31
12.30 -13.39 -0.30
12.24 -12.80 -0.29
12.18 -12.24 -0.28
12.18 -11.75 -0.28
12.13 -11.25 -0.27
12.08 -10.76 -0.27
12.03 -10.29 -0.26
12.04 -9.89 -0.26
12.07 -9.51 -0.25
12.06 -9.12 -0.25
12.06 -8.74 -0.24
12.06 -8.37 -0.24
12.08 -8.03 -0.24
12.12 -7.72 -0.23
12.16 -7.41 -0.23
12.21 -7.10 -0.23
12.25 -6.80 -0.22
12.30 -6.51 -0.22
12.34 -6.21 -0.22
12.35 -5.91 -0.21
12.40 -5.63 -0.21
12.52 -5.39 -0.21
12.64 -5.14 -0.21
12.76 -4.89 -0.21
12.91 -4.66 -0.20
13.07 -4.42 -0.20
13.08 -4.13 -0.20
13.23 -3.89 -0.20
13.39 -3.64 -0.20
13.54 -3.40 -0.19
13.69 -3.14 -0.19
13.78 -2.87 -0.19
13.82 -2.59 -0.19
13.86 -2.31 -0.18
13.90 -2.03 -0.18
13.13 -1.65 -0.17
13.10 -1.38 -0.16
13.25 -1.13 -0.16
13.25 -0.86 -0.16
13.26 -0.60 -0.15
13.42 -0.33 -0.15
13.93 -0.07 -0.15
15.23 0.23 -0.16
15.39 0.54 -0.16
15.48 0.86 -0.16
15.75 1.19 -0.15
15.93 1.53 -0.15
16.13 1.87 -0.15
16.17 2.21 -0.14
16.17 2.54 -0.14
16.70 2.97 -0.14
17.22 3.42 -0.13
17.61 3.86 -0.13
17.76 4.27 -0.13
17.83 4.67 -0.12
19.13 5.42 -0.12
19.96 6.09 -0.12
20.00 6.54 -0.11
22.92 8.01 -0.12
23.45 8.73 -0.12
23.91 9.45 -0.11
24.23 10.15 -0.10
24.26 10.74 -0.09
25.90 12.09 -0.09
26.02 12.79 -0.08
26.13 13.50 -0.07
26.34 14.28 -0.05
26.58 15.11 -0.04
26.61 15.85 -0.03
28.09 17.50 -0.02
28.09 18.29 -0.00
28.46 19.36 0.01
28.78 20.43 0.03
28.61 21.19 0.04
28.41 21.93 0.06
28.18 22.68 0.07
27.95 23.42 0.09
28.07 24.50 0.11
27.83 25.30 0.13
27.59 26.11 0.14
27.41 27.00 0.16
27.24 27.93 0.18
27.07 28.90 0.20
26.92 29.91 0.22
26.73 30.94 0.25
26.64 32.10 0.27
26.54 33.33 0.29
26.53 34.72 0.32
26.15 35.69 0.34
25.78 36.71 0.37
25.42 37.79 0.39
24.89 38.65 0.42
24.33 39.49 0.44
23.69 40.24 0.47
23.55 41.91 0.50
3.00 22.81 0.42
5.10 45.93 0.85
-5.77 44.01 0.99
-13.31 47.91 1.21
-13.56 45.29 1.16
-13.99 43.51 1.13
-13.90 40.42 1.07
-14.17 38.67 1.04
-12.69 32.58 0.89
-12.69 30.76 0.85
-12.74 29.20 0.82
-12.86 27.92 0.80
-13.49 27.80 0.81
-14.10 27.64 0.81
-14.44 26.96 0.81
-14.35 25.53 0.78
-12.86 21.85 0.68
-12.73 20.67 0.65
-12.71 19.74 0.63
-12.89 19.15 0.62
-13.07 18.61 0.62
-13.17 17.97 0.61
-13.26 17.35 0.60
-13.34 16.75 0.59
-13.42 16.17 0.58
-13.58 15.71 0.57
-13.75 15.28 0.57
-13.92 14.86 0.56
-13.97 14.32 0.55
-14.14 13.92 0.55
-14.31 13.53 0.55
-14.44 13.12 0.54
-14.45 12.61 0.53
-14.46 12.12 0.52
-14.47 11.64 0.51
-14.48 11.18 0.51
-14.50 10.73 0.50
-14.51 10.29 0.49
-14.53 9.88 0.48
-14.56 9.47 0.48
-14.57 9.07 0.47
-14.59 8.68 0.46
-14.60 8.29 0.46
-14.67 7.95 0.45
-14.76 7.62 0.45
-14.81 7.27 0.44
-14.82 6.91 0.44
-14.83 6.56 0.43
-14.84 6.21 0.43
-14.91 5.89 0.42
-14.98 5.57 0.42
-6.01 2.10 0.17
-15.58 5.09 0.42
-16.45 5.01 0.44
-16.46 4.66 0.44
-16.47 4.31 0.43
-16.30 3.91 0.42
-16.05 3.51 0.41
-15.80 3.13 0.40
-15.57 2.76 0.39
-15.42 2.41 0.38
-15.29 2.08 0.37
-15.24 1.76 0.36
-15.19 1.45 0.36
-15.14 1.14 0.35
-15.08 0.83 0.35
-15.03 0.52 0.34
-14.98 0.22 0.33
-14.83 -0.08 0.33
-14.62 -0.37 0.32
-14.42 -0.66 0.31
-14.22 -0.93 0.30
-14.02 -1.20 0.29
-13.83 -1.47 0.28
-13.65 -1.73 0.28
-13.50 -1.98 0.27
-13.47 -2.26 0.27
-13.44 -2.53 0.26
-13.40 -2.80 0.26
-13.37 -3.08 0.25
-13.34 -3.35 0.25
-13.30 -3.63 0.24
-13.27 -3.91 0.24
-13.26 -4.20 0.23
-13.26 -4.49 0.23
-13.27 -4.79 0.23
-13.27 -5.10 0.22
-13.27 -5.40 0.22
-13.27 -5.72 0.22
-13.27 -6.04 0.21
-13.26 -6.36 0.21
-13.30 -6.71 0.20
-13.35 -7.07 0.20
-13.40 -7.44 0.20
-13.45 -7.83 0.19
-13.49 -8.22 0.19
-13.54 -8.63 0.19
-13.59 -9.05 0.18
-13.71 -9.53 0.18
-13.90 -10.08 0.18
-14.66 -11.09 0.18
-14.68 -11.58 0.18
-14.70 -12.08 0.17
-15.06 -12.89 0.17
-15.14 -13.49 0.16
-15.22 -14.13 0.16
-15.32 -14.79 0.15
-15.34 -15.43 0.15
-15.37 -16.09 0.14
-15.37 -16.75 0.13
-15.36 -17.43 0.13
-15.34 -18.13 0.12
-15.42 -18.99 0.11
-15.55 -19.94 0.10
-15.72 -21.02 0.10
-16.70 -23.29 0.09
-16.87 -24.55 0.08
-16.95 -25.76 0.07
-17.48 -27.76 0.06
2.69 -18.99 0.22
13.48 -18.01 0.15
12.52 -16.04 0.13
12.31 -15.13 0.12
12.11 -14.30 0.12
12.05 -13.66 0.11
12.00 -13.06 0.11
11.94 -12.49 0.11
11.92 -11.98 0.10
11.92 -11.51 0.10
11.89 -11.02 0.10
11.84 -10.55 0.10
11.82 -10.11 0.09
11.84 -9.72 0.09
11.87 -9.35 0.09
11.87 -8.97 0.09
11.87 -8.60 0.09
11.87 -8.25 0.09
11.91 -7.92 0.09
11.95 -7.61 0.09
12.00 -7.31 0.09
12.04 -7.01 0.09
12.09 -6.71 0.09
12.13 -6.42 0.09
12.17 -6.13 0.09
12.18 -5.83 0.09
12.19 -5.54 0.09
12.31 -5.30 0.10
12.43 -5.06 0.10
12.55 -4.82 0.10
12.67 -4.57 0.10
12.79 -4.33 0.11
12.91 -4.08 0.11
13.05 -3.84 0.11
13.20 -3.60 0.11
13.35 -3.35 0.12
13.51 -3.10 0.12
13.63 -2.85 0.13
13.67 -2.57 0.13
13.71 -2.29 0.13
13.23 -1.94 0.13
12.89 -1.63 0.13
12.91 -1.37 0.13
12.95 -1.11 0.14
13.00 -0.85 0.14
13.13 -0.60 0.15
13.31 -0.34 0.15
13.58 -0.07 0.16
13.80 0.21 0.16
15.24 0.53 0.19
15.41 0.85 0.19
15.58 1.17 0.20
15.76 1.50 0.21
15.95 1.85 0.22
15.15 2.06 0.21
15.24 2.39 0.22
16.01 2.84 0.24
16.94 3.35 0.26
17.31 3.79 0.27
17.51 4.20 0.28
17.57 4.59 0.29
17.64 4.99 0.30
19.46 5.93 0.34
19.58 6.40 0.35
19.62 6.85 0.36
19.66 7.31 0.37
22.12 8.74 0.43
23.58 9.86 0.48
23.69 10.47 0.49
23.71 11.05 0.51
24.77 12.16 0.55
24.91 12.85 0.57
25.09 13.59 0.59
25.33 14.38 0.62
25.83 15.36 0.65
25.87 16.10 0.67
27.57 17.93 0.74
27.78 18.87 0.77
28.18 19.98 0.80
28.20 20.86 0.83
28.06 21.64 0.85
27.84 22.38 0.88
27.61 23.12 0.90
27.37 23.87 0.92
27.13 24.64 0.95
26.84 25.37 0.97
26.54 26.12 1.00
26.38 27.02 1.03
26.18 27.92 1.06
26.00 28.86 1.09
25.83 29.86 1.13
25.62 30.85 1.16
25.39 31.85 1.20
25.08 32.79 1.23
24.60 33.54 1.26
24.11 34.29 1.29
23.55 34.97 1.32
23.13 35.87 1.35
22.86 37.07 1.40
22.49 38.17 1.44
22.11 39.29 1.49
21.81 40.66 1.54
21.53 42.14 1.60
21.20 43.63 1.66
20.51 44.47 1.70
19.81 45.33 1.74
6.31 29.43 1.18
5.76 29.76 1.20
5.62 32.51 1.32
5.35 35.16 1.43
3.01 22.82 0.94
4.84 43.43 1.79
4.44 48.71 2.02
-5.75 43.98 1.99
-11.27 48.04 2.28
-11.62 45.38 2.18
-11.97 43.13 2.10
-12.15 40.59 1.99
-12.65 39.37 1.95
-13.35 38.85 1.95
-12.59 34.39 1.75
-12.01 30.86 1.59
-12.08 29.29 1.52
-12.16 27.88 1.47
-12.55 27.26 1.45
-13.17 27.15 1.47
-13.77 27.01 1.48
-13.83 25.82 1.43
-12.37 22.02 1.24
-12.35 20.99 1.20
-12.30 19.98 1.16
-12.35 19.18 1.13
-12.54 18.65 1.12
-12.65 18.02 1.09
-12.71 17.35 1.07
-12.80 16.75 1.05
-12.87 16.17 1.03
-12.94 15.60 1.01
-13.07 15.13 1.00
-13.20 14.67 0.99
-13.30 14.20 0.98
-13.48 13.82 0.97
-13.65 13.44 0.96
-13.81 13.07 0.96
-13.96 12.68 0.95
-13.98 12.20 0.93
-14.00 11.73 0.92
-14.01 11.27 0.90
-14.03 10.83 0.89
-14.05 10.40 0.88
-14.07 9.99 0.87
-14.10 9.59 0.85
-14.13 9.20 0.84
-14.16 8.81 0.83
-14.18 8.43 0.82
-14.22 8.08 0.81
-14.31 7.75 0.81
-14.40 7.43 0.80
-14.48 7.11 0.80
-14.50 6.76 0.79
-14.51 6.41 0.78
-14.54 6.08 0.77
-14.60 5.77 0.77
-14.67 5.45 0.76
-6.01 2.10 0.31
-15.14 4.95 0.77
-15.43 4.70 0.78
-15.96 4.51 0.80
-15.96 4.17 0.79
-15.72 3.77 0.77
-15.51 3.39 0.75
-15.36 3.04 0.74
-15.22 2.69 0.73
-15.07 2.36 0.71
-14.96 2.03 0.70
-14.92 1.72 0.69
-14.88 1.41 0.69
-14.83 1.11 0.68
-14.78 0.81 0.67
-14.73 0.51 0.67
-14.68 0.21 0.66
-14.53 -0.08 0.65
-14.33 -0.37 0.63
-14.14 -0.65 0.62
-13.94 -0.92 0.61
-13.76 -1.19 0.60
-13.57 -1.45 0.59
-13.40 -1.70 0.58
-13.23 -1.95 0.57
-13.22 -2.22 0.56
-13.20 -2.49 0.56
-13.17 -2.76 0.56
-13.14 -3.03 0.55
-13.10 -3.30 0.55
-13.07 -3.57 0.54
-13.04 -3.84 0.54
-13.02 -4.13 0.54
-13.02 -4.41 0.54
-13.02 -4.71 0.53
-13.02 -5.01 0.53
-13.02 -5.31 0.53
-13.02 -5.61 0.53
-13.02 -5.93 0.53
-13.00 -6.24 0.53
-12.99 -6.56 0.53
-13.02 -6.90 0.53
-13.06 -7.26 0.53
-13.10 -7.64 0.53
-13.14 -8.02 0.53
-13.17 -8.40 0.53
-13.21 -8.80 0.53
-13.25 -9.22 0.54
-13.30 -9.66 0.54
-13.35 -10.11 0.54
-13.43 -10.60 0.55
-13.59 -11.18 0.55
-13.94 -11.95 0.57
-14.25 -12.71 0.59
-14.55 -13.51 0.60
-14.61 -14.13 0.60
-14.74 -14.84 0.61
-14.79 -15.50 0.62
-14.80 -16.15 0.62
-14.81 -16.82 0.63
-14.79 -17.49 0.63
-14.76 -18.19 0.63
-14.80 -19.01 0.64
-14.90 -19.94 0.65
-15.03 -20.98 0.67
-15.20 -22.15 0.68
-15.34 -23.34 0.70
-15.46 -24.59 0.71
-15.59 -25.93 0.73
2.04 -49.89 1.76
2.70 -18.99 0.65
6.47 -39.75 1.35
13.24 -18.44 0.66
12.24 -16.35 0.59
12.10 -15.50 0.57
11.91 -14.64 0.54
11.80 -13.93 0.53
11.75 -13.32 0.51
11.71 -12.75 0.50
11.67 -12.20 0.48
11.67 -11.73 0.47
11.68 -11.27 0.46
11.65 -10.80 0.45
11.61 -10.34 0.44
11.62 -9.94 0.44
11.65 -9.57 0.43
11.68 -9.20 0.43
11.68 -8.83 0.42
11.69 -8.47 0.41
11.70 -8.13 0.41
11.74 -7.82 0.41
11.79 -7.51 0.40
11.84 -7.21 0.40
11.88 -6.91 0.40
11.93 -6.62 0.40
11.97 -6.34 0.40
12.00 -6.05 0.39
12.01 -5.75 0.39
12.02 -5.47 0.39
12.11 -5.21 0.39
12.22 -4.98 0.39
12.34 -4.74 0.40
12.46 -4.50 0.40
12.58 -4.26 0.40
12.65 -4.00 0.40
12.88 -3.79 0.41
13.03 -3.55 0.42
13.17 -3.31 0.42
13.32 -3.07 0.43
13.47 -2.82 0.43
13.53 -2.55 0.44
13.57 -2.27 0.44
13.39 -1.97 0.44
13.32 -1.69 0.44
12.86 -1.37 0.42
12.84 -1.10 0.43
12.84 -0.84 0.43
12.92 -0.59 0.43
13.08 -0.33 0.44
13.53 -0.07 0.46
13.71 0.20 0.47
15.08 0.52 0.52
15.25 0.83 0.54
15.42 1.15 0.55
15.50 1.47 0.56
15.16 1.75 0.55
14.91 2.02 0.55
15.14 2.36 0.56
15.18 2.68 0.57
16.17 3.20 0.62
17.02 3.72 0.66
17.26 4.14 0.68
17.33 4.52 0.69
17.39 4.91 0.70
17.46 5.31 0.72
19.18 6.26 0.80
19.22 6.70 0.81
19.25 7.15 0.83
19.28 7.60 0.85
21.29 8.89 0.95
21.36 9.43 0.97
23.16 10.78 1.07
23.17 11.36 1.09
23.19 11.95 1.12
23.39 12.66 1.15
23.43 13.29 1.18
23.51 13.97 1.21
24.67 15.34 1.29
25.32 16.45 1.36
26.95 18.29 1.48
27.47 19.46 1.54
27.69 20.46 1.59
27.62 21.28 1.63
27.50 22.09 1.66
27.27 22.81 1.69
26.91 23.45 1.71
26.51 24.05 1.73
26.15 24.69 1.76
25.80 25.37 1.78
25.45 26.05 1.81
25.26 26.91 1.85
25.04 27.78 1.89
24.69 28.52 1.93
24.21 29.12 1.95
23.71 29.72 1.98
23.22 30.32 2.00
22.93 31.23 2.05
22.65 32.18 2.10
22.39 33.21 2.15
22.10 34.24 2.21
21.88 35.44 2.28
21.64 36.68 2.35
21.40 38.00 2.42
20.92 38.95 2.47
20.23 39.55 2.50
19.53 40.15 2.54
18.81 40.74 2.57
18.09 41.33 2.60
17.35 41.92 2.63
16.59 42.47 2.67
15.86 43.15 2.71
15.14 43.89 2.75
14.35 44.46 2.79
5.48 18.23 1.14
5.08 18.22 1.15
4.75 18.46 1.16
4.91 20.79 1.31
5.59 25.99 1.64
5.37 27.65 1.75
4.96 28.61 1.81
4.91 32.15 2.04
3.01 22.79 1.45
4.18 37.39 2.39
3.41 37.25 2.39
2.64 37.11 2.39
1.97 38.55 2.50
1.19 38.37 2.50
0.42 38.19 2.50
-0.35 38.00 2.50
-1.11 37.80 2.50
-1.86 37.58 2.50
-2.60 37.36 2.50
-3.33 37.13 2.50
-4.06 36.89 2.50
-4.78 36.64 2.50
-5.49 36.38 2.50
-5.94 34.62 2.39
-6.61 34.36 2.39
-7.27 34.09 2.39
-7.92 33.81 2.39
-8.57 33.52 2.39
-9.21 33.22 2.39
-10.08 33.71 2.45
-10.46 32.59 2.39
-10.85 31.59 2.34
-11.23 30.69 2.30
-11.43 29.38 2.22
-11.53 27.97 2.14
-11.66 26.74 2.07
-12.25 26.63 2.08
-12.86 26.53 2.10
-12.69 24.90 2.00
-11.87 22.18 1.80
-11.92 21.22 1.75
-11.90 20.23 1.69
-11.93 19.38 1.64
-12.02 18.68 1.60
-12.15 18.07 1.57
-12.20 17.37 1.54
-12.27 16.76 1.50
-12.36 16.18 1.48
-12.41 15.59 1.45
-12.50 15.07 1.42
-12.63 14.62 1.41
-12.73 14.15 1.39
-12.77 13.64 1.36
-12.96 13.28 1.35
-13.14 12.95 1.34
-13.33 12.61 1.34
-13.51 12.27 1.33
-13.53 11.81 1.31
-13.56 11.36 1.29
-13.58 10.92 1.27
-13.60 10.50 1.25
-13.63 10.09 1.23
-13.67 9.70 1.22
-13.70 9.31 1.20
-13.73 8.94 1.19
-13.77 8.57 1.18
-13.79 8.20 1.16
-13.88 7.88 1.16
-13.97 7.57 1.15
-14.06 7.25 1.14
-14.14 6.94 1.14
-14.18 6.61 1.13
-14.20 6.27 1.12
-14.25 5.96 1.11
-14.32 5.65 1.10
-14.38 5.34 1.09
-6.01 2.10 0.45
-14.73 4.81 1.10
-15.01 4.57 1.11
-15.29 4.32 1.12
-15.46 4.03 1.13
-15.31 3.67 1.11
-15.16 3.31 1.09
-15.02 2.96 1.07
-14.88 2.63 1.05
-14.74 2.30 1.03
-14.65 1.98 1.02
-14.61 1.68 1.01
-14.57 1.38 1.00
-14.53 1.08 1.00
-14.49 0.79 0.99
-14.44 0.49 0.98
-14.39 0.20 0.97
-14.25 -0.09 0.96
-14.05 -0.37 0.94
-13.86 -0.64 0.92
-13.68 -0.91 0.91
-13.50 -1.17 0.89
-13.32 -1.42 0.88
-13.15 -1.67 0.87
-12.98 -1.92 0.85
-12.96 -2.18 0.85
-12.96 -2.45 0.85
-12.94 -2.72 0.84
-12.91 -2.98 0.84
-12.88 -3.25 0.84
-12.84 -3.51 0.84
-12.81 -3.78 0.83
-12.78 -4.06 0.83
-12.78 -4.34 0.83
-12.78 -4.63 0.83
-12.77 -4.92 0.83
-12.77 -5.21 0.83
-12.77 -5.52 0.83
-12.77 -5.82 0.84
-12.76 -6.13 0.84
-12.74 -6.44 0.84
-12.72 -6.75 0.84
-12.73 -7.09 0.84
-12.77 -7.45 0.85
-12.81 -7.82 0.86
-12.84 -8.20 0.86
-12.86 -8.58 0.87
-12.88 -8.98 0.88
-12.92 -9.39 0.89
-12.96 -9.83 0.89
-12.99 -10.27 0.90
-13.01 -10.71 0.91
-13.16 -11.29 0.93
-13.31 -11.89 0.95
-13.39 -12.45 0.96
-13.80 -13.36 1.00
-14.03 -14.13 1.03
-14.14 -14.83 1.05
-14.26 -15.57 1.08
-14.26 -16.21 1.09
-14.25 -16.87 1.11
-14.23 -17.56 1.12
-14.20 -18.25 1.14
-14.23 -19.06 1.16
-14.26 -19.93 1.18
-14.37 -20.96 1.22
-14.50 -22.09 1.25
-14.63 -23.28 1.29
-14.72 -24.51 1.33
-14.79 -25.79 1.37
-14.82 -27.08 1.41
-10.12 -28.60 1.28
-10.19 -38.32 1.61
-9.90 -40.48 1.68
-9.93 -44.42 1.82
-6.31 -44.94 1.74
0.05 -42.66 2.50
0.91 -42.89 2.50
1.78 -43.10 2.50
2.12 -34.46 1.99
3.40 -41.67 2.39
4.26 -41.81 2.39
5.12 -41.94 2.39
2.71 -18.99 1.08
6.20 -38.02 2.16
6.22 -33.88 1.92
6.24 -30.54 1.73
6.30 -27.92 1.58
12.93 -18.80 1.18
12.13 -16.89 1.07
11.83 -15.80 1.02
11.70 -14.99 0.98
10.03 -12.33 0.82
10.15 -11.98 0.81
10.51 -11.92 0.81
11.43 -12.45 0.87
11.43 -11.95 0.85
11.44 -11.49 0.83
11.45 -11.05 0.81
11.42 -10.59 0.80
11.40 -10.15 0.78
11.43 -9.78 0.77
11.46 -9.41 0.76
11.49 -9.05 0.75
11.50 -8.70 0.74
11.51 -8.34 0.73
11.54 -8.02 0.72
11.58 -7.71 0.71
11.63 -7.41 0.71
11.68 -7.11 0.70
11.72 -6.82 0.70
11.77 -6.54 0.70
11.81 -6.26 0.69
11.84 -5.97 0.69
11.85 -5.68 0.68
11.86 -5.40 0.68
11.91 -5.13 0.68
12.03 -4.90 0.68
12.14 -4.66 0.68
12.26 -4.43 0.69
12.37 -4.19 0.69
12.41 -3.93 0.69
12.52 -3.69 0.70
12.85 -3.51 0.71
13.00 -3.27 0.72
13.14 -3.03 0.73
13.29 -2.78 0.73
13.39 -2.52 0.74
13.42 -2.25 0.74
13.41 -1.97 0.74
13.20 -1.67 0.73
12.98 -1.38 0.72
12.97 -1.12 0.72
12.92 -0.85 0.72
12.96 -0.60 0.73
13.10 -0.34 0.74
13.53 -0.08 0.77
13.90 0.20 0.79
14.93 0.51 0.86
15.09 0.82 0.87
15.26 1.14 0.89
15.43 1.46 0.90
14.93 1.72 0.88
14.92 2.02 0.89
14.88 2.32 0.89
15.03 2.65 0.91
15.70 3.09 0.96
16.40 3.58 1.01
17.03 4.07 1.06
17.09 4.45 1.08
17.15 4.84 1.09
17.21 5.23 1.11
17.28 5.63 1.13
18.61 6.48 1.23
18.68 6.93 1.25
18.75 7.38 1.28
18.81 7.85 1.30
18.90 8.33 1.33
18.91 8.80 1.35
18.92 9.27 1.37
18.93 9.75 1.39
20.57 11.12 1.54
20.56 11.65 1.57
20.63 12.24 1.60
21.91 13.61 1.73
22.51 14.61 1.81
23.91 16.21 1.96
25.33 17.92 2.12
25.94 19.15 2.22
27.00 20.78 2.36
26.79 21.49 2.39
26.57 22.21 2.43
26.33 22.91 2.46
25.99 23.55 2.49
25.59 24.14 2.51
25.23 24.78 2.54
24.78 25.34 2.56
24.32 25.88 2.59
23.87 26.45 2.61
23.49 27.11 2.64
23.09 27.74 2.68
22.54 28.22 2.69
22.25 29.03 2.74
21.90 29.80 2.79
21.53 30.56 2.84
21.38 31.68 2.92
21.15 32.73 2.99
20.51 33.18 3.01
19.81 33.53 3.03
19.02 33.74 3.03
18.24 33.92 3.03
17.46 34.09 3.03
16.68 34.25 3.03
15.90 34.39 3.03
15.13 34.52 3.03
14.36 34.63 3.03
13.59 34.74 3.03
12.82 34.82 3.03
7.23 20.93 1.81
5.78 17.87 1.55
5.39 17.91 1.55
5.00 17.90 1.55
4.72 18.29 1.58
4.54 19.21 1.66
4.19 19.47 1.68
5.33 27.41 2.37
4.81 27.69 2.39
4.23 27.66 2.39
3.02 22.79 1.97
3.09 27.57 2.39
2.53 27.51 2.39
2.05 28.63 2.50
1.47 28.55 2.50
0.89 28.46 2.50
0.32 28.36 2.50
-0.25 28.25 2.50
-0.81 28.14 2.50
-1.37 28.01 2.50
-1.93 27.88 2.50
-2.48 27.74 2.50
-3.03 27.59 2.50
-3.57 27.44 2.50
-4.11 27.27 2.50
-4.64 27.10 2.50
-5.17 26.92 2.50
-5.60 26.27 2.45
-5.95 25.44 2.39
-6.45 25.25 2.39
-6.93 25.04 2.39
-7.42 24.84 2.39
-7.90 24.62 2.39
-8.37 24.40 2.39
-8.84 24.17 2.39
-9.30 23.93 2.39
-9.90 24.04 2.43
-10.24 23.51 2.40
-10.60 23.05 2.38
-10.95 22.60 2.36
-11.28 22.14 2.34
-11.44 21.38 2.29
-11.50 20.48 2.22
-11.53 19.61 2.15
-11.57 18.80 2.09
-11.66 18.13 2.04
-11.72 17.43 1.99
-11.77 16.77 1.95
-11.86 16.19 1.91
-11.92 15.61 1.87
-11.98 15.05 1.83
-12.08 14.57 1.80
-12.18 14.10 1.78
-12.23 13.60 1.75
-12.28 13.11 1.72
-12.47 12.78 1.71
-12.65 12.46 1.70
-12.78 12.09 1.68
-12.83 11.66 1.66
-12.88 11.24 1.63
-12.92 10.83 1.61
-12.97 10.43 1.59
-13.02 10.05 1.57
-13.08 9.68 1.55
-13.14 9.32 1.54
-13.20 8.97 1.52
-13.25 8.62 1.51
-13.31 8.28 1.49
-13.39 7.96 1.48
-13.55 7.70 1.48
-13.64 7.39 1.47
-13.73 7.08 1.47
-13.81 6.78 1.46
-13.89 6.47 1.45
-13.91 6.14 1.44
-13.97 5.84 1.43
-14.04 5.54 1.42
-14.10 5.23 1.41
-6.01 2.10 0.60
-14.33 4.68 1.41
-14.60 4.44 1.43
-14.87 4.20 1.44
-14.92 3.89 1.44
-14.94 3.57 1.43
-14.82 3.23 1.41
-14.69 2.90 1.38
-14.55 2.57 1.36
-14.42 2.25 1.34
-14.35 1.94 1.33
-14.32 1.64 1.32
-14.28 1.35 1.31
-14.24 1.06 1.30
-14.20 0.77 1.29
-14.16 0.48 1.28
-14.11 0.19 1.27
-13.97 -0.09 1.26
-13.79 -0.36 1.23
-13.60 -0.63 1.21
-13.43 -0.90 1.20
-13.25 -1.15 1.18
-13.08 -1.40 1.16
-12.92 -1.65 1.14
-12.75 -1.89 1.13
-12.71 -2.14 1.12
-12.71 -2.41 1.12
-12.70 -2.67 1.12
-12.69 -2.94 1.12
-12.65 -3.20 1.12
-12.62 -3.46 1.12
-12.59 -3.72 1.12
-12.55 -3.99 1.11
-12.55 -4.27 1.12
-12.54 -4.55 1.12
-12.54 -4.83 1.12
-12.53 -5.12 1.12
-12.53 -5.42 1.13
-12.52 -5.72 1.13
-12.52 -6.02 1.14
-12.50 -6.33 1.14
-12.48 -6.63 1.15
-12.46 -6.95 1.15
-12.46 -7.28 1.16
-12.49 -7.64 1.17
-12.52 -8.00 1.18
-12.54 -8.37 1.19
-12.55 -8.75 1.20
-12.57 -9.14 1.21
-12.60 -9.56 1.23
-12.63 -9.99 1.24
-12.65 -10.42 1.26
-12.66 -10.87 1.27
-12.74 -11.39 1.30
-12.88 -11.99 1.33
-12.89 -12.49 1.34
-12.94 -13.05 1.37
-13.34 -14.00 1.43
-13.44 -14.69 1.46
-13.63 -15.51 1.51
-13.72 -16.26 1.55
-13.70 -16.91 1.57
-13.67 -17.58 1.60
-13.61 -18.25 1.62
-13.61 -19.05 1.66
-13.62 -19.89 1.70
-13.73 -20.93 1.75
-13.82 -22.03 1.81
-13.92 -23.20 1.87
-14.00 -24.44 1.94
-14.03 -25.67 2.00
-14.03 -26.94 2.06
-13.83 -27.90 2.10
-13.13 -27.89 2.07
-12.45 -27.88 2.03
-11.79 -27.89 2.00
-11.17 -27.98 1.98
-10.18 -27.05 1.89
-9.82 -27.79 1.91
-9.84 -29.71 2.02
-9.85 -31.88 2.14
-9.86 -34.36 2.28
-9.70 -36.55 2.39
-9.03 -36.97 2.39
-8.33 -37.38 2.39
-6.09 -30.14 1.91
-6.35 -35.05 2.20
-6.19 -38.53 2.39
-5.68 -40.54 2.50
-4.89 -40.90 2.50
-4.10 -41.23 2.50
-3.29 -41.55 2.50
-2.47 -41.86 2.50
-1.64 -42.14 2.50
-0.80 -42.41 2.50
0.05 -30.76 2.50
0.67 -30.88 2.50
1.29 -30.98 2.50
1.92 -31.07 2.50
2.45 -29.86 2.39
3.06 -29.92 2.39
3.67 -29.96 2.39
2.71 -18.96 1.51
4.90 -30.01 2.39
5.52 -30.01 2.39
6.24 -30.49 2.43
6.08 -26.95 2.15
6.12 -24.77 1.98
6.04 -22.52 1.80
6.03 -20.80 1.67
6.15 -19.73 1.59
12.18 -18.48 1.65
12.01 -17.45 1.58
11.54 -16.07 1.47
11.46 -15.30 1.42
11.33 -14.51 1.36
10.07 -12.37 1.18
10.09 -11.91 1.15
10.32 -11.70 1.15
10.65 -11.59 1.16
11.19 -11.71 1.20
11.21 -11.26 1.17
11.22 -10.83 1.15
11.21 -10.39 1.13
11.22 -9.99 1.11
11.25 -9.62 1.09
11.28 -9.26 1.08
11.31 -8.91 1.06
11.33 -8.56 1.05
11.33 -8.22 1.03
11.38 -7.91 1.02
11.43 -7.61 1.02
11.48 -7.31 1.01
11.52 -7.02 1.00
11.57 -6.74 0.99
11.62 -6.45 0.99
11.66 -6.18 0.98
11.68 -5.89 0.97
11.69 -5.60 0.97
11.70 -5.33 0.96
11.72 -5.05 0.96
11.83 -4.82 0.96
11.95 -4.59 0.96
12.06 -4.36 0.97
12.17 -4.13 0.97
12.19 -3.86 0.97
12.20 -3.60 0.97
12.45 -3.40 0.98
12.83 -3.23 1.01
12.97 -2.99 1.02
13.11 -2.75 1.03
13.25 -2.50 1.04
13.29 -2.23 1.04
13.33 -1.97 1.04
13.37 -1.70 1.05
13.18 -1.41 1.03
13.13 -1.14 1.03
13.18 -0.88 1.04
13.08 -0.61 1.03
13.19 -0.35 1.04
13.74 -0.08 1.09
14.16 0.20 1.13
14.16 0.48 1.13
14.38 0.78 1.16
14.26 1.06 1.15
14.15 1.33 1.15
15.36 1.76 1.26
15.12 2.04 1.24
15.15 2.35 1.26
15.54 2.74 1.30
15.54 3.06 1.31
15.67 3.41 1.33
16.63 3.97 1.42
16.70 4.34 1.44
16.87 4.75 1.47
16.97 5.15 1.50
17.03 5.54 1.52
17.57 6.11 1.59
17.71 6.56 1.62
17.85 7.02 1.65
17.92 7.47 1.68
17.97 7.91 1.70
18.19 8.45 1.75
18.32 8.96 1.79
18.33 9.42 1.81
18.33 9.90 1.84
18.34 10.38 1.87
19.67 11.66 2.04
19.72 12.23 2.08
20.01 12.98 2.15
20.48 13.87 2.24
20.56 14.53 2.29
22.44 16.55 2.55
23.93 18.40 2.78
23.80 19.07 2.82
24.31 20.30 2.94
23.98 20.85 2.96
23.65 21.41 2.99
23.30 21.96 3.01
22.83 22.40 3.03
22.27 22.75 3.03
21.71 23.08 3.03
21.14 23.40 3.03
20.57 23.71 3.03
20.00 24.01 3.03
19.42 24.29 3.03
18.85 24.57 3.03
18.27 24.83 3.03
17.68 25.07 3.03
17.10 25.31 3.03
16.51 25.53 3.03
13.96 22.57 2.65
15.34 25.95 3.03
14.75 26.13 3.03
10.77 20.00 2.30
6.39 12.46 1.42
6.17 12.65 1.44
12.39 26.77 3.03
11.80 26.90 3.03
11.22 27.02 3.03
10.63 27.13 3.03
6.27 17.02 1.89
5.84 16.87 1.87
5.47 16.90 1.87
5.38 17.83 1.96
4.99 17.81 1.96
4.69 18.16 1.99
4.47 18.85 2.07
4.15 19.23 2.11
3.93 20.14 2.21
3.81 21.85 2.39
3.35 21.85 2.39
2.90 21.84 2.39
2.46 21.82 2.39
2.10 22.73 2.50
1.64 22.69 2.50
1.18 22.65 2.50
0.72 22.60 2.50
0.26 22.54 2.50
-0.19 22.47 2.50
-0.64 22.39 2.50
-1.09 22.31 2.50
-1.53 22.22 2.50
-1.97 22.13 2.50
-2.41 22.02 2.50
-2.84 21.91 2.50
-3.28 21.79 2.50
-3.70 21.67 2.50
-4.13 21.54 2.50
-4.55 21.40 2.50
-4.97 21.26 2.50
-5.38 21.10 2.50
-5.64 20.37 2.43
-5.95 19.92 2.39
-6.33 19.76 2.39
-6.71 19.59 2.39
-7.09 19.42 2.39
-7.47 19.23 2.39
-7.84 19.05 2.39
-8.21 18.86 2.39
-8.57 18.66 2.39
-8.93 18.45 2.39
-9.29 18.24 2.39
-9.64 18.03 2.39
-10.11 18.02 2.42
-10.34 17.59 2.39
-10.57 17.17 2.37
-10.78 16.76 2.34
-10.99 16.36 2.32
-11.21 15.97 2.30
-11.43 15.61 2.28
-11.51 15.07 2.24
-11.57 14.54 2.19
-11.66 14.06 2.16
-11.72 13.56 2.12
-11.77 13.09 2.08
-11.83 12.63 2.05
-12.01 12.32 2.04
-12.09 11.91 2.01
-12.15 11.50 1.98
-12.21 11.09 1.95
-12.26 10.70 1.93
-12.31 10.32 1.90
-12.38 9.95 1.88
-12.45 9.60 1.86
-12.51 9.26 1.84
-12.57 8.92 1.82
-12.63 8.58 1.80
-12.69 8.25 1.79
-12.73 7.92 1.77
-12.77 7.59 1.75
-12.90 7.32 1.75
-13.09 7.09 1.75
-13.27 6.84 1.76
-13.46 6.60 1.76
-13.58 6.33 1.76
-13.64 6.02 1.75
-13.71 5.72 1.74
-13.77 5.43 1.73
-13.83 5.13 1.72
-6.01 2.09 0.74
-13.96 4.55 1.71
-14.21 4.32 1.73
-14.39 4.06 1.74
-14.41 3.75 1.73
-14.42 3.45 1.72
-14.44 3.15 1.71
-14.37 2.83 1.69
-14.24 2.51 1.66
-14.12 2.19 1.64
-14.07 1.90 1.63
-14.03 1.61 1.61
-13.99 1.32 1.60
-13.96 1.03 1.59
-13.92 0.75 1.58
-13.89 0.47 1.57
-13.84 0.19 1.56
-13.71 -0.09 1.54
-13.53 -0.36 1.52
-13.35 -0.63 1.50
-13.18 -0.88 1.47
-13.01 -1.14 1.45
-12.85 -1.38 1.43
-12.69 -1.62 1.42
-12.53 -1.86 1.40
-12.47 -2.11 1.39
-12.46 -2.37 1.39
-12.46 -2.63 1.39
-12.45 -2.89 1.39
-12.44 -3.15 1.39
-12.41 -3.41 1.39
-12.37 -3.67 1.39
-12.34 -3.93 1.39
-12.33 -4.20 1.39
-12.32 -4.47 1.40
-12.31 -4.75 1.40
-12.31 -5.04 1.41
-12.30 -5.33 1.41
-12.29 -5.62 1.42
-12.29 -5.92 1.43
-12.27 -6.22 1.43
-12.25 -6.52 1.44
-12.23 -6.82 1.45
-12.20 -7.14 1.45
-12.18 -7.46 1.46
-12.21 -7.81 1.48
-12.23 -8.18 1.49
-12.24 -8.54 1.51
-12.25 -8.92 1.53
-12.26 -9.31 1.54
-12.28 -9.72 1.56
-12.30 -10.15 1.58
-12.31 -10.57 1.61
-12.31 -11.01 1.63
-12.33 -11.48 1.65
-12.45 -12.08 1.69
-12.43 -12.55 1.72
-12.40 -13.03 1.74
-12.48 -13.65 1.78
-12.64 -14.40 1.84
-12.59 -14.93 1.86
-12.63 -15.60 1.91
-12.71 -16.36 1.96
-12.63 -16.96 1.99
-12.55 -17.57 2.02
-12.47 -18.22 2.06
-12.37 -18.88 2.09
-12.26 -19.56 2.13
-12.20 -20.36 2.18
-12.06 -21.07 2.22
-11.91 -21.81 2.26
-11.79 -22.67 2.31
-11.55 -23.33 2.34
-11.21 -23.85 2.36
-10.87 -24.38 2.38
-10.52 -24.93 2.40
-10.16 -25.49 2.42
-9.57 -25.47 2.39
-9.10 -25.78 2.39
-8.62 -26.08 2.39
-8.13 -26.37 2.39
-7.64 -26.65 2.39
-7.13 -26.92 2.39
-6.62 -27.18 2.39
-6.12 -27.50 2.40
-5.82 -28.87 2.50
-5.26 -29.12 2.50
-4.70 -29.35 2.50
-4.13 -29.57 2.50
-3.55 -29.77 2.50
-2.97 -29.97 2.50
-2.38 -30.15 2.50
-1.78 -30.33 2.50
-1.17 -30.48 2.50
-0.57 -30.63 2.50
0.05 -24.03 2.50
0.53 -24.10 2.50
1.02 -24.16 2.50
1.50 -24.21 2.50
2.00 -24.25 2.50
2.39 -23.28 2.39
2.86 -23.29 2.39
2.71 -18.96 1.95
3.81 -23.29 2.39
4.29 -23.27 2.39
4.77 -23.24 2.39
5.25 -23.20 2.39
5.72 -23.15 2.39
6.04 -22.50 2.33
6.03 -20.78 2.16
6.03 -19.33 2.02
6.05 -18.10 1.90
6.06 -17.00 1.79
6.08 -16.03 1.70
6.09 -15.14 1.61
6.32 -14.84 1.59
16.52 -31.52 3.48
16.11 -29.29 3.27
15.85 -27.51 3.10
16.24 -26.92 3.06
11.50 -18.23 2.10
11.55 -17.51 2.04
11.26 -16.36 1.93
11.17 -15.55 1.86
11.10 -14.82 1.79
11.01 -14.10 1.73
10.99 -13.51 1.68
10.01 -11.81 1.50
10.23 -11.59 1.49
10.64 -11.58 1.52
10.97 -11.47 1.53
10.99 -11.04 1.50
11.00 -10.62 1.47
11.00 -10.20 1.45
11.03 -9.83 1.42
11.07 -9.47 1.40
11.10 -9.12 1.39
11.13 -8.77 1.37
11.16 -8.44 1.35
11.18 -8.10 1.33
11.23 -7.80 1.32
11.28 -7.51 1.31
11.32 -7.22 1.30
11.37 -6.93 1.29
11.42 -6.65 1.28
11.47 -6.37 1.27
11.50 -6.10 1.26
11.52 -5.81 1.25
11.53 -5.53 1.24
11.55 -5.26 1.24
11.56 -4.99 1.23
11.65 -4.75 1.23
11.76 -4.52 1.23
11.87 -4.29 1.24
11.95 -4.05 1.24
11.97 -3.79 1.24
11.98 -3.54 1.23
12.02 -3.29 1.23
12.38 -3.12 1.26
12.75 -2.94 1.30
12.94 -2.72 1.31
13.08 -2.47 1.33
13.15 -2.21 1.33
13.19 -1.95 1.33
13.23 -1.69 1.34
13.28 -1.42 1.34
13.19 -1.15 1.34
13.23 -0.88 1.34
13.41 -0.63 1.36
13.66 -0.36 1.39
13.91 -0.09 1.42
13.92 0.19 1.42
13.92 0.47 1.43
13.92 0.75 1.44
14.03 1.04 1.45
13.99 1.31 1.46
14.15 1.62 1.48
15.39 2.07 1.62
15.39 2.39 1.63
15.39 2.70 1.64
15.39 3.02 1.65
15.39 3.34 1.66
15.87 3.78 1.73
16.22 4.21 1.78
16.25 4.57 1.80
16.37 4.96 1.83
16.52 5.37 1.87
16.68 5.79 1.91
16.75 6.19 1.93
16.86 6.62 1.97
16.97 7.06 2.01
17.09 7.52 2.05
17.19 7.97 2.08
17.41 8.50 2.14
17.66 9.07 2.20
17.75 9.57 2.24
17.75 10.04 2.28
17.76 10.52 2.31
17.77 11.01 2.35
18.69 12.11 2.51
19.12 12.94 2.62
19.39 13.70 2.70
19.55 14.41 2.77
19.47 14.96 2.82
19.39 15.52 2.86
20.11 16.77 3.03
19.69 17.10 3.03
19.27 17.43 3.03
18.84 17.74 3.03
18.41 18.05 3.03
17.98 18.34 3.03
17.54 18.63 3.03
11.51 12.73 2.04
11.16 12.85 2.03
10.93 13.10 2.04
10.67 13.33 2.05
10.58 13.77 2.09
10.50 14.26 2.14
14.37 20.36 3.03
13.91 20.57 3.03
13.45 20.77 3.03
12.98 20.96 3.03
11.85 20.03 2.87
11.37 20.12 2.86
6.17 11.45 1.61
5.71 11.13 1.56
6.13 12.55 1.75
6.20 13.38 1.85
5.82 13.25 1.82
6.21 14.95 2.04
5.86 14.94 2.03
5.26 14.24 1.93
4.99 14.41 1.94
5.54 17.09 2.30
5.27 17.45 2.34
4.97 17.71 2.37
4.64 17.94 2.39
4.27 17.97 2.39
3.89 18.00 2.39
3.52 18.02 2.39
3.15 18.03 2.39
2.78 18.04 2.39
2.41 18.08 2.40
2.13 18.81 2.50
1.74 18.80 2.50
1.36 18.78 2.50
0.98 18.75 2.50
0.60 18.72 2.50
0.22 18.68 2.50
-0.15 18.63 2.50
-0.52 18.58 2.50
-0.90 18.52 2.50
-1.26 18.46 2.50
-1.63 18.38 2.50
-2.00 18.31 2.50
-2.36 18.22 2.50
-2.72 18.13 2.50
-3.08 18.04 2.50
-3.43 17.93 2.50
-3.79 17.83 2.50
-4.14 17.71 2.50
-4.48 17.59 2.50
-4.83 17.47 2.50
-5.17 17.34 2.50
-5.51 17.20 2.50
-5.66 16.53 2.42
-5.92 16.21 2.39
-6.23 16.07 2.39
-6.55 15.91 2.39
-6.86 15.76 2.39
-7.16 15.60 2.39
-7.47 15.43 2.39
-7.77 15.26 2.39
-8.06 15.08 2.39
-8.35 14.90 2.39
-8.64 14.71 2.39
-8.93 14.52 2.39
-9.21 14.33 2.39
-9.49 14.13 2.39
-10.00 14.25 2.45
-10.18 13.91 2.43
-10.36 13.57 2.40
-10.53 13.24 2.38
-10.72 12.93 2.37
-10.91 12.63 2.35
-11.09 12.33 2.34
-11.27 12.03 2.33
-11.42 11.71 2.31
-11.51 11.34 2.28
-11.58 10.96 2.25
-11.64 10.58 2.22
-11.70 10.21 2.19
-11.78 9.87 2.17
-11.85 9.53 2.15
-11.92 9.19 2.13
-11.98 8.87 2.10
-12.05 8.54 2.08
-12.11 8.23 2.07
-12.16 7.91 2.04
-12.20 7.59 2.03
-12.24 7.28 2.01
-12.28 6.97 1.99
-12.46 6.74 1.99
-12.63 6.51 2.00
-12.80 6.28 2.00
-12.89 6.00 2.00
-12.93 5.71 1.98
-13.11 5.47 1.99
-13.38 5.27 2.01
-13.57 5.03 2.02
-6.01 2.09 0.89
-13.69 4.46 2.01
-13.85 4.20 2.01
-13.91 3.92 2.01
-13.93 3.62 2.00
-13.94 3.33 1.99
-13.96 3.04 1.98
-13.97 2.75 1.97
-13.94 2.45 1.95
-13.83 2.15 1.93
-13.79 1.86 1.91
-13.75 1.57 1.90
-13.72 1.29 1.89
-13.69 1.01 1.87
-13.65 0.73 1.86
-13.62 0.45 1.85
-13.58 0.18 1.84
-13.45 -0.09 1.82
-13.28 -0.36 1.79
-13.11 -0.62 1.77
-12.94 -0.87 1.74
-12.78 -1.12 1.72
-12.62 -1.36 1.70
-12.46 -1.60 1.68
-12.31 -1.83 1.66
-12.23 -2.07 1.65
-12.23 -2.33 1.65
-12.22 -2.58 1.65
-12.22 -2.84 1.65
-12.21 -3.10 1.65
-12.20 -3.36 1.66
-12.17 -3.61 1.66
-12.13 -3.87 1.66
-12.11 -4.13 1.66
-12.10 -4.40 1.67
-12.10 -4.68 1.67
-12.09 -4.95 1.68
-12.08 -5.24 1.69
-12.07 -5.52 1.70
-12.06 -5.81 1.71
-12.04 -6.11 1.71
-12.02 -6.40 1.72
-12.00 -6.70 1.73
-11.98 -7.01 1.74
-11.95 -7.32 1.76
-11.92 -7.64 1.77
-11.93 -7.99 1.79
-11.94 -8.35 1.81
-11.95 -8.71 1.83
-11.95 -9.09 1.85
-11.95 -9.47 1.87
-11.96 -9.88 1.90
-11.97 -10.30 1.92
-11.97 -10.72 1.95
-11.96 -11.16 1.98
-11.96 -11.61 2.01
-12.02 -12.15 2.05
-11.98 -12.61 2.08
-11.94 -13.08 2.11
-11.90 -13.57 2.14
-11.95 -14.20 2.19
-11.89 -14.71 2.23
-11.83 -15.25 2.26
-11.76 -15.80 2.30
-11.69 -16.39 2.34
-11.53 -16.88 2.37
-11.31 -17.28 2.38
-11.07 -17.68 2.40
-10.83 -18.09 2.42
-10.58 -18.51 2.43
-10.32 -18.93 2.45
-9.74 -18.75 2.39
-9.40 -19.01 2.39
-9.05 -19.27 2.39
-8.69 -19.52 2.39
-8.33 -19.77 2.39
-7.97 -20.01 2.39
-7.59 -20.24 2.39
-7.21 -20.46 2.39
-6.83 -20.68 2.39
-6.43 -20.89 2.39
-6.04 -21.10 2.39
-5.87 -22.21 2.50
-5.45 -22.40 2.50
-5.02 -22.59 2.50
-4.58 -22.77 2.50
-4.14 -22.94 2.50
-3.69 -23.10 2.50
-3.24 -23.25 2.50
-2.78 -23.39 2.50
-2.32 -23.52 2.50
-1.85 -23.65 2.50
-1.38 -23.76 2.50
-0.91 -23.86 2.50
-0.43 -23.95 2.50
0.05 -19.70 2.50
0.44 -19.75 2.50
0.84 -19.79 2.50
1.24 -19.82 2.50
1.64 -19.84 2.50
2.04 -19.85 2.50
2.34 -19.03 2.39
2.72 -18.96 2.38
3.12 -19.01 2.39
3.51 -18.99 2.39
3.89 -18.96 2.39
4.28 -18.91 2.39
4.67 -18.86 2.39
5.06 -18.80 2.39
5.44 -18.74 2.39
5.83 -18.66 2.39
6.05 -18.09 2.33
6.06 -16.98 2.20
6.08 -16.02 2.09
6.09 -15.13 1.98
6.09 -14.30 1.89
6.10 -13.55 1.80
6.10 -12.86 1.72
6.10 -12.23 1.65
6.21 -11.85 1.61
6.49 -11.79 1.62
6.75 -11.72 1.63
7.03 -11.64 1.63
7.30 -11.57 1.64
7.60 -11.53 1.66
7.26 -10.54 1.53
7.52 -10.47 1.54
7.68 -10.26 1.53
7.86 -10.07 1.53
8.04 -9.88 1.52
7.88 -9.29 1.45
7.58 -8.59 1.37
7.73 -8.41 1.36
8.06 -8.43 1.39
10.77 -10.82 1.82
10.79 -10.42 1.79
10.82 -10.03 1.76
10.86 -9.67 1.73
10.89 -9.32 1.71
10.93 -8.97 1.69
10.96 -8.64 1.66
10.99 -8.31 1.64
11.03 -8.00 1.63
11.08 -7.70 1.61
11.13 -7.41 1.60
11.18 -7.12 1.58
11.22 -6.84 1.57
11.27 -6.57 1.56
11.32 -6.29 1.55
11.35 -6.02 1.54
11.37 -5.74 1.53
11.38 -5.46 1.52
11.40 -5.19 1.51
11.41 -4.92 1.50
11.46 -4.68 1.49
11.57 -4.45 1.50
11.68 -4.23 1.50
11.74 -3.99 1.50
11.76 -3.73 1.49
11.77 -3.48 1.49
11.79 -3.23 1.49
11.96 -3.02 1.50
12.30 -2.84 1.54
12.66 -2.66 1.58
12.91 -2.44 1.61
13.02 -2.19 1.62
13.06 -1.93 1.62
13.10 -1.67 1.63
13.14 -1.41 1.63
13.18 -1.15 1.64
13.23 -0.89 1.64
13.27 -0.62 1.65
13.43 -0.36 1.67
13.67 -0.09 1.71
13.69 0.18 1.71
13.69 0.45 1.72
13.69 0.73 1.72
13.69 1.00 1.73
14.13 1.32 1.79
14.15 1.61 1.81
15.24 2.04 1.95
15.24 2.36 1.97
15.24 2.67 1.98
15.24 2.99 1.99
15.24 3.30 2.00
15.24 3.62 2.02
15.78 4.09 2.11
15.81 4.44 2.13
15.84 4.79 2.15
15.89 5.15 2.18
16.03 5.56 2.22
16.18 5.97 2.26
16.16 6.34 2.28
16.13 6.70 2.31
16.17 7.10 2.34
16.27 7.54 2.38
16.37 7.99 2.43
16.33 8.38 2.45
16.45 8.86 2.51
17.13 9.67 2.65
17.19 10.17 2.70
17.19 10.64 2.74
17.20 11.13 2.78
17.20 11.62 2.83
17.38 12.26 2.91
17.27 12.71 2.94
17.16 13.17 2.98
17.04 13.63 3.01
9.64 8.04 1.74
9.41 8.16 1.73
9.25 8.36 1.74
9.10 8.56 1.75
8.90 8.72 1.75
8.77 8.94 1.76
8.89 9.43 1.83
8.73 9.64 1.84
11.14 12.81 2.41
10.93 13.09 2.43
10.69 13.34 2.44
10.44 13.58 2.46
10.18 13.81 2.47
7.06 9.99 1.76
6.84 10.11 1.77
6.77 10.44 1.81
10.95 17.65 3.03
6.44 10.87 1.85
6.05 10.69 1.80
5.72 10.60 1.77
5.52 10.74 1.78
5.32 10.88 1.79
5.24 11.29 1.85
5.75 13.08 2.12
5.93 14.24 2.30
5.63 14.34 2.30
5.22 14.12 2.26
4.97 14.32 2.28
4.90 15.08 2.39
4.58 15.14 2.39
4.26 15.19 2.39
3.95 15.23 2.39
3.63 15.26 2.39
3.32 15.29 2.39
3.00 15.32 2.39
2.68 15.34 2.39
2.39 15.49 2.41
2.14 16.02 2.50
1.82 16.02 2.50
1.49 16.01 2.50
1.17 16.00 2.50
0.84 15.99 2.50
0.52 15.96 2.50
0.20 15.94 2.50
-0.12 15.90 2.50
-0.44 15.86 2.50
-0.76 15.82 2.50
-1.08 15.77 2.50
-1.39 15.71 2.50
-1.70 15.65 2.50
-2.01 15.58 2.50
-2.32 15.51 2.50
-2.63 15.43 2.50
-2.93 15.35 2.50
-3.24 15.26 2.50
-3.54 15.17 2.50
-3.84 15.07 2.50
-4.13 14.97 2.50
-4.42 14.86 2.50
-4.72 14.74 2.50
-5.01 14.63 2.50
-5.29 14.50 2.50
-5.57 14.37 2.50
-5.68 13.81 2.42
-5.88 13.52 2.39
-6.14 13.39 2.39
-6.41 13.24 2.39
-6.66 13.10 2.39
-6.92 12.95 2.39
-7.17 12.80 2.39
-7.42 12.64 2.39
-7.67 12.47 2.39
-7.91 12.31 2.39
-8.15 12.14 2.39
-8.39 11.96 2.39
-8.62 11.78 2.39
-8.85 11.60 2.39
-9.08 11.42 2.39
-9.31 11.23 2.39
-9.53 11.03 2.39
-9.99 11.10 2.45
-10.15 10.84 2.44
-10.30 10.56 2.42
-10.44 10.28 2.41
-10.58 10.01 2.39
-10.73 9.75 2.38
-10.87 9.49 2.37
-11.04 9.25 2.37
-11.20 9.00 2.36
-11.35 8.76 2.36
-11.50 8.51 2.35
-11.56 8.20 2.33
-11.61 7.89 2.30
-11.66 7.58 2.28
-11.71 7.28 2.26
-11.75 6.98 2.24
-11.79 6.69 2.22
-11.88 6.43 2.21
-12.04 6.20 2.22
-12.10 5.93 2.20
-12.14 5.65 2.19
-12.18 5.37 2.17
-12.22 5.10 2.16
-12.30 4.84 2.15
-12.54 4.65 2.18
-6.01 2.09 1.04
-13.04 4.24 2.23
-13.20 4.00 2.24
-13.28 3.74 2.23
-13.33 3.46 2.23
-13.38 3.19 2.22
-13.42 2.92 2.22
-13.46 2.64 2.21
-13.50 2.37 2.21
-13.54 2.10 2.20
-13.45 1.81 2.18
-13.37 1.52 2.15
-13.28 1.24 2.13
-13.20 0.97 2.11
-13.12 0.70 2.09
-13.03 0.43 2.07
-12.95 0.17 2.06
-12.91 -0.10 2.05
-12.89 -0.35 2.04
-12.87 -0.61 2.03
-12.71 -0.86 2.01
-12.55 -1.11 1.98
-12.40 -1.34 1.96
-12.25 -1.58 1.93
-12.10 -1.81 1.91
-12.01 -2.04 1.90
-12.00 -2.29 1.90
-11.99 -2.54 1.90
-11.99 -2.79 1.90
-11.98 -3.04 1.91
-11.97 -3.30 1.91
-11.96 -3.56 1.92
-11.93 -3.81 1.92
-11.90 -4.07 1.92
-11.89 -4.33 1.93
-11.88 -4.60 1.94
-11.87 -4.87 1.95
-11.86 -5.15 1.95
-11.85 -5.43 1.96
-11.84 -5.71 1.98
-11.83 -6.00 1.99
-11.80 -6.29 2.00
-11.78 -6.59 2.01
-11.75 -6.89 2.02
-11.73 -7.19 2.04
-11.70 -7.50 2.05
-11.67 -7.82 2.07
-11.66 -8.16 2.09
-11.66 -8.51 2.11
-11.66 -8.87 2.14
-11.66 -9.25 2.17
-11.65 -9.63 2.19
-11.65 -10.03 2.22
-11.64 -10.44 2.26
-11.64 -10.86 2.29
-11.63 -11.30 2.32
-11.61 -11.75 2.36
-11.53 -12.14 2.38
-11.36 -12.45 2.39
-11.19 -12.77 2.40
-11.01 -13.09 2.41
-10.83 -13.41 2.42
-10.64 -13.73 2.43
-10.44 -14.05 2.44
-10.23 -14.36 2.46
-9.72 -14.24 2.39
-9.46 -14.48 2.39
-9.20 -14.71 2.39
-8.93 -14.94 2.39
-8.66 -15.17 2.39
-8.38 -15.39 2.39
-8.10 -15.60 2.39
-7.81 -15.81 2.39
-7.51 -16.02 2.39
-7.21 -16.21 2.39
-6.91 -16.41 2.39
-6.60 -16.60 2.39
-6.28 -16.78 2.39
-5.97 -16.95 2.39
-5.87 -17.81 2.49
-5.54 -18.03 2.50
-5.20 -18.20 2.50
-4.85 -18.35 2.50
-4.49 -18.50 2.50
-4.13 -18.64 2.50
-3.77 -18.78 2.50
-3.40 -18.91 2.50
-3.03 -19.03 2.50
-2.66 -19.14 2.50
-2.28 -19.25 2.50
-1.90 -19.34 2.50
-1.51 -19.43 2.50
-1.13 -19.51 2.50
-0.74 -19.58 2.50
-0.35 -19.65 2.50
0.05 -16.68 2.50
0.38 -16.71 2.50
0.72 -16.74 2.50
1.05 -16.76 2.50
1.39 -16.77 2.50
1.73 -16.77 2.50
2.07 -16.77 2.50
2.31 -16.06 2.39
2.64 -16.05 2.39
2.96 -16.02 2.39
3.29 -15.99 2.39
3.62 -15.95 2.39
3.94 -15.90 2.39
4.27 -15.85 2.39
4.59 -15.78 2.39
4.91 -15.71 2.39
5.23 -15.64 2.39
5.55 -15.55 2.39
5.87 -15.46 2.39
6.09 -15.12 2.35
6.09 -14.29 2.24
6.10 -13.54 2.14
6.10 -12.86 2.05
6.10 -12.23 1.96
6.15 -11.72 1.90
6.35 -11.54 1.89
6.62 -11.47 1.90
6.85 -11.34 1.90
6.58 -10.43 1.76
6.78 -10.28 1.76
7.00 -10.17 1.76
7.24 -10.07 1.77
6.79 -9.06 1.61
6.84 -8.75 1.58
6.97 -8.56 1.57
7.19 -8.48 1.58
7.49 -8.49 1.61
7.61 -8.28 1.60
7.85 -8.21 1.62
8.14 -8.18 1.64
8.70 -8.40 1.72
10.42 -9.66 2.02
10.54 -9.39 2.01
8.69 -7.44 1.63
8.89 -7.30 1.64
10.80 -8.51 1.95
10.83 -8.19 1.93
10.88 -7.89 1.91
10.93 -7.60 1.89
10.98 -7.31 1.88
11.03 -7.03 1.86
11.08 -6.76 1.85
11.13 -6.48 1.84
11.17 -6.21 1.82
11.20 -5.94 1.81
11.22 -5.66 1.80
11.23 -5.39 1.78
11.25 -5.13 1.77
11.27 -4.86 1.76
11.29 -4.61 1.75
11.39 -4.39 1.75
11.50 -4.16 1.76
11.53 -3.92 1.75
11.55 -3.67 1.75
11.57 -3.42 1.74
11.58 -3.17 1.74
11.60 -2.93 1.73
11.89 -2.75 1.77
12.23 -2.57 1.81
12.58 -2.38 1.86
12.88 -2.17 1.90
12.92 -1.92 1.91
12.97 -1.66 1.91
13.01 -1.40 1.92
13.05 -1.14 1.92
13.09 -0.88 1.93
13.13 -0.62 1.94
13.20 -0.36 1.95
13.44 -0.10 1.99
13.46 0.17 1.99
13.46 0.44 2.00
13.46 0.71 2.00
13.46 0.98 2.01
13.46 1.25 2.02
14.97 1.70 2.25
15.09 2.02 2.28
15.09 2.33 2.30
15.09 2.64 2.31
15.09 2.95 2.32
15.09 3.26 2.34
15.09 3.58 2.35
15.36 3.97 2.41
15.39 4.31 2.44
15.42 4.65 2.46
10.33 3.34 1.66
10.22 3.54 1.66
10.43 3.85 1.71
15.64 6.13 2.60
15.60 6.48 2.62
15.57 6.83 2.64
15.53 7.19 2.67
15.51 7.56 2.70
15.59 7.99 2.74
15.55 8.37 2.77
15.49 8.74 2.80
15.42 9.11 2.83
15.35 9.49 2.86
15.66 10.12 2.96
15.49 10.46 2.98
15.32 10.80 2.99
15.14 11.13 3.01
14.95 11.46 3.03
9.92 7.92 2.04
9.55 7.95 2.01
9.29 8.06 1.99
9.14 8.25 2.00
8.99 8.45 2.01
8.83 8.64 2.02
8.70 8.86 2.03
8.58 9.09 2.05
8.47 9.34 2.08
6.36 7.31 1.60
6.15 7.36 1.59
5.91 7.37 1.57
5.85 7.60 1.60
6.04 8.19 1.70
5.57 7.87 1.61
5.41 7.98 1.62
6.39 9.85 1.98
5.75 9.27 1.84
5.57 9.40 1.85
5.48 9.68 1.89
5.67 10.50 2.03
5.50 10.70 2.05
5.35 10.94 2.08
5.11 11.00 2.08
5.61 12.74 2.39
5.34 12.82 2.39
5.07 12.89 2.39
4.80 12.96 2.39
4.53 13.02 2.39
4.25 13.08 2.39
3.98 13.13 2.39
3.71 13.18 2.39
3.43 13.22 2.39
3.16 13.25 2.39
2.89 13.28 2.39
2.61 13.31 2.39
2.38 13.54 2.43
2.15 13.92 2.50
1.87 13.93 2.50
1.59 13.94 2.50
1.30 13.94 2.50
1.02 13.93 2.50
0.74 13.92 2.50
0.46 13.90 2.50
0.18 13.88 2.50
-0.10 13.86 2.50
-0.38 13.83 2.50
-0.66 13.79 2.50
-0.93 13.75 2.50
-1.21 13.71 2.50
-1.48 13.66 2.50
-1.75 13.60 2.50
-2.02 13.54 2.50
-2.29 13.48 2.50
-2.56 13.41 2.50
-2.82 13.33 2.50
-3.09 13.25 2.50
-3.35 13.17 2.50
-3.61 13.08 2.50
-3.86 12.99 2.50
-4.12 12.89 2.50
-4.37 12.79 2.50
-4.62 12.68 2.50
-4.87 12.57 2.50
-5.12 12.46 2.50
-5.36 12.34 2.50
-5.61 12.22 2.50
-5.69 11.77 2.43
-5.83 11.47 2.39
-6.06 11.34 2.39
-6.28 11.20 2.39
-6.50 11.07 2.39
-6.71 10.92 2.39
-6.93 10.78 2.39
-7.14 10.63 2.39
-7.35 10.48 2.39
-7.55 10.32 2.39
-7.76 10.16 2.39
-7.96 10.00 2.39
-8.15 9.84 2.39
-8.35 9.67 2.39
-8.54 9.49 2.39
-8.72 9.32 2.39
-8.91 9.14 2.39
-9.09 8.95 2.39
-9.27 8.77 2.39
-9.44 8.58 2.39
-9.61 8.39 2.39
-10.09 8.45 2.47
-10.23 8.23 2.46
-10.36 7.99 2.45
-10.49 7.76 2.44
-10.60 7.52 2.44
-10.72 7.28 2.43
-10.83 7.04 2.42
-10.93 6.80 2.41
-11.03 6.55 2.40
-11.13 6.31 2.39
-11.23 6.07 2.39
-11.31 5.83 2.38
-11.38 5.58 2.37
-11.45 5.32 2.36
-11.51 5.07 2.34
-11.55 4.82 2.33
-11.59 4.56 2.32
-11.62 4.31 2.30
-6.01 2.09 1.18
-11.87 3.86 2.32
-11.97 3.63 2.32
-12.06 3.39 2.32
-12.14 3.15 2.32
-12.23 2.91 2.32
-12.28 2.67 2.32
-12.32 2.42 2.31
-12.35 2.17 2.31
-12.43 1.92 2.31
-12.52 1.68 2.32
-12.61 1.43 2.33
-12.66 1.18 2.33
-12.58 0.92 2.31
-12.51 0.66 2.29
-12.43 0.40 2.27
-12.36 0.15 2.25
-12.32 -0.10 2.24
-12.30 -0.34 2.23
-12.28 -0.59 2.23
-12.26 -0.84 2.22
-12.24 -1.08 2.21
-12.19 -1.33 2.21
-12.04 -1.56 2.18
-11.89 -1.78 2.16
-11.79 -2.01 2.14
-11.78 -2.25 2.14
-11.77 -2.50 2.14
-11.76 -2.74 2.15
-11.75 -2.99 2.15
-11.75 -3.24 2.16
-11.74 -3.49 2.16
-11.72 -3.75 2.17
-11.70 -4.00 2.17
-11.69 -4.26 2.18
-11.68 -4.53 2.19
-11.67 -4.79 2.20
-11.65 -5.07 2.21
-11.64 -5.34 2.23
-11.63 -5.62 2.24
-11.61 -5.90 2.25
-11.59 -6.19 2.27
-11.52 -6.45 2.27
-11.43 -6.71 2.28
-11.33 -6.96 2.28
-11.23 -7.21 2.28
-11.13 -7.47 2.28
-11.03 -7.72 2.29
-10.92 -7.98 2.29
-10.84 -8.26 2.30
-10.77 -8.55 2.32
-10.69 -8.85 2.33
-10.64 -9.17 2.36
-10.60 -9.52 2.38
-10.56 -9.87 2.41
-10.48 -10.20 2.43
-10.36 -10.49 2.45
-10.23 -10.78 2.46
-9.77 -10.72 2.39
-9.58 -10.94 2.39
-9.38 -11.16 2.39
-9.18 -11.38 2.39
-8.98 -11.60 2.39
-8.77 -11.81 2.39
-8.55 -12.01 2.39
-8.33 -12.22 2.39
-8.11 -12.42 2.39
-7.88 -12.61 2.39
-7.64 -12.80 2.39
-7.41 -12.99 2.39
-7.17 -13.17 2.39
-6.92 -13.35 2.39
-6.67 -13.52 2.39
-6.41 -13.69 2.39
-6.15 -13.85 2.39
-5.89 -14.01 2.39
-5.85 -14.73 2.49
-5.59 -14.93 2.50
-5.30 -15.08 2.50
-5.01 -15.23 2.50
-4.72 -15.36 2.50
-4.42 -15.50 2.50
-4.12 -15.62 2.50
-3.81 -15.74 2.50
-3.51 -15.86 2.50
-3.20 -15.97 2.50
-2.88 -16.07 2.50
-2.57 -16.16 2.50
-2.25 -16.25 2.50
-1.93 -16.33 2.50
-1.60 -16.41 2.50
-1.28 -16.48 2.50
-0.95 -16.54 2.50
-0.62 -16.59 2.50
-0.29 -16.64 2.50
0.04 -14.45 2.50
0.33 -14.47 2.50
0.63 -14.49 2.50
0.92 -14.50 2.50
1.21 -14.51 2.50
1.50 -14.51 2.50
1.80 -14.50 2.50
2.09 -14.49 2.50
2.28 -13.87 2.39
2.57 -13.84 2.39
2.85 -13.81 2.39
3.13 -13.77 2.39
3.41 -13.73 2.39
3.69 -13.68 2.39
3.97 -13.62 2.39
4.24 -13.56 2.39
4.52 -13.49 2.39
4.79 -13.42 2.39
5.07 -13.33 2.39
5.34 -13.25 2.39
5.61 -13.15 2.39
5.88 -13.05 2.39
6.10 -12.85 2.37
5.86 -11.74 2.19
6.00 -11.43 2.15
6.22 -11.30 2.15
6.44 -11.16 2.14
6.41 -10.61 2.06
6.42 -10.17 2.00
6.42 -9.73 1.93
6.52 -9.47 1.91
6.57 -9.14 1.86
6.67 -8.89 1.84
6.74 -8.63 1.81
6.88 -8.46 1.80
7.08 -8.35 1.81
7.37 -8.35 1.84
7.53 -8.20 1.84
7.56 -7.90 1.81
7.74 -7.77 1.81
8.12 -7.83 1.86
6.64 -6.16 1.50
6.66 -5.93 1.47
6.92 -5.92 1.50
7.14 -5.87 1.53
8.97 -7.07 1.89
9.51 -7.19 1.97
10.63 -7.71 2.17
10.79 -7.50 2.17
10.84 -7.22 2.15
10.89 -6.94 2.14
10.94 -6.67 2.12
10.99 -6.40 2.11
11.03 -6.14 2.09
11.05 -5.86 2.07
11.07 -5.59 2.06
11.09 -5.32 2.04
11.11 -5.06 2.03
7.54 -3.25 1.37
7.63 -3.11 1.37
7.81 -3.01 1.40
11.32 -4.10 2.01
11.33 -3.85 2.00
11.35 -3.61 1.99
8.91 -2.64 1.55
8.98 -2.46 1.56
8.94 -2.26 1.55
8.96 -2.08 1.54
8.98 -1.89 1.54
9.01 -1.71 1.54
9.11 -1.54 1.56
12.57 -1.87 2.15
12.84 -1.65 2.19
12.88 -1.39 2.19
12.92 -1.13 2.20
12.96 -0.88 2.21
13.00 -0.62 2.22
13.04 -0.36 2.23
13.21 -0.10 2.26
13.24 0.17 2.27
13.24 0.43 2.27
13.24 0.70 2.28
13.24 0.96 2.28
13.23 1.23 2.29
13.23 1.50 2.30
14.95 1.99 2.61
14.95 2.30 2.62
14.95 2.61 2.64
14.94 2.92 2.65
14.94 3.23 2.67
14.94 3.54 2.69
14.94 3.86 2.70
15.00 4.19 2.74
15.02 4.53 2.76
10.20 3.30 1.89
10.02 3.46 1.87
10.08 3.71 1.90
15.10 5.91 2.88
15.11 6.26 2.91
15.07 6.60 2.94
6.46 2.99 1.27
6.33 3.08 1.26
6.33 3.24 1.28
6.38 3.43 1.30
6.23 3.51 1.29
6.19 3.65 1.30
6.17 3.81 1.32
13.97 9.02 3.03
13.75 9.27 3.03
13.53 9.52 3.03
13.30 9.77 3.03
7.90 6.05 1.83
7.70 6.15 1.82
9.55 7.94 2.29
9.31 8.07 2.28
9.17 8.27 2.29
9.05 8.50 2.31
8.91 8.71 2.32
6.41 6.52 1.71
6.23 6.60 1.70
6.59 7.27 1.84
6.28 7.21 1.80
6.07 7.25 1.79
5.85 7.29 1.77
5.67 7.36 1.76
5.51 7.46 1.76
5.38 7.60 1.77
5.28 7.77 1.80
5.32 8.18 1.87
5.56 8.94 2.02
5.39 9.08 2.03
5.23 9.23 2.05
5.13 9.48 2.08
5.48 10.63 2.32
5.36 10.95 2.37
5.13 11.02 2.37
4.95 11.22 2.39
4.71 11.29 2.39
4.47 11.36 2.39
4.24 11.42 2.39
4.00 11.48 2.39
3.76 11.53 2.39
3.52 11.58 2.39
3.28 11.62 2.39
3.04 11.66 2.39
2.79 11.70 2.39
2.57 11.81 2.41
2.36 12.01 2.44
2.16 12.28 2.50
1.91 12.30 2.50
1.66 12.31 2.50
1.41 12.32 2.50
1.16 12.32 2.50
0.91 12.32 2.50
0.66 12.31 2.50
0.41 12.30 2.50
0.16 12.29 2.50
-0.09 12.27 2.50
-0.33 12.24 2.50
-0.58 12.21 2.50
-0.82 12.18 2.50
-1.07 12.14 2.50
-1.31 12.10 2.50
-1.55 12.05 2.50
-1.79 12.00 2.50
-2.03 11.95 2.50
-2.26 11.89 2.50
-2.50 11.82 2.50
-2.73 11.76 2.50
-2.97 11.68 2.50
-3.20 11.61 2.50
-3.43 11.53 2.50
-3.65 11.44 2.50
-3.88 11.35 2.50
-4.10 11.26 2.50
-4.32 11.16 2.50
-4.54 11.06 2.50
-4.76 10.96 2.50
-4.98 10.85 2.50
-5.19 10.74 2.50
-5.40 10.62 2.50
-5.61 10.50 2.50
-5.69 10.17 2.44
-5.77 9.83 2.39
-5.96 9.71 2.39
-6.15 9.58 2.39
-6.34 9.45 2.39
-6.53 9.31 2.39
-6.71 9.18 2.39
-6.89 9.03 2.39
-7.07 8.89 2.39
-7.25 8.74 2.39
-7.42 8.59 2.39
-7.59 8.44 2.39
-7.75 8.28 2.39
-7.92 8.12 2.39
-8.08 7.96 2.39
-8.24 7.80 2.39
-8.39 7.63 2.39
-8.55 7.46 2.39
-8.69 7.28 2.39
-8.84 7.11 2.39
-8.98 6.93 2.39
-9.12 6.75 2.39
-9.26 6.56 2.39
-9.39 6.38 2.39
-9.52 6.19 2.39
-9.65 6.00 2.39
-10.13 6.01 2.48
-10.22 5.80 2.47
-10.32 5.58 2.47
-10.41 5.36 2.46
-10.49 5.14 2.45
-10.56 4.91 2.44
-10.62 4.68 2.43
-10.68 4.45 2.43
-10.73 4.22 2.42
-10.80 4.00 2.41
-6.01 2.09 1.33
-10.95 3.56 2.41
-11.02 3.34 2.40
-11.09 3.12 2.40
-11.16 2.89 2.40
-11.22 2.67 2.40
-11.28 2.45 2.40
-11.34 2.22 2.40
-11.40 1.99 2.40
-11.48 1.77 2.41
-11.56 1.55 2.41
-11.64 1.32 2.42
-11.71 1.09 2.43
-11.78 0.86 2.44
-11.85 0.62 2.44
-11.88 0.38 2.44
-11.81 0.14 2.42
-11.78 -0.09 2.41
-11.76 -0.33 2.41
-11.74 -0.57 2.40
-11.72 -0.80 2.40
-11.70 -1.04 2.39
-11.68 -1.27 2.39
-11.65 -1.51 2.38
-11.62 -1.74 2.38
-11.57 -1.98 2.37
-11.56 -2.21 2.38
-11.55 -2.45 2.38
-11.52 -2.69 2.38
-11.48 -2.93 2.38
-11.44 -3.16 2.38
-11.40 -3.40 2.38
-11.36 -3.64 2.38
-11.31 -3.87 2.38
-11.26 -4.11 2.38
-11.20 -4.35 2.38
-11.15 -4.59 2.39
-11.09 -4.83 2.39
-11.03 -5.07 2.39
-10.97 -5.31 2.40
-10.90 -5.55 2.40
-10.83 -5.79 2.41
-10.76 -6.03 2.41
-10.69 -6.28 2.42
-10.62 -6.53 2.43
-10.55 -6.78 2.43
-10.47 -7.03 2.44
-10.38 -7.28 2.45
-10.28 -7.52 2.45
-10.17 -7.76 2.46
-9.76 -7.76 2.39
-9.63 -7.97 2.39
-9.49 -8.18 2.39
-9.34 -8.39 2.39
-9.19 -8.60 2.39
-9.04 -8.80 2.39
-8.88 -9.01 2.39
-8.72 -9.20 2.39
-8.56 -9.40 2.39
-8.39 -9.59 2.39
-8.21 -9.78 2.39
-8.04 -9.97 2.39
-7.85 -10.16 2.39
-7.67 -10.34 2.39
-7.48 -10.51 2.39
-7.28 -10.69 2.39
-7.08 -10.86 2.39
-6.88 -11.03 2.39
-6.67 -11.19 2.39
-6.46 -11.35 2.39
-6.25 -11.50 2.39
-6.03 -11.66 2.39
-5.84 -11.86 2.40
-5.83 -12.46 2.50
-5.59 -12.60 2.50
-5.35 -12.75 2.50
-5.11 -12.88 2.50
-4.86 -13.01 2.50
-4.61 -13.14 2.50
-4.35 -13.26 2.50
-4.10 -13.37 2.50
-3.84 -13.48 2.50
-3.58 -13.59 2.50
-3.31 -13.69 2.50
-3.04 -13.78 2.50
-2.77 -13.87 2.50
-2.50 -13.96 2.50
-2.22 -14.04 2.50
-1.95 -14.11 2.50
-1.67 -14.17 2.50
-1.39 -14.24 2.50
-1.10 -14.29 2.50
-0.82 -14.34 2.50
-0.53 -14.38 2.50
-0.24 -14.42 2.50
0.04 -12.73 2.50
0.30 -12.75 2.50
0.56 -12.76 2.50
0.81 -12.77 2.50
1.07 -12.77 2.50
1.33 -12.77 2.50
1.58 -12.76 2.50
1.84 -12.75 2.50
2.10 -12.73 2.50
2.26 -12.18 2.39
2.51 -12.15 2.39
2.75 -12.11 2.39
3.00 -12.07 2.39
3.24 -12.02 2.39
3.49 -11.97 2.39
3.73 -11.91 2.39
3.97 -11.85 2.39
4.21 -11.78 2.39
4.45 -11.71 2.39
4.69 -11.63 2.39
4.93 -11.55 2.39
5.16 -11.46 2.39
5.40 -11.36 2.39
5.63 -11.26 2.39
5.86 -11.16 2.39
6.08 -11.05 2.39
6.31 -10.93 2.39
6.35 -10.51 2.33
6.27 -9.93 2.22
6.34 -9.61 2.18
6.49 -9.42 2.16
6.54 -9.10 2.12
6.61 -8.81 2.08
5.56 -7.12 1.70
5.58 -6.86 1.67
5.81 -6.85 1.69
6.11 -6.92 1.74
6.02 -6.54 1.68
6.02 -6.29 1.64
6.12 -6.15 1.63
6.28 -6.06 1.64
6.57 -6.10 1.69
6.55 -5.83 1.65
6.70 -5.73 1.66
6.89 -5.66 1.68
7.21 -5.68 1.73
9.21 -6.97 2.18
10.03 -7.28 2.34
10.25 -7.13 2.35
10.46 -6.97 2.37
10.68 -6.81 2.39
10.80 -6.59 2.39
10.85 -6.32 2.37
10.89 -6.06 2.35
10.91 -5.79 2.33
10.93 -5.52 2.32
10.94 -5.26 2.30
7.43 -3.39 1.55
7.38 -3.19 1.52
7.38 -3.01 1.51
7.40 -2.85 1.50
7.46 -2.71 1.51
7.66 -2.61 1.54
8.12 -2.58 1.62
8.58 -2.54 1.71
8.63 -2.37 1.71
8.63 -2.18 1.70
8.62 -2.00 1.69
8.64 -1.82 1.69
8.67 -1.65 1.69
8.70 -1.47 1.69
8.76 -1.30 1.70
8.80 -1.13 1.71
12.20 -1.32 2.37
12.48 -1.10 2.42
12.76 -0.87 2.47
12.87 -0.62 2.49
12.91 -0.36 2.50
12.99 -0.10 2.52
12.28 0.15 2.39
12.27 0.39 2.39
12.26 0.64 2.39
13.02 0.94 2.55
13.02 1.20 2.56
13.01 1.47 2.57
13.01 1.73 2.58
13.96 2.14 2.78
14.07 2.45 2.82
14.15 2.75 2.85
14.12 3.04 2.86
14.08 3.33 2.87
14.04 3.62 2.88
13.99 3.91 2.89
13.93 4.19 2.90
10.02 3.23 2.10
9.89 3.41 2.09
9.91 3.65 2.12
7.17 2.80 1.55
6.51 2.70 1.42
6.32 2.76 1.39
6.20 2.86 1.38
6.15 2.99 1.39
6.05 3.09 1.38
6.01 3.23 1.39
5.94 3.34 1.39
5.91 3.49 1.40
6.01 3.71 1.45
7.22 4.66 1.77
7.18 4.84 1.78
7.13 5.01 1.80
7.74 5.68 1.98
7.45 5.70 1.94
6.91 5.51 1.83
6.74 5.60 1.82
6.69 5.79 1.84
6.90 6.21 1.94
6.48 6.08 1.86
