ply
format ascii 1.0
element vertex 2974
property float32 x
property float32 y
property float32 z
end_header
7.74 -1.90 1.54
7.76 -1.74 1.54
7.78 -1.59 1.53
7.81 -1.43 1.53
7.84 -1.27 1.52
7.87 -1.12 1.52
7.90 -0.96 1.52
7.92 -0.80 1.51
7.95 -0.64 1.51
7.97 -0.48 1.51
8.00 -0.32 1.51
8.02 -0.16 1.51
8.04 -0.00 1.51
8.08 0.16 1.51
8.15 0.33 1.52
8.23 0.49 1.53
8.30 0.67 1.54
8.38 0.84 1.56
8.45 1.02 1.57
8.52 1.20 1.58
8.59 1.39 1.59
8.64 1.58 1.60
8.63 1.75 1.60
8.67 1.94 1.61
8.71 2.13 1.62
8.74 2.33 1.63
8.78 2.53 1.65
8.81 2.73 1.66
3.79 1.26 0.72
3.71 1.31 0.70
3.65 1.38 0.70
3.62 1.45 0.69
3.62 1.53 0.70
3.64 1.63 0.70
9.14 4.31 1.78
9.19 4.56 1.80
9.24 4.82 1.83
9.32 5.10 1.86
9.44 5.42 1.90
9.56 5.74 1.94
9.60 6.03 1.97
9.61 6.31 1.99
9.62 6.60 2.01
9.84 7.04 2.08
10.11 7.54 2.17
10.26 7.98 2.23
10.30 8.34 2.26
10.35 8.73 2.31
10.40 9.14 2.35
10.45 9.56 2.40
10.45 9.95 2.44
10.33 10.24 2.46
10.21 10.54 2.47
10.09 10.83 2.49
9.96 11.13 2.51
9.83 11.44 2.53
9.69 11.74 2.55
9.57 12.09 2.57
9.48 12.47 2.61
9.38 12.87 2.65
6.78 9.70 1.96
6.62 9.90 1.97
6.47 10.09 1.98
8.79 14.34 2.78
8.67 14.80 2.83
8.54 15.27 2.88
8.41 15.77 2.94
7.84 15.44 2.84
7.28 15.07 2.74
6.77 14.78 2.66
5.81 13.38 2.39
5.55 13.51 2.39
5.29 13.64 2.39
5.02 13.76 2.39
4.75 13.87 2.39
4.47 13.97 2.39
4.20 14.07 2.39
3.92 14.16 2.39
3.64 14.25 2.39
3.35 14.33 2.39
3.07 14.40 2.39
2.78 14.47 2.39
2.49 14.53 2.39
2.20 14.58 2.39
1.92 14.67 2.39
1.69 15.31 2.49
1.38 15.34 2.49
1.08 15.37 2.49
0.77 15.39 2.49
0.46 15.40 2.49
0.16 15.41 2.49
-0.15 15.41 2.49
-0.46 15.40 2.49
-0.77 15.38 2.49
-1.07 15.36 2.49
-1.38 15.33 2.49
-1.69 15.29 2.49
-1.99 15.25 2.49
-2.29 15.20 2.49
-2.60 15.14 2.49
-2.90 15.08 2.49
-3.19 15.00 2.49
-3.49 14.93 2.49
-3.78 14.84 2.49
-4.08 14.75 2.49
-4.37 14.65 2.49
-4.65 14.55 2.49
-4.94 14.43 2.49
-5.22 14.32 2.49
-5.50 14.19 2.49
-5.77 14.06 2.49
-6.05 13.92 2.49
-6.14 13.40 2.42
-6.33 13.11 2.39
-3.10 6.10 1.13
-3.21 6.03 1.13
-3.33 5.95 1.13
-3.44 5.87 1.13
-3.55 5.79 1.13
-3.65 5.71 1.13
-3.76 5.62 1.13
-3.86 5.53 1.13
-3.97 5.44 1.12
-4.06 5.35 1.12
-4.16 5.26 1.12
-4.26 5.16 1.12
-4.35 5.06 1.12
-4.44 4.96 1.12
-4.53 4.86 1.12
-4.61 4.76 1.12
-4.69 4.65 1.12
-4.79 4.56 1.13
-4.99 4.56 1.15
-10.45 9.19 2.38
-10.48 8.85 2.35
-10.50 8.51 2.32
-10.64 8.28 2.32
-10.80 8.06 2.33
-10.97 7.85 2.33
-11.02 7.56 2.32
-11.05 7.26 2.30
-11.07 6.96 2.28
-10.96 6.58 2.24
-10.84 6.22 2.19
-10.73 5.88 2.15
-10.71 5.59 2.13
-10.73 5.33 2.12
-10.74 5.07 2.10
-10.75 4.81 2.09
-10.74 4.55 2.08
-10.70 4.28 2.06
-10.66 4.02 2.04
-10.62 3.77 2.03
-10.62 3.53 2.02
-10.63 3.30 2.01
-10.63 3.06 2.01
-10.64 2.84 2.00
-10.64 2.61 2.00
-10.67 2.39 2.00
-10.75 2.18 2.01
-10.82 1.97 2.02
-10.89 1.76 2.03
-10.91 1.54 2.04
-10.91 1.32 2.04
-10.90 1.10 2.04
-10.90 0.87 2.04
-10.91 0.66 2.04
-10.93 0.44 2.05
-10.96 0.22 2.06
-10.98 -0.00 2.07
-11.01 -0.22 2.08
-11.01 -0.44 2.09
-11.01 -0.67 2.10
-11.00 -0.89 2.10
-10.99 -1.11 2.11
-10.93 -1.33 2.11
-10.83 -1.53 2.10
-10.72 -1.74 2.09
-10.62 -1.94 2.09
-10.51 -2.14 2.08
-10.41 -2.34 2.07
-10.40 -2.56 2.09
-10.39 -2.78 2.10
-10.38 -3.00 2.12
-10.37 -3.22 2.13
-10.36 -3.45 2.15
-10.35 -3.68 2.17
-10.34 -3.91 2.19
-10.38 -4.17 2.22
-10.40 -4.42 2.25
-10.39 -4.66 2.27
-10.37 -4.91 2.29
-10.35 -5.16 2.32
-10.33 -5.41 2.34
-10.32 -5.67 2.37
-10.30 -5.93 2.40
-10.10 -6.09 2.39
-9.96 -6.28 2.39
-9.81 -6.47 2.39
-9.65 -6.65 2.39
-9.50 -6.83 2.39
-9.34 -7.00 2.39
-9.18 -7.17 2.39
-9.01 -7.34 2.39
-8.85 -7.51 2.39
-8.68 -7.67 2.39
-8.50 -7.83 2.39
-8.33 -7.98 2.39
-8.15 -8.14 2.39
-7.97 -8.28 2.39
-7.79 -8.43 2.39
-7.61 -8.57 2.39
-7.42 -8.71 2.39
-7.23 -8.84 2.39
-7.04 -8.97 2.39
-6.85 -9.10 2.39
-6.65 -9.22 2.39
-6.46 -9.34 2.39
-6.26 -9.45 2.39
-6.10 -9.64 2.40
-6.10 -10.07 2.48
-5.90 -10.20 2.49
-5.68 -10.30 2.49
-5.47 -10.40 2.49
-5.25 -10.50 2.49
-5.03 -10.59 2.49
-4.81 -10.68 2.49
-4.59 -10.76 2.49
-4.37 -10.84 2.49
-4.15 -10.92 2.49
-3.92 -10.99 2.49
-3.70 -11.06 2.49
-3.47 -11.13 2.49
-3.25 -11.19 2.49
-3.02 -11.24 2.49
-2.79 -11.30 2.49
-2.56 -11.34 2.49
-2.33 -11.39 2.49
-2.10 -11.43 2.49
-1.87 -11.46 2.49
-1.63 -11.49 2.49
-1.40 -11.52 2.49
-1.17 -11.55 2.49
-0.93 -11.56 2.49
-0.70 -11.58 2.49
-0.47 -11.59 2.49
-0.23 -11.60 2.49
0.00 -10.45 2.49
0.21 -10.45 2.49
0.42 -10.44 2.49
0.63 -10.43 2.49
0.84 -10.42 2.49
1.06 -10.40 2.49
1.27 -10.38 2.49
1.48 -10.36 2.49
1.68 -10.33 2.49
1.89 -10.30 2.49
2.02 -9.84 2.39
2.23 -9.86 2.40
2.41 -9.76 2.39
2.61 -9.72 2.39
2.34 -8.06 1.99
2.32 -7.43 1.84
3.20 -9.56 2.39
3.40 -9.50 2.39
2.62 -6.90 1.74
3.78 -9.37 2.39
3.98 -9.30 2.39
4.17 -9.23 2.39
4.36 -9.15 2.39
4.54 -9.07 2.39
4.73 -8.99 2.39
4.92 -8.90 2.39
2.40 -4.15 1.12
2.48 -4.09 1.12
5.47 -8.62 2.39
5.63 -8.49 2.38
5.78 -8.35 2.37
5.93 -8.20 2.36
6.07 -8.05 2.34
6.20 -7.89 2.33
6.32 -7.72 2.31
6.43 -7.53 2.29
6.48 -7.29 2.25
6.53 -7.06 2.22
6.58 -6.83 2.18
6.63 -6.61 2.15
6.66 -6.38 2.12
6.70 -6.17 2.09
6.74 -5.95 2.06
6.78 -5.75 2.03
6.81 -5.55 2.00
6.85 -5.35 1.98
6.88 -5.15 1.95
6.91 -4.96 1.93
6.94 -4.78 1.91
6.98 -4.60 1.89
7.02 -4.42 1.87
7.06 -4.25 1.85
7.09 -4.08 1.83
7.13 -3.91 1.82
7.16 -3.74 1.80
7.19 -3.58 1.79
7.22 -3.41 1.78
7.25 -3.25 1.76
7.28 -3.09 1.75
7.31 -2.93 1.74
7.34 -2.77 1.73
7.37 -2.62 1.72
7.40 -2.46 1.71
7.43 -2.31 1.70
7.45 -2.15 1.69
7.48 -1.99 1.69
7.50 -1.84 1.68
7.53 -1.69 1.67
7.55 -1.53 1.66
7.57 -1.38 1.66
7.60 -1.23 1.66
7.63 -1.08 1.65
7.65 -0.92 1.65
7.68 -0.77 1.65
7.70 -0.62 1.65
7.72 -0.46 1.64
7.75 -0.31 1.64
7.77 -0.15 1.64
7.78 0.00 1.64
7.80 0.16 1.64
7.81 0.32 1.64
7.88 0.48 1.65
7.95 0.64 1.66
8.02 0.81 1.68
8.09 0.98 1.69
8.16 1.16 1.71
8.23 1.33 1.72
8.30 1.52 1.74
8.37 1.70 1.76
8.42 1.89 1.77
8.46 2.08 1.78
8.49 2.27 1.79
8.52 2.46 1.80
3.84 1.19 0.82
3.71 1.23 0.79
3.64 1.29 0.78
3.59 1.36 0.77
3.56 1.43 0.77
3.55 1.51 0.77
3.56 1.60 0.78
3.62 1.71 0.80
8.86 4.41 1.97
8.91 4.65 2.00
8.95 4.91 2.02
9.00 5.17 2.05
9.09 5.47 2.09
9.20 5.78 2.14
9.21 6.05 2.16
9.22 6.33 2.19
9.22 6.61 2.22
9.23 6.89 2.25
9.34 7.27 2.30
9.58 7.77 2.39
9.58 8.09 2.43
9.53 8.38 2.45
9.48 8.68 2.48
9.46 9.02 2.52
9.48 9.41 2.57
9.50 9.81 2.62
9.42 10.12 2.65
9.31 10.42 2.67
9.20 10.72 2.70
9.09 11.03 2.72
8.97 11.34 2.75
8.83 11.63 2.77
8.68 11.92 2.79
6.77 9.69 2.24
6.61 9.89 2.25
6.45 10.08 2.26
7.67 12.53 2.77
7.30 12.48 2.72
6.94 12.41 2.67
6.58 12.35 2.62
5.76 11.36 2.39
5.54 11.48 2.39
5.32 11.61 2.39
5.09 11.72 2.39
4.86 11.83 2.39
4.63 11.94 2.39
4.39 12.04 2.39
4.15 12.14 2.39
3.91 12.23 2.39
3.67 12.31 2.39
3.43 12.39 2.39
3.18 12.47 2.39
2.93 12.54 2.39
2.68 12.60 2.39
2.43 12.66 2.39
2.18 12.71 2.39
1.93 12.76 2.39
1.74 13.35 2.49
1.48 13.39 2.49
1.21 13.42 2.49
0.94 13.44 2.49
0.67 13.46 2.49
0.41 13.47 2.49
0.14 13.47 2.49
-0.13 13.47 2.49
-0.40 13.47 2.49
-0.67 13.45 2.49
-0.94 13.43 2.49
-1.21 13.41 2.49
-1.47 13.38 2.49
-1.74 13.34 2.49
-2.00 13.29 2.49
-2.27 13.25 2.49
-2.53 13.19 2.49
-2.79 13.13 2.49
-3.05 13.06 2.49
-3.31 12.99 2.49
-3.57 12.91 2.49
-3.82 12.82 2.49
-4.07 12.73 2.49
-4.32 12.64 2.49
-4.57 12.54 2.49
-4.81 12.43 2.49
-5.05 12.32 2.49
-5.29 12.20 2.49
-5.53 12.08 2.49
-5.76 11.95 2.49
-3.09 6.09 1.28
-3.09 5.80 1.24
-3.09 5.53 1.19
-3.09 5.28 1.15
-3.11 5.08 1.12
-3.20 5.00 1.12
-3.29 4.93 1.12
-3.39 4.85 1.12
-3.48 4.78 1.12
-3.56 4.70 1.12
-3.65 4.62 1.12
-3.76 4.57 1.13
-3.92 4.57 1.15
-4.08 4.56 1.17
-4.25 4.56 1.20
-4.42 4.56 1.22
-4.60 4.56 1.25
-4.79 4.56 1.28
-4.98 4.56 1.31
-9.22 8.11 2.39
-9.36 7.91 2.39
-9.50 7.71 2.39
-9.63 7.50 2.39
-9.76 7.29 2.39
-9.88 7.08 2.39
-9.99 6.86 2.39
-10.11 6.64 2.39
-10.72 6.74 2.50
-10.67 6.42 2.47
-10.56 6.07 2.42
-10.48 5.74 2.38
-10.49 5.48 2.36
-10.51 5.22 2.35
-10.52 4.97 2.33
-10.53 4.72 2.32
-10.54 4.47 2.31
-10.52 4.22 2.29
-10.48 3.96 2.27
-10.45 3.71 2.25
-10.45 3.48 2.24
-10.46 3.25 2.24
-10.46 3.02 2.23
-10.47 2.80 2.22
-10.47 2.57 2.22
-10.48 2.35 2.21
-10.54 2.15 2.22
-10.61 1.94 2.23
-10.68 1.73 2.25
-10.68 1.51 2.25
-10.68 1.30 2.25
-10.68 1.08 2.25
-10.68 0.86 2.25
-10.68 0.65 2.25
-10.68 0.43 2.26
-10.71 0.22 2.27
-10.73 0.00 2.28
-10.75 -0.21 2.29
-10.76 -0.43 2.30
-10.75 -0.64 2.30
-10.74 -0.86 2.31
-10.73 -1.08 2.32
-10.72 -1.29 2.33
-10.71 -1.51 2.33
-10.60 -1.71 2.32
-10.50 -1.91 2.31
-10.40 -2.11 2.31
-10.30 -2.31 2.30
-10.27 -2.52 2.31
-10.26 -2.74 2.32
-10.25 -2.96 2.34
-10.24 -3.18 2.36
-10.23 -3.40 2.38
-10.22 -3.63 2.40
-10.08 -3.81 2.39
-9.98 -4.00 2.39
-9.87 -4.19 2.39
-9.77 -4.38 2.39
-9.65 -4.56 2.39
-9.54 -4.75 2.39
-9.42 -4.93 2.39
-9.30 -5.11 2.39
-9.18 -5.28 2.39
-9.05 -5.45 2.39
-8.92 -5.62 2.39
-8.79 -5.79 2.39
-8.65 -5.96 2.39
-8.52 -6.12 2.39
-8.38 -6.28 2.39
-8.23 -6.43 2.39
-8.09 -6.58 2.39
-7.94 -6.73 2.39
-7.79 -6.88 2.39
-7.63 -7.02 2.39
-7.48 -7.16 2.39
-7.32 -7.30 2.39
-7.16 -7.43 2.39
-7.00 -7.57 2.39
-6.83 -7.69 2.39
-6.67 -7.82 2.39
-6.50 -7.94 2.39
-6.33 -8.06 2.39
-6.16 -8.17 2.39
-6.10 -8.44 2.43
-6.06 -8.75 2.49
-5.87 -8.86 2.49
-5.69 -8.97 2.49
-5.50 -9.07 2.49
-5.31 -9.17 2.49
-5.12 -9.26 2.49
-4.92 -9.36 2.49
-4.73 -9.44 2.49
-4.53 -9.53 2.49
-4.33 -9.61 2.49
-4.14 -9.69 2.49
-3.94 -9.76 2.49
-3.74 -9.83 2.49
-3.53 -9.90 2.49
-3.33 -9.96 2.49
-3.13 -10.02 2.49
-2.92 -10.07 2.49
-2.72 -10.12 2.49
-2.51 -10.17 2.49
-2.31 -10.21 2.49
-2.10 -10.25 2.49
-1.89 -10.29 2.49
-1.68 -10.32 2.49
-1.47 -10.35 2.49
-1.26 -10.38 2.49
-1.05 -10.40 2.49
-0.84 -10.42 2.49
-0.63 -10.43 2.49
-0.42 -10.44 2.49
-0.21 -10.45 2.49
0.00 -9.49 2.49
0.19 -9.49 2.49
0.38 -9.49 2.49
0.58 -9.48 2.49
0.77 -9.47 2.49
0.96 -9.45 2.49
1.15 -9.43 2.49
1.34 -9.41 2.49
1.53 -9.39 2.49
1.72 -9.36 2.49
1.91 -9.33 2.49
2.01 -8.90 2.39
2.22 -8.96 2.41
2.37 -8.83 2.39
2.55 -8.78 2.39
2.32 -7.43 2.03
2.35 -7.01 1.93
2.32 -6.50 1.80
2.61 -6.86 1.91
3.44 -8.51 2.39
3.61 -8.45 2.39
3.79 -8.38 2.39
3.96 -8.31 2.39
4.13 -8.24 2.39
4.30 -8.16 2.39
4.47 -8.08 2.39
2.40 -4.15 1.24
2.49 -4.10 1.24
4.96 -7.82 2.39
5.13 -7.73 2.39
5.29 -7.63 2.39
5.45 -7.53 2.39
5.60 -7.42 2.38
5.72 -7.27 2.37
5.84 -7.12 2.35
5.95 -6.97 2.34
6.06 -6.82 2.33
6.17 -6.67 2.31
6.28 -6.51 2.30
6.38 -6.36 2.29
6.44 -6.16 2.26
6.48 -5.95 2.23
6.52 -5.75 2.20
6.56 -5.55 2.17
6.59 -5.36 2.14
6.63 -5.17 2.11
6.66 -4.98 2.09
6.69 -4.80 2.06
6.72 -4.62 2.04
6.76 -4.45 2.02
6.80 -4.28 2.00
6.84 -4.12 1.98
6.87 -3.95 1.97
6.91 -3.79 1.95
6.94 -3.62 1.93
6.97 -3.46 1.92
7.00 -3.31 1.91
7.03 -3.15 1.89
7.06 -2.99 1.88
7.09 -2.84 1.87
7.12 -2.69 1.86
7.15 -2.53 1.85
7.18 -2.38 1.84
7.21 -2.23 1.83
7.23 -2.08 1.82
7.26 -1.93 1.81
7.28 -1.78 1.81
7.30 -1.63 1.80
7.32 -1.48 1.79
7.34 -1.33 1.79
7.37 -1.19 1.78
7.39 -1.04 1.78
7.42 -0.89 1.78
7.44 -0.74 1.77
7.47 -0.59 1.77
7.49 -0.44 1.77
7.51 -0.29 1.77
7.53 -0.14 1.77
7.54 0.01 1.77
7.56 0.16 1.77
7.57 0.31 1.77
7.58 0.46 1.77
7.62 0.62 1.78
7.68 0.78 1.79
7.74 0.94 1.80
7.81 1.11 1.82
7.87 1.28 1.84
7.93 1.46 1.85
8.00 1.63 1.87
8.04 1.81 1.88
8.04 1.98 1.89
8.05 2.15 1.90
8.11 2.35 1.92
3.78 1.18 0.90
3.67 1.22 0.87
3.61 1.28 0.86
3.56 1.35 0.86
3.53 1.42 0.85
3.52 1.50 0.86
3.53 1.58 0.86
3.57 1.69 0.88
8.55 4.26 2.13
8.59 4.49 2.15
8.63 4.74 2.18
8.67 4.99 2.21
8.71 5.24 2.24
8.75 5.51 2.28
8.84 5.82 2.33
8.84 6.08 2.35
8.84 6.34 2.38
8.84 6.61 2.41
8.84 6.89 2.44
8.83 7.17 2.48
8.85 7.48 2.52
8.99 7.91 2.60
8.93 8.19 2.62
8.87 8.47 2.65
8.81 8.75 2.68
8.75 9.04 2.71
8.68 9.34 2.74
8.61 9.64 2.77
8.55 9.97 2.81
8.44 10.24 2.84
8.17 10.34 2.81
7.87 10.37 2.78
6.91 9.49 2.50
6.75 9.68 2.51
6.60 9.88 2.52
6.44 10.07 2.54
5.88 9.61 2.39
5.70 9.74 2.39
5.51 9.86 2.39
5.31 9.98 2.39
5.12 10.10 2.39
4.92 10.21 2.39
4.72 10.31 2.39
4.52 10.42 2.39
4.32 10.52 2.39
4.11 10.61 2.39
3.90 10.70 2.39
3.69 10.78 2.39
3.47 10.86 2.39
3.26 10.94 2.39
3.04 11.01 2.39
2.82 11.07 2.39
2.60 11.13 2.39
2.38 11.19 2.39
2.16 11.24 2.39
1.93 11.28 2.39
1.78 11.81 2.49
1.55 11.85 2.49
1.31 11.88 2.49
1.07 11.91 2.49
0.84 11.93 2.49
0.60 11.94 2.49
0.36 11.95 2.49
0.12 11.96 2.49
-0.12 11.96 2.49
-0.36 11.95 2.49
-0.59 11.94 2.49
-0.83 11.92 2.49
-1.07 11.90 2.49
-1.31 11.87 2.49
-1.54 11.84 2.49
-1.78 11.80 2.49
-2.01 11.76 2.49
-2.25 11.71 2.49
-2.48 11.66 2.49
-2.71 11.60 2.49
-2.94 11.53 2.49
-3.17 11.47 2.49
-3.39 11.39 2.49
-3.61 11.31 2.49
-3.84 11.23 2.49
-4.06 11.14 2.49
-4.27 11.05 2.49
-3.07 7.49 1.70
-3.07 7.08 1.63
-3.18 6.94 1.61
-3.32 6.88 1.61
-3.09 6.10 1.44
-3.09 5.80 1.39
-3.09 5.53 1.34
-3.09 5.28 1.30
-3.09 5.05 1.26
-3.09 4.83 1.22
-3.09 4.62 1.18
-3.18 4.57 1.19
-3.32 4.57 1.21
-3.46 4.57 1.23
-3.61 4.57 1.25
-3.76 4.57 1.27
-3.91 4.56 1.29
-4.07 4.56 1.32
-4.24 4.56 1.34
-4.41 4.56 1.37
-4.59 4.56 1.40
-4.78 4.56 1.43
-4.98 4.56 1.47
-8.22 7.24 2.39
-8.35 7.06 2.39
-8.47 6.88 2.39
-8.59 6.70 2.39
-8.71 6.51 2.39
-8.82 6.32 2.39
-8.93 6.13 2.39
-9.03 5.94 2.39
-9.13 5.75 2.39
-9.22 5.55 2.39
-9.31 5.36 2.39
-9.39 5.16 2.39
-9.48 4.96 2.39
-9.55 4.76 2.39
-9.62 4.55 2.39
-9.69 4.35 2.39
-9.76 4.15 2.39
-9.81 3.94 2.39
-9.87 3.74 2.39
-9.92 3.53 2.39
-9.97 3.32 2.39
-10.01 3.12 2.39
-10.05 2.91 2.39
-10.08 2.70 2.39
-10.11 2.49 2.39
-10.13 2.28 2.39
-10.33 2.11 2.43
-10.40 1.91 2.44
-10.47 1.71 2.45
-10.47 1.49 2.45
-10.47 1.28 2.45
-10.47 1.06 2.45
-10.47 0.85 2.45
-10.46 0.64 2.45
-10.46 0.43 2.46
-10.46 0.22 2.46
-10.12 0.01 2.39
-10.10 -0.19 2.39
-10.07 -0.39 2.39
-10.04 -0.59 2.39
-10.00 -0.79 2.39
-9.96 -0.99 2.39
-9.92 -1.19 2.39
-9.87 -1.39 2.39
-9.82 -1.58 2.39
-9.76 -1.77 2.39
-9.70 -1.96 2.39
-9.64 -2.15 2.39
-9.57 -2.34 2.39
-9.50 -2.53 2.39
-9.43 -2.71 2.39
-9.35 -2.90 2.39
-9.27 -3.08 2.39
-9.19 -3.26 2.39
-9.10 -3.43 2.39
-9.02 -3.61 2.39
-8.92 -3.78 2.39
-8.83 -3.95 2.39
-8.73 -4.12 2.39
-8.63 -4.29 2.39
-8.52 -4.45 2.39
-8.42 -4.61 2.39
-8.30 -4.77 2.39
-8.19 -4.93 2.39
-8.08 -5.08 2.39
-7.96 -5.24 2.39
-7.84 -5.39 2.39
-7.71 -5.53 2.39
-7.59 -5.68 2.39
-7.46 -5.82 2.39
-7.33 -5.96 2.39
-7.19 -6.10 2.39
-7.06 -6.23 2.39
-6.92 -6.36 2.39
-6.78 -6.49 2.39
-6.64 -6.61 2.39
-6.49 -6.74 2.39
-6.35 -6.86 2.39
-6.20 -6.97 2.39
-6.10 -7.15 2.41
-6.10 -7.44 2.47
-5.99 -7.62 2.49
-5.83 -7.73 2.49
-5.67 -7.84 2.49
-5.50 -7.94 2.49
-5.33 -8.04 2.49
-5.16 -8.14 2.49
-4.99 -8.23 2.49
-4.82 -8.32 2.49
-4.65 -8.41 2.49
-4.47 -8.49 2.49
-4.29 -8.57 2.49
-4.12 -8.65 2.49
-3.94 -8.72 2.49
-3.76 -8.80 2.49
-3.58 -8.86 2.49
-3.40 -8.93 2.49
-3.21 -8.99 2.49
-3.03 -9.04 2.49
-2.84 -9.10 2.49
-2.66 -9.15 2.49
-2.47 -9.20 2.49
-2.28 -9.24 2.49
-2.10 -9.28 2.49
-1.91 -9.32 2.49
-1.72 -9.35 2.49
-1.53 -9.38 2.49
-1.34 -9.41 2.49
-1.15 -9.43 2.49
-0.96 -9.45 2.49
-0.77 -9.46 2.49
-0.57 -9.48 2.49
-0.38 -9.49 2.49
-0.19 -9.49 2.49
0.00 -8.69 2.49
0.18 -8.69 2.49
0.35 -8.69 2.49
0.53 -8.68 2.49
0.70 -8.67 2.49
0.88 -8.65 2.49
1.05 -8.64 2.49
1.23 -8.62 2.49
1.40 -8.59 2.49
1.58 -8.56 2.49
1.75 -8.53 2.49
1.92 -8.50 2.49
2.01 -8.11 2.39
2.21 -8.20 2.42
2.34 -8.04 2.39
2.50 -7.99 2.39
2.66 -7.94 2.39
2.34 -6.53 1.97
2.31 -6.08 1.85
2.34 -5.79 1.78
2.49 -5.81 1.80
3.46 -7.66 2.39
3.62 -7.60 2.39
3.78 -7.53 2.39
3.93 -7.46 2.39
4.09 -7.39 2.39
2.39 -4.12 1.35
2.47 -4.06 1.34
4.54 -7.15 2.39
4.69 -7.06 2.39
4.84 -6.97 2.39
4.98 -6.88 2.39
5.13 -6.79 2.39
5.27 -6.69 2.39
5.41 -6.59 2.39
5.52 -6.46 2.37
5.63 -6.32 2.36
5.73 -6.18 2.35
5.83 -6.04 2.33
5.92 -5.89 2.32
6.02 -5.75 2.31
6.11 -5.61 2.30
6.20 -5.46 2.28
6.28 -5.31 2.27
6.36 -5.17 2.26
6.42 -5.00 2.24
6.45 -4.82 2.22
6.49 -4.65 2.19
6.52 -4.47 2.17
6.56 -4.31 2.15
6.60 -4.15 2.13
6.63 -3.99 2.11
6.67 -3.83 2.09
6.70 -3.67 2.08
6.73 -3.51 2.06
6.77 -3.36 2.04
6.80 -3.20 2.03
6.83 -3.05 2.02
6.85 -2.90 2.00
6.88 -2.75 1.99
6.91 -2.60 1.98
6.94 -2.45 1.97
6.97 -2.31 1.96
7.00 -2.16 1.95
7.02 -2.02 1.94
7.05 -1.87 1.93
7.07 -1.73 1.93
7.09 -1.58 1.92
7.11 -1.44 1.91
7.13 -1.29 1.91
7.15 -1.15 1.90
7.17 -1.00 1.90
7.20 -0.86 1.90
7.22 -0.72 1.89
7.24 -0.57 1.89
7.26 -0.43 1.89
7.28 -0.28 1.89
7.30 -0.13 1.89
7.31 0.01 1.89
7.33 0.16 1.89
7.34 0.31 1.89
7.35 0.45 1.89
7.36 0.60 1.89
7.37 0.75 1.89
7.43 0.91 1.91
7.48 1.07 1.92
7.54 1.23 1.94
7.60 1.40 1.96
7.66 1.57 1.98
7.71 1.74 2.00
7.71 1.91 2.00
7.71 2.07 2.01
7.71 2.24 2.01
3.77 1.18 0.99
3.66 1.22 0.96
3.59 1.28 0.95
3.55 1.35 0.94
3.52 1.42 0.94
3.51 1.49 0.94
3.52 1.58 0.95
3.56 1.69 0.97
7.99 3.98 2.20
7.96 4.17 2.21
8.03 4.41 2.25
8.17 4.70 2.31
8.31 5.01 2.37
8.42 5.31 2.43
8.46 5.57 2.47
8.49 5.84 2.51
8.49 6.09 2.53
8.48 6.35 2.57
8.47 6.61 2.60
8.46 6.88 2.63
8.45 7.15 2.67
8.44 7.44 2.70
8.42 7.73 2.74
8.31 7.93 2.75
8.11 8.06 2.74
7.92 8.19 2.72
7.72 8.31 2.71
7.52 8.43 2.69
7.32 8.54 2.67
7.11 8.64 2.66
6.90 8.73 2.64
6.69 8.83 2.62
5.93 8.16 2.39
5.77 8.28 2.39
5.62 8.41 2.39
5.45 8.53 2.39
5.29 8.65 2.39
5.12 8.76 2.39
4.95 8.87 2.39
4.78 8.98 2.39
4.60 9.08 2.39
4.42 9.18 2.39
4.24 9.27 2.39
4.06 9.37 2.39
3.88 9.45 2.39
3.69 9.54 2.39
3.50 9.61 2.39
3.31 9.69 2.39
3.12 9.76 2.39
2.93 9.83 2.39
2.73 9.89 2.39
2.53 9.95 2.39
2.34 10.00 2.39
2.14 10.05 2.39
1.94 10.09 2.39
1.81 10.57 2.49
1.60 10.61 2.49
1.39 10.64 2.49
1.18 10.67 2.49
0.96 10.70 2.49
0.75 10.71 2.49
0.54 10.73 2.49
0.32 10.74 2.49
0.11 10.74 2.49
-0.11 10.74 2.49
-0.32 10.73 2.49
-0.53 10.72 2.49
-0.75 10.71 2.49
-0.96 10.69 2.49
-1.17 10.67 2.49
-1.39 10.64 2.49
-1.60 10.60 2.49
-1.81 10.56 2.49
-2.02 10.52 2.49
-2.22 10.47 2.49
-2.43 10.42 2.49
-2.64 10.36 2.49
-2.84 10.30 2.49
-3.05 10.24 2.49
-3.25 10.17 2.49
-3.45 10.09 2.49
-3.64 10.01 2.49
-3.84 9.93 2.49
-3.07 7.50 1.90
-3.07 7.09 1.81
-3.07 6.72 1.73
-3.07 6.38 1.66
-3.09 6.10 1.61
-3.09 5.81 1.55
-3.09 5.54 1.49
-3.09 5.29 1.44
-3.09 5.05 1.40
-3.09 4.83 1.36
-3.09 4.62 1.32
-3.18 4.57 1.32
-3.32 4.57 1.34
-3.46 4.57 1.36
-3.60 4.57 1.38
-3.76 4.56 1.41
-3.91 4.56 1.43
-4.07 4.56 1.46
-4.24 4.56 1.49
-4.41 4.56 1.52
-4.57 4.54 1.55
-4.65 4.44 1.55
-4.73 4.34 1.55
-4.80 4.24 1.55
-4.88 4.13 1.55
-4.95 4.02 1.55
-5.02 3.92 1.55
-5.09 3.81 1.55
-7.96 5.71 2.39
-8.06 5.54 2.39
-8.15 5.37 2.39
-8.24 5.20 2.39
-8.33 5.02 2.39
-8.41 4.84 2.39
-8.49 4.66 2.39
-8.56 4.49 2.39
-8.63 4.30 2.39
-8.70 4.12 2.39
-8.76 3.94 2.39
-8.82 3.76 2.39
-8.88 3.57 2.39
-8.93 3.39 2.39
-8.98 3.20 2.39
-9.02 3.01 2.39
-9.06 2.83 2.39
-9.09 2.64 2.39
-9.13 2.45 2.39
-9.15 2.26 2.39
-9.18 2.07 2.39
-9.20 1.89 2.39
-9.22 1.70 2.39
-9.23 1.51 2.39
-9.24 1.32 2.39
-9.24 1.13 2.39
-9.24 0.95 2.39
-9.24 0.76 2.39
-9.23 0.57 2.39
-9.22 0.39 2.39
-9.21 0.20 2.39
-9.19 0.01 2.39
-9.17 -0.17 2.39
-9.15 -0.35 2.39
-9.12 -0.53 2.39
-9.09 -0.72 2.39
-9.05 -0.90 2.39
-9.01 -1.08 2.39
-8.97 -1.25 2.39
-8.93 -1.43 2.39
-8.88 -1.61 2.39
-8.83 -1.78 2.39
-8.77 -1.95 2.39
-8.71 -2.13 2.39
-8.65 -2.30 2.39
-8.59 -2.47 2.39
-8.52 -2.63 2.39
-8.45 -2.80 2.39
-8.37 -2.96 2.39
-8.29 -3.12 2.39
-8.21 -3.28 2.39
-8.13 -3.44 2.39
-8.05 -3.60 2.39
-7.96 -3.75 2.39
-7.87 -3.90 2.39
-7.77 -4.05 2.39
-7.68 -4.20 2.39
-7.58 -4.35 2.39
-7.47 -4.49 2.39
-7.37 -4.63 2.39
-7.26 -4.77 2.39
-7.15 -4.91 2.39
-7.04 -5.05 2.39
-6.93 -5.18 2.39
-6.81 -5.31 2.39
-6.69 -5.44 2.39
-6.57 -5.56 2.39
-6.45 -5.69 2.39
-6.32 -5.81 2.39
-6.20 -5.92 2.39
-6.11 -6.08 2.40
-6.10 -6.32 2.45
-6.05 -6.53 2.49
-5.91 -6.64 2.49
-5.77 -6.75 2.49
-5.63 -6.86 2.49
-5.48 -6.96 2.49
-5.33 -7.07 2.49
-5.18 -7.16 2.49
-5.03 -7.26 2.49
-4.88 -7.35 2.49
-4.72 -7.44 2.49
-4.57 -7.53 2.49
-4.41 -7.61 2.49
-4.25 -7.69 2.49
-4.09 -7.77 2.49
-3.93 -7.84 2.49
-3.77 -7.91 2.49
-3.61 -7.98 2.49
-3.44 -8.05 2.49
-3.28 -8.11 2.49
-3.11 -8.17 2.49
-2.94 -8.22 2.49
-2.77 -8.28 2.49
-2.60 -8.33 2.49
-2.43 -8.37 2.49
-2.26 -8.42 2.49
-2.09 -8.46 2.49
-1.92 -8.49 2.49
-1.75 -8.53 2.49
-1.57 -8.56 2.49
-1.40 -8.59 2.49
-1.23 -8.61 2.49
-1.05 -8.63 2.49
-0.88 -8.65 2.49
-0.70 -8.66 2.49
-0.53 -8.68 2.49
-0.35 -8.68 2.49
-0.17 -8.69 2.49
0.00 -8.01 2.49
0.16 -8.00 2.49
0.33 -8.00 2.49
0.49 -7.99 2.49
0.65 -7.98 2.49
0.81 -7.97 2.49
0.97 -7.95 2.49
1.13 -7.94 2.49
1.29 -7.91 2.49
1.45 -7.89 2.49
1.61 -7.86 2.49
1.77 -7.83 2.49
1.93 -7.80 2.49
2.00 -7.44 2.39
2.15 -7.40 2.39
2.30 -7.36 2.39
2.45 -7.31 2.39
2.60 -7.27 2.39
2.32 -6.07 2.01
2.34 -5.79 1.93
2.31 -5.40 1.81
3.19 -7.05 2.39
3.34 -6.99 2.39
3.48 -6.93 2.39
3.62 -6.87 2.39
3.76 -6.80 2.39
2.39 -4.12 1.46
2.47 -4.06 1.46
4.18 -6.58 2.39
4.32 -6.50 2.39
4.45 -6.42 2.39
4.59 -6.33 2.39
4.72 -6.24 2.39
4.85 -6.15 2.39
4.98 -6.06 2.39
5.10 -5.97 2.39
5.23 -5.87 2.39
5.33 -5.75 2.38
5.43 -5.62 2.36
5.52 -5.49 2.35
5.61 -5.35 2.34
5.69 -5.22 2.33
5.78 -5.09 2.32
5.86 -4.95 2.31
5.94 -4.82 2.30
6.01 -4.68 2.28
6.09 -4.55 2.27
6.16 -4.41 2.26
6.23 -4.27 2.25
6.31 -4.14 2.25
6.40 -4.02 2.25
6.44 -3.86 2.23
6.47 -3.71 2.21
6.51 -3.56 2.19
6.54 -3.41 2.18
6.57 -3.26 2.16
6.60 -3.11 2.15
6.63 -2.96 2.13
6.66 -2.81 2.12
6.68 -2.67 2.11
6.71 -2.52 2.10
6.74 -2.38 2.09
6.77 -2.24 2.08
6.80 -2.10 2.07
6.82 -1.95 2.06
6.84 -1.81 2.05
6.87 -1.67 2.04
6.89 -1.53 2.04
6.91 -1.39 2.03
6.93 -1.25 2.02
6.95 -1.11 2.02
6.97 -0.97 2.01
6.98 -0.83 2.01
7.01 -0.69 2.01
7.03 -0.55 2.01
7.05 -0.41 2.01
7.07 -0.27 2.01
7.08 -0.13 2.01
7.10 0.02 2.00
7.11 0.16 2.01
7.12 0.30 2.01
7.13 0.45 2.01
7.14 0.59 2.01
7.15 0.74 2.01
7.16 0.88 2.01
7.18 1.03 2.02
7.24 1.19 2.04
7.29 1.35 2.06
7.34 1.51 2.08
7.39 1.67 2.09
7.41 1.84 2.11
7.41 1.99 2.11
7.40 2.15 2.12
3.77 1.18 1.08
3.66 1.22 1.06
3.59 1.28 1.04
3.55 1.35 1.04
3.52 1.42 1.03
3.51 1.50 1.04
3.52 1.58 1.05
3.56 1.69 1.07
7.56 3.77 2.28
7.53 3.95 2.29
7.50 4.12 2.30
7.46 4.30 2.32
7.43 4.48 2.33
7.39 4.66 2.34
7.34 4.84 2.35
7.43 5.11 2.41
7.52 5.40 2.47
7.61 5.70 2.53
7.58 5.92 2.56
7.48 6.09 2.56
7.38 6.25 2.56
7.27 6.42 2.57
7.16 6.58 2.57
7.05 6.74 2.57
6.93 6.89 2.57
6.81 7.05 2.58
6.69 7.20 2.58
6.56 7.35 2.58
5.93 6.92 2.39
5.80 7.05 2.39
5.66 7.17 2.39
5.52 7.29 2.39
5.38 7.41 2.39
5.24 7.53 2.39
5.10 7.64 2.39
4.95 7.75 2.39
4.80 7.85 2.39
4.65 7.95 2.39
4.49 8.05 2.39
4.33 8.15 2.39
4.17 8.24 2.39
4.01 8.33 2.39
3.85 8.42 2.39
3.68 8.50 2.39
3.52 8.58 2.39
3.35 8.65 2.39
3.17 8.72 2.39
3.00 8.79 2.39
2.83 8.85 2.39
2.65 8.91 2.39
2.48 8.97 2.39
2.30 9.02 2.39
2.13 9.11 2.40
1.94 9.11 2.39
1.83 9.55 2.49
1.64 9.59 2.49
1.45 9.62 2.49
1.26 9.65 2.49
1.07 9.68 2.49
0.87 9.70 2.49
0.68 9.71 2.49
0.49 9.73 2.49
0.29 9.73 2.49
0.10 9.74 2.49
-0.10 9.74 2.49
-0.29 9.73 2.49
-0.48 9.72 2.49
-0.68 9.71 2.49
-0.87 9.69 2.49
-1.06 9.67 2.49
-1.26 9.65 2.49
-1.45 9.62 2.49
-1.64 9.58 2.49
-1.83 9.54 2.49
-2.02 9.50 2.49
-2.20 9.45 2.49
-2.39 9.40 2.49
-2.58 9.35 2.49
-2.76 9.29 2.49
-2.94 9.22 2.49
-3.12 9.16 2.49
-3.30 9.09 2.49
-3.48 9.01 2.49
-3.07 7.50 2.09
-3.07 7.10 2.00
-3.07 6.72 1.91
-3.07 6.38 1.83
-3.09 6.11 1.77
-3.09 5.81 1.71
-3.09 5.54 1.65
-3.09 5.29 1.59
-3.09 5.06 1.54
-3.09 4.84 1.49
-3.09 4.63 1.45
-3.18 4.57 1.45
-3.32 4.57 1.47
-3.46 4.57 1.50
-3.60 4.56 1.52
-3.75 4.56 1.55
-3.83 4.48 1.55
-3.91 4.39 1.55
-3.99 4.31 1.55
-4.07 4.22 1.55
-4.15 4.13 1.55
-4.22 4.04 1.55
-4.30 3.95 1.55
-4.37 3.85 1.55
-4.44 3.76 1.55
-4.50 3.66 1.55
-4.57 3.57 1.55
-4.66 3.49 1.56
-4.86 3.49 1.60
-5.07 3.49 1.65
-7.42 4.89 2.39
-7.50 4.74 2.39
-7.58 4.58 2.39
-7.66 4.42 2.39
-7.73 4.25 2.39
-7.80 4.09 2.39
-7.87 3.93 2.39
-7.93 3.76 2.39
-7.99 3.60 2.39
-8.04 3.43 2.39
-8.09 3.26 2.39
-8.14 3.09 2.39
-8.19 2.92 2.39
-8.23 2.75 2.39
-8.27 2.58 2.39
-8.30 2.41 2.39
-8.33 2.24 2.39
-8.36 2.07 2.39
-8.38 1.90 2.39
-8.40 1.73 2.39
-8.42 1.56 2.39
-8.43 1.38 2.39
-8.44 1.21 2.39
-8.45 1.04 2.39
-8.45 0.87 2.39
-8.45 0.70 2.39
-8.44 0.53 2.39
-8.44 0.36 2.39
-8.42 0.19 2.39
-8.41 0.02 2.39
-8.39 -0.15 2.39
-8.37 -0.32 2.39
-8.35 -0.48 2.39
-8.32 -0.65 2.39
-8.29 -0.82 2.39
-8.25 -0.98 2.39
-8.22 -1.14 2.39
-8.18 -1.31 2.39
-8.13 -1.47 2.39
-8.09 -1.63 2.39
-8.04 -1.79 2.39
-7.99 -1.94 2.39
-7.93 -2.10 2.39
-7.87 -2.26 2.39
-7.81 -2.41 2.39
-7.75 -2.56 2.39
-7.68 -2.71 2.39
-7.61 -2.86 2.39
-7.54 -3.01 2.39
-7.46 -3.15 2.39
-7.38 -3.30 2.39
-7.30 -3.44 2.39
-7.22 -3.58 2.39
-7.14 -3.72 2.39
-7.05 -3.85 2.39
-6.96 -3.99 2.39
-6.87 -4.12 2.39
-6.77 -4.25 2.39
-6.67 -4.38 2.39
-6.57 -4.51 2.39
-6.47 -4.63 2.39
-6.37 -4.76 2.39
-6.26 -4.88 2.39
-6.15 -4.99 2.39
-6.11 -5.16 2.41
-6.10 -5.37 2.46
-6.07 -5.57 2.49
-5.94 -5.68 2.49
-5.82 -5.79 2.49
-5.70 -5.90 2.49
-5.57 -6.01 2.49
-5.44 -6.11 2.49
-5.31 -6.21 2.49
-5.18 -6.31 2.49
-5.04 -6.40 2.49
-4.91 -6.50 2.49
-4.77 -6.59 2.49
-4.63 -6.68 2.49
-4.49 -6.76 2.49
-4.35 -6.85 2.49
-4.21 -6.93 2.49
-4.06 -7.00 2.49
-3.92 -7.08 2.49
-3.77 -7.15 2.49
-3.62 -7.22 2.49
-3.47 -7.28 2.49
-3.32 -7.35 2.49
-3.17 -7.41 2.49
-3.02 -7.47 2.49
-2.86 -7.52 2.49
-2.71 -7.57 2.49
-2.55 -7.62 2.49
-2.40 -7.67 2.49
-2.24 -7.71 2.49
-2.08 -7.75 2.49
-1.93 -7.79 2.49
-1.77 -7.82 2.49
-1.61 -7.85 2.49
-1.45 -7.88 2.49
-1.29 -7.91 2.49
-1.13 -7.93 2.49
-0.97 -7.95 2.49
-0.81 -7.97 2.49
-0.65 -7.98 2.49
-0.48 -7.99 2.49
-0.32 -8.00 2.49
-0.16 -8.00 2.49
0.00 -7.41 2.49
0.15 -7.41 2.49
0.30 -7.41 2.49
0.45 -7.40 2.49
0.60 -7.39 2.49
0.75 -7.38 2.49
0.90 -7.36 2.49
1.05 -7.35 2.49
1.20 -7.33 2.49
1.35 -7.30 2.49
1.49 -7.28 2.49
1.64 -7.25 2.49
1.79 -7.22 2.49
1.93 -7.18 2.49
2.00 -6.85 2.39
2.13 -6.81 2.39
2.27 -6.77 2.39
2.41 -6.73 2.39
2.55 -6.68 2.39
2.31 -5.71 2.06
2.33 -5.44 1.97
2.32 -5.12 1.87
2.32 -4.85 1.79
3.22 -6.41 2.39
3.35 -6.35 2.39
3.48 -6.29 2.39
2.39 -4.12 1.58
2.47 -4.06 1.57
3.87 -6.08 2.39
4.00 -6.01 2.39
4.12 -5.93 2.39
4.24 -5.85 2.39
4.37 -5.77 2.39
4.49 -5.69 2.39
4.60 -5.60 2.39
4.72 -5.52 2.39
4.84 -5.43 2.39
4.95 -5.33 2.39
5.07 -5.24 2.39
5.16 -5.13 2.38
5.25 -5.01 2.37
5.33 -4.88 2.36
5.41 -4.76 2.35
5.49 -4.63 2.34
5.56 -4.51 2.33
5.63 -4.38 2.32
5.71 -4.26 2.31
5.78 -4.13 2.30
5.86 -4.01 2.29
5.93 -3.89 2.29
6.00 -3.77 2.28
6.08 -3.64 2.28
6.15 -3.52 2.28
6.22 -3.40 2.27
6.29 -3.27 2.27
6.36 -3.15 2.27
6.41 -3.01 2.26
6.44 -2.87 2.25
6.47 -2.73 2.23
6.50 -2.59 2.22
6.52 -2.45 2.21
6.55 -2.31 2.20
6.58 -2.17 2.19
6.60 -2.03 2.18
6.63 -1.89 2.17
6.65 -1.76 2.16
6.67 -1.62 2.15
6.70 -1.48 2.15
6.72 -1.35 2.14
6.74 -1.21 2.14
6.75 -1.07 2.13
6.77 -0.94 2.13
6.79 -0.80 2.12
6.80 -0.67 2.12
6.82 -0.53 2.12
6.84 -0.39 2.12
6.86 -0.26 2.12
6.88 -0.12 2.12
6.89 0.02 2.11
6.90 0.16 2.12
6.91 0.30 2.12
6.92 0.44 2.12
6.93 0.58 2.12
6.94 0.72 2.12
6.95 0.86 2.13
6.95 1.00 2.13
6.96 1.15 2.13
7.00 1.30 2.15
7.04 1.45 2.17
7.09 1.61 2.19
7.13 1.77 2.21
7.12 1.92 2.21
7.12 2.07 2.22
3.76 1.18 1.18
3.66 1.23 1.15
3.59 1.28 1.14
3.55 1.35 1.13
3.52 1.42 1.13
3.51 1.50 1.13
3.52 1.59 1.14
3.56 1.69 1.16
7.10 3.55 2.34
7.13 3.74 2.37
7.10 3.91 2.38
7.07 4.08 2.39
7.03 4.25 2.40
6.99 4.42 2.42
6.95 4.59 2.43
6.90 4.76 2.44
6.86 4.93 2.46
6.81 5.10 2.47
6.75 5.28 2.49
6.70 5.45 2.50
6.71 5.69 2.54
6.67 5.89 2.57
6.57 6.04 2.57
6.47 6.18 2.58
5.88 5.86 2.39
5.77 5.98 2.39
5.66 6.10 2.39
5.54 6.22 2.39
5.42 6.34 2.39
5.30 6.45 2.39
5.18 6.57 2.39
5.05 6.68 2.39
4.92 6.78 2.39
4.79 6.89 2.39
4.66 6.99 2.39
4.52 7.09 2.39
4.39 7.18 2.39
4.25 7.28 2.39
4.10 7.37 2.39
3.96 7.45 2.39
3.81 7.54 2.39
3.67 7.62 2.39
3.52 7.70 2.39
3.37 7.77 2.39
3.21 7.84 2.39
3.06 7.91 2.39
2.90 7.97 2.39
2.74 8.04 2.39
2.58 8.09 2.39
2.42 8.15 2.39
2.26 8.20 2.39
2.10 8.25 2.39
1.93 8.29 2.39
1.85 8.69 2.49
1.67 8.73 2.49
1.50 8.76 2.49
1.33 8.79 2.49
1.15 8.82 2.49
0.97 8.84 2.49
0.80 8.86 2.49
0.62 8.88 2.49
0.44 8.89 2.49
0.27 8.89 2.49
0.09 8.90 2.49
-0.09 8.90 2.49
-0.26 8.89 2.49
-0.44 8.89 2.49
-0.62 8.87 2.49
-0.79 8.86 2.49
-0.97 8.84 2.49
-1.15 8.81 2.49
-1.32 8.79 2.49
-1.50 8.76 2.49
-1.67 8.72 2.49
-1.84 8.68 2.49
-2.01 8.64 2.49
-2.18 8.59 2.49
-2.35 8.54 2.49
-2.52 8.49 2.49
-2.69 8.43 2.49
-2.85 8.37 2.49
-3.02 8.31 2.49
-3.18 8.24 2.49
-3.34 8.17 2.49
-3.07 7.10 2.18
-3.07 6.73 2.09
-2.95 6.13 1.92
-3.02 5.97 1.89
-3.09 5.82 1.87
-3.09 5.55 1.80
-3.09 5.29 1.74
-3.09 5.06 1.68
-3.09 4.84 1.63
-3.09 4.63 1.59
-3.10 4.46 1.55
-3.18 4.39 1.55
-3.27 4.32 1.55
-3.35 4.25 1.55
-3.43 4.17 1.55
-3.51 4.10 1.55
-3.58 4.02 1.55
-3.66 3.94 1.55
-3.73 3.86 1.55
-3.80 3.78 1.55
-3.87 3.70 1.55
-3.93 3.62 1.55
-4.00 3.53 1.55
-4.12 3.49 1.57
-4.29 3.49 1.61
-4.47 3.49 1.65
-4.66 3.49 1.70
-4.85 3.49 1.75
-5.06 3.49 1.80
-6.80 4.49 2.39
-6.88 4.35 2.39
-6.95 4.20 2.39
-7.02 4.06 2.39
-7.09 3.91 2.39
-7.16 3.76 2.39
-7.22 3.61 2.39
-7.28 3.46 2.39
-7.33 3.31 2.39
-7.38 3.15 2.39
-7.43 3.00 2.39
-7.48 2.85 2.39
-7.52 2.69 2.39
-7.56 2.53 2.39
-7.59 2.38 2.39
-7.62 2.22 2.39
-7.65 2.07 2.39
-7.68 1.91 2.39
-7.70 1.75 2.39
-7.72 1.59 2.39
-7.74 1.44 2.39
-7.75 1.28 2.39
-7.76 1.12 2.39
-7.77 0.96 2.39
-7.77 0.80 2.39
-7.77 0.65 2.39
-7.77 0.49 2.39
-7.76 0.33 2.39
-7.75 0.18 2.39
-7.74 0.02 2.39
-7.73 -0.13 2.39
-7.71 -0.29 2.39
-7.69 -0.44 2.39
-7.66 -0.59 2.39
-7.64 -0.75 2.39
-7.60 -0.90 2.39
-7.57 -1.05 2.39
-7.54 -1.20 2.39
-7.50 -1.35 2.39
-7.46 -1.50 2.39
-7.41 -1.64 2.39
-7.36 -1.79 2.39
-7.31 -1.93 2.39
-7.26 -2.08 2.39
-7.20 -2.22 2.39
-7.15 -2.36 2.39
-7.09 -2.50 2.39
-7.02 -2.63 2.39
-6.96 -2.77 2.39
-6.89 -2.91 2.39
-6.82 -3.04 2.39
-6.74 -3.17 2.39
-6.67 -3.30 2.39
-6.59 -3.43 2.39
-6.51 -3.56 2.39
-6.43 -3.68 2.39
-6.34 -3.80 2.39
-6.25 -3.92 2.39
-6.17 -4.04 2.39
-6.11 -4.19 2.40
-6.10 -4.36 2.44
-6.10 -4.55 2.47
-6.04 -4.70 2.49
-5.93 -4.81 2.49
-5.83 -4.92 2.49
-5.72 -5.03 2.49
-5.61 -5.14 2.49
-5.50 -5.25 2.49
-5.38 -5.35 2.49
-5.27 -5.45 2.49
-5.15 -5.55 2.49
-5.03 -5.65 2.49
-4.91 -5.74 2.49
-4.79 -5.83 2.49
-4.67 -5.92 2.49
-4.54 -6.01 2.49
-4.41 -6.09 2.49
-4.29 -6.18 2.49
-4.16 -6.26 2.49
-4.03 -6.33 2.49
-3.89 -6.41 2.49
-3.76 -6.48 2.49
-3.63 -6.55 2.49
-3.49 -6.61 2.49
-3.35 -6.68 2.49
-3.21 -6.74 2.49
-3.08 -6.80 2.49
-2.94 -6.86 2.49
-2.79 -6.91 2.49
-2.65 -6.96 2.49
-2.51 -7.01 2.49
-2.37 -7.05 2.49
-2.22 -7.10 2.49
-2.08 -7.14 2.49
-1.93 -7.18 2.49
-1.78 -7.21 2.49
-1.64 -7.24 2.49
-1.49 -7.27 2.49
-1.34 -7.30 2.49
-1.19 -7.32 2.49
-1.05 -7.34 2.49
-0.90 -7.36 2.49
-0.75 -7.38 2.49
-0.60 -7.39 2.49
-0.45 -7.40 2.49
-0.30 -7.41 2.49
-0.15 -7.41 2.49
0.00 -6.89 2.49
0.14 -6.89 2.49
0.28 -6.89 2.49
0.42 -6.88 2.49
0.56 -6.87 2.49
0.70 -6.86 2.49
0.84 -6.85 2.49
0.98 -6.83 2.49
1.11 -6.81 2.49
1.25 -6.79 2.49
1.39 -6.77 2.49
1.53 -6.74 2.49
1.66 -6.71 2.49
1.80 -6.68 2.49
1.93 -6.63 2.49
1.99 -6.33 2.39
2.12 -6.29 2.39
2.24 -6.25 2.39
2.37 -6.21 2.39
2.50 -6.17 2.39
2.49 -5.80 2.26
2.31 -5.10 2.01
2.33 -4.88 1.94
2.30 -4.57 1.83
2.32 -4.39 1.77
2.46 -4.43 1.81
2.39 -4.11 1.70
2.47 -4.06 1.69
3.60 -5.65 2.39
3.71 -5.58 2.39
3.83 -5.51 2.39
3.94 -5.44 2.39
4.06 -5.36 2.39
4.17 -5.28 2.39
4.28 -5.20 2.39
4.39 -5.12 2.39
4.50 -5.04 2.39
4.60 -4.95 2.39
4.71 -4.86 2.39
4.81 -4.77 2.39
4.91 -4.68 2.39
5.00 -4.58 2.38
5.08 -4.46 2.37
5.15 -4.35 2.36
5.23 -4.24 2.36
5.30 -4.12 2.35
5.38 -4.01 2.34
5.45 -3.89 2.33
5.52 -3.77 2.33
5.58 -3.66 2.32
5.65 -3.54 2.31
5.72 -3.43 2.31
5.79 -3.31 2.31
5.86 -3.19 2.31
5.93 -3.08 2.30
5.99 -2.96 2.30
6.05 -2.84 2.30
6.11 -2.72 2.30
6.17 -2.60 2.30
6.23 -2.48 2.29
6.28 -2.35 2.29
6.33 -2.23 2.29
6.39 -2.10 2.29
6.42 -1.97 2.29
6.44 -1.84 2.28
6.47 -1.70 2.27
6.49 -1.57 2.26
6.51 -1.44 2.25
6.53 -1.31 2.25
6.55 -1.17 2.24
6.57 -1.04 2.24
6.58 -0.91 2.23
6.60 -0.78 2.23
6.62 -0.64 2.22
6.63 -0.51 2.22
6.65 -0.38 2.22
6.67 -0.24 2.22
6.68 -0.11 2.22
6.69 0.02 2.22
6.70 0.16 2.22
6.71 0.29 2.22
6.72 0.43 2.22
6.73 0.56 2.23
6.74 0.70 2.23
6.74 0.84 2.23
6.75 0.98 2.24
6.75 1.12 2.24
6.76 1.26 2.25
6.77 1.40 2.25
6.81 1.55 2.27
6.85 1.70 2.29
6.85 1.85 2.30
6.85 2.00 2.31
3.76 1.18 1.27
3.65 1.23 1.24
3.59 1.29 1.23
3.55 1.35 1.22
3.52 1.42 1.22
3.51 1.50 1.22
3.52 1.59 1.24
3.57 1.70 1.26
6.72 3.36 2.40
6.71 3.53 2.42
6.73 3.71 2.44
6.71 3.88 2.46
6.67 4.04 2.47
6.63 4.19 2.49
6.59 4.35 2.50
6.54 4.51 2.51
6.50 4.68 2.52
6.45 4.84 2.54
6.39 5.00 2.55
5.89 4.80 2.39
5.80 4.92 2.39
5.71 5.04 2.39
5.61 5.16 2.39
5.52 5.28 2.39
5.42 5.40 2.39
5.31 5.51 2.39
5.21 5.62 2.39
5.10 5.73 2.39
4.99 5.84 2.39
4.88 5.95 2.39
4.77 6.05 2.39
4.65 6.15 2.39
4.53 6.25 2.39
4.41 6.34 2.39
4.29 6.44 2.39
4.16 6.53 2.39
4.04 6.61 2.39
3.91 6.70 2.39
3.78 6.78 2.39
3.64 6.86 2.39
3.51 6.94 2.39
3.37 7.01 2.39
3.23 7.08 2.39
3.09 7.15 2.39
2.95 7.22 2.39
2.81 7.28 2.39
2.67 7.34 2.39
2.52 7.39 2.39
2.38 7.45 2.39
2.23 7.49 2.39
2.08 7.54 2.39
1.93 7.59 2.39
1.86 7.95 2.49
1.70 7.99 2.49
1.54 8.03 2.49
1.38 8.06 2.49
1.22 8.09 2.49
1.06 8.11 2.49
0.90 8.13 2.49
0.73 8.15 2.49
0.57 8.16 2.49
0.41 8.17 2.49
0.25 8.18 2.49
0.08 8.18 2.49
-0.08 8.18 2.49
-0.24 8.18 2.49
-0.41 8.17 2.49
-0.57 8.16 2.49
-0.73 8.15 2.49
-0.89 8.13 2.49
-1.05 8.11 2.49
-1.21 8.08 2.49
-1.37 8.05 2.49
-1.53 8.02 2.49
-1.69 7.99 2.49
-1.85 7.95 2.49
-2.01 7.90 2.49
-2.16 7.86 2.49
-2.32 7.81 2.49
-2.47 7.76 2.49
-2.62 7.70 2.49
-2.78 7.64 2.49
-2.93 7.58 2.49
-3.07 7.52 2.49
-3.22 7.45 2.49
-3.07 6.73 2.27
-2.89 6.01 2.05
-2.97 5.88 2.03
-3.08 5.80 2.02
-3.09 5.55 1.96
-3.09 5.30 1.89
-3.09 5.06 1.83
-3.09 4.84 1.77
-3.09 4.64 1.72
-3.05 4.39 1.66
-3.05 4.21 1.61
-3.05 4.04 1.57
-3.08 3.91 1.55
-3.15 3.84 1.55
-3.23 3.78 1.55
-3.30 3.71 1.55
-3.37 3.63 1.55
-3.43 3.56 1.55
-3.50 3.49 1.55
-3.65 3.49 1.58
-3.80 3.49 1.62
-3.95 3.49 1.66
-4.11 3.49 1.70
-4.28 3.49 1.74
-4.46 3.49 1.79
-4.65 3.49 1.84
-4.76 3.43 1.86
-4.81 3.32 1.85
-4.91 3.25 1.87
-6.34 4.01 2.39
-6.41 3.88 2.39
-6.48 3.75 2.39
-6.54 3.61 2.39
-6.60 3.47 2.39
-6.66 3.34 2.39
-6.71 3.20 2.39
-6.77 3.06 2.39
-6.81 2.92 2.39
-6.86 2.77 2.39
-6.90 2.63 2.39
-6.94 2.49 2.39
-6.98 2.35 2.39
-7.01 2.20 2.39
-7.04 2.06 2.39
-7.07 1.91 2.39
-7.10 1.77 2.39
-7.12 1.62 2.39
-7.14 1.48 2.39
-7.15 1.33 2.39
-7.17 1.19 2.39
-7.18 1.04 2.39
-7.18 0.89 2.39
-7.19 0.75 2.39
-7.19 0.60 2.39
-7.19 0.46 2.39
-7.18 0.31 2.39
-7.17 0.17 2.39
-7.16 0.03 2.39
-7.15 -0.12 2.39
-7.14 -0.26 2.39
-7.12 -0.40 2.39
-7.09 -0.55 2.39
-7.07 -0.69 2.39
-7.04 -0.83 2.39
-7.01 -0.97 2.39
-6.98 -1.11 2.39
-6.95 -1.24 2.39
-6.91 -1.38 2.39
-6.87 -1.52 2.39
-6.82 -1.65 2.39
-6.78 -1.79 2.39
-6.73 -1.92 2.39
-6.68 -2.05 2.39
-6.63 -2.18 2.39
-6.57 -2.31 2.39
-6.51 -2.44 2.39
-6.45 -2.57 2.39
-6.39 -2.69 2.39
-6.32 -2.81 2.39
-6.26 -2.94 2.39
-6.19 -3.06 2.39
-6.12 -3.18 2.39
-6.11 -3.33 2.41
-6.11 -3.49 2.44
-6.10 -3.66 2.47
-6.06 -3.80 2.49
-5.97 -3.91 2.49
-5.88 -4.03 2.49
-5.79 -4.14 2.49
-5.70 -4.25 2.49
-5.61 -4.36 2.49
-5.51 -4.46 2.49
-5.41 -4.57 2.49
-5.31 -4.67 2.49
-5.21 -4.77 2.49
-5.11 -4.87 2.49
-5.00 -4.97 2.49
-4.90 -5.06 2.49
-4.79 -5.15 2.49
-4.68 -5.24 2.49
-4.57 -5.33 2.49
-4.45 -5.42 2.49
-4.34 -5.50 2.49
-4.22 -5.58 2.49
-4.10 -5.66 2.49
-3.99 -5.74 2.49
-3.87 -5.81 2.49
-3.74 -5.88 2.49
-3.62 -5.95 2.49
-3.50 -6.02 2.49
-3.37 -6.09 2.49
-3.25 -6.15 2.49
-3.12 -6.21 2.49
-2.99 -6.27 2.49
-2.86 -6.32 2.49
-2.73 -6.37 2.49
-2.60 -6.42 2.49
-2.47 -6.47 2.49
-2.33 -6.52 2.49
-2.20 -6.56 2.49
-2.07 -6.60 2.49
-1.93 -6.64 2.49
-1.80 -6.67 2.49
-1.66 -6.70 2.49
-1.52 -6.73 2.49
-1.39 -6.76 2.49
-1.25 -6.79 2.49
-1.11 -6.81 2.49
-0.97 -6.83 2.49
-0.83 -6.85 2.49
-0.70 -6.86 2.49
-0.56 -6.87 2.49
-0.42 -6.88 2.49
-0.28 -6.89 2.49
-0.14 -6.89 2.49
0.00 -6.44 2.49
0.13 -6.44 2.49
0.26 -6.43 2.49
0.39 -6.43 2.49
0.52 -6.42 2.49
0.65 -6.41 2.49
0.78 -6.39 2.49
0.91 -6.38 2.49
1.04 -6.36 2.49
1.17 -6.34 2.49
1.30 -6.32 2.49
1.43 -6.29 2.49
1.56 -6.26 2.49
1.68 -6.23 2.49
1.81 -6.20 2.49
1.93 -6.16 2.49
1.98 -5.87 2.39
2.10 -5.84 2.39
2.22 -5.82 2.40
2.33 -5.75 2.39
2.45 -5.71 2.39
2.57 -5.66 2.39
2.30 -4.82 2.05
2.31 -4.60 1.97
2.32 -4.39 1.90
2.29 -4.12 1.80
2.32 -3.98 1.76
2.47 -4.06 1.82
3.36 -5.27 2.39
3.47 -5.21 2.39
3.58 -5.14 2.39
3.68 -5.07 2.39
3.79 -5.00 2.39
3.89 -4.93 2.39
3.99 -4.85 2.39
4.10 -4.78 2.39
4.20 -4.70 2.39
4.29 -4.62 2.39
4.39 -4.53 2.39
4.49 -4.45 2.39
4.58 -4.36 2.39
4.67 -4.27 2.39
4.77 -4.18 2.39
4.85 -4.09 2.39
4.94 -3.99 2.38
5.01 -3.89 2.38
5.08 -3.78 2.37
5.14 -3.67 2.36
5.21 -3.56 2.36
5.27 -3.45 2.35
5.34 -3.34 2.34
5.40 -3.23 2.34
5.47 -3.12 2.34
5.53 -3.01 2.34
5.59 -2.90 2.33
5.65 -2.79 2.33
5.71 -2.68 2.33
5.77 -2.56 2.33
5.82 -2.45 2.33
5.88 -2.33 2.32
5.92 -2.21 2.32
5.97 -2.09 2.32
6.01 -1.97 2.32
6.06 -1.86 2.32
6.11 -1.74 2.32
6.16 -1.62 2.32
6.21 -1.50 2.32
6.25 -1.38 2.33
6.30 -1.26 2.33
6.34 -1.13 2.33
6.38 -1.01 2.34
6.41 -0.88 2.33
6.42 -0.75 2.33
6.44 -0.62 2.33
6.45 -0.49 2.32
6.46 -0.36 2.32
6.48 -0.23 2.32
6.49 -0.10 2.32
6.50 0.03 2.32
6.51 0.16 2.32
6.52 0.29 2.32
6.53 0.42 2.32
6.54 0.55 2.33
6.55 0.69 2.33
6.55 0.82 2.33
6.56 0.95 2.34
6.56 1.09 2.34
6.56 1.22 2.35
6.56 1.36 2.35
6.56 1.50 2.36
6.58 1.64 2.37
3.68 1.00 1.33
3.66 1.07 1.33
3.75 1.18 1.37
3.65 1.23 1.34
3.59 1.29 1.32
3.54 1.35 1.32
3.52 1.42 1.31
3.51 1.50 1.32
3.52 1.59 1.33
3.57 1.70 1.36
6.46 3.24 2.49
6.43 3.39 2.50
6.41 3.54 2.51
6.38 3.69 2.53
6.32 3.83 2.53
5.90 3.74 2.39
5.83 3.86 2.39
5.76 3.98 2.39
5.69 4.10 2.39
5.61 4.22 2.39
5.53 4.33 2.39
5.45 4.45 2.39
5.37 4.56 2.39
5.29 4.68 2.39
5.20 4.79 2.39
5.11 4.89 2.39
5.01 5.00 2.39
4.92 5.11 2.39
4.82 5.21 2.39
4.72 5.31 2.39
4.62 5.41 2.39
4.52 5.51 2.39
4.41 5.60 2.39
4.30 5.69 2.39
4.19 5.78 2.39
4.08 5.87 2.39
3.97 5.96 2.39
3.85 6.04 2.39
3.73 6.12 2.39
3.61 6.20 2.39
3.49 6.28 2.39
3.37 6.35 2.39
3.24 6.42 2.39
3.12 6.49 2.39
2.99 6.55 2.39
2.86 6.62 2.39
2.73 6.68 2.39
2.60 6.73 2.39
2.47 6.79 2.39
2.33 6.84 2.39
2.20 6.89 2.39
2.06 6.93 2.39
1.93 7.01 2.40
1.86 7.32 2.49
1.72 7.36 2.49
1.57 7.39 2.49
1.42 7.42 2.49
1.27 7.45 2.49
1.13 7.48 2.49
0.98 7.50 2.49
0.83 7.52 2.49
0.68 7.54 2.49
0.53 7.55 2.49
0.38 7.56 2.49
0.23 7.56 2.49
0.08 7.57 2.49
-0.07 7.57 2.49
-0.22 7.56 2.49
-0.37 7.56 2.49
-0.52 7.55 2.49
-0.67 7.53 2.49
-0.82 7.52 2.49
-0.97 7.50 2.49
-1.12 7.47 2.49
-1.27 7.45 2.49
-1.42 7.42 2.49
-1.56 7.39 2.49
-1.71 7.35 2.49
-1.86 7.31 2.49
-2.00 7.27 2.49
-2.14 7.22 2.49
-2.29 7.18 2.49
-2.43 7.13 2.49
-2.57 7.07 2.49
-2.70 7.01 2.49
-2.84 6.95 2.49
-2.98 6.89 2.49
-3.11 6.83 2.49
-2.88 6.01 2.21
-2.96 5.86 2.18
-3.07 5.79 2.18
-3.09 5.56 2.12
-3.09 5.30 2.04
-3.09 5.07 1.98
-3.09 4.85 1.92
-3.09 4.64 1.86
-3.05 4.40 1.79
-3.05 4.21 1.74
-3.05 4.04 1.70
-3.05 3.88 1.66
-3.05 3.72 1.62
-3.05 3.57 1.58
-3.11 3.49 1.57
-3.23 3.49 1.60
-3.36 3.49 1.64
-3.50 3.49 1.67
-3.64 3.49 1.71
-3.79 3.49 1.75
-3.95 3.49 1.79
-4.11 3.49 1.83
-4.28 3.49 1.88
-4.46 3.49 1.93
-4.64 3.49 1.98
-4.66 3.36 1.96
-4.72 3.26 1.96
-4.80 3.18 1.97
-4.94 3.13 2.01
-6.12 3.71 2.46
-6.12 3.54 2.43
-6.12 3.38 2.41
-6.13 3.23 2.39
-6.18 3.10 2.39
-6.23 2.97 2.39
-6.28 2.84 2.39
-6.32 2.71 2.39
-6.36 2.58 2.39
-6.40 2.45 2.39
-6.44 2.31 2.39
-6.48 2.18 2.39
-6.51 2.05 2.39
-6.54 1.91 2.39
-6.57 1.78 2.39
-6.59 1.65 2.39
-6.61 1.51 2.39
-6.63 1.38 2.39
-6.64 1.24 2.39
-6.66 1.11 2.39
-6.67 0.97 2.39
-6.67 0.84 2.39
-6.68 0.70 2.39
-6.68 0.57 2.39
-6.68 0.43 2.39
-6.68 0.30 2.39
-6.67 0.16 2.39
-6.66 0.03 2.39
-6.65 -0.11 2.39
-6.63 -0.24 2.39
-6.62 -0.37 2.39
-6.60 -0.50 2.39
-6.58 -0.63 2.39
-6.55 -0.77 2.39
-6.52 -0.90 2.39
-6.50 -1.03 2.39
-6.46 -1.15 2.39
-6.43 -1.28 2.39
-6.39 -1.41 2.39
-6.35 -1.53 2.39
-6.31 -1.66 2.39
-6.27 -1.78 2.39
-6.22 -1.91 2.39
-6.17 -2.03 2.39
-6.12 -2.15 2.39
-6.12 -2.29 2.41
-6.11 -2.43 2.43
-6.11 -2.57 2.45
-6.11 -2.71 2.47
-6.08 -2.85 2.49
-6.01 -2.97 2.49
-5.95 -3.08 2.49
-5.87 -3.20 2.49
-5.80 -3.31 2.49
-5.72 -3.42 2.49
-5.65 -3.53 2.49
-5.57 -3.64 2.49
-5.49 -3.75 2.49
-5.40 -3.86 2.49
-5.32 -3.96 2.49
-5.23 -4.06 2.49
-5.14 -4.16 2.49
-5.05 -4.26 2.49
-4.96 -4.35 2.49
-4.86 -4.45 2.49
-4.77 -4.54 2.49
-4.67 -4.63 2.49
-4.57 -4.72 2.49
-4.47 -4.81 2.49
-4.37 -4.89 2.49
-4.26 -4.97 2.49
-4.16 -5.05 2.49
-4.05 -5.13 2.49
-3.94 -5.21 2.49
-3.83 -5.28 2.49
-3.72 -5.35 2.49
-3.61 -5.42 2.49
-3.49 -5.49 2.49
-3.38 -5.55 2.49
-3.26 -5.62 2.49
-3.15 -5.68 2.49
-3.03 -5.74 2.49
-2.91 -5.79 2.49
-2.79 -5.85 2.49
-2.67 -5.90 2.49
-2.55 -5.95 2.49
-2.43 -6.00 2.49
-2.30 -6.04 2.49
-2.18 -6.08 2.49
-2.06 -6.12 2.49
-1.93 -6.16 2.49
-1.80 -6.20 2.49
-1.68 -6.23 2.49
-1.55 -6.26 2.49
-1.42 -6.29 2.49
-1.30 -6.31 2.49
-1.17 -6.34 2.49
-1.04 -6.36 2.49
-0.91 -6.38 2.49
-0.78 -6.39 2.49
-0.65 -6.41 2.49
-0.52 -6.42 2.49
-0.39 -6.43 2.49
-0.26 -6.43 2.49
-0.13 -6.44 2.49
0.00 -6.03 2.49
0.12 -6.03 2.49
0.25 -6.03 2.49
0.37 -6.02 2.49
0.49 -6.01 2.49
0.61 -6.00 2.49
0.73 -5.99 2.49
0.86 -5.97 2.49
0.98 -5.96 2.49
1.10 -5.94 2.49
1.22 -5.92 2.49
1.34 -5.89 2.49
1.46 -5.87 2.49
1.58 -5.84 2.49
1.70 -5.81 2.49
1.81 -5.77 2.49
1.93 -5.74 2.49
1.96 -5.47 2.39
2.08 -5.43 2.39
2.21 -5.45 2.41
2.30 -5.35 2.39
2.41 -5.30 2.39
2.51 -5.25 2.39
2.62 -5.21 2.39
2.29 -4.33 2.00
2.31 -4.17 1.95
2.29 -3.94 1.86
2.28 -3.74 1.79
3.15 -4.93 2.39
3.25 -4.87 2.39
3.35 -4.81 2.39
3.45 -4.75 2.39
2.57 -3.39 1.73
3.64 -4.61 2.39
3.74 -4.54 2.39
3.84 -4.47 2.39
3.93 -4.39 2.39
4.02 -4.32 2.39
4.11 -4.24 2.39
4.20 -4.16 2.39
4.29 -4.08 2.39
4.37 -4.00 2.39
4.46 -3.91 2.39
4.54 -3.83 2.39
4.62 -3.74 2.39
4.70 -3.65 2.39
4.78 -3.56 2.39
4.86 -3.46 2.39
4.93 -3.37 2.38
4.99 -3.26 2.38
5.05 -3.16 2.37
5.11 -3.05 2.37
5.17 -2.95 2.37
5.23 -2.84 2.36
5.29 -2.74 2.36
5.35 -2.63 2.36
5.40 -2.53 2.36
5.46 -2.42 2.36
5.51 -2.31 2.35
5.55 -2.20 2.35
5.59 -2.09 2.35
5.64 -1.97 2.34
5.68 -1.86 2.34
5.71 -1.75 2.34
5.75 -1.63 2.34
5.80 -1.52 2.34
5.84 -1.41 2.34
5.89 -1.29 2.34
5.93 -1.18 2.35
5.97 -1.06 2.35
6.00 -0.94 2.35
6.04 -0.82 2.36
6.07 -0.71 2.36
6.10 -0.59 2.36
6.13 -0.46 2.37
6.16 -0.34 2.37
6.19 -0.22 2.38
6.23 -0.10 2.39
6.25 0.03 2.39
6.27 0.16 2.39
6.29 0.28 2.40
6.30 0.41 2.40
6.32 0.54 2.41
6.33 0.67 2.42
6.34 0.80 2.42
6.35 0.93 2.43
6.35 1.06 2.43
6.36 1.19 2.44
6.36 1.32 2.45
6.36 1.46 2.45
6.35 1.59 2.46
6.35 1.72 2.47
6.34 1.86 2.47
3.75 1.18 1.47
3.65 1.23 1.44
3.59 1.29 1.42
3.54 1.36 1.41
3.52 1.43 1.41
3.51 1.50 1.42
3.52 1.59 1.43
3.57 1.70 1.46
5.77 2.90 2.39
5.72 3.02 2.39
5.67 3.13 2.39
5.61 3.25 2.39
5.55 3.37 2.39
5.49 3.48 2.39
5.43 3.59 2.39
5.36 3.71 2.39
5.29 3.82 2.39
5.22 3.93 2.39
5.15 4.04 2.39
5.07 4.14 2.39
5.00 4.25 2.39
4.92 4.35 2.39
4.83 4.45 2.39
4.75 4.56 2.39
4.66 4.65 2.39
4.57 4.75 2.39
4.48 4.85 2.39
4.39 4.94 2.39
4.30 5.03 2.39
4.20 5.12 2.39
4.10 5.21 2.39
4.00 5.30 2.39
3.90 5.38 2.39
3.79 5.46 2.39
3.69 5.54 2.39
3.58 5.62 2.39
3.47 5.69 2.39
3.36 5.76 2.39
3.24 5.83 2.39
3.13 5.90 2.39
3.01 5.97 2.39
2.90 6.03 2.39
2.78 6.09 2.39
2.66 6.15 2.39
2.54 6.20 2.39
2.41 6.26 2.39
2.29 6.31 2.39
2.16 6.35 2.39
2.04 6.40 2.39
1.93 6.50 2.41
1.86 6.76 2.49
1.73 6.80 2.49
1.59 6.83 2.49
1.46 6.87 2.49
1.32 6.90 2.49
1.18 6.92 2.49
1.05 6.95 2.49
0.91 6.97 2.49
0.77 6.99 2.49
0.63 7.00 2.49
0.49 7.01 2.49
0.35 7.02 2.49
0.21 7.03 2.49
0.07 7.03 2.49
-0.07 7.03 2.49
-0.21 7.03 2.49
-0.35 7.02 2.49
-0.49 7.01 2.49
-0.63 7.00 2.49
-0.77 6.98 2.49
-0.90 6.96 2.49
-1.04 6.94 2.49
-1.18 6.92 2.49
-1.32 6.89 2.49
-1.45 6.86 2.49
-1.59 6.83 2.49
-1.72 6.79 2.49
-1.86 6.76 2.49
-1.99 6.71 2.49
-2.12 6.67 2.49
-2.25 6.62 2.49
-2.38 6.57 2.49
-2.51 6.52 2.49
-2.64 6.46 2.49
-2.77 6.41 2.49
-2.89 6.35 2.49
-3.01 6.28 2.49
-3.01 5.96 2.39
-3.10 5.86 2.37
-3.09 5.56 2.28
-3.09 5.31 2.20
-3.09 5.07 2.13
-3.09 4.85 2.06
-3.09 4.64 2.00
-3.05 4.40 1.93
-3.05 4.22 1.87
-3.05 4.05 1.83
-3.05 3.88 1.78
-3.05 3.73 1.74
-3.05 3.58 1.70
-3.10 3.49 1.69
-3.23 3.49 1.72
-3.36 3.49 1.76
-3.50 3.49 1.80
-3.64 3.49 1.83
-3.79 3.49 1.88
-3.94 3.49 1.92
-4.10 3.49 1.97
-4.27 3.49 2.02
-4.45 3.49 2.07
-4.60 3.46 2.11
-4.62 3.34 2.09
-4.67 3.23 2.09
-4.76 3.15 2.10
-4.89 3.10 2.13
-5.77 3.50 2.49
-5.83 3.38 2.49
-5.89 3.26 2.49
-5.95 3.14 2.49
-6.00 3.01 2.49
-6.05 2.89 2.49
-6.10 2.76 2.49
-6.12 2.63 2.48
-6.12 2.48 2.46
-6.12 2.34 2.45
-6.12 2.20 2.43
-6.12 2.07 2.42
-6.12 1.93 2.41
-6.12 1.80 2.40
-6.13 1.67 2.39
-6.14 1.54 2.39
-6.16 1.41 2.39
-6.18 1.29 2.39
-6.19 1.16 2.39
-6.21 1.04 2.39
-6.22 0.91 2.39
-6.22 0.78 2.39
-6.23 0.66 2.39
-6.23 0.53 2.39
-6.23 0.41 2.39
-6.23 0.28 2.39
-6.22 0.15 2.39
-6.22 0.03 2.39
-6.21 -0.09 2.39
-6.19 -0.22 2.39
-6.18 -0.34 2.39
-6.16 -0.47 2.39
-6.14 -0.59 2.39
-6.12 -0.71 2.39
-6.12 -0.84 2.40
-6.12 -0.96 2.41
-6.12 -1.09 2.42
-6.11 -1.21 2.43
-6.11 -1.34 2.44
-6.11 -1.47 2.46
-6.11 -1.60 2.47
-6.11 -1.73 2.49
-6.06 -1.85 2.49
-6.02 -1.97 2.49
-5.97 -2.09 2.49
-5.92 -2.21 2.49
-5.86 -2.32 2.49
-5.81 -2.44 2.49
-5.75 -2.55 2.49
-5.69 -2.66 2.49
-5.62 -2.77 2.49
-5.56 -2.88 2.49
-5.49 -2.99 2.49
-5.43 -3.09 2.49
-5.36 -3.20 2.49
-5.28 -3.30 2.49
-5.21 -3.40 2.49
-5.13 -3.50 2.49
-5.06 -3.60 2.49
-4.98 -3.70 2.49
-4.89 -3.80 2.49
-4.81 -3.89 2.49
-4.73 -3.98 2.49
-4.64 -4.07 2.49
-4.55 -4.16 2.49
-4.46 -4.25 2.49
-4.37 -4.33 2.49
-4.28 -4.41 2.49
-4.18 -4.50 2.49
-4.09 -4.57 2.49
-3.99 -4.65 2.49
-3.89 -4.73 2.49
-3.79 -4.80 2.49
-3.69 -4.87 2.49
-3.59 -4.94 2.49
-3.48 -5.01 2.49
-3.38 -5.07 2.49
-3.27 -5.14 2.49
-3.17 -5.20 2.49
-3.06 -5.26 2.49
-2.95 -5.32 2.49
-2.84 -5.37 2.49
-2.73 -5.42 2.49
-2.62 -5.47 2.49
-2.50 -5.52 2.49
-2.39 -5.57 2.49
-2.27 -5.61 2.49
-2.16 -5.66 2.49
-2.04 -5.70 2.49
-1.93 -5.73 2.49
-1.81 -5.77 2.49
-1.69 -5.80 2.49
-1.57 -5.83 2.49
-1.45 -5.86 2.49
-1.33 -5.89 2.49
-1.21 -5.91 2.49
-1.09 -5.93 2.49
-0.97 -5.95 2.49
-0.85 -5.97 2.49
-0.73 -5.99 2.49
-0.61 -6.00 2.49
-0.49 -6.01 2.49
-0.37 -6.02 2.49
-0.24 -6.02 2.49
-0.12 -6.03 2.49
0.00 -5.66 2.49
0.12 -5.66 2.49
0.23 -5.66 2.49
0.35 -5.66 2.49
0.46 -5.65 2.49
0.58 -5.64 2.49
0.69 -5.63 2.49
0.80 -5.61 2.49
0.92 -5.60 2.49
1.03 -5.58 2.49
1.14 -5.56 2.49
1.26 -5.54 2.49
1.37 -5.51 2.49
1.48 -5.48 2.49
1.59 -5.45 2.49
1.70 -5.42 2.49
1.82 -5.39 2.49
1.93 -5.36 2.49
1.96 -5.12 2.40
2.05 -5.06 2.39
2.16 -5.02 2.39
2.26 -4.98 2.39
2.36 -4.93 2.39
2.46 -4.89 2.39
2.56 -4.84 2.39
2.29 -4.11 2.05
2.29 -3.93 1.98
2.31 -3.78 1.93
2.27 -3.56 1.84
2.28 -3.42 1.78
2.33 -3.35 1.77
2.43 -3.34 1.79
2.56 -3.38 1.83
3.42 -4.33 2.39
3.51 -4.26 2.39
3.60 -4.19 2.39
3.69 -4.12 2.39
3.78 -4.05 2.39
3.86 -3.98 2.39
3.94 -3.90 2.39
4.03 -3.83 2.39
4.11 -3.75 2.39
4.19 -3.67 2.39
4.27 -3.59 2.39
4.34 -3.50 2.39
4.42 -3.42 2.39
4.49 -3.33 2.39
4.56 -3.25 2.39
4.63 -3.16 2.39
4.70 -3.07 2.39
4.77 -2.97 2.39
4.83 -2.88 2.39
4.89 -2.79 2.39
4.96 -2.69 2.39
5.01 -2.59 2.39
5.07 -2.49 2.38
5.12 -2.39 2.38
5.17 -2.29 2.38
5.21 -2.18 2.38
5.26 -2.08 2.37
5.30 -1.97 2.37
5.34 -1.86 2.37
5.37 -1.76 2.36
5.41 -1.65 2.36
5.44 -1.54 2.36
5.47 -1.43 2.36
5.51 -1.32 2.36
5.55 -1.22 2.36
5.59 -1.11 2.36
5.63 -1.00 2.37
5.66 -0.89 2.37
5.69 -0.77 2.37
5.72 -0.66 2.37
5.75 -0.55 2.38
5.78 -0.43 2.38
5.80 -0.32 2.38
5.82 -0.20 2.39
5.83 -0.09 2.39
5.84 0.03 2.39
5.85 0.15 2.39
5.85 0.27 2.39
5.85 0.38 2.39
5.85 0.50 2.39
5.85 0.62 2.39
5.85 0.74 2.39
5.84 0.86 2.39
5.83 0.98 2.39
5.82 1.09 2.39
5.80 1.21 2.39
5.78 1.33 2.39
5.76 1.45 2.39
5.74 1.56 2.39
5.72 1.68 2.39
3.74 1.18 1.57
3.65 1.23 1.54
3.58 1.29 1.52
3.54 1.36 1.51
3.52 1.43 1.51
3.51 1.51 1.52
3.52 1.60 1.53
3.57 1.71 1.57
5.39 2.71 2.39
5.34 2.82 2.39
5.29 2.93 2.39
5.24 3.04 2.39
5.19 3.15 2.39
5.13 3.26 2.39
5.07 3.36 2.39
5.01 3.47 2.39
4.94 3.57 2.39
4.88 3.67 2.39
4.81 3.77 2.39
4.74 3.87 2.39
4.66 3.97 2.39
4.59 4.07 2.39
4.51 4.16 2.39
4.43 4.26 2.39
4.35 4.35 2.39
4.27 4.44 2.39
4.18 4.53 2.39
4.10 4.61 2.39
4.01 4.70 2.39
3.92 4.78 2.39
3.83 4.86 2.39
3.73 4.94 2.39
3.64 5.02 2.39
3.54 5.10 2.39
3.44 5.17 2.39
3.34 5.24 2.39
3.23 5.31 2.39
3.13 5.38 2.39
3.03 5.45 2.39
2.92 5.51 2.39
2.81 5.57 2.39
2.70 5.63 2.39
2.59 5.68 2.39
2.48 5.74 2.39
2.36 5.79 2.39
2.25 5.84 2.39
2.14 5.89 2.39
2.02 5.93 2.39
1.93 6.05 2.42
1.86 6.27 2.49
1.74 6.31 2.49
1.61 6.34 2.49
1.48 6.38 2.49
1.36 6.41 2.49
1.23 6.43 2.49
1.10 6.46 2.49
0.97 6.48 2.49
0.85 6.50 2.49
0.72 6.52 2.49
0.59 6.53 2.49
0.46 6.54 2.49
0.33 6.55 2.49
0.20 6.55 2.49
0.07 6.56 2.49
-0.06 6.56 2.49
-0.19 6.55 2.49
-0.32 6.55 2.49
-0.45 6.54 2.49
-0.58 6.53 2.49
-0.71 6.51 2.49
-0.84 6.50 2.49
-0.97 6.48 2.49
-1.10 6.45 2.49
-1.23 6.43 2.49
-1.35 6.40 2.49
-1.48 6.37 2.49
-1.61 6.34 2.49
-1.73 6.30 2.49
-1.86 6.26 2.49
-1.98 6.22 2.49
-2.10 6.18 2.49
-2.22 6.13 2.49
-2.34 6.08 2.49
-2.46 6.03 2.49
-2.58 5.98 2.49
-2.70 5.92 2.49
-2.81 5.86 2.49
-2.92 5.80 2.49
-3.04 5.74 2.49
-3.15 5.67 2.49
-3.26 5.60 2.49
-3.09 5.08 2.28
-3.09 4.86 2.21
-3.09 4.65 2.15
-3.05 4.40 2.07
-3.05 4.22 2.01
-3.05 4.05 1.96
-3.05 3.89 1.91
-3.05 3.73 1.86
-3.05 3.58 1.82
-3.10 3.49 1.81
-3.16 3.42 1.81
-3.24 3.37 1.81
-3.36 3.36 1.85
-3.64 3.49 1.96
-3.78 3.49 2.01
-3.94 3.49 2.05
-4.10 3.49 2.10
-4.27 3.49 2.16
-4.45 3.49 2.21
-4.63 3.49 2.27
-4.63 3.34 2.24
-4.68 3.24 2.24
-4.77 3.16 2.25
-4.94 3.14 2.31
-5.39 3.28 2.49
-5.45 3.16 2.49
-5.50 3.05 2.49
-5.56 2.94 2.49
-5.61 2.82 2.49
-5.65 2.70 2.49
-5.70 2.59 2.49
-5.74 2.47 2.49
-5.78 2.35 2.49
-5.82 2.23 2.49
-5.86 2.11 2.49
-5.89 1.99 2.49
-5.92 1.87 2.49
-5.95 1.75 2.49
-5.97 1.63 2.49
