ply
format ascii 1.0
element vertex 2920
property float32 x
property float32 y
property float32 z
end_header
4.32 14.36 2.39
4.02 14.43 2.39
3.73 14.50 2.39
3.44 14.56 2.39
3.14 14.62 2.39
2.85 14.67 2.39
2.66 15.35 2.49
2.35 15.39 2.49
2.04 15.42 2.49
1.73 15.45 2.49
1.42 15.47 2.49
1.10 15.48 2.49
0.79 15.49 2.49
0.48 15.49 2.49
0.17 15.48 2.49
-0.14 15.47 2.49
-0.45 15.45 2.49
-0.76 15.42 2.49
-1.07 15.39 2.49
-1.37 15.36 2.49
-1.68 15.31 2.49
-1.99 15.26 2.49
-2.29 15.21 2.49
-2.59 15.14 2.49
-2.89 15.08 2.49
-3.19 15.00 2.49
-3.49 14.92 2.49
-3.78 14.83 2.49
-4.08 14.74 2.49
-4.37 14.64 2.49
-4.66 14.54 2.49
-4.94 14.43 2.49
-5.23 14.32 2.49
-5.35 13.80 2.42
-5.55 13.49 2.39
-5.81 13.36 2.39
-5.73 12.48 2.26
-6.33 13.09 2.39
-6.59 12.95 2.39
-6.84 12.80 2.39
-7.09 12.65 2.39
-7.26 12.37 2.37
-7.58 12.34 2.39
-7.82 12.17 2.39
-8.05 12.00 2.39
-8.28 11.83 2.39
-8.51 11.65 2.39
-8.74 11.46 2.39
-8.96 11.28 2.39
-9.17 11.08 2.39
-9.35 10.84 2.38
-9.37 10.43 2.33
-9.38 10.04 2.29
-9.40 9.66 2.25
-9.42 9.30 2.21
-9.43 8.94 2.17
-9.44 8.60 2.14
-9.46 8.27 2.10
-9.47 7.95 2.07
-9.48 7.64 2.04
-9.49 7.34 2.01
-9.50 7.05 1.99
-9.51 6.77 1.96
-9.52 6.49 1.94
-9.53 6.22 1.92
-9.54 5.96 1.89
-9.55 5.70 1.87
-9.56 5.45 1.86
-9.57 5.20 1.84
-9.58 4.96 1.82
-9.59 4.72 1.81
-9.60 4.49 1.79
-9.61 4.26 1.78
-9.62 4.04 1.77
-9.62 3.81 1.75
-9.63 3.60 1.74
-9.64 3.38 1.73
-8.92 2.93 1.59
-8.95 2.74 1.59
-9.66 2.75 1.71
-9.67 2.54 1.70
-9.68 2.33 1.70
-9.69 2.13 1.69
-9.69 1.93 1.69
-9.70 1.73 1.68
-13.76 2.17 2.38
-13.78 1.89 2.37
-13.79 1.61 2.37
-13.80 1.33 2.37
-13.80 1.05 2.37
-13.77 0.77 2.36
-13.74 0.49 2.35
-14.30 0.22 2.45
-14.35 -0.06 2.46
-9.74 -0.24 1.67
-9.75 -0.44 1.67
-9.76 -0.63 1.68
-9.76 -0.83 1.68
-9.77 -1.03 1.69
-9.78 -1.23 1.69
-9.79 -1.43 1.70
-9.79 -1.63 1.71
-9.80 -1.84 1.71
-9.81 -2.04 1.72
-9.82 -2.25 1.73
-9.83 -2.46 1.74
-9.83 -2.68 1.75
-9.84 -2.89 1.76
-9.85 -3.11 1.78
-9.86 -3.33 1.79
-9.87 -3.56 1.81
-9.88 -3.79 1.82
-9.88 -4.02 1.84
-9.89 -4.26 1.85
-9.90 -4.50 1.87
-9.91 -4.75 1.89
-9.92 -5.00 1.91
-9.93 -5.26 1.94
-9.94 -5.52 1.96
-9.95 -5.79 1.98
-9.98 -6.08 2.01
-9.97 -6.35 2.04
-9.98 -6.64 2.07
-9.99 -6.95 2.10
-10.01 -7.26 2.13
-10.02 -7.58 2.16
-10.03 -7.91 2.20
-10.04 -8.25 2.24
-10.06 -8.61 2.28
-10.07 -8.98 2.32
-10.09 -9.36 2.37
-10.00 -9.66 2.39
-9.80 -9.86 2.39
-9.61 -10.06 2.39
-9.40 -10.25 2.39
-9.20 -10.44 2.39
-8.99 -10.63 2.39
-8.78 -10.81 2.39
-8.56 -10.99 2.39
-8.34 -11.16 2.39
-8.12 -11.33 2.39
-7.89 -11.49 2.39
-7.66 -11.66 2.39
-7.43 -11.81 2.39
-7.19 -11.96 2.39
-6.96 -12.11 2.39
-6.71 -12.25 2.39
-6.47 -12.39 2.39
-6.35 -12.79 2.44
-6.23 -13.20 2.49
-5.97 -13.33 2.49
-5.70 -13.46 2.49
-5.43 -13.58 2.49
-5.16 -13.69 2.49
-4.89 -13.80 2.49
-4.61 -13.90 2.49
-4.34 -14.00 2.49
-4.06 -14.09 2.49
-3.77 -14.18 2.49
-3.49 -14.26 2.49
-3.21 -14.34 2.49
-2.92 -14.41 2.49
-2.63 -14.48 2.49
-2.34 -14.54 2.49
-2.05 -14.59 2.49
-1.76 -14.64 2.49
-1.46 -14.68 2.49
-1.17 -14.72 2.49
-0.87 -14.75 2.49
-0.58 -14.78 2.49
-0.28 -14.80 2.49
0.02 -13.01 2.49
0.28 -13.02 2.49
0.54 -13.02 2.49
0.80 -13.02 2.49
1.06 -13.01 2.49
1.33 -12.99 2.49
1.59 -12.97 2.49
1.77 -12.41 2.39
2.02 -12.38 2.39
2.16 -11.72 2.27
2.48 -12.11 2.35
2.68 -11.86 2.31
3.02 -12.22 2.39
3.27 -12.17 2.39
3.51 -12.11 2.39
3.76 -12.04 2.39
4.00 -11.98 2.39
4.24 -11.90 2.39
2.25 -5.92 1.20
4.73 -11.74 2.39
4.97 -11.65 2.39
5.20 -11.56 2.39
5.44 -11.46 2.39
5.67 -11.36 2.39
9.14 -17.42 3.70
5.78 -10.50 2.25
10.46 -18.13 3.93
5.83 -9.64 2.11
11.75 -18.59 4.12
12.40 -18.78 4.22
13.15 -19.08 4.34
14.07 -19.55 4.51
15.14 -20.18 4.72
16.59 -21.21 5.03
26.86 -32.96 7.94
28.02 -33.00 8.07
29.20 -33.03 8.21
30.32 -32.94 8.33
31.58 -32.95 8.49
5.94 -5.95 1.56
5.96 -5.74 1.54
35.34 -32.69 8.93
44.17 12.53 8.29
40.65 12.41 7.68
40.01 13.10 7.60
36.00 12.59 6.89
26.68 9.94 5.14
25.00 9.89 4.85
23.50 9.84 4.60
22.15 9.80 4.37
20.92 9.76 4.17
19.50 9.58 3.92
18.55 9.58 3.77
17.73 9.61 3.64
16.96 9.64 3.52
16.24 9.67 3.41
15.57 9.69 3.31
14.93 9.72 3.21
14.33 9.74 3.13
13.76 9.76 3.04
13.22 9.78 2.97
12.70 9.80 2.90
12.21 9.82 2.83
11.74 9.84 2.77
11.30 9.86 2.71
6.38 5.80 1.56
10.46 9.89 2.60
6.40 6.30 1.62
6.42 6.58 1.66
9.31 9.93 2.46
8.96 9.94 2.42
8.61 9.96 2.38
8.28 9.97 2.35
7.96 9.98 2.31
7.64 9.99 2.28
7.34 10.00 2.25
7.04 10.02 2.22
6.75 10.03 2.19
6.53 10.13 2.19
6.62 10.74 2.29
6.64 11.27 2.37
6.46 11.47 2.39
6.22 11.60 2.39
5.99 11.71 2.39
5.75 11.82 2.39
5.51 11.93 2.39
5.26 12.03 2.39
5.02 12.13 2.39
4.77 12.22 2.39
4.52 12.31 2.39
4.27 12.39 2.39
4.02 12.47 2.39
3.77 12.54 2.39
3.51 12.60 2.39
3.26 12.66 2.39
3.00 12.72 2.39
2.75 12.77 2.39
2.59 13.37 2.49
2.32 13.41 2.49
2.05 13.44 2.49
1.78 13.47 2.49
1.51 13.49 2.49
1.24 13.51 2.49
0.97 13.53 2.49
0.70 13.53 2.49
0.42 13.54 2.49
0.15 13.53 2.49
-0.12 13.52 2.49
-0.39 13.51 2.49
-0.66 13.49 2.49
-0.93 13.46 2.49
-1.20 13.43 2.49
-1.47 13.39 2.49
-1.73 13.35 2.49
-2.00 13.30 2.49
-2.27 13.25 2.49
-2.53 13.19 2.49
-2.79 13.13 2.49
-3.05 13.06 2.49
-3.31 12.99 2.49
-3.57 12.91 2.49
-3.82 12.82 2.49
-4.08 12.73 2.49
-4.33 12.64 2.49
-4.58 12.54 2.49
-4.82 12.43 2.49
-5.07 12.32 2.49
-5.31 12.21 2.49
-5.42 11.82 2.44
-5.55 11.47 2.39
-5.77 11.35 2.39
-5.99 11.22 2.39
-6.21 11.09 2.39
-6.43 10.96 2.39
-6.64 10.82 2.39
-6.85 10.67 2.39
-7.06 10.52 2.39
-7.26 10.37 2.39
-7.46 10.22 2.39
-7.66 10.06 2.39
-7.86 9.89 2.39
-8.05 9.72 2.39
-8.23 9.55 2.39
-8.42 9.38 2.39
-8.60 9.20 2.39
-8.77 9.02 2.39
-8.95 8.84 2.39
-9.11 8.65 2.39
-9.28 8.46 2.39
-9.44 8.26 2.39
-9.47 7.96 2.36
-9.48 7.65 2.32
-9.49 7.35 2.29
-9.50 7.05 2.26
-9.51 6.77 2.23
-9.52 6.49 2.21
-9.53 6.22 2.18
-9.54 5.96 2.16
-9.55 5.70 2.13
-9.56 5.45 2.11
-9.57 5.20 2.09
-9.58 4.96 2.07
-9.59 4.72 2.06
-9.60 4.49 2.04
-9.61 4.26 2.02
-9.62 4.04 2.01
-9.62 3.82 2.00
-9.63 3.60 1.98
-9.64 3.38 1.97
-8.93 2.93 1.82
-8.95 2.74 1.81
-9.66 2.75 1.94
-9.67 2.54 1.93
-9.68 2.34 1.93
-9.69 2.13 1.92
-9.69 1.93 1.92
-9.70 1.73 1.91
-11.67 1.84 2.29
-11.71 1.61 2.29
-11.73 1.37 2.29
-11.76 1.13 2.29
-11.77 0.90 2.29
-11.79 0.66 2.29
-11.79 0.42 2.29
-11.80 0.19 2.30
-11.80 -0.05 2.30
-9.74 -0.24 1.90
-9.75 -0.43 1.90
-9.76 -0.63 1.90
-9.76 -0.83 1.91
-9.77 -1.03 1.92
-9.78 -1.23 1.92
-9.79 -1.43 1.93
-9.79 -1.63 1.94
-9.80 -1.84 1.95
-9.81 -2.04 1.96
-9.82 -2.25 1.97
-9.83 -2.46 1.98
-9.83 -2.68 1.99
-9.84 -2.89 2.00
-9.85 -3.11 2.02
-9.86 -3.33 2.03
-9.87 -3.56 2.05
-9.88 -3.79 2.07
-9.88 -4.02 2.09
-9.89 -4.26 2.11
-9.90 -4.50 2.13
-9.91 -4.75 2.15
-9.92 -5.00 2.17
-9.93 -5.26 2.20
-9.94 -5.52 2.22
-9.95 -5.79 2.25
-9.98 -6.08 2.29
-9.97 -6.35 2.31
-9.98 -6.65 2.34
-10.04 -6.98 2.39
-9.90 -7.18 2.39
-9.75 -7.38 2.39
-9.61 -7.57 2.39
-9.45 -7.77 2.39
-9.30 -7.96 2.39
-9.14 -8.14 2.39
-8.97 -8.33 2.39
-8.80 -8.51 2.39
-8.63 -8.68 2.39
-8.46 -8.86 2.39
-8.28 -9.03 2.39
-8.10 -9.19 2.39
-7.92 -9.36 2.39
-7.73 -9.52 2.39
-7.54 -9.67 2.39
-7.34 -9.83 2.39
-7.15 -9.98 2.39
-6.95 -10.12 2.39
-6.75 -10.26 2.39
-6.54 -10.40 2.39
-6.33 -10.53 2.39
-6.28 -10.94 2.45
-6.16 -11.25 2.49
-5.94 -11.38 2.49
-5.71 -11.50 2.49
-5.48 -11.62 2.49
-5.25 -11.73 2.49
-5.02 -11.84 2.49
-4.78 -11.95 2.49
-4.54 -12.05 2.49
-4.30 -12.14 2.49
-4.06 -12.23 2.49
-3.81 -12.32 2.49
-3.57 -12.40 2.49
-3.32 -12.47 2.49
-3.07 -12.55 2.49
-2.82 -12.61 2.49
-2.57 -12.67 2.49
-2.31 -12.73 2.49
-2.06 -12.78 2.49
-1.80 -12.83 2.49
-1.54 -12.87 2.49
-1.29 -12.91 2.49
-1.03 -12.94 2.49
-0.77 -12.97 2.49
-0.51 -12.99 2.49
-0.25 -13.00 2.49
0.02 -11.60 2.49
0.25 -11.60 2.49
0.48 -11.60 2.49
0.72 -11.60 2.49
0.95 -11.59 2.49
1.18 -11.57 2.49
1.42 -11.55 2.49
1.65 -11.53 2.49
1.80 -11.03 2.39
2.03 -11.00 2.39
2.14 -10.46 2.28
2.43 -10.74 2.35
2.64 -10.70 2.35
2.76 -10.28 2.27
3.13 -10.78 2.39
3.35 -10.72 2.39
3.56 -10.66 2.39
3.78 -10.59 2.39
2.24 -5.90 1.34
4.21 -10.44 2.39
4.42 -10.37 2.39
4.63 -10.28 2.39
4.84 -10.19 2.39
5.05 -10.10 2.39
5.25 -10.01 2.39
5.45 -9.91 2.39
5.66 -9.80 2.39
5.83 -9.64 2.38
10.37 -16.41 4.09
11.01 -16.67 4.21
11.62 -16.84 4.31
5.86 -8.15 2.11
12.93 -17.23 4.53
13.73 -17.55 4.68
14.56 -17.86 4.84
15.54 -18.30 5.04
16.73 -18.92 5.30
18.60 -20.20 5.75
28.00 -29.21 8.47
29.44 -29.50 8.72
5.95 -5.73 1.73
32.21 -29.79 9.17
33.65 -29.88 9.40
35.04 -29.89 9.61
36.27 -29.70 9.78
37.40 -29.39 9.91
5.99 -4.52 1.56
6.00 -4.34 1.54
40.19 -27.84 10.17
44.17 12.53 9.37
40.65 12.41 8.67
40.01 13.10 8.58
35.99 12.59 7.77
35.02 13.04 7.62
35.05 13.86 7.68
24.60 10.30 5.44
22.72 10.06 5.06
21.44 10.01 4.82
20.28 9.96 4.60
19.22 9.93 4.41
18.24 9.89 4.23
17.09 9.72 4.01
16.25 9.67 3.85
15.57 9.69 3.74
6.32 4.11 1.54
6.33 4.30 1.56
13.76 9.76 3.44
13.22 9.78 3.35
12.70 9.80 3.27
12.21 9.82 3.20
11.75 9.84 3.12
11.30 9.86 3.06
10.87 9.87 3.00
9.32 8.81 2.62
6.40 6.30 1.83
8.45 8.66 2.47
8.27 8.82 2.47
6.44 7.15 1.97
7.91 9.14 2.47
7.72 9.30 2.47
7.58 9.50 2.48
6.49 8.49 2.18
6.52 8.88 2.25
7.04 10.02 2.50
6.53 9.69 2.39
6.33 9.81 2.39
6.13 9.93 2.39
5.93 10.05 2.39
5.72 10.16 2.39
5.51 10.27 2.39
5.31 10.38 2.39
5.09 10.48 2.39
4.88 10.57 2.39
4.67 10.66 2.39
4.45 10.75 2.39
4.23 10.83 2.39
4.01 10.91 2.39
3.79 10.98 2.39
3.57 11.05 2.39
3.34 11.11 2.39
3.12 11.17 2.39
2.89 11.23 2.39
2.66 11.28 2.39
2.54 11.81 2.49
2.30 11.85 2.49
2.06 11.89 2.49
1.82 11.92 2.49
1.58 11.95 2.49
1.34 11.97 2.49
1.10 11.99 2.49
0.86 12.00 2.49
0.62 12.01 2.49
0.38 12.01 2.49
0.14 12.01 2.49
-0.10 12.00 2.49
-0.34 11.99 2.49
-0.58 11.97 2.49
-0.82 11.95 2.49
-1.06 11.92 2.49
-1.30 11.89 2.49
-1.54 11.85 2.49
-1.77 11.81 2.49
-2.01 11.77 2.49
-2.24 11.72 2.49
-2.48 11.66 2.49
-2.71 11.60 2.49
-2.94 11.53 2.49
-3.17 11.47 2.49
-3.39 11.39 2.49
-3.62 11.31 2.49
-3.84 11.23 2.49
-4.06 11.14 2.49
-4.28 11.05 2.49
-4.50 10.96 2.49
-4.72 10.85 2.49
-4.93 10.75 2.49
-5.14 10.64 2.49
-5.35 10.53 2.49
-5.48 10.27 2.46
-5.52 9.86 2.39
-5.72 9.75 2.39
-5.90 9.62 2.39
-6.09 9.49 2.39
-6.28 9.36 2.39
-6.46 9.23 2.39
-6.64 9.09 2.39
-6.81 8.95 2.39
-6.99 8.80 2.39
-7.16 8.66 2.39
-7.33 8.50 2.39
-7.49 8.35 2.39
-7.65 8.19 2.39
-7.81 8.03 2.39
-7.96 7.87 2.39
-8.11 7.70 2.39
-8.26 7.53 2.39
-8.40 7.36 2.39
-8.54 7.18 2.39
-8.68 7.01 2.39
-8.81 6.83 2.39
-8.94 6.64 2.39
-9.07 6.46 2.39
-6.03 4.11 1.57
-5.96 3.89 1.53
-6.06 3.78 1.54
-9.53 5.69 2.39
-9.56 5.45 2.37
-9.57 5.21 2.35
-9.58 4.96 2.33
-9.59 4.73 2.31
-9.60 4.49 2.29
-9.61 4.26 2.27
-9.61 4.04 2.25
-9.62 3.82 2.24
-9.63 3.60 2.22
-9.64 3.38 2.21
-8.95 2.94 2.04
-8.96 2.74 2.03
-9.66 2.75 2.18
-9.67 2.54 2.17
-9.68 2.34 2.16
-8.91 1.96 1.98
-8.92 1.78 1.98
-8.66 1.55 1.91
-10.65 1.68 2.34
-10.67 1.47 2.34
-10.69 1.25 2.34
-10.71 1.03 2.34
-10.72 0.82 2.34
-10.73 0.60 2.34
-10.73 0.39 2.34
-10.73 0.17 2.34
-10.73 -0.05 2.34
-8.74 -0.21 1.91
-9.00 -0.40 1.97
-9.01 -0.58 1.97
-9.76 -0.83 2.14
-9.77 -1.03 2.15
-9.78 -1.23 2.15
-9.79 -1.43 2.16
-9.79 -1.63 2.17
-9.80 -1.84 2.18
-9.81 -2.04 2.19
-9.82 -2.25 2.20
-9.83 -2.46 2.22
-9.83 -2.68 2.23
-9.84 -2.89 2.24
-9.85 -3.11 2.26
-9.86 -3.33 2.28
-9.87 -3.56 2.30
-9.88 -3.79 2.32
-9.88 -4.02 2.34
-9.89 -4.26 2.36
-9.94 -4.52 2.39
-9.84 -4.71 2.39
-9.75 -4.91 2.39
-9.65 -5.11 2.39
-9.54 -5.30 2.39
-9.43 -5.49 2.39
-9.32 -5.68 2.39
-9.21 -5.86 2.39
-9.09 -6.05 2.39
-8.96 -6.23 2.39
-8.84 -6.41 2.39
-8.71 -6.59 2.39
-8.57 -6.76 2.39
-8.44 -6.93 2.39
-8.30 -7.10 2.39
-8.15 -7.27 2.39
-8.01 -7.43 2.39
-7.86 -7.59 2.39
-7.71 -7.75 2.39
-7.55 -7.91 2.39
-7.39 -8.06 2.39
-7.23 -8.21 2.39
-7.06 -8.35 2.39
-6.90 -8.50 2.39
-6.73 -8.63 2.39
-6.55 -8.77 2.39
-6.38 -8.90 2.39
-6.22 -9.07 2.40
-6.23 -9.48 2.47
-6.09 -9.68 2.49
-5.89 -9.80 2.49
-5.70 -9.92 2.49
-5.50 -10.04 2.49
-5.30 -10.15 2.49
-5.09 -10.26 2.49
-4.89 -10.37 2.49
-4.68 -10.47 2.49
-4.47 -10.56 2.49
-4.26 -10.66 2.49
-4.05 -10.74 2.49
-3.83 -10.83 2.49
-3.62 -10.91 2.49
-3.40 -10.98 2.49
-3.18 -11.06 2.49
-2.96 -11.12 2.49
-2.73 -11.19 2.49
-2.51 -11.24 2.49
-2.29 -11.30 2.49
-2.06 -11.35 2.49
-1.83 -11.39 2.49
-1.60 -11.44 2.49
-1.37 -11.47 2.49
-1.14 -11.50 2.49
-0.91 -11.53 2.49
-0.68 -11.55 2.49
-0.45 -11.57 2.49
-0.22 -11.59 2.49
0.02 -10.45 2.49
0.23 -10.45 2.49
0.44 -10.45 2.49
0.65 -10.44 2.49
0.86 -10.43 2.49
1.07 -10.42 2.49
1.28 -10.40 2.49
1.49 -10.38 2.49
1.69 -10.36 2.49
1.82 -9.90 2.39
2.02 -9.87 2.39
2.18 -9.62 2.34
2.30 -9.29 2.27
2.58 -9.59 2.35
2.76 -9.51 2.34
2.86 -9.15 2.27
3.21 -9.59 2.39
3.40 -9.53 2.39
2.24 -5.90 1.49
3.79 -9.40 2.39
3.98 -9.32 2.39
4.17 -9.25 2.39
4.35 -9.17 2.39
4.54 -9.09 2.39
4.72 -9.00 2.39
4.91 -8.91 2.39
5.09 -8.81 2.39
5.27 -8.72 2.39
5.45 -8.61 2.39
5.62 -8.51 2.39
5.79 -8.40 2.39
10.98 -15.25 4.40
11.56 -15.39 4.50
12.16 -15.53 4.61
12.77 -15.65 4.72
13.47 -15.85 4.86
14.22 -16.08 5.01
15.05 -16.34 5.18
16.05 -16.73 5.40
17.12 -17.15 5.64
5.95 -5.72 1.92
20.16 -18.63 6.39
22.19 -19.70 6.90
24.30 -20.72 7.42
21.90 -17.92 6.57
22.09 -17.35 6.52
22.14 -16.69 6.43
22.17 -16.02 6.34
6.01 -4.16 1.69
23.53 -15.61 6.54
40.86 -25.94 11.20
6.03 -3.66 1.63
6.04 -3.50 1.61
6.04 -3.19 1.58
6.05 -3.04 1.56
6.05 -2.89 1.55
6.08 -2.75 1.54
47.34 -3.05 10.84
47.46 -2.10 10.85
48.21 -1.17 11.02
44.17 12.53 10.45
40.64 12.41 9.67
40.00 13.10 9.58
35.99 12.59 8.67
35.02 13.04 8.50
6.29 2.49 1.54
6.26 2.62 1.54
6.27 2.77 1.56
6.27 2.93 1.57
20.99 10.31 5.32
19.67 10.16 5.03
18.65 10.11 4.82
17.72 10.07 4.63
16.86 10.04 4.46
16.06 10.00 4.30
15.32 9.97 4.16
6.33 4.30 1.74
13.76 9.76 3.84
13.22 9.78 3.74
12.70 9.80 3.65
6.36 5.12 1.86
11.75 9.84 3.49
9.56 8.34 2.89
8.94 8.12 2.75
8.37 7.92 2.62
6.40 6.30 2.04
7.60 7.78 2.48
7.47 7.97 2.49
7.35 8.16 2.50
6.47 7.48 2.25
7.08 8.53 2.53
6.95 8.71 2.54
6.37 8.33 2.39
6.20 8.45 2.39
6.03 8.57 2.39
5.85 8.69 2.39
5.68 8.80 2.39
5.50 8.91 2.39
5.32 9.01 2.39
5.13 9.12 2.39
4.95 9.21 2.39
4.76 9.31 2.39
4.57 9.40 2.39
4.38 9.48 2.39
4.19 9.56 2.39
3.99 9.64 2.39
3.80 9.72 2.39
3.60 9.79 2.39
3.40 9.85 2.39
3.20 9.91 2.39
3.00 9.97 2.39
2.80 10.03 2.39
2.60 10.07 2.39
2.50 10.56 2.49
2.28 10.60 2.49
2.07 10.64 2.49
1.85 10.67 2.49
1.64 10.70 2.49
1.42 10.72 2.49
1.21 10.75 2.49
0.99 10.76 2.49
0.77 10.77 2.49
0.56 10.78 2.49
0.34 10.78 2.49
0.12 10.78 2.49
-0.09 10.78 2.49
-0.31 10.77 2.49
-0.52 10.75 2.49
-0.74 10.73 2.49
-0.95 10.71 2.49
-1.17 10.68 2.49
-1.38 10.65 2.49
-1.59 10.61 2.49
-1.80 10.57 2.49
-2.01 10.53 2.49
-2.22 10.48 2.49
-2.43 10.42 2.49
-2.64 10.37 2.49
-2.84 10.30 2.49
-3.05 10.24 2.49
-3.25 10.17 2.49
-3.45 10.10 2.49
-3.65 10.02 2.49
-3.85 9.94 2.49
-4.05 9.85 2.49
-4.24 9.76 2.49
-4.43 9.67 2.49
-4.62 9.57 2.49
-4.81 9.47 2.49
-5.00 9.36 2.49
-5.18 9.26 2.49
-5.36 9.14 2.49
-5.53 9.01 2.49
-5.55 8.65 2.42
-5.65 8.42 2.39
-5.81 8.30 2.39
-5.97 8.18 2.39
-6.13 8.05 2.39
-6.29 7.92 2.39
-6.44 7.79 2.39
-6.59 7.65 2.39
-6.74 7.52 2.39
-6.89 7.37 2.39
-7.03 7.23 2.39
-7.17 7.08 2.39
-7.30 6.93 2.39
-7.44 6.78 2.39
-7.57 6.63 2.39
-7.69 6.47 2.39
-7.82 6.31 2.39
-7.94 6.15 2.39
-8.05 5.98 2.39
-8.17 5.82 2.39
-5.94 4.05 1.71
-5.94 3.88 1.69
-6.04 3.78 1.70
-8.59 5.13 2.39
-8.69 4.95 2.39
-8.78 4.78 2.39
-8.87 4.60 2.39
-8.95 4.42 2.39
-9.04 4.23 2.39
-9.11 4.05 2.39
-9.19 3.86 2.39
-9.26 3.67 2.39
-9.33 3.49 2.39
-9.39 3.30 2.39
-8.96 2.94 2.27
-8.97 2.75 2.25
-9.56 2.72 2.39
-9.61 2.53 2.39
-8.46 2.04 2.09
-8.44 1.86 2.08
-8.44 1.68 2.07
-8.57 1.53 2.10
-9.79 1.55 2.39
-9.82 1.35 2.39
-9.84 1.15 2.39
-9.86 0.95 2.39
-9.88 0.75 2.39
-9.89 0.56 2.39
-9.90 0.36 2.39
-9.90 0.16 2.39
-9.89 -0.04 2.39
-8.55 -0.21 2.07
-8.52 -0.38 2.06
-8.53 -0.55 2.07
-8.58 -0.73 2.08
-9.82 -1.03 2.39
-9.79 -1.23 2.39
-9.76 -1.43 2.39
-9.73 -1.62 2.39
-9.70 -1.82 2.39
-9.65 -2.01 2.39
-9.61 -2.20 2.39
-9.56 -2.40 2.39
-9.51 -2.59 2.39
-9.46 -2.78 2.39
-9.40 -2.97 2.39
-9.33 -3.15 2.39
-9.27 -3.34 2.39
-9.20 -3.53 2.39
-9.12 -3.71 2.39
-9.05 -3.89 2.39
-8.97 -4.07 2.39
-8.88 -4.25 2.39
-8.80 -4.43 2.39
-8.70 -4.61 2.39
-8.61 -4.78 2.39
-8.51 -4.95 2.39
-8.41 -5.12 2.39
-8.31 -5.29 2.39
-8.20 -5.46 2.39
-8.09 -5.62 2.39
-7.97 -5.78 2.39
-7.86 -5.94 2.39
-7.74 -6.10 2.39
-7.61 -6.26 2.39
-7.49 -6.41 2.39
-7.36 -6.56 2.39
-7.22 -6.71 2.39
-7.09 -6.85 2.39
-6.95 -6.99 2.39
-6.81 -7.13 2.39
-6.67 -7.27 2.39
-6.52 -7.40 2.39
-6.37 -7.54 2.39
-6.22 -7.66 2.39
-6.17 -7.92 2.43
-6.17 -8.25 2.49
-6.00 -8.38 2.49
-5.83 -8.50 2.49
-5.66 -8.62 2.49
-5.49 -8.73 2.49
-5.31 -8.84 2.49
-5.14 -8.95 2.49
-4.96 -9.06 2.49
-4.78 -9.16 2.49
-4.59 -9.25 2.49
-4.41 -9.35 2.49
-4.22 -9.44 2.49
-4.03 -9.53 2.49
-3.84 -9.61 2.49
-3.65 -9.69 2.49
-3.45 -9.76 2.49
-3.26 -9.83 2.49
-3.06 -9.90 2.49
-2.86 -9.97 2.49
-2.66 -10.03 2.49
-2.46 -10.08 2.49
-2.26 -10.14 2.49
-2.06 -10.18 2.49
-1.85 -10.23 2.49
-1.65 -10.27 2.49
-1.44 -10.30 2.49
-1.24 -10.34 2.49
-1.03 -10.37 2.49
-0.82 -10.39 2.49
-0.61 -10.41 2.49
-0.40 -10.43 2.49
-0.19 -10.44 2.49
0.02 -9.49 2.49
0.21 -9.50 2.49
0.40 -9.49 2.49
0.59 -9.49 2.49
0.78 -9.48 2.49
0.97 -9.47 2.49
1.16 -9.45 2.49
1.35 -9.43 2.49
1.54 -9.41 2.49
1.73 -9.38 2.49
1.85 -9.01 2.40
2.03 -8.98 2.40
2.20 -8.89 2.39
2.26 -8.40 2.27
2.52 -8.66 2.35
2.69 -8.62 2.35
2.81 -8.39 2.30
2.93 -8.21 2.27
2.24 -5.89 1.64
3.44 -8.53 2.39
3.61 -8.47 2.39
3.78 -8.40 2.39
3.95 -8.32 2.39
4.12 -8.25 2.39
4.29 -8.17 2.39
4.46 -8.09 2.39
4.62 -8.00 2.39
4.78 -7.91 2.39
4.94 -7.82 2.39
5.10 -7.72 2.39
5.26 -7.62 2.39
5.41 -7.52 2.39
5.57 -7.41 2.39
5.72 -7.30 2.39
5.87 -7.19 2.39
12.01 -14.13 4.77
12.58 -14.22 4.88
5.94 -6.45 2.25
13.91 -14.50 5.16
5.95 -5.96 2.16
5.95 -5.72 2.12
16.47 -15.22 5.75
17.54 -15.57 6.01
18.73 -15.97 6.30
5.99 -4.90 1.98
21.61 -16.97 7.03
21.97 -16.55 7.03
22.14 -16.00 6.98
22.63 -15.67 7.03
23.68 -15.71 7.26
29.50 -18.72 8.91
6.03 -3.66 1.80
41.27 -23.92 12.16
41.94 -23.20 12.21
6.05 -3.19 1.74
6.10 -1.92 1.62
6.10 -1.78 1.61
6.10 -1.65 1.60
6.13 -1.53 1.60
6.12 -1.14 1.57
6.13 -1.02 1.57
6.13 -0.89 1.57
6.13 -0.77 1.56
6.14 -0.64 1.56
6.14 -0.52 1.56
6.15 -0.40 1.56
6.15 -0.27 1.55
6.16 -0.15 1.55
6.16 -0.03 1.55
6.17 0.10 1.55
6.17 0.22 1.56
6.18 0.35 1.56
6.18 0.47 1.56
6.19 0.60 1.56
6.19 0.72 1.57
6.20 0.85 1.57
46.45 7.31 11.83
40.84 7.27 10.43
41.37 8.23 10.61
45.60 10.02 11.74
45.34 10.92 11.73
45.10 11.82 11.72
43.99 12.48 11.49
40.43 12.35 10.62
39.98 13.09 10.57
35.98 12.59 9.58
6.25 2.33 1.68
35.05 13.86 9.47
30.55 12.79 8.32
6.28 2.78 1.72
29.97 13.99 8.31
42.54 20.90 11.91
25.17 13.00 7.11
24.79 13.44 7.08
18.24 10.37 5.27
17.22 10.25 5.03
16.40 10.21 4.85
15.63 10.17 4.68
6.33 4.30 1.92
14.24 10.11 4.39
13.62 10.08 4.26
6.37 4.91 2.02
12.28 9.88 3.96
7.55 6.32 2.47
7.41 6.47 2.47
7.28 6.61 2.47
7.14 6.75 2.47
6.40 6.30 2.26
6.89 7.06 2.48
6.82 7.27 2.51
6.36 7.06 2.39
6.22 7.18 2.39
6.07 7.30 2.39
5.92 7.42 2.39
5.77 7.54 2.39
5.61 7.65 2.39
5.46 7.76 2.39
5.30 7.87 2.39
5.14 7.97 2.39
4.98 8.07 2.39
4.81 8.16 2.39
4.65 8.25 2.39
4.48 8.34 2.39
4.31 8.43 2.39
4.14 8.51 2.39
3.97 8.59 2.39
3.79 8.66 2.39
3.43 8.29 2.27
3.44 8.80 2.39
3.26 8.86 2.39
3.08 8.92 2.39
2.90 8.98 2.39
2.72 9.03 2.39
2.54 9.08 2.39
2.45 9.52 2.49
2.26 9.56 2.49
2.07 9.60 2.49
1.88 9.64 2.49
1.68 9.67 2.49
1.49 9.70 2.49
1.29 9.72 2.49
1.09 9.74 2.49
0.90 9.75 2.49
0.70 9.76 2.49
0.51 9.77 2.49
0.31 9.77 2.49
0.11 9.77 2.49
-0.08 9.77 2.49
-0.28 9.76 2.49
-0.47 9.75 2.49
-0.67 9.73 2.49
-0.86 9.71 2.49
-1.06 9.68 2.49
-1.25 9.66 2.49
-1.44 9.62 2.49
-1.63 9.59 2.49
-1.83 9.55 2.49
-2.02 9.50 2.49
-2.20 9.46 2.49
-2.39 9.40 2.49
-2.58 9.35 2.49
-2.76 9.29 2.49
-2.95 9.23 2.49
-3.13 9.16 2.49
-3.31 9.09 2.49
-3.49 9.02 2.49
-3.67 8.94 2.49
-3.85 8.86 2.49
-4.02 8.77 2.49
-4.19 8.69 2.49
-4.36 8.60 2.49
-4.53 8.50 2.49
-4.70 8.40 2.49
-4.87 8.30 2.49
-5.03 8.20 2.49
-5.19 8.09 2.49
-5.35 7.98 2.49
-5.50 7.87 2.49
-5.58 7.65 2.46
-5.60 7.36 2.41
-5.71 7.20 2.39
-5.85 7.08 2.39
-5.99 6.95 2.39
-6.12 6.83 2.39
-6.25 6.70 2.39
-6.38 6.57 2.39
-6.51 6.44 2.39
-6.63 6.30 2.39
-6.75 6.16 2.39
-6.87 6.02 2.39
-6.99 5.88 2.39
-7.10 5.73 2.39
-7.21 5.59 2.39
-7.32 5.44 2.39
-7.42 5.29 2.39
-5.91 4.03 1.88
-5.92 3.87 1.86
-6.03 3.77 1.87
-7.81 4.66 2.39
-7.89 4.50 2.39
-7.98 4.34 2.39
-8.06 4.18 2.39
-8.14 4.01 2.39
-8.21 3.85 2.39
-8.29 3.68 2.39
-8.35 3.51 2.39
-8.42 3.34 2.39
-8.48 3.17 2.39
-8.54 3.00 2.39
-8.59 2.82 2.39
-8.65 2.65 2.39
-8.69 2.48 2.39
-8.74 2.30 2.39
-8.78 2.12 2.39
-8.46 1.87 2.29
-8.46 1.69 2.29
-8.88 1.59 2.39
-8.91 1.41 2.39
-8.93 1.23 2.39
-8.95 1.05 2.39
-8.97 0.87 2.39
-8.98 0.69 2.39
-8.99 0.51 2.39
-8.99 0.32 2.39
-9.00 0.14 2.39
-8.99 -0.04 2.39
-8.99 -0.22 2.39
-8.54 -0.38 2.27
-8.55 -0.55 2.28
-8.95 -0.76 2.39
-8.93 -0.94 2.39
-8.91 -1.12 2.39
-8.88 -1.30 2.39
-8.86 -1.47 2.39
-8.82 -1.65 2.39
-8.79 -1.83 2.39
-8.75 -2.00 2.39
-8.70 -2.18 2.39
-8.66 -2.35 2.39
-8.61 -2.53 2.39
-8.55 -2.70 2.39
-8.49 -2.87 2.39
-8.43 -3.04 2.39
-8.37 -3.21 2.39
-8.30 -3.38 2.39
-8.23 -3.54 2.39
-8.16 -3.71 2.39
-8.08 -3.87 2.39
-8.00 -4.03 2.39
-7.92 -4.19 2.39
-7.84 -4.35 2.39
-7.75 -4.51 2.39
-7.65 -4.66 2.39
-7.56 -4.82 2.39
-7.46 -4.97 2.39
-7.36 -5.12 2.39
-7.26 -5.26 2.39
-7.15 -5.41 2.39
-7.04 -5.55 2.39
-6.93 -5.69 2.39
-6.81 -5.83 2.39
-6.69 -5.97 2.39
-6.57 -6.10 2.39
-6.45 -6.23 2.39
-6.33 -6.36 2.39
-6.20 -6.49 2.39
-6.13 -6.68 2.41
-6.13 -6.96 2.47
-6.05 -7.15 2.49
-5.90 -7.27 2.49
-5.76 -7.39 2.49
-5.61 -7.51 2.49
-5.46 -7.62 2.49
-5.31 -7.73 2.49
-5.15 -7.84 2.49
-4.99 -7.94 2.49
-4.83 -8.05 2.49
-4.67 -8.14 2.49
-4.51 -8.24 2.49
-4.34 -8.33 2.49
-4.18 -8.42 2.49
-4.01 -8.50 2.49
-3.84 -8.59 2.49
-3.67 -8.66 2.49
-3.49 -8.74 2.49
-3.32 -8.81 2.49
-3.14 -8.88 2.49
-2.96 -8.94 2.49
-2.78 -9.01 2.49
-2.60 -9.06 2.49
-2.42 -9.12 2.49
-2.24 -9.17 2.49
-2.06 -9.22 2.49
-1.87 -9.26 2.49
-1.68 -9.30 2.49
-1.50 -9.34 2.49
-1.31 -9.37 2.49
-1.12 -9.40 2.49
-0.93 -9.42 2.49
-0.75 -9.44 2.49
-0.56 -9.46 2.49
-0.37 -9.48 2.49
-0.17 -9.49 2.49
0.02 -8.69 2.49
0.19 -8.69 2.49
0.37 -8.69 2.49
0.54 -8.69 2.49
0.71 -8.68 2.49
0.89 -8.67 2.49
1.06 -8.65 2.49
1.24 -8.63 2.49
1.41 -8.61 2.49
1.59 -8.59 2.49
1.76 -8.56 2.49
1.87 -8.27 2.42
2.02 -8.14 2.39
2.18 -8.10 2.39
2.25 -7.74 2.30
2.42 -7.74 2.31
2.60 -7.75 2.32
2.77 -7.76 2.34
2.24 -5.89 1.79
3.15 -7.80 2.39
3.31 -7.74 2.39
3.46 -7.68 2.39
3.62 -7.61 2.39
3.77 -7.54 2.39
3.93 -7.47 2.39
4.08 -7.39 2.39
4.23 -7.32 2.39
4.38 -7.23 2.39
4.52 -7.15 2.39
4.67 -7.06 2.39
4.81 -6.97 2.39
4.95 -6.87 2.39
5.09 -6.78 2.39
5.23 -6.68 2.39
5.37 -6.57 2.39
5.50 -6.47 2.39
5.63 -6.36 2.39
5.76 -6.25 2.39
5.89 -6.14 2.39
12.91 -12.93 5.13
5.95 -5.72 2.32
5.96 -5.51 2.28
14.93 -13.25 5.60
15.79 -13.46 5.82
16.74 -13.69 6.06
17.79 -13.97 6.33
18.92 -14.25 6.63
20.27 -14.64 6.99
21.66 -14.99 7.36
23.06 -15.29 7.73
24.50 -15.54 8.10
6.03 -3.66 1.97
22.96 -13.30 7.40
22.95 -12.69 7.31
23.68 -12.48 7.46
41.98 -21.06 13.09
42.76 -20.39 13.20
6.08 -2.46 1.82
6.10 -1.78 1.76
6.10 -1.65 1.75
45.81 -10.46 13.03
45.16 -9.36 12.78
44.65 -8.33 12.58
38.34 -6.36 10.76
44.29 -6.44 12.39
42.54 -5.31 11.87
40.02 -4.19 11.13
39.56 -3.34 10.98
40.28 -2.59 11.16
44.78 -1.98 12.39
6.17 -0.15 1.70
39.07 -0.16 10.79
42.05 0.67 11.61
6.17 0.22 1.71
6.18 0.35 1.71
43.61 3.33 12.07
44.52 4.29 12.34
37.88 4.42 10.52
37.58 5.15 10.46
37.66 5.93 10.51
39.01 6.95 10.92
39.65 7.89 11.14
39.52 8.69 11.15
38.27 9.22 10.85
6.23 1.63 1.78
36.42 10.33 10.43
38.56 11.78 11.10
37.98 12.44 11.01
35.98 12.59 10.50
6.25 2.33 1.84
35.05 13.86 10.38
30.54 12.79 9.12
29.94 13.25 9.01
29.97 13.99 9.10
36.20 17.79 11.10
25.16 13.00 7.80
24.79 13.44 7.76
24.81 14.10 7.86
37.21 22.15 11.92
32.52 20.25 10.54
16.07 10.46 5.28
6.33 4.30 2.11
7.40 5.25 2.50
7.23 5.35 2.48
7.12 5.49 2.47
6.38 5.13 2.25
6.89 5.77 2.47
6.77 5.90 2.47
6.64 6.03 2.47
6.31 5.96 2.39
6.18 6.08 2.39
6.06 6.21 2.39
5.93 6.33 2.39
5.80 6.44 2.39
5.67 6.56 2.39
5.54 6.67 2.39
5.40 6.77 2.39
5.27 6.88 2.39
5.13 6.98 2.39
4.98 7.08 2.39
4.84 7.18 2.39
4.69 7.27 2.39
4.55 7.36 2.39
4.40 7.45 2.39
4.24 7.53 2.39
4.09 7.62 2.39
3.94 7.69 2.39
3.78 7.77 2.39
3.44 7.44 2.27
3.41 7.78 2.35
3.25 7.84 2.35
3.09 7.90 2.35
2.83 7.70 2.27
2.81 8.15 2.39
2.65 8.20 2.39
2.50 8.31 2.41
2.42 8.65 2.49
2.24 8.69 2.49
2.07 8.73 2.49
1.89 8.77 2.49
1.71 8.80 2.49
1.54 8.83 2.49
1.36 8.86 2.49
1.18 8.88 2.49
1.00 8.89 2.49
0.82 8.91 2.49
0.64 8.92 2.49
0.46 8.93 2.49
0.28 8.93 2.49
0.11 8.93 2.49
-0.07 8.93 2.49
-0.25 8.92 2.49
-0.43 8.91 2.49
-0.61 8.89 2.49
-0.79 8.87 2.49
-0.96 8.85 2.49
-1.14 8.82 2.49
-1.32 8.80 2.49
-1.49 8.76 2.49
-1.67 8.73 2.49
-1.84 8.69 2.49
-2.01 8.64 2.49
-2.19 8.60 2.49
-2.36 8.55 2.49
-2.53 8.49 2.49
-2.69 8.44 2.49
-2.86 8.38 2.49
-3.03 8.31 2.49
-3.19 8.24 2.49
-3.35 8.17 2.49
-3.52 8.10 2.49
-3.68 8.02 2.49
-3.83 7.94 2.49
-3.99 7.86 2.49
-4.14 7.78 2.49
-4.30 7.69 2.49
-4.45 7.59 2.49
-4.60 7.50 2.49
-4.74 7.40 2.49
-4.89 7.30 2.49
-5.03 7.20 2.49
-5.17 7.09 2.49
-5.31 6.98 2.49
-5.45 6.87 2.49
-5.58 6.76 2.49
-5.62 6.53 2.45
-5.64 6.29 2.41
-5.72 6.13 2.39
-5.85 6.03 2.40
-5.96 5.89 2.39
-6.07 5.77 2.39
-6.18 5.64 2.39
-6.29 5.51 2.39
-6.40 5.38 2.39
-6.50 5.25 2.39
-6.60 5.12 2.39
-6.70 4.98 2.39
-6.79 4.84 2.39
-6.09 4.16 2.11
-6.98 4.56 2.39
-7.06 4.42 2.39
-7.15 4.27 2.39
-7.23 4.13 2.39
-7.31 3.98 2.39
-7.38 3.83 2.39
-7.45 3.68 2.39
-7.52 3.53 2.39
-7.59 3.37 2.39
-7.65 3.22 2.39
-7.71 3.06 2.39
-7.77 2.91 2.39
-7.82 2.75 2.39
-7.87 2.59 2.39
-7.92 2.43 2.39
-7.96 2.27 2.39
-8.00 2.11 2.39
-8.04 1.94 2.39
-8.08 1.78 2.39
-8.11 1.62 2.39
-8.14 1.45 2.39
-8.16 1.29 2.39
-8.18 1.13 2.39
-8.20 0.96 2.39
-8.22 0.80 2.39
-8.23 0.63 2.39
-8.24 0.46 2.39
-8.24 0.30 2.39
-8.24 0.13 2.39
-8.24 -0.03 2.39
-8.24 -0.20 2.39
-8.23 -0.36 2.39
-8.22 -0.53 2.39
-8.20 -0.69 2.39
-8.19 -0.86 2.39
-8.17 -1.02 2.39
-8.14 -1.19 2.39
-8.12 -1.35 2.39
-8.09 -1.51 2.39
-8.05 -1.68 2.39
-8.02 -1.84 2.39
-7.98 -2.00 2.39
-7.93 -2.16 2.39
-7.89 -2.32 2.39
-7.84 -2.47 2.39
-7.79 -2.63 2.39
-7.73 -2.79 2.39
-7.67 -2.94 2.39
-7.61 -3.09 2.39
-7.55 -3.25 2.39
-7.48 -3.40 2.39
-7.41 -3.55 2.39
-7.34 -3.70 2.39
-7.26 -3.84 2.39
-7.18 -3.99 2.39
-7.10 -4.13 2.39
-7.02 -4.27 2.39
-6.93 -4.41 2.39
-6.84 -4.55 2.39
-6.75 -4.69 2.39
-6.65 -4.82 2.39
-6.55 -4.96 2.39
-6.45 -5.09 2.39
-6.35 -5.22 2.39
-6.24 -5.35 2.39
-6.14 -5.47 2.39
-6.09 -5.65 2.42
-6.09 -5.89 2.46
-6.05 -6.08 2.49
-5.92 -6.21 2.49
-5.80 -6.33 2.49
-5.67 -6.44 2.49
-5.54 -6.56 2.49
-5.41 -6.67 2.49
-5.28 -6.78 2.49
-5.14 -6.88 2.49
-5.00 -6.99 2.49
-4.86 -7.09 2.49
-4.72 -7.19 2.49
-4.58 -7.28 2.49
-4.43 -7.37 2.49
-4.28 -7.46 2.49
-4.13 -7.55 2.49
-3.98 -7.63 2.49
-3.83 -7.71 2.49
-3.67 -7.79 2.49
-3.52 -7.87 2.49
-3.36 -7.94 2.49
-3.20 -8.01 2.49
-3.04 -8.07 2.49
-2.88 -8.14 2.49
-2.71 -8.19 2.49
-2.55 -8.25 2.49
-2.38 -8.30 2.49
-2.22 -8.35 2.49
-2.05 -8.40 2.49
-1.88 -8.44 2.49
-1.71 -8.48 2.49
-1.54 -8.52 2.49
-1.37 -8.55 2.49
-1.20 -8.58 2.49
-1.03 -8.61 2.49
-0.85 -8.63 2.49
-0.68 -8.65 2.49
-0.51 -8.66 2.49
-0.33 -8.68 2.49
-0.16 -8.69 2.49
0.02 -8.01 2.49
0.18 -8.01 2.49
0.34 -8.01 2.49
0.50 -8.00 2.49
0.66 -7.99 2.49
0.82 -7.98 2.49
0.98 -7.97 2.49
1.14 -7.95 2.49
1.30 -7.93 2.49
1.46 -7.91 2.49
1.62 -7.88 2.49
1.78 -7.85 2.49
1.89 -7.64 2.44
2.01 -7.46 2.39
2.16 -7.42 2.39
2.31 -7.38 2.39
2.46 -7.33 2.39
2.61 -7.29 2.39
2.24 -5.89 1.95
2.90 -7.18 2.39
3.04 -7.13 2.39
3.19 -7.07 2.39
3.33 -7.01 2.39
3.47 -6.94 2.39
3.61 -6.88 2.39
3.75 -6.80 2.39
3.89 -6.73 2.39
4.03 -6.66 2.39
4.16 -6.58 2.39
4.30 -6.50 2.39
4.43 -6.41 2.39
4.56 -6.32 2.39
4.69 -6.23 2.39
4.81 -6.14 2.39
4.94 -6.05 2.39
5.06 -5.95 2.39
5.18 -5.85 2.39
5.30 -5.75 2.39
5.42 -5.64 2.39
5.53 -5.54 2.39
5.65 -5.43 2.39
5.76 -5.32 2.39
5.86 -5.20 2.39
5.97 -5.09 2.39
14.45 -11.82 5.69
15.12 -11.87 5.85
15.96 -12.02 6.08
6.01 -4.34 2.25
17.89 -12.38 6.61
18.95 -12.56 6.91
20.22 -12.82 7.27
6.03 -3.65 2.14
22.76 -13.19 7.98
22.65 -12.52 7.85
6.05 -3.19 2.07
27.71 -13.90 9.40
29.97 -14.29 10.06
42.96 -19.43 14.28
33.47 -14.34 11.02
6.08 -2.46 1.98
30.15 -10.82 9.69
30.17 -10.15 9.62
6.10 -1.78 1.92
6.10 -1.65 1.91
44.87 -11.19 13.95
43.92 -10.02 13.59
35.78 -7.41 11.02
42.84 -7.99 13.14
38.52 -6.38 11.77
42.56 -6.18 12.96
6.14 -0.77 1.86
6.16 -0.64 1.86
39.58 -3.34 11.95
42.73 -2.74 12.88
35.20 -1.55 10.60
42.73 -1.03 12.85
38.61 -0.15 11.61
38.54 0.62 11.59
6.17 0.22 1.86
6.18 0.35 1.86
42.10 3.21 12.68
37.89 3.66 11.43
37.41 4.37 11.31
36.65 5.03 11.10
36.72 5.79 11.15
36.97 6.59 11.27
34.71 6.91 10.62
6.23 1.37 1.91
37.92 9.14 11.70
36.15 9.48 11.21
35.81 10.16 11.16
37.97 11.60 11.90
35.23 11.54 11.11
35.37 12.38 11.23
6.25 2.33 2.00
34.80 13.77 11.22
30.54 12.79 9.92
29.94 13.25 9.81
29.97 13.99 9.91
35.87 17.63 11.98
25.16 13.00 8.49
24.79 13.44 8.45
24.81 14.10 8.55
7.43 4.42 2.59
7.26 4.52 2.56
6.33 4.12 2.26
6.33 4.30 2.29
6.75 4.79 2.48
6.63 4.91 2.47
6.31 4.87 2.39
6.22 5.00 2.39
6.11 5.12 2.39
6.01 5.24 2.39
5.90 5.36 2.39
5.79 5.48 2.39
5.68 5.59 2.39
5.57 5.70 2.39
5.45 5.81 2.39
5.33 5.92 2.39
5.21 6.02 2.39
5.09 6.12 2.39
4.96 6.22 2.39
4.84 6.32 2.39
4.71 6.42 2.39
4.58 6.51 2.39
4.45 6.60 2.39
4.31 6.68 2.39
4.18 6.76 2.39
4.04 6.85 2.39
3.90 6.92 2.39
3.76 7.00 2.39
3.43 6.71 2.27
3.39 6.96 2.33
3.27 7.09 2.35
3.13 7.15 2.35
2.88 6.95 2.27
2.81 7.18 2.33
2.74 7.44 2.39
2.59 7.49 2.39
2.47 7.65 2.43
2.38 7.91 2.49
2.22 7.95 2.49
2.06 7.99 2.49
1.90 8.03 2.49
1.74 8.06 2.49
1.58 8.09 2.49
1.41 8.12 2.49
1.25 8.14 2.49
1.09 8.16 2.49
0.92 8.18 2.49
0.76 8.19 2.49
0.59 8.20 2.49
0.43 8.21 2.49
0.26 8.21 2.49
0.10 8.21 2.49
-0.07 8.21 2.49
-0.23 8.20 2.49
-0.39 8.19 2.49
-0.56 8.18 2.49
-0.72 8.16 2.49
-0.89 8.14 2.49
-1.05 8.12 2.49
-1.21 8.09 2.49
-1.37 8.06 2.49
-1.53 8.03 2.49
-1.69 7.99 2.49
-1.85 7.95 2.49
-2.01 7.91 2.49
-2.17 7.86 2.49
-2.32 7.81 2.49
-2.48 7.76 2.49
-2.63 7.71 2.49
-2.78 7.65 2.49
-2.94 7.59 2.49
-3.09 7.52 2.49
-3.23 7.46 2.49
-3.38 7.38 2.49
-3.53 7.31 2.49
-3.67 7.24 2.49
-3.81 7.16 2.49
-3.95 7.08 2.49
-4.09 6.99 2.49
-4.23 6.90 2.49
-4.37 6.81 2.49
-4.50 6.72 2.49
-4.63 6.63 2.49
-4.76 6.53 2.49
-4.89 6.43 2.49
-5.01 6.33 2.49
-5.14 6.22 2.49
-5.26 6.11 2.49
-5.38 6.00 2.49
-5.49 5.89 2.49
-5.61 5.78 2.49
-5.66 5.60 2.47
-5.67 5.39 2.43
-5.69 5.20 2.39
-5.79 5.08 2.39
-5.90 4.96 2.39
-5.99 4.84 2.39
-6.08 4.71 2.39
-6.17 4.59 2.39
-6.26 4.46 2.39
-6.09 4.16 2.29
-6.43 4.20 2.39
-6.51 4.07 2.39
-6.58 3.94 2.39
-6.66 3.80 2.39
-6.73 3.67 2.39
-6.80 3.53 2.39
-6.87 3.39 2.39
-6.93 3.25 2.39
-6.99 3.11 2.39
-7.05 2.97 2.39
-7.10 2.82 2.39
-7.16 2.68 2.39
-7.21 2.53 2.39
-7.25 2.39 2.39
-7.30 2.24 2.39
-7.34 2.09 2.39
-7.38 1.94 2.39
-7.41 1.79 2.39
-7.44 1.64 2.39
-7.47 1.49 2.39
-7.50 1.34 2.39
-7.52 1.19 2.39
-7.54 1.04 2.39
-7.56 0.89 2.39
-7.57 0.73 2.39
-7.58 0.58 2.39
-7.59 0.43 2.39
-7.60 0.28 2.39
-7.60 0.12 2.39
-7.60 -0.03 2.39
-7.59 -0.18 2.39
-7.59 -0.34 2.39
-7.58 -0.49 2.39
-7.56 -0.64 2.39
-7.55 -0.79 2.39
-7.53 -0.94 2.39
-7.51 -1.09 2.39
-7.48 -1.24 2.39
-7.45 -1.39 2.39
-7.42 -1.54 2.39
-7.39 -1.69 2.39
-7.35 -1.84 2.39
-7.31 -1.99 2.39
-7.27 -2.13 2.39
-7.23 -2.28 2.39
-7.18 -2.43 2.39
-7.13 -2.57 2.39
-7.07 -2.71 2.39
-7.02 -2.85 2.39
-6.96 -2.99 2.39
-6.90 -3.13 2.39
-6.83 -3.27 2.39
-6.76 -3.41 2.39
-6.69 -3.54 2.39
-6.62 -3.68 2.39
-6.55 -3.81 2.39
-6.47 -3.94 2.39
-6.39 -4.07 2.39
-6.31 -4.20 2.39
-6.22 -4.32 2.39
-6.13 -4.45 2.39
-6.06 -4.58 2.40
-6.05 -4.77 2.43
-6.06 -4.98 2.47
-6.01 -5.14 2.49
-5.90 -5.26 2.49
-5.80 -5.38 2.49
-5.69 -5.50 2.49
-5.58 -5.61 2.49
-5.46 -5.72 2.49
-5.35 -5.83 2.49
-5.23 -5.94 2.49
-5.11 -6.04 2.49
-4.99 -6.15 2.49
-4.86 -6.25 2.49
-4.74 -6.35 2.49
-4.61 -6.44 2.49
-4.48 -6.53 2.49
-4.35 -6.62 2.49
-4.22 -6.71 2.49
-4.08 -6.80 2.49
-3.95 -6.88 2.49
-3.81 -6.96 2.49
-3.67 -7.04 2.49
-3.53 -7.11 2.49
-3.38 -7.18 2.49
-3.24 -7.25 2.49
-3.09 -7.32 2.49
-2.95 -7.38 2.49
-2.80 -7.44 2.49
-2.65 -7.50 2.49
-2.50 -7.55 2.49
-2.35 -7.60 2.49
-2.20 -7.65 2.49
-2.04 -7.70 2.49
-1.89 -7.74 2.49
-1.73 -7.78 2.49
-1.58 -7.82 2.49
-1.42 -7.85 2.49
-1.26 -7.88 2.49
-1.10 -7.91 2.49
-0.95 -7.93 2.49
-0.79 -7.95 2.49
-0.63 -7.97 2.49
-0.47 -7.98 2.49
-0.31 -7.99 2.49
-0.15 -8.00 2.49
0.02 -7.41 2.49
0.16 -7.42 2.49
0.31 -7.41 2.49
0.46 -7.41 2.49
0.61 -7.40 2.49
0.76 -7.39 2.49
0.91 -7.38 2.49
1.06 -7.36 2.49
1.21 -7.34 2.49
1.35 -7.32 2.49
1.50 -7.29 2.49
1.65 -7.27 2.49
1.80 -7.24 2.49
1.91 -7.10 2.46
2.00 -6.87 2.39
2.14 -6.83 2.39
2.28 -6.79 2.39
2.41 -6.74 2.39
2.24 -5.89 2.10
2.68 -6.65 2.39
2.82 -6.60 2.39
2.95 -6.54 2.39
3.08 -6.48 2.39
3.22 -6.42 2.39
3.35 -6.36 2.39
3.47 -6.30 2.39
3.60 -6.23 2.39
3.73 -6.16 2.39
3.85 -6.08 2.39
3.98 -6.01 2.39
4.10 -5.93 2.39
4.22 -5.85 2.39
4.34 -5.77 2.39
4.45 -5.68 2.39
4.57 -5.59 2.39
4.68 -5.50 2.39
4.79 -5.41 2.39
4.90 -5.32 2.39
5.01 -5.22 2.39
5.12 -5.12 2.39
5.22 -5.02 2.39
5.32 -4.92 2.39
5.42 -4.81 2.39
5.52 -4.70 2.39
5.62 -4.59 2.39
5.71 -4.48 2.39
5.80 -4.37 2.39
5.89 -4.25 2.39
5.98 -4.14 2.39
15.95 -10.57 6.29
16.77 -10.63 6.52
6.03 -3.65 2.31
18.80 -10.88 7.13
6.04 -3.34 2.27
14.80 -7.80 5.49
14.79 -7.42 5.42
14.91 -7.11 5.41
15.84 -7.16 5.70
16.05 -6.87 5.72
23.66 -9.58 8.36
23.83 -9.09 8.35
24.49 -8.79 8.51
29.99 -10.09 10.34
6.10 -1.78 2.08
6.10 -1.65 2.06
30.33 -7.56 10.21
42.22 -9.63 14.13
34.93 -7.23 11.64
40.88 -7.62 13.56
6.13 -1.02 2.03
40.44 -5.87 13.32
40.46 -5.05 13.29
40.40 -4.22 13.23
40.37 -3.40 13.19
6.16 -0.39 2.01
35.25 -1.55 11.49
36.00 -0.86 11.72
40.11 -0.16 13.05
39.95 0.65 13.00
6.17 0.22 2.01
6.18 0.35 2.01
39.04 2.98 12.73
38.72 3.74 12.64
33.81 3.95 11.06
33.53 4.60 10.99
33.88 5.34 11.14
36.93 6.58 12.18
34.09 6.78 11.29
33.98 7.47 11.30
36.66 8.83 12.24
36.35 9.53 12.20
36.04 10.23 12.16
6.24 1.91 2.12
35.51 11.63 12.13
35.26 12.34 12.12
6.25 2.33 2.16
6.26 2.48 2.19
30.32 12.70 10.66
29.89 13.23 10.60
6.29 2.94 2.25
6.29 3.09 2.27
7.24 3.74 2.64
7.09 3.85 2.62
6.94 3.95 2.59
6.33 3.77 2.39
6.26 3.90 2.39
6.18 4.02 2.39
6.09 4.14 2.39
6.01 4.26 2.39
5.92 4.38 2.39
5.83 4.50 2.39
5.74 4.62 2.39
5.65 4.73 2.39
5.55 4.84 2.39
5.45 4.95 2.39
5.35 5.06 2.39
5.25 5.16 2.39
5.14 5.27 2.39
5.04 5.37 2.39
4.93 5.47 2.39
4.82 5.56 2.39
4.70 5.66 2.39
4.59 5.75 2.39
4.47 5.84 2.39
4.35 5.93 2.39
4.23 6.01 2.39
4.11 6.09 2.39
3.99 6.17 2.39
3.86 6.25 2.39
3.73 6.32 2.39
3.42 6.07 2.27
3.36 6.26 2.31
3.29 6.43 2.35
3.16 6.49 2.35
3.03 6.55 2.35
2.79 6.37 2.27
2.79 6.74 2.38
2.67 6.82 2.39
2.53 6.87 2.39
2.45 7.08 2.45
2.35 7.27 2.49
2.20 7.31 2.49
2.06 7.35 2.49
1.91 7.39 2.49
1.76 7.42 2.49
1.61 7.45 2.49
1.46 7.48 2.49
1.31 7.50 2.49
1.16 7.53 2.49
1.00 7.54 2.49
0.85 7.56 2.49
0.70 7.57 2.49
0.55 7.58 2.49
0.40 7.59 2.49
0.24 7.59 2.49
0.09 7.59 2.49
-0.06 7.59 2.49
-0.21 7.58 2.49
-0.36 7.57 2.49
-0.52 7.56 2.49
-0.67 7.55 2.49
-0.82 7.53 2.49
-0.97 7.51 2.49
-1.12 7.48 2.49
-1.27 7.45 2.49
-1.42 7.42 2.49
-1.56 7.39 2.49
-1.71 7.35 2.49
-1.86 7.32 2.49
-2.00 7.27 2.49
-2.15 7.23 2.49
-2.29 7.18 2.49
-2.43 7.13 2.49
-2.57 7.08 2.49
-2.71 7.02 2.49
-2.85 6.96 2.49
-2.99 6.90 2.49
-3.13 6.83 2.49
-3.26 6.77 2.49
-3.40 6.70 2.49
-3.53 6.62 2.49
-3.66 6.55 2.49
-3.79 6.47 2.49
-3.91 6.39 2.49
-4.04 6.31 2.49
-4.16 6.22 2.49
-4.29 6.13 2.49
-4.41 6.04 2.49
-4.52 5.95 2.49
-4.64 5.86 2.49
-4.75 5.76 2.49
-4.87 5.66 2.49
-4.98 5.56 2.49
-5.09 5.45 2.49
-5.19 5.35 2.49
-5.30 5.24 2.49
-5.40 5.13 2.49
-5.50 5.02 2.49
-5.59 4.91 2.49
-5.69 4.79 2.49
-5.70 4.60 2.46
-5.71 4.43 2.42
-5.72 4.26 2.39
-5.79 4.13 2.39
-5.87 4.01 2.39
-5.95 3.89 2.39
-6.02 3.77 2.39
-6.10 3.65 2.39
-6.17 3.52 2.39
-6.23 3.40 2.39
-6.30 3.27 2.39
-6.36 3.14 2.39
-6.42 3.01 2.39
-6.47 2.88 2.39
-6.53 2.75 2.39
-6.58 2.62 2.39
-6.63 2.48 2.39
-6.68 2.35 2.39
-6.72 2.21 2.39
-6.76 2.08 2.39
-6.80 1.94 2.39
-6.83 1.80 2.39
-6.87 1.66 2.39
-6.90 1.52 2.39
-6.92 1.38 2.39
-6.95 1.24 2.39
-6.97 1.10 2.39
-6.99 0.96 2.39
-7.00 0.82 2.39
-7.02 0.68 2.39
-7.03 0.54 2.39
-7.03 0.40 2.39
-7.04 0.26 2.39
-7.04 0.11 2.39
-7.04 -0.03 2.39
-7.04 -0.17 2.39
-7.03 -0.31 2.39
-7.02 -0.45 2.39
-7.01 -0.59 2.39
-6.99 -0.73 2.39
-6.98 -0.87 2.39
-6.96 -1.01 2.39
-6.93 -1.15 2.39
-6.91 -1.29 2.39
-6.88 -1.43 2.39
-6.85 -1.57 2.39
-6.81 -1.71 2.39
-6.78 -1.84 2.39
-6.74 -1.98 2.39
-6.70 -2.11 2.39
-6.65 -2.25 2.39
-6.61 -2.38 2.39
-6.56 -2.51 2.39
-6.50 -2.64 2.39
-6.45 -2.77 2.39
-6.39 -2.90 2.39
-6.33 -3.03 2.39
-6.27 -3.16 2.39
-6.21 -3.29 2.39
-6.14 -3.41 2.39
-6.07 -3.53 2.39
-6.02 -3.67 2.40
-6.02 -3.83 2.43
-6.02 -4.01 2.46
-6.01 -4.18 2.49
-5.93 -4.30 2.49
-5.84 -4.42 2.49
-5.75 -4.54 2.49
-5.66 -4.65 2.49
-5.57 -4.77 2.49
-5.47 -4.88 2.49
-5.37 -4.99 2.49
-5.27 -5.09 2.49
-5.17 -5.20 2.49
-5.06 -5.30 2.49
-4.95 -5.40 2.49
-4.85 -5.50 2.49
-4.73 -5.60 2.49
-4.62 -5.70 2.49
-4.51 -5.79 2.49
-4.39 -5.88 2.49
-4.27 -5.97 2.49
-4.15 -6.05 2.49
-4.03 -6.14 2.49
-3.91 -6.22 2.49
-3.78 -6.30 2.49
-3.66 -6.37 2.49
-3.53 -6.45 2.49
-3.40 -6.52 2.49
-3.27 -6.59 2.49
-3.13 -6.65 2.49
-3.00 -6.72 2.49
-2.87 -6.78 2.49
-2.73 -6.84 2.49
-2.59 -6.89 2.49
-2.45 -6.95 2.49
-2.32 -7.00 2.49
-2.17 -7.04 2.49
-2.03 -7.09 2.49
-1.89 -7.13 2.49
-1.75 -7.17 2.49
-1.60 -7.21 2.49
-1.46 -7.24 2.49
-1.31 -7.27 2.49
-1.17 -7.30 2.49
-1.02 -7.32 2.49
-0.87 -7.34 2.49
-0.73 -7.36 2.49
-0.58 -7.38 2.49
-0.43 -7.39 2.49
-0.28 -7.40 2.49
-0.13 -7.41 2.49
0.02 -6.90 2.49
0.15 -6.90 2.49
0.29 -6.90 2.49
0.43 -6.89 2.49
0.57 -6.88 2.49
0.71 -6.87 2.49
0.85 -6.86 2.49
0.99 -6.85 2.49
1.12 -6.83 2.49
1.26 -6.81 2.49
1.40 -6.78 2.49
1.53 -6.76 2.49
1.67 -6.73 2.49
1.81 -6.70 2.49
1.93 -6.63 2.48
1.99 -6.35 2.39
2.13 -6.35 2.41
2.24 -6.27 2.39
2.24 -5.89 2.26
2.50 -6.18 2.39
2.62 -6.13 2.39
2.75 -6.08 2.39
2.87 -6.03 2.39
2.99 -5.97 2.39
3.11 -5.91 2.39
3.23 -5.85 2.39
3.35 -5.79 2.39
3.47 -5.72 2.39
3.58 -5.65 2.39
3.70 -5.58 2.39
3.81 -5.51 2.39
3.92 -5.44 2.39
4.03 -5.36 2.39
4.14 -5.28 2.39
4.25 -5.20 2.39
4.35 -5.11 2.39
4.46 -5.03 2.39
4.56 -4.94 2.39
4.66 -4.85 2.39
4.76 -4.76 2.39
4.85 -4.66 2.39
4.95 -4.57 2.39
5.04 -4.47 2.39
5.13 -4.37 2.39
5.22 -4.27 2.39
5.31 -4.16 2.39
5.39 -4.06 2.39
5.47 -3.95 2.39
5.55 -3.84 2.39
5.63 -3.73 2.39
5.71 -3.62 2.39
5.78 -3.50 2.39
5.85 -3.39 2.39
5.92 -3.27 2.39
5.99 -3.15 2.39
6.05 -3.03 2.39
14.48 -6.90 5.66
14.85 -6.71 5.75
15.38 -6.58 5.90
16.48 -6.67 6.27
23.84 -9.09 8.99
6.09 -2.18 2.28
6.09 -2.05 2.26
6.11 -1.92 2.25
6.10 -1.78 2.23
6.10 -1.65 2.22
29.67 -7.39 10.75
30.24 -6.89 10.90
36.50 -7.56 13.10
36.83 -6.86 13.16
37.14 -6.15 13.22
37.48 -5.43 13.30
37.56 -4.68 13.29
37.62 -3.92 13.27
37.65 -3.17 13.26
37.62 -2.41 13.22
37.60 -1.65 13.20
37.47 -0.89 13.14
6.17 -0.02 2.16
37.21 0.60 13.04
6.17 0.22 2.16
6.18 0.35 2.17
6.20 0.47 2.18
36.32 3.51 12.77
36.10 4.22 12.72
33.56 4.61 11.86
35.61 5.62 12.62
35.37 6.31 12.57
35.12 6.99 12.53
34.87 7.67 12.49
34.64 8.35 12.46
6.23 1.64 2.25
6.24 1.77 2.27
33.85 10.35 12.38
30.98 10.15 11.40
30.21 10.57 11.19
6.25 2.33 2.33
7.27 2.88 2.73
7.04 2.95 2.67
6.25 2.77 2.39
6.20 2.89 2.39
6.14 3.02 2.39
6.08 3.14 2.39
6.01 3.26 2.39
5.95 3.38 2.39
5.88 3.50 2.39
5.81 3.62 2.39
5.73 3.73 2.39
5.66 3.85 2.39
5.58 3.96 2.39
5.50 4.07 2.39
5.42 4.18 2.39
5.33 4.28 2.39
5.24 4.39 2.39
5.15 4.49 2.39
5.06 4.60 2.39
4.97 4.70 2.39
4.87 4.79 2.39
4.78 4.89 2.39
4.68 4.98 2.39
4.57 5.07 2.39
4.47 5.16 2.39
4.37 5.25 2.39
4.26 5.34 2.39
4.15 5.42 2.39
4.04 5.50 2.39
3.93 5.58 2.39
3.82 5.66 2.39
3.70 5.73 2.39
3.40 5.51 2.27
3.34 5.66 2.30
3.29 5.84 2.35
3.17 5.90 2.35
3.05 5.97 2.35
2.83 5.81 2.27
2.76 5.98 2.31
2.73 6.24 2.39
2.61 6.30 2.39
2.48 6.34 2.39
2.43 6.60 2.47
2.32 6.70 2.49
2.18 6.75 2.49
2.05 6.79 2.49
1.91 6.82 2.49
1.77 6.86 2.49
1.63 6.89 2.49
1.49 6.92 2.49
1.36 6.95 2.49
1.22 6.97 2.49
1.08 6.99 2.49
0.93 7.01 2.49
0.79 7.02 2.49
0.65 7.03 2.49
0.51 7.04 2.49
0.37 7.05 2.49
0.23 7.05 2.49
0.09 7.05 2.49
-0.05 7.05 2.49
-0.20 7.04 2.49
-0.34 7.04 2.49
-0.48 7.02 2.49
-0.62 7.01 2.49
-0.76 6.99 2.49
-0.90 6.97 2.49
-1.04 6.95 2.49
-1.18 6.93 2.49
-1.31 6.90 2.49
-1.45 6.87 2.49
-1.59 6.83 2.49
-1.72 6.80 2.49
-1.86 6.76 2.49
-1.99 6.72 2.49
-2.13 6.67 2.49
-2.26 6.63 2.49
-2.39 6.58 2.49
-2.52 6.52 2.49
-2.65 6.47 2.49
-2.78 6.41 2.49
-2.91 6.35 2.49
-3.03 6.29 2.49
-3.15 6.22 2.49
-3.28 6.16 2.49
-3.40 6.09 2.49
-3.52 6.01 2.49
-3.64 5.94 2.49
-3.75 5.86 2.49
-3.87 5.78 2.49
-3.98 5.70 2.49
-4.09 5.62 2.49
-4.20 5.53 2.49
-4.31 5.44 2.49
-4.42 5.35 2.49
-4.52 5.26 2.49
-4.63 5.17 2.49
-4.73 5.07 2.49
-4.83 4.97 2.49
-4.92 4.87 2.49
-5.02 4.77 2.49
-5.11 4.67 2.49
-5.20 4.56 2.49
-5.29 4.46 2.49
-5.38 4.35 2.49
-5.46 4.24 2.49
-5.54 4.12 2.49
-5.62 4.01 2.49
-5.70 3.89 2.49
-5.73 3.75 2.47
-5.73 3.59 2.45
-5.75 3.44 2.42
-5.76 3.29 2.40
-5.80 3.16 2.39
-5.86 3.04 2.39
-5.91 2.92 2.39
-5.98 2.80 2.39
-6.02 2.68 2.39
-6.07 2.56 2.39
-6.12 2.43 2.39
-6.17 2.31 2.39
-6.21 2.18 2.39
-6.25 2.06 2.39
-6.29 1.93 2.39
-6.32 1.80 2.39
-6.36 1.68 2.39
-6.39 1.55 2.39
-6.42 1.42 2.39
-6.44 1.29 2.39
-6.46 1.16 2.39
-6.48 1.03 2.39
-6.50 0.90 2.39
-6.52 0.77 2.39
-6.53 0.63 2.39
-6.54 0.50 2.39
-6.55 0.37 2.39
-6.55 0.24 2.39
-6.55 0.11 2.39
-6.55 -0.02 2.39
-6.55 -0.16 2.39
-6.54 -0.29 2.39
-6.53 -0.42 2.39
-6.52 -0.55 2.39
-6.51 -0.68 2.39
-6.49 -0.81 2.39
-6.47 -0.94 2.39
-6.45 -1.07 2.39
-6.43 -1.20 2.39
-6.40 -1.33 2.39
-6.37 -1.46 2.39
-6.34 -1.59 2.39
-6.31 -1.71 2.39
-6.27 -1.84 2.39
-6.23 -1.97 2.39
-6.19 -2.09 2.39
-6.17 -2.22 2.40
-6.10 -2.34 2.39
-6.05 -2.46 2.39
-6.00 -2.58 2.39
-5.98 -2.72 2.40
-5.98 -2.86 2.43
-5.98 -3.01 2.45
-5.99 -3.17 2.48
-5.96 -3.31 2.49
-5.89 -3.43 2.49
-5.82 -3.55 2.49
-5.75 -3.66 2.49
-5.67 -3.78 2.49
-5.60 -3.89 2.49
-5.52 -4.00 2.49
-5.44 -4.11 2.49
-5.35 -4.22 2.49
-5.27 -4.33 2.49
-5.18 -4.44 2.49
-5.09 -4.54 2.49
-5.00 -4.64 2.49
-4.90 -4.74 2.49
-4.81 -4.84 2.49
-4.71 -4.94 2.49
-4.61 -5.03 2.49
-4.51 -5.12 2.49
-4.41 -5.21 2.49
-4.30 -5.30 2.49
-4.19 -5.39 2.49
-4.09 -5.47 2.49
-3.98 -5.55 2.49
-3.86 -5.63 2.49
-3.75 -5.71 2.49
-3.64 -5.79 2.49
-3.52 -5.86 2.49
-3.40 -5.93 2.49
-3.28 -6.00 2.49
-3.16 -6.07 2.49
-3.04 -6.13 2.49
-2.92 -6.19 2.49
-2.79 -6.25 2.49
-2.67 -6.31 2.49
-2.54 -6.36 2.49
-2.41 -6.41 2.49
-2.28 -6.46 2.49
-2.15 -6.51 2.49
-2.02 -6.55 2.49
-1.89 -6.60 2.49
-1.76 -6.63 2.49
-1.63 -6.67 2.49
-1.49 -6.70 2.49
-1.36 -6.74 2.49
-1.22 -6.76 2.49
-1.09 -6.79 2.49
-0.95 -6.81 2.49
-0.81 -6.83 2.49
-0.67 -6.85 2.49
-0.54 -6.86 2.49
-0.40 -6.88 2.49
-0.26 -6.89 2.49
-0.12 -6.89 2.49
0.02 -6.44 2.49
0.15 -6.44 2.49
0.27 -6.44 2.49
0.40 -6.43 2.49
0.53 -6.43 2.49
0.66 -6.42 2.49
0.79 -6.41 2.49
0.92 -6.39 2.49
1.05 -6.37 2.49
1.18 -6.35 2.49
1.31 -6.33 2.49
1.43 -6.31 2.49
1.56 -6.28 2.49
1.69 -6.25 2.49
1.81 -6.22 2.49
1.94 -6.18 2.49
1.98 -5.89 2.39
2.10 -5.85 2.39
2.21 -5.81 2.39
2.33 -5.77 2.39
2.45 -5.72 2.39
2.56 -5.67 2.39
2.68 -5.62 2.39
2.79 -5.57 2.39
2.90 -5.52 2.39
3.02 -5.46 2.39
3.13 -5.40 2.39
3.24 -5.34 2.39
3.34 -5.28 2.39
3.45 -5.21 2.39
3.56 -5.14 2.39
3.66 -5.07 2.39
3.76 -5.00 2.39
3.86 -4.93 2.39
3.96 -4.85 2.39
4.06 -4.77 2.39
4.16 -4.69 2.39
4.25 -4.61 2.39
4.35 -4.52 2.39
4.44 -4.44 2.39
4.53 -4.35 2.39
4.62 -4.26 2.39
4.70 -4.17 2.39
4.79 -4.07 2.39
4.87 -3.98 2.39
4.95 -3.88 2.39
5.03 -3.78 2.39
5.11 -3.68 2.39
5.18 -3.58 2.39
5.25 -3.48 2.39
5.33 -3.37 2.39
5.39 -3.27 2.39
5.46 -3.16 2.39
5.52 -3.05 2.39
5.59 -2.94 2.39
5.65 -2.83 2.39
5.70 -2.72 2.39
5.76 -2.60 2.39
5.81 -2.49 2.39
5.86 -2.37 2.39
5.91 -2.25 2.39
5.96 -2.14 2.39
6.00 -2.02 2.39
6.04 -1.90 2.39
6.08 -1.78 2.39
6.10 -1.65 2.38
27.10 -6.75 10.53
28.32 -6.45 10.95
29.75 -6.15 11.45
31.06 -5.78 11.90
32.07 -5.30 12.24
32.72 -4.74 12.45
33.36 -4.15 12.66
33.88 -3.53 12.82
34.07 -2.86 12.86
34.27 -2.19 12.92
34.46 -1.51 12.97
34.41 -0.82 12.94
34.47 -0.13 12.96
34.51 0.56 12.97
6.17 0.22 2.32
6.18 0.35 2.32
34.21 2.62 12.89
34.06 3.29 12.85
33.91 3.97 12.82
33.73 4.63 12.78
33.50 5.29 12.73
33.25 5.93 12.68
6.25 1.24 2.39
6.22 1.37 2.39
6.19 1.49 2.39
6.16 1.62 2.39
6.13 1.74 2.39
6.09 1.86 2.39
6.06 1.98 2.39
6.02 2.11 2.39
5.97 2.23 2.39
5.93 2.35 2.39
5.88 2.46 2.39
5.83 2.58 2.39
5.78 2.70 2.39
5.72 2.81 2.39
5.66 2.93 2.39
5.61 3.04 2.39
5.54 3.15 2.39
5.48 3.26 2.39
5.41 3.37 2.39
5.34 3.48 2.39
5.27 3.58 2.39
5.20 3.69 2.39
5.12 3.79 2.39
5.05 3.89 2.39
4.97 3.99 2.39
4.89 4.09 2.39
4.80 4.19 2.39
4.72 4.28 2.39
4.63 4.38 2.39
4.54 4.47 2.39
4.45 4.56 2.39
4.36 4.64 2.39
4.26 4.73 2.39
4.17 4.81 2.39
4.07 4.90 2.39
3.97 4.98 2.39
3.87 5.05 2.39
3.77 5.13 2.39
3.66 5.20 2.39
3.38 5.00 2.27
3.32 5.14 2.30
3.29 5.32 2.35
3.18 5.38 2.35
3.07 5.44 2.35
2.86 5.31 2.27
2.75 5.37 2.27
2.75 5.65 2.37
2.67 5.76 2.39
2.55 5.81 2.39
2.43 5.86 2.39
2.41 6.16 2.49
2.29 6.21 2.49
2.16 6.25 2.49
2.04 6.29 2.49
1.91 6.33 2.49
1.78 6.36 2.49
1.65 6.39 2.49
1.52 6.42 2.49
1.39 6.45 2.49
1.26 6.48 2.49
1.13 6.50 2.49
1.00 6.52 2.49
0.87 6.53 2.49
0.74 6.55 2.49
0.61 6.56 2.49
0.48 6.57 2.49
0.35 6.57 2.49
0.21 6.58 2.49
0.08 6.58 2.49
-0.05 6.57 2.49
-0.18 6.57 2.49
-0.31 6.56 2.49
-0.44 6.55 2.49
-0.58 6.54 2.49
-0.71 6.52 2.49
-0.84 6.51 2.49
-0.97 6.48 2.49
-1.10 6.46 2.49
-1.22 6.44 2.49
-1.35 6.41 2.49
-1.48 6.38 2.49
-1.61 6.34 2.49
-1.73 6.31 2.49
-1.86 6.27 2.49
-1.98 6.23 2.49
-2.11 6.18 2.49
-2.23 6.14 2.49
-2.35 6.09 2.49
-2.47 6.04 2.49
-2.59 5.98 2.49
-2.71 5.93 2.49
-2.83 5.87 2.49
-2.94 5.81 2.49
-3.06 5.75 2.49
-3.17 5.68 2.49
-3.28 5.61 2.49
-3.39 5.54 2.49
-3.50 5.47 2.49
-3.61 5.40 2.49
-3.72 5.32 2.49
-3.82 5.24 2.49
-3.92 5.16 2.49
-4.02 5.08 2.49
-4.12 5.00 2.49
-4.22 4.91 2.49
-4.32 4.82 2.49
-4.41 4.74 2.49
-4.50 4.64 2.49
-4.59 4.55 2.49
-4.68 4.46 2.49
-4.77 4.36 2.49
-4.85 4.26 2.49
-4.94 4.16 2.49
-5.02 4.06 2.49
-5.10 3.96 2.49
-5.17 3.85 2.49
-5.25 3.74 2.49
-5.32 3.64 2.49
-5.39 3.53 2.49
-5.46 3.42 2.49
-5.52 3.31 2.49
-5.59 3.19 2.49
-5.65 3.08 2.49
-5.70 2.96 2.49
-5.76 2.85 2.49
-5.77 2.71 2.47
-5.77 2.57 2.45
-5.78 2.43 2.44
-5.79 2.30 2.42
-5.80 2.17 2.41
-5.81 2.04 2.39
-5.84 1.92 2.39
-5.87 1.80 2.39
-5.91 1.69 2.39
-5.94 1.57 2.39
-5.97 1.45 2.39
-5.99 1.33 2.39
-6.04 1.21 2.40
-6.04 1.08 2.39
-6.06 0.96 2.39
-6.07 0.84 2.39
-6.09 0.72 2.39
-6.10 0.59 2.39
-6.11 0.47 2.39
-6.11 0.35 2.39
-6.12 0.22 2.39
-6.12 0.10 2.39
-6.12 -0.02 2.39
-6.12 -0.15 2.39
-6.11 -0.27 2.39
-6.10 -0.39 2.39
-6.10 -0.51 2.39
-6.08 -0.64 2.39
-6.07 -0.76 2.39
-6.05 -0.88 2.39
-6.03 -1.00 2.39
-6.01 -1.12 2.39
-5.98 -1.24 2.39
-5.95 -1.36 2.39
-5.94 -1.49 2.40
-5.94 -1.61 2.41
-5.94 -1.74 2.42
-5.94 -1.87 2.44
-5.95 -2.01 2.46
-5.95 -2.14 2.48
-5.95 -2.28 2.49
-5.90 -2.40 2.49
-5.85 -2.52 2.49
-5.80 -2.63 2.49
-5.74 -2.75 2.49
-5.69 -2.86 2.49
-5.63 -2.98 2.49
-5.57 -3.09 2.49
-5.50 -3.20 2.49
-5.44 -3.31 2.49
-5.37 -3.42 2.49
-5.30 -3.53 2.49
-5.23 -3.64 2.49
-5.15 -3.74 2.49
-5.08 -3.84 2.49
-5.00 -3.94 2.49
-4.92 -4.05 2.49
-4.84 -4.14 2.49
-4.75 -4.24 2.49
-4.67 -4.34 2.49
-4.58 -4.43 2.49
-4.49 -4.52 2.49
-4.40 -4.61 2.49
-4.31 -4.70 2.49
-4.21 -4.79 2.49
-4.12 -4.87 2.49
-4.02 -4.95 2.49
-3.92 -5.03 2.49
-3.82 -5.11 2.49
-3.71 -5.19 2.49
-3.61 -5.26 2.49
-3.50 -5.34 2.49
-3.40 -5.41 2.49
-3.29 -5.48 2.49
-3.18 -5.54 2.49
-3.07 -5.61 2.49
-2.95 -5.67 2.49
-2.84 -5.73 2.49
-2.72 -5.78 2.49
-2.61 -5.84 2.49
-2.49 -5.89 2.49
-2.37 -5.94 2.49
-2.25 -5.99 2.49
-2.13 -6.04 2.49
-2.01 -6.08 2.49
-1.89 -6.12 2.49
-1.77 -6.16 2.49
-1.64 -6.20 2.49
-1.52 -6.23 2.49
-1.39 -6.26 2.49
-1.27 -6.29 2.49
-1.14 -6.32 2.49
-1.01 -6.34 2.49
-0.89 -6.36 2.49
-0.76 -6.38 2.49
-0.63 -6.40 2.49
-0.50 -6.41 2.49
-0.37 -6.42 2.49
-0.24 -6.43 2.49
-0.11 -6.44 2.49
0.02 -6.03 2.49
0.14 -6.03 2.49
0.26 -6.03 2.49
0.38 -6.03 2.49
0.50 -6.02 2.49
0.62 -6.01 2.49
0.74 -6.00 2.49
0.86 -5.99 2.49
0.98 -5.97 2.49
1.10 -5.95 2.49
1.22 -5.93 2.49
1.34 -5.91 2.49
1.46 -5.88 2.49
1.58 -5.85 2.49
1.70 -5.82 2.49
1.82 -5.79 2.49
1.93 -5.75 2.49
1.98 -5.52 2.41
2.07 -5.44 2.39
2.18 -5.40 2.39
2.29 -5.36 2.39
2.40 -5.31 2.39
2.51 -5.27 2.39
2.62 -5.22 2.39
2.72 -5.17 2.39
2.82 -5.11 2.39
2.93 -5.06 2.39
3.03 -5.00 2.39
3.13 -4.94 2.39
3.23 -4.88 2.39
3.33 -4.81 2.39
3.43 -4.75 2.39
3.52 -4.68 2.39
3.62 -4.61 2.39
3.71 -4.54 2.39
3.80 -4.46 2.39
3.89 -4.39 2.39
3.98 -4.31 2.39
4.07 -4.23 2.39
4.16 -4.15 2.39
4.24 -4.07 2.39
4.32 -3.99 2.39
4.40 -3.90 2.39
4.48 -3.81 2.39
4.56 -3.72 2.39
4.63 -3.63 2.39
4.71 -3.54 2.39
4.78 -3.45 2.39
4.85 -3.35 2.39
4.92 -3.25 2.39
4.98 -3.16 2.39
5.05 -3.06 2.39
5.11 -2.96 2.39
5.17 -2.85 2.39
5.23 -2.75 2.39
5.28 -2.65 2.39
5.34 -2.54 2.39
5.39 -2.43 2.39
5.44 -2.33 2.39
5.49 -2.22 2.39
5.53 -2.11 2.39
5.57 -2.00 2.39
5.62 -1.89 2.39
5.65 -1.77 2.39
5.69 -1.66 2.39
5.72 -1.55 2.39
5.76 -1.43 2.39
5.78 -1.32 2.39
5.81 -1.20 2.39
5.84 -1.08 2.39
5.86 -0.97 2.39
5.88 -0.85 2.39
5.89 -0.73 2.39
5.91 -0.62 2.39
5.92 -0.50 2.39
5.93 -0.38 2.39
5.94 -0.26 2.39
