ply
format ascii 1.0
element vertex 2880
property float32 x
property float32 y
property float32 z
end_header
-12.28 -7.48 0.77
-11.78 -7.51 0.75
-11.78 -7.85 0.76
-11.64 -8.10 0.76
-11.72 -8.50 0.77
-20.53 -15.53 1.37
-19.72 -15.55 1.33
-12.57 -10.33 0.86
-10.07 -8.62 0.70
-9.85 -8.78 0.69
-11.73 -10.89 0.84
-11.84 -11.44 0.86
-14.31 -14.39 1.06
-12.93 -13.53 0.97
-9.92 -10.81 0.76
-10.04 -11.40 0.78
-11.78 -13.93 0.94
-11.76 -14.48 0.96
-9.97 -12.79 0.83
-10.10 -13.51 0.86
-20.62 -28.77 1.80
-10.05 -14.63 0.90
-10.15 -15.43 0.93
-9.99 -15.88 0.95
-17.36 -28.86 1.69
-16.59 -28.88 1.67
-15.84 -28.90 1.65
-15.09 -28.88 1.62
-14.38 -28.93 1.61
-13.68 -28.95 1.59
-12.96 -28.94 1.57
-12.29 -28.99 1.55
-11.62 -29.01 1.53
-10.94 -28.99 1.52
-10.64 -29.98 1.55
-10.69 -32.18 1.65
-10.72 -34.57 1.76
-10.80 -37.46 1.89
-10.14 -38.01 1.90
-10.90 -48.62 2.39
0.02 -36.07 2.49
0.74 -36.13 2.49
1.41 -34.67 2.39
2.11 -34.70 2.39
2.81 -34.71 2.39
3.51 -34.70 2.39
3.92 -32.32 2.23
3.93 -27.70 1.91
6.25 -38.52 2.66
8.80 -48.08 3.33
9.84 -48.27 3.35
5.61 -24.93 1.74
45.38 4.33 3.08
38.90 4.50 2.65
34.02 4.63 2.33
30.21 4.73 2.08
27.15 4.81 1.88
24.64 4.88 1.71
23.42 5.12 1.64
32.06 7.69 2.25
19.30 5.04 1.37
31.62 8.94 2.25
31.38 9.56 2.25
27.58 9.01 2.00
30.87 10.78 2.25
30.59 11.37 2.25
30.31 11.96 2.25
30.01 12.55 2.25
29.69 13.12 2.25
28.78 13.41 2.21
27.41 13.45 2.13
26.14 13.48 2.05
24.95 13.52 1.99
23.85 13.54 1.92
22.82 13.57 1.86
21.85 13.60 1.81
20.94 13.62 1.76
20.09 13.64 1.72
19.27 13.67 1.67
18.51 13.69 1.63
17.79 13.72 1.60
15.20 13.80 1.47
12.49 13.87 1.35
9.89 14.06 1.26
18.72 40.59 3.33
17.66 40.42 3.30
16.62 40.21 3.26
15.63 40.08 3.23
14.71 40.08 3.21
4.85 14.07 1.12
4.53 14.07 1.11
12.01 40.01 3.16
10.98 39.44 3.10
9.74 37.90 2.97
8.27 35.10 2.74
6.59 30.72 2.39
5.96 30.79 2.39
5.33 30.85 2.39
4.70 30.89 2.39
3.27 24.81 1.92
3.45 30.95 2.39
2.94 32.30 2.49
2.29 32.29 2.49
1.64 32.28 2.49
0.99 32.25 2.49
0.34 32.22 2.49
-0.31 32.17 2.49
-0.95 32.10 2.49
-1.59 32.03 2.49
-2.23 31.94 2.49
-2.87 31.84 2.49
-3.50 31.73 2.49
-4.14 31.61 2.49
-2.34 15.46 1.22
-2.59 15.08 1.20
-2.91 15.09 1.21
-3.23 15.11 1.22
-3.55 15.12 1.22
-7.52 29.37 2.39
-8.10 29.18 2.39
-8.67 28.98 2.39
-8.89 27.69 2.30
-8.94 26.02 2.18
-8.98 24.52 2.07
-9.01 23.17 1.97
-9.05 21.94 1.89
-9.08 20.81 1.81
-9.10 19.78 1.73
-9.13 18.83 1.67
-9.15 17.95 1.61
-9.17 17.13 1.55
-9.19 16.37 1.50
-9.21 15.66 1.45
-9.23 14.99 1.41
-9.25 14.37 1.37
-9.26 13.78 1.33
-9.28 13.22 1.30
-9.29 12.69 1.26
-5.89 7.71 0.78
-9.32 11.71 1.20
-9.33 11.25 1.18
-9.45 10.94 1.16
-11.76 13.07 1.42
-19.04 20.33 2.24
-9.48 9.73 1.09
-9.38 9.25 1.06
-7.30 6.91 0.81
-7.36 6.69 0.80
-7.53 6.57 0.81
-9.52 7.98 1.00
-21.66 17.43 2.24
-9.43 7.28 0.96
-9.54 7.06 0.96
-9.57 6.79 0.95
-11.39 7.75 1.11
-11.52 7.50 1.11
-9.60 5.98 0.91
-23.89 14.22 2.24
-24.17 13.74 2.24
-24.45 13.25 2.24
-9.53 4.92 0.87
-9.57 4.70 0.86
-25.22 11.77 2.24
-25.46 11.26 2.24
-9.67 4.05 0.84
-25.91 10.24 2.24
-11.54 4.29 0.99
-9.68 3.38 0.82
-11.55 3.78 0.98
-9.59 2.92 0.81
-9.59 2.71 0.80
-9.70 2.54 0.81
-9.70 2.33 0.80
-9.71 2.13 0.80
-9.72 1.92 0.79
-9.73 1.72 0.79
-11.54 1.81 0.93
-11.64 1.58 0.94
-11.50 1.33 0.92
-9.64 0.92 0.77
-9.64 0.72 0.77
-19.55 1.07 1.56
-21.73 0.76 1.73
-21.74 0.32 1.73
-18.18 -0.10 1.44
-18.09 -0.46 1.44
-21.81 -0.99 1.73
-21.83 -1.43 1.73
-12.28 -1.06 0.97
-9.69 -1.03 0.77
-9.70 -1.23 0.77
-11.40 -1.68 0.91
-11.52 -1.93 0.92
-11.55 -2.17 0.92
-21.13 -4.42 1.69
-9.84 -2.26 0.79
-9.84 -2.47 0.79
-9.84 -2.69 0.80
-9.84 -2.90 0.80
-9.75 -3.09 0.80
-21.94 -7.43 1.80
-21.96 -7.93 1.81
-21.97 -8.44 1.82
-21.99 -8.96 1.84
-23.48 -10.12 1.98
-23.49 -10.69 1.99
-26.27 -12.60 2.24
-9.87 -4.98 0.85
-9.88 -5.24 0.86
-9.88 -5.49 0.87
-9.89 -5.76 0.88
-12.39 -7.56 1.11
-11.88 -7.57 1.07
-9.95 -6.63 0.91
-9.81 -6.82 0.91
-11.65 -8.46 1.09
-20.52 -15.53 1.95
-9.95 -7.85 0.96
-18.94 -15.57 1.85
-10.07 -8.62 1.00
-9.86 -8.79 0.99
-11.78 -10.94 1.21
-10.00 -9.66 1.04
-15.57 -15.66 1.65
-10.02 -10.50 1.08
-9.92 -10.81 1.09
-10.04 -11.40 1.13
-11.86 -14.03 1.36
-10.12 -12.46 1.19
-9.97 -12.79 1.20
-9.98 -13.36 1.23
-10.00 -13.96 1.26
-10.02 -14.59 1.30
-10.03 -15.26 1.34
-9.92 -15.76 1.36
-15.86 -26.37 2.24
-15.38 -26.78 2.25
-14.98 -27.33 2.26
-14.54 -27.85 2.28
-14.10 -28.37 2.29
-11.54 -24.44 1.95
-11.25 -25.13 1.98
-11.54 -27.21 2.12
-11.62 -29.01 2.24
-10.94 -28.99 2.22
-10.64 -30.00 2.27
-10.57 -31.83 2.39
-9.95 -32.10 2.39
-9.32 -32.36 2.39
-8.69 -32.61 2.39
-8.05 -32.84 2.39
-7.40 -33.06 2.39
-6.75 -33.26 2.39
-6.36 -34.90 2.49
-5.67 -35.09 2.49
-4.97 -35.26 2.49
-4.27 -35.42 2.49
-3.56 -35.57 2.49
-2.86 -35.70 2.49
-2.14 -35.81 2.49
-1.43 -35.91 2.49
-0.71 -36.00 2.49
0.02 -27.17 2.49
0.56 -27.20 2.49
1.11 -27.22 2.49
1.59 -26.20 2.40
2.11 -26.09 2.39
2.64 -26.08 2.39
3.17 -26.05 2.39
3.69 -26.02 2.39
4.14 -25.48 2.35
4.75 -25.91 2.39
5.27 -25.84 2.39
6.52 -28.96 2.69
8.02 -32.56 3.03
9.35 -34.93 3.27
10.45 -36.13 3.40
11.85 -38.11 3.60
15.32 -45.98 4.37
5.83 -16.38 1.57
48.39 4.61 4.39
38.93 4.50 3.54
34.05 4.63 3.11
30.23 4.73 2.77
27.17 4.81 2.50
24.65 4.88 2.28
22.55 4.93 2.10
20.76 4.98 1.94
19.22 5.02 1.81
17.88 5.06 1.70
16.74 5.10 1.60
23.42 7.65 2.25
23.23 8.11 2.25
13.95 5.18 1.37
13.41 5.29 1.32
22.61 9.45 2.25
22.39 9.89 2.25
19.78 9.22 2.01
19.27 9.45 1.98
21.66 11.17 2.25
16.80 9.10 1.77
21.14 12.00 2.25
20.86 12.40 2.25
20.58 12.80 2.25
20.29 13.19 2.25
19.99 13.57 2.25
19.28 13.67 2.21
18.51 13.69 2.15
17.78 13.71 2.10
17.08 13.72 2.06
16.42 13.74 2.01
15.78 13.76 1.97
15.18 13.78 1.93
14.59 13.79 1.90
14.03 13.81 1.86
13.50 13.82 1.83
12.98 13.83 1.80
12.48 13.85 1.77
11.99 13.86 1.74
11.52 13.87 1.72
11.07 13.88 1.70
10.63 13.90 1.67
10.20 13.91 1.65
9.79 13.92 1.63
9.39 13.94 1.61
7.51 14.00 1.54
7.16 14.01 1.53
18.17 37.38 4.04
17.23 37.33 4.00
16.30 37.27 3.96
15.37 37.18 3.92
14.46 37.06 3.89
6.81 18.54 1.93
4.85 14.07 1.46
4.53 14.07 1.45
10.68 35.55 3.65
6.52 23.41 2.39
6.04 23.50 2.39
5.56 23.59 2.39
5.08 23.66 2.39
4.60 23.73 2.39
3.90 22.57 2.27
3.57 23.43 2.35
3.15 23.86 2.39
2.78 24.92 2.49
2.27 24.94 2.49
1.77 24.95 2.49
1.27 24.94 2.49
0.77 24.93 2.49
0.26 24.91 2.49
-0.24 24.88 2.49
-0.73 24.84 2.49
-1.23 24.79 2.49
-1.73 24.73 2.49
-2.22 24.67 2.49
-2.71 24.59 2.49
-2.16 16.56 1.69
-2.25 14.88 1.52
-2.56 14.89 1.53
-2.87 14.90 1.54
-3.18 14.92 1.55
-3.50 14.93 1.56
-5.83 22.81 2.39
-6.29 22.66 2.39
-6.73 22.51 2.39
-7.18 22.35 2.39
-7.62 22.18 2.39
-8.06 22.01 2.39
-8.49 21.82 2.39
-8.92 21.63 2.39
-9.08 20.82 2.32
-9.10 19.79 2.23
-9.13 18.83 2.14
-9.15 17.96 2.07
-9.17 17.14 1.99
-9.19 16.38 1.93
-9.21 15.66 1.87
-9.23 15.00 1.81
-9.25 14.37 1.76
-9.26 13.78 1.71
-9.28 13.22 1.66
-9.29 12.69 1.62
-5.89 7.71 1.00
-9.32 11.71 1.54
-9.33 11.25 1.51
-9.34 10.81 1.47
-9.35 10.40 1.44
-9.36 10.00 1.41
-9.37 9.61 1.39
-9.38 9.25 1.36
-7.27 6.88 1.03
-7.34 6.67 1.02
-7.50 6.55 1.03
-9.41 7.89 1.27
-9.42 7.58 1.25
-9.43 7.28 1.23
-9.46 7.00 1.22
-9.49 6.73 1.20
-9.63 6.55 1.20
-11.62 7.57 1.43
-9.60 5.98 1.17
-18.65 11.10 2.24
-18.86 10.72 2.24
-19.08 10.34 2.24
-9.53 4.92 1.11
-9.58 4.70 1.10
-19.68 9.18 2.24
-19.86 8.78 2.24
-9.67 4.05 1.08
-20.21 7.98 2.24
-11.60 4.32 1.28
-9.68 3.38 1.06
-11.64 3.81 1.26
-9.59 2.92 1.03
-9.59 2.71 1.03
-21.08 5.51 2.24
-21.19 5.09 2.24
-9.72 2.13 1.02
-21.40 4.24 2.24
-9.73 1.72 1.02
-11.67 1.83 1.21
-11.64 1.58 1.21
-9.74 1.13 1.01
-9.64 0.92 0.99
-9.64 0.72 0.99
-19.06 1.05 1.95
-18.67 0.65 1.91
-9.77 0.14 1.00
-18.18 -0.10 1.86
-18.09 -0.46 1.85
-9.79 -0.45 1.00
-18.06 -1.19 1.84
-18.07 -1.55 1.84
-9.69 -1.03 0.99
-9.70 -1.23 0.99
-11.56 -1.70 1.19
-11.59 -1.94 1.19
-9.82 -1.85 1.01
-19.43 -4.07 2.01
-20.62 -4.75 2.14
-21.56 -5.42 2.24
-9.85 -2.69 1.03
-21.37 -6.30 2.24
-9.75 -3.09 1.03
-21.15 -7.17 2.24
-21.03 -7.60 2.24
-20.90 -8.03 2.24
-20.76 -8.46 2.24
-20.61 -8.89 2.24
-20.45 -9.31 2.24
-20.29 -9.73 2.24
-9.87 -4.98 1.10
-9.88 -5.24 1.11
-9.88 -5.50 1.12
-9.89 -5.76 1.14
-12.31 -7.51 1.43
-11.98 -7.64 1.41
-9.94 -6.63 1.18
-9.81 -6.83 1.18
-9.82 -7.13 1.20
-9.83 -7.44 1.21
-9.84 -7.76 1.23
-9.84 -8.10 1.25
-9.85 -8.44 1.27
-9.86 -8.80 1.29
-9.87 -9.17 1.32
-9.88 -9.56 1.34
-9.89 -9.96 1.37
-9.90 -10.38 1.39
-9.92 -10.82 1.42
-9.93 -11.28 1.46
-9.94 -11.76 1.49
-9.95 -12.26 1.53
-9.97 -12.80 1.56
-9.98 -13.36 1.61
-10.00 -13.96 1.65
-10.02 -14.59 1.70
-10.03 -15.27 1.75
-9.91 -15.76 1.78
-12.52 -20.83 2.32
-11.25 -19.59 2.16
-11.12 -20.31 2.21
-11.28 -21.61 2.32
-10.95 -22.06 2.34
-10.62 -22.51 2.36
-10.28 -22.96 2.38
-9.87 -23.29 2.39
-9.41 -23.52 2.39
-8.95 -23.74 2.39
-8.49 -23.95 2.39
-8.02 -24.15 2.39
-7.54 -24.35 2.39
-7.06 -24.53 2.39
-6.58 -24.70 2.39
-6.35 -25.94 2.49
-5.84 -26.10 2.49
-5.32 -26.25 2.49
-4.80 -26.39 2.49
-4.28 -26.52 2.49
-3.75 -26.64 2.49
-3.22 -26.75 2.49
-2.69 -26.85 2.49
-2.15 -26.93 2.49
-1.61 -27.01 2.49
-1.07 -27.07 2.49
-0.53 -27.12 2.49
0.02 -21.77 2.49
0.45 -21.79 2.49
0.89 -21.80 2.49
1.33 -21.80 2.49
1.72 -21.20 2.43
2.09 -20.61 2.36
2.50 -20.50 2.35
2.81 -19.75 2.27
3.38 -20.77 2.39
3.80 -20.72 2.39
4.22 -20.65 2.39
4.63 -20.58 2.39
5.05 -20.50 2.39
5.46 -20.42 2.39
6.67 -23.05 2.71
5.78 -18.56 2.20
9.56 -28.68 3.41
5.83 -16.38 1.96
5.86 -15.48 1.86
11.97 -29.82 3.62
5.93 -12.53 1.56
42.92 4.95 4.89
34.30 4.66 3.92
30.25 4.73 3.47
27.19 4.81 3.13
24.67 4.88 2.86
22.56 4.93 2.63
20.77 4.98 2.43
19.23 5.02 2.26
17.89 5.06 2.12
16.71 5.09 1.99
15.67 5.11 1.88
14.74 5.14 1.78
13.90 5.16 1.70
13.15 5.19 1.62
18.13 7.57 2.25
17.95 7.93 2.25
17.77 8.28 2.25
10.75 5.27 1.38
17.39 8.96 2.25
17.05 9.23 2.24
16.97 9.63 2.25
16.76 9.96 2.25
15.03 9.34 2.05
14.40 9.36 1.99
14.06 9.55 1.97
15.83 11.22 2.25
15.58 11.52 2.25
15.33 11.81 2.25
15.07 12.10 2.25
14.81 12.39 2.25
14.54 12.67 2.25
14.26 12.94 2.25
13.98 13.21 2.25
13.70 13.47 2.25
13.41 13.72 2.25
9.10 9.70 1.57
12.48 13.85 2.20
12.00 13.86 2.16
11.53 13.87 2.13
11.08 13.88 2.10
10.64 13.90 2.07
10.21 13.91 2.05
9.79 13.92 2.02
9.39 13.93 2.00
8.99 13.94 1.97
8.61 13.95 1.95
8.23 13.96 1.93
7.86 13.97 1.91
7.50 13.98 1.90
7.15 13.99 1.88
6.81 14.00 1.87
16.31 35.33 4.67
15.39 35.18 4.61
14.49 35.02 4.56
13.55 34.72 4.49
8.04 21.89 2.81
4.85 14.07 1.80
4.54 14.07 1.79
5.69 18.92 2.39
5.30 19.01 2.39
4.91 19.09 2.39
4.52 19.16 2.39
4.13 19.23 2.39
3.68 18.97 2.35
3.18 18.35 2.27
2.95 19.37 2.39
2.67 20.25 2.49
2.26 20.27 2.49
1.85 20.29 2.49
1.44 20.30 2.49
1.04 20.31 2.49
0.63 20.30 2.49
0.22 20.29 2.49
-0.19 20.27 2.49
-0.60 20.24 2.49
-1.00 20.21 2.49
-1.41 20.16 2.49
-1.81 20.11 2.49
-2.21 20.05 2.49
-2.16 16.57 2.07
-2.20 14.58 1.83
-2.56 14.89 1.87
-2.87 14.90 1.88
-3.18 14.91 1.89
-3.50 14.93 1.91
-3.70 14.46 1.86
-5.26 18.99 2.45
-5.50 18.39 2.39
-5.86 18.26 2.39
-6.22 18.13 2.39
-6.58 17.99 2.39
-6.94 17.84 2.39
-7.29 17.68 2.39
-7.64 17.52 2.39
-7.98 17.36 2.39
-8.33 17.18 2.39
-8.66 17.00 2.39
-9.00 16.81 2.39
-9.19 16.38 2.36
-9.21 15.67 2.28
-9.23 15.00 2.21
-9.25 14.37 2.15
-9.26 13.78 2.09
-9.28 13.22 2.03
-9.29 12.69 1.98
-5.89 7.71 1.22
-9.32 11.71 1.88
-9.33 11.25 1.84
-9.34 10.82 1.80
-9.35 10.40 1.76
-9.36 10.00 1.73
-9.37 9.62 1.69
-7.44 7.33 1.32
-7.27 6.88 1.26
-7.34 6.67 1.25
-7.50 6.55 1.26
-9.41 7.89 1.55
-9.42 7.58 1.53
-9.43 7.28 1.50
-9.46 7.00 1.49
-9.47 6.72 1.47
-9.48 6.44 1.45
-9.49 6.18 1.43
-9.50 5.91 1.41
-9.51 5.66 1.40
-9.51 5.41 1.38
-9.52 5.16 1.37
-9.53 4.92 1.35
-9.54 4.69 1.34
-9.55 4.45 1.33
-9.55 4.22 1.32
-9.56 4.00 1.31
-9.56 3.78 1.30
-9.57 3.56 1.29
-9.58 3.34 1.28
-9.58 3.13 1.27
-9.59 2.92 1.26
-9.59 2.71 1.25
-9.60 2.51 1.25
-9.60 2.30 1.24
-9.61 2.10 1.24
-9.61 1.90 1.23
-9.62 1.70 1.23
-9.62 1.51 1.22
-9.63 1.31 1.22
-9.63 1.11 1.22
-9.64 0.92 1.21
-9.64 0.72 1.21
-9.67 0.53 1.21
-9.69 0.34 1.21
-9.70 0.14 1.21
-9.71 -0.05 1.21
-9.71 -0.25 1.21
-9.71 -0.44 1.21
-9.71 -0.64 1.21
-9.69 -0.83 1.21
-9.69 -1.03 1.21
-9.70 -1.23 1.22
-9.70 -1.43 1.22
-9.71 -1.63 1.22
-9.71 -1.83 1.23
-9.72 -2.03 1.23
-9.72 -2.24 1.24
-9.73 -2.45 1.24
-9.73 -2.66 1.25
-9.74 -2.87 1.25
-9.75 -3.09 1.26
-17.83 -6.05 2.32
-17.74 -6.42 2.32
-17.66 -6.79 2.33
-17.64 -7.19 2.34
-17.70 -7.63 2.37
-17.75 -8.08 2.39
-17.80 -8.54 2.42
-9.79 -4.94 1.34
-9.77 -5.18 1.35
-9.77 -5.44 1.37
-9.78 -5.70 1.38
-9.79 -5.97 1.40
-9.80 -6.25 1.41
-9.80 -6.54 1.43
-9.81 -6.83 1.45
-9.82 -7.13 1.47
-9.83 -7.44 1.49
-9.84 -7.77 1.52
-9.84 -8.10 1.54
-9.85 -8.44 1.57
-9.86 -8.80 1.59
-9.87 -9.17 1.62
-9.88 -9.56 1.65
-9.89 -9.96 1.69
-9.90 -10.38 1.72
-9.92 -10.82 1.76
-9.93 -11.28 1.80
-9.94 -11.76 1.84
-9.95 -12.27 1.89
-9.97 -12.80 1.93
-9.98 -13.37 1.99
-10.00 -13.97 2.04
-10.02 -14.60 2.10
-10.03 -15.27 2.17
-9.91 -15.76 2.21
-10.48 -17.43 2.41
-10.07 -17.55 2.39
-9.73 -17.77 2.39
-9.38 -17.98 2.39
-9.03 -18.19 2.39
-8.67 -18.39 2.39
-8.31 -18.58 2.39
-7.95 -18.77 2.39
-7.58 -18.95 2.39
-7.21 -19.12 2.39
-6.83 -19.29 2.39
-6.45 -19.44 2.39
-6.31 -20.38 2.49
-5.92 -20.59 2.49
-5.52 -20.73 2.49
-5.11 -20.86 2.49
-4.69 -20.98 2.49
-4.27 -21.10 2.49
-3.86 -21.20 2.49
-3.43 -21.30 2.49
-3.01 -21.39 2.49
-2.58 -21.47 2.49
-2.15 -21.54 2.49
-1.72 -21.61 2.49
-1.29 -21.66 2.49
-0.86 -21.71 2.49
-0.42 -21.74 2.49
0.02 -18.15 2.49
0.38 -18.16 2.49
0.74 -18.16 2.49
1.11 -18.16 2.49
1.48 -18.15 2.49
1.81 -17.81 2.45
2.11 -17.36 2.39
2.42 -17.04 2.35
2.76 -16.99 2.35
3.16 -17.24 2.39
3.51 -17.19 2.39
2.40 -10.64 1.49
4.20 -17.06 2.39
4.55 -16.98 2.39
4.89 -16.90 2.39
5.23 -16.81 2.39
5.57 -16.71 2.39
5.83 -16.37 2.36
9.22 -24.35 3.53
9.98 -24.85 3.63
10.70 -25.17 3.70
5.93 -13.21 1.96
12.37 -26.13 3.91
13.34 -26.77 4.04
14.73 -28.13 4.29
5.99 -10.40 1.62
6.00 -9.95 1.57
32.43 5.06 4.47
27.20 4.81 3.77
24.68 4.87 3.43
22.57 4.93 3.16
20.78 4.98 2.92
19.24 5.02 2.72
17.90 5.05 2.55
16.72 5.09 2.39
15.67 5.11 2.26
14.74 5.14 2.14
13.90 5.16 2.04
13.14 5.18 1.94
12.45 5.20 1.86
11.82 5.22 1.78
11.24 5.23 1.71
10.70 5.25 1.64
10.37 5.34 1.61
14.34 7.76 2.25
14.17 8.04 2.25
13.99 8.31 2.25
8.57 5.33 1.40
8.21 5.34 1.36
8.04 5.45 1.35
13.23 9.37 2.25
13.02 9.62 2.25
12.81 9.87 2.25
12.08 9.70 2.16
11.29 9.44 2.06
10.87 9.47 2.01
10.87 9.86 2.05
11.70 11.05 2.25
11.46 11.27 2.25
11.22 11.48 2.25
9.10 9.69 1.87
10.73 11.90 2.25
10.48 12.10 2.25
10.22 12.30 2.25
9.96 12.48 2.25
9.70 12.67 2.25
9.43 12.85 2.25
9.16 13.02 2.25
8.89 13.19 2.25
8.62 13.35 2.25
8.34 13.51 2.25
8.06 13.66 2.25
7.77 13.80 2.25
7.49 13.94 2.25
7.15 13.99 2.24
6.81 14.00 2.22
7.92 17.15 2.70
6.70 15.31 2.39
6.39 15.43 2.39
6.07 15.54 2.39
5.75 15.64 2.39
4.87 14.11 2.14
4.54 14.08 2.13
4.78 15.91 2.39
4.46 15.98 2.39
4.13 16.06 2.39
3.63 15.39 2.28
3.42 15.91 2.35
3.06 15.75 2.32
2.82 16.27 2.39
2.60 17.01 2.49
2.25 17.05 2.49
1.91 17.07 2.49
1.56 17.09 2.49
1.22 17.10 2.49
0.87 17.11 2.49
0.53 17.11 2.49
0.19 17.10 2.49
-0.16 17.09 2.49
-0.50 17.07 2.49
-0.84 17.04 2.49
-1.18 17.00 2.49
-1.52 16.96 2.49
-1.86 16.92 2.49
-2.20 16.86 2.49
-2.16 14.29 2.12
-2.45 14.30 2.13
-3.20 16.66 2.49
-3.54 16.58 2.49
-3.40 14.49 2.19
-3.65 14.30 2.17
-4.52 16.31 2.49
-4.84 16.20 2.49
-5.16 16.09 2.49
-5.36 15.60 2.44
-5.58 15.24 2.40
-5.86 15.07 2.39
-6.16 14.94 2.39
-6.45 14.81 2.39
-6.75 14.67 2.39
-7.04 14.52 2.39
-7.32 14.37 2.39
-7.61 14.21 2.39
-7.89 14.05 2.39
-8.16 13.88 2.39
-8.44 13.71 2.39
-8.71 13.53 2.39
-8.97 13.35 2.39
-9.24 13.16 2.39
-9.29 12.69 2.34
-5.87 7.69 1.44
-9.32 11.71 2.23
-9.33 11.25 2.18
-9.34 10.82 2.13
-9.35 10.40 2.08
-9.36 10.00 2.04
-9.37 9.62 2.00
-9.38 9.25 1.96
-7.27 6.88 1.49
-7.34 6.67 1.48
-7.50 6.55 1.49
-9.41 7.89 1.83
-9.42 7.58 1.80
-9.43 7.28 1.78
-9.46 7.00 1.76
-9.47 6.72 1.73
-9.48 6.44 1.71
-9.49 6.18 1.69
-9.50 5.91 1.67
-9.51 5.66 1.65
-9.51 5.41 1.63
-9.52 5.16 1.62
-9.53 4.92 1.60
-9.54 4.69 1.58
-9.55 4.45 1.57
-9.55 4.22 1.56
-9.56 4.00 1.54
-9.56 3.78 1.53
-9.57 3.56 1.52
-9.58 3.34 1.51
-9.58 3.13 1.50
-9.59 2.92 1.49
-9.59 2.71 1.48
-9.60 2.51 1.48
-9.60 2.30 1.47
-9.61 2.10 1.46
-9.61 1.90 1.46
-9.62 1.70 1.45
-9.62 1.50 1.45
-9.63 1.31 1.44
-9.63 1.11 1.44
-9.64 0.92 1.44
-9.64 0.72 1.43
-9.65 0.53 1.43
-9.66 0.33 1.43
-9.66 0.14 1.43
-9.67 -0.05 1.43
-9.67 -0.25 1.43
-9.68 -0.44 1.43
-9.68 -0.64 1.43
-9.69 -0.84 1.43
-9.69 -1.03 1.44
-9.70 -1.23 1.44
-9.70 -1.43 1.44
-9.71 -1.63 1.45
-9.09 -1.71 1.36
-9.06 -1.90 1.36
-9.04 -2.08 1.36
-9.73 -2.45 1.47
-9.73 -2.66 1.48
-9.74 -2.87 1.49
-9.75 -3.09 1.50
-15.74 -5.34 2.43
-15.72 -5.69 2.44
-15.70 -6.04 2.46
-15.68 -6.40 2.47
-15.69 -6.77 2.49
-15.72 -7.16 2.51
-15.68 -7.53 2.53
-9.79 -4.94 1.59
-9.77 -5.18 1.60
-9.77 -5.44 1.62
-9.78 -5.70 1.64
-9.79 -5.97 1.66
-9.80 -6.25 1.68
-9.80 -6.54 1.70
-9.81 -6.83 1.73
-9.82 -7.13 1.75
-9.83 -7.45 1.78
-9.84 -7.77 1.80
-9.84 -8.10 1.83
-9.85 -8.45 1.86
-9.86 -8.80 1.90
-9.87 -9.18 1.93
-9.88 -9.56 1.97
-9.89 -9.96 2.01
-9.90 -10.38 2.05
-9.92 -10.82 2.10
-9.93 -11.28 2.14
-9.94 -11.77 2.19
-9.96 -12.27 2.25
-9.97 -12.81 2.31
-9.98 -13.37 2.37
-9.81 -13.71 2.39
-9.55 -13.92 2.39
-9.27 -14.12 2.39
-9.00 -14.32 2.39
-8.72 -14.51 2.39
-8.43 -14.70 2.39
-8.15 -14.88 2.39
-7.85 -15.06 2.39
-7.56 -15.23 2.39
-7.26 -15.39 2.39
-6.96 -15.55 2.39
-6.65 -15.71 2.39
-6.34 -15.85 2.39
-6.21 -16.47 2.46
-5.96 -16.82 2.49
-5.62 -16.96 2.49
-5.29 -17.08 2.49
-4.95 -17.21 2.49
-4.61 -17.32 2.49
-4.26 -17.43 2.49
-3.92 -17.52 2.49
-3.57 -17.62 2.49
-3.22 -17.70 2.49
-2.86 -17.78 2.49
-2.51 -17.85 2.49
-2.15 -17.92 2.49
-1.79 -17.97 2.49
-1.43 -18.02 2.49
-1.07 -18.07 2.49
-0.71 -18.10 2.49
-0.35 -18.13 2.49
0.02 -15.54 2.49
0.33 -15.55 2.49
0.64 -15.55 2.49
0.95 -15.55 2.49
1.27 -15.54 2.49
1.58 -15.52 2.49
1.87 -15.35 2.47
2.11 -14.83 2.39
2.29 -14.04 2.27
2.66 -14.51 2.35
2.86 -13.99 2.27
2.40 -10.64 1.74
3.60 -14.59 2.39
3.89 -14.53 2.39
4.18 -14.45 2.39
4.48 -14.38 2.39
4.77 -14.29 2.39
5.05 -14.20 2.39
5.34 -14.10 2.39
5.63 -14.00 2.39
5.91 -13.89 2.39
9.98 -22.22 3.86
5.94 -12.54 2.20
5.95 -11.94 2.11
12.21 -23.31 4.16
12.98 -23.63 4.26
5.99 -10.39 1.89
15.10 -25.06 4.62
17.01 -26.97 5.03
26.48 -40.19 7.59
6.04 -8.77 1.68
6.04 -8.41 1.63
6.06 -7.76 1.55
29.88 5.28 4.83
26.03 5.14 4.23
22.58 4.93 3.69
20.79 4.98 3.41
19.25 5.02 3.18
17.91 5.05 2.98
16.73 5.09 2.80
15.68 5.11 2.64
14.75 5.14 2.50
13.91 5.16 2.38
13.15 5.18 2.27
12.45 5.20 2.17
11.82 5.22 2.08
11.24 5.23 2.00
10.71 5.25 1.92
10.21 5.26 1.85
9.75 5.27 1.79
9.32 5.28 1.73
8.91 5.29 1.68
8.54 5.31 1.63
8.21 5.33 1.58
8.00 5.43 1.57
11.35 8.04 2.25
11.17 8.25 2.25
11.00 8.47 2.25
10.82 8.68 2.25
10.63 8.89 2.25
10.44 9.09 2.25
10.25 9.29 2.25
10.05 9.49 2.25
9.85 9.68 2.25
9.64 9.86 2.25
9.09 9.69 2.17
9.22 10.22 2.25
9.01 10.40 2.25
8.79 10.57 2.25
8.57 10.73 2.25
8.34 10.89 2.25
8.11 11.05 2.25
7.88 11.20 2.25
7.65 11.34 2.25
7.41 11.48 2.25
7.18 11.62 2.25
6.93 11.75 2.25
6.69 11.88 2.25
6.64 12.37 2.32
6.57 12.85 2.39
6.31 12.97 2.39
6.04 13.08 2.39
5.77 13.18 2.39
5.50 13.29 2.39
5.23 13.38 2.39
4.96 13.47 2.39
4.68 13.56 2.39
4.40 13.64 2.39
4.12 13.71 2.39
3.85 13.78 2.39
3.56 13.84 2.39
3.28 13.90 2.39
3.00 13.95 2.39
2.72 14.00 2.39
2.54 14.64 2.49
2.24 14.68 2.49
1.95 14.71 2.49
1.65 14.73 2.49
1.35 14.75 2.49
1.05 14.76 2.49
0.76 14.77 2.49
0.46 14.77 2.49
0.16 14.77 2.49
-0.13 14.75 2.49
-0.43 14.74 2.49
-0.72 14.72 2.49
-1.02 14.69 2.49
-1.31 14.65 2.49
-1.61 14.62 2.49
-1.90 14.57 2.49
-2.19 14.52 2.49
-2.48 14.46 2.49
-2.77 14.40 2.49
-3.05 14.33 2.49
-3.34 14.26 2.49
-3.62 14.18 2.49
-3.91 14.10 2.49
-4.19 14.01 2.49
-4.46 13.92 2.49
-4.74 13.82 2.49
-5.01 13.71 2.49
-5.29 13.60 2.49
-5.42 13.16 2.43
-5.58 12.81 2.39
-5.83 12.69 2.39
-6.09 12.56 2.39
-6.33 12.43 2.39
-6.58 12.30 2.39
-6.82 12.16 2.39
-7.06 12.02 2.39
-7.30 11.87 2.39
-7.54 11.71 2.39
-7.77 11.56 2.39
-7.99 11.39 2.39
-8.22 11.23 2.39
-5.87 7.69 1.66
-8.66 10.88 2.39
-8.87 10.70 2.39
-9.09 10.52 2.39
-9.29 10.33 2.39
-9.36 10.00 2.36
-9.37 9.62 2.31
-9.38 9.25 2.27
-7.27 6.88 1.72
-7.34 6.67 1.71
-7.50 6.55 1.72
-9.41 7.89 2.12
-9.42 7.58 2.08
-9.43 7.28 2.05
-9.46 7.00 2.03
-9.47 6.72 2.00
-9.48 6.44 1.97
-9.49 6.18 1.95
-9.50 5.91 1.93
-9.51 5.66 1.91
-9.51 5.41 1.89
-9.52 5.16 1.87
-9.53 4.92 1.85
-9.54 4.68 1.83
-9.55 4.45 1.81
-9.55 4.22 1.80
-9.56 4.00 1.78
-9.56 3.78 1.77
-9.57 3.56 1.76
-9.58 3.34 1.74
-9.58 3.13 1.73
-9.59 2.92 1.72
-9.59 2.71 1.71
-9.60 2.51 1.70
-9.60 2.30 1.70
-9.61 2.10 1.69
-9.61 1.90 1.68
-9.62 1.70 1.68
-9.62 1.50 1.67
-9.63 1.31 1.67
-9.63 1.11 1.66
-9.64 0.92 1.66
-9.64 0.72 1.66
-9.65 0.53 1.65
-9.66 0.33 1.65
-9.66 0.14 1.65
-9.67 -0.06 1.65
-9.67 -0.25 1.65
-9.68 -0.44 1.65
-9.68 -0.64 1.66
-9.69 -0.84 1.66
-9.69 -1.03 1.66
-9.70 -1.23 1.67
-9.70 -1.43 1.67
-9.71 -1.63 1.68
-9.07 -1.71 1.57
-8.98 -1.88 1.56
-9.00 -2.08 1.57
-9.73 -2.45 1.70
-9.73 -2.66 1.71
-9.74 -2.88 1.72
-9.75 -3.09 1.73
-12.96 -4.40 2.32
-12.81 -4.64 2.30
-12.70 -4.89 2.30
-13.36 -5.45 2.44
-13.22 -5.71 2.43
-11.35 -5.17 2.10
-10.80 -5.19 2.02
-9.78 -4.94 1.85
-9.77 -5.18 1.86
-9.77 -5.44 1.88
-9.78 -5.71 1.90
-9.79 -5.98 1.92
-9.80 -6.25 1.95
-9.80 -6.54 1.97
-9.81 -6.83 2.00
-9.82 -7.14 2.03
-9.83 -7.45 2.06
-9.84 -7.77 2.09
-9.84 -8.10 2.13
-9.85 -8.45 2.16
-9.86 -8.81 2.20
-9.87 -9.18 2.24
-9.88 -9.56 2.29
-9.89 -9.97 2.33
-9.94 -10.43 2.39
-9.74 -10.64 2.39
-9.53 -10.84 2.39
-9.32 -11.04 2.39
-9.11 -11.23 2.39
-8.89 -11.42 2.39
-8.67 -11.61 2.39
-8.44 -11.79 2.39
-8.21 -11.97 2.39
-7.97 -12.14 2.39
-7.73 -12.31 2.39
-7.49 -12.48 2.39
-7.25 -12.64 2.39
-7.00 -12.79 2.39
-6.75 -12.94 2.39
-6.49 -13.09 2.39
-6.23 -13.23 2.39
-6.13 -13.72 2.46
-5.95 -14.07 2.49
-5.68 -14.20 2.49
-5.39 -14.33 2.49
-5.11 -14.44 2.49
-4.82 -14.56 2.49
-4.54 -14.66 2.49
-4.24 -14.77 2.49
-3.95 -14.86 2.49
-3.65 -14.95 2.49
-3.36 -15.03 2.49
-3.06 -15.11 2.49
-2.76 -15.18 2.49
-2.45 -15.25 2.49
-2.15 -15.31 2.49
-1.84 -15.36 2.49
-1.53 -15.41 2.49
-1.23 -15.45 2.49
-0.92 -15.48 2.49
-0.61 -15.51 2.49
-0.30 -15.53 2.49
0.02 -13.58 2.49
0.29 -13.59 2.49
0.56 -13.59 2.49
0.83 -13.58 2.49
1.11 -13.57 2.49
1.38 -13.56 2.49
1.65 -13.53 2.49
1.92 -13.49 2.49
2.11 -12.92 2.39
2.30 -12.55 2.33
2.55 -12.46 2.32
2.40 -10.64 1.99
3.14 -12.74 2.39
3.40 -12.68 2.39
3.65 -12.61 2.39
3.91 -12.54 2.39
4.16 -12.47 2.39
4.41 -12.39 2.39
4.66 -12.31 2.39
4.91 -12.22 2.39
5.16 -12.12 2.39
5.40 -12.02 2.39
5.64 -11.91 2.39
5.88 -11.80 2.39
10.80 -20.63 4.22
5.99 -10.90 2.25
5.99 -10.39 2.17
6.00 -9.96 2.11
13.84 -21.94 4.70
6.03 -9.14 1.98
15.84 -23.02 5.05
6.04 -8.41 1.87
26.62 -35.55 8.03
6.06 -7.76 1.78
29.28 -35.99 8.38
30.56 -36.07 8.54
31.91 -36.16 8.71
6.09 -6.63 1.63
6.09 -6.37 1.59
6.10 -6.13 1.56
6.13 -5.92 1.54
47.48 8.38 8.80
27.70 5.46 5.16
24.34 5.31 4.55
20.99 5.02 3.95
19.26 5.02 3.64
17.92 5.05 3.41
16.73 5.09 3.20
15.69 5.11 3.03
14.75 5.14 2.87
13.91 5.16 2.72
13.15 5.18 2.60
12.46 5.20 2.48
11.83 5.22 2.38
11.25 5.23 2.28
10.71 5.25 2.20
10.21 5.26 2.12
9.75 5.27 2.04
9.32 5.28 1.98
8.92 5.29 1.92
8.54 5.30 1.86
8.18 5.31 1.81
7.85 5.32 1.76
7.53 5.33 1.71
7.23 5.34 1.67
6.99 5.38 1.64
6.87 5.51 1.64
6.40 5.35 1.55
9.14 7.96 2.25
8.97 8.13 2.25
8.80 8.30 2.25
8.62 8.47 2.25
8.44 8.64 2.25
8.26 8.80 2.25
8.08 8.95 2.25
7.89 9.11 2.25
7.70 9.26 2.25
7.51 9.40 2.25
7.31 9.54 2.25
7.11 9.68 2.25
6.91 9.81 2.25
6.71 9.94 2.25
6.59 10.20 2.28
6.60 10.68 2.36
6.45 10.93 2.39
6.23 11.04 2.39
6.00 11.16 2.39
5.77 11.27 2.39
5.54 11.37 2.39
5.30 11.47 2.39
5.07 11.57 2.39
4.83 11.66 2.39
4.59 11.74 2.39
4.35 11.82 2.39
4.11 11.90 2.39
3.87 11.97 2.39
3.62 12.04 2.39
3.38 12.10 2.39
3.13 12.15 2.39
2.88 12.20 2.39
2.64 12.25 2.39
2.49 12.82 2.49
2.23 12.86 2.49
1.97 12.89 2.49
1.71 12.92 2.49
1.45 12.94 2.49
1.19 12.96 2.49
0.93 12.97 2.49
0.67 12.98 2.49
0.41 12.98 2.49
0.15 12.98 2.49
-0.12 12.97 2.49
-0.38 12.96 2.49
-0.64 12.94 2.49
-0.89 12.92 2.49
-1.15 12.89 2.49
-1.41 12.85 2.49
-1.67 12.81 2.49
-1.92 12.77 2.49
-2.18 12.72 2.49
-2.43 12.67 2.49
-2.69 12.61 2.49
-2.94 12.55 2.49
-3.19 12.48 2.49
-3.44 12.41 2.49
-3.68 12.33 2.49
-3.93 12.25 2.49
-4.17 12.16 2.49
-4.41 12.07 2.49
-4.65 11.97 2.49
-4.89 11.87 2.49
-5.12 11.76 2.49
-5.36 11.65 2.49
-5.47 11.29 2.44
-5.58 10.95 2.39
-5.79 10.83 2.39
-6.01 10.71 2.39
-6.22 10.58 2.39
-6.43 10.45 2.39
-6.63 10.32 2.39
-6.84 10.18 2.39
-7.04 10.03 2.39
-7.24 9.89 2.39
-5.87 7.69 1.89
-7.63 9.58 2.39
-7.82 9.43 2.39
-8.00 9.27 2.39
-8.18 9.10 2.39
-8.36 8.93 2.39
-8.54 8.76 2.39
-8.71 8.59 2.39
-7.27 6.88 1.96
-7.33 6.67 1.94
-7.50 6.55 1.95
-9.37 7.86 2.39
-9.42 7.58 2.37
-9.43 7.28 2.33
-9.46 7.00 2.30
-9.47 6.72 2.27
-9.48 6.44 2.24
-9.49 6.18 2.21
-9.50 5.91 2.19
-9.51 5.66 2.16
-9.51 5.41 2.14
-9.52 5.16 2.12
-9.53 4.92 2.10
-9.54 4.68 2.08
-9.55 4.45 2.06
-9.55 4.22 2.04
-9.56 4.00 2.02
-9.56 3.78 2.01
-9.57 3.56 1.99
-9.58 3.34 1.98
-9.58 3.13 1.97
-9.59 2.92 1.96
-9.59 2.71 1.95
-9.60 2.51 1.94
-9.60 2.30 1.93
-9.61 2.10 1.92
-9.61 1.90 1.91
-9.62 1.70 1.90
-9.62 1.50 1.90
-9.63 1.31 1.89
-9.63 1.11 1.89
-9.64 0.92 1.88
-9.65 0.72 1.88
-9.65 0.53 1.88
-9.66 0.33 1.88
-9.66 0.14 1.88
-9.67 -0.06 1.88
-9.67 -0.25 1.88
-9.68 -0.45 1.88
-9.68 -0.64 1.88
-9.69 -0.84 1.88
-9.69 -1.03 1.89
-9.70 -1.23 1.89
-9.70 -1.43 1.90
-9.71 -1.63 1.90
-9.12 -1.72 1.79
-8.99 -1.89 1.77
-9.00 -2.08 1.78
-9.73 -2.45 1.94
-9.73 -2.66 1.95
-9.74 -2.88 1.96
-9.75 -3.09 1.97
-11.35 -3.86 2.31
-11.30 -4.09 2.31
-11.24 -4.33 2.32
-11.18 -4.56 2.32
-11.11 -4.80 2.32
-11.04 -5.03 2.33
-10.84 -5.21 2.31
-9.78 -4.94 2.10
-9.77 -5.18 2.12
-9.77 -5.44 2.14
-8.65 -5.05 1.92
-8.55 -5.22 1.91
-8.55 -5.46 1.94
-9.80 -6.54 2.25
-9.81 -6.84 2.28
-9.82 -7.14 2.31
-9.83 -7.45 2.35
-9.86 -7.79 2.39
-9.71 -8.00 2.39
-9.56 -8.20 2.39
-9.40 -8.39 2.39
-9.23 -8.59 2.39
-9.07 -8.78 2.39
-8.90 -8.97 2.39
-8.72 -9.15 2.39
-8.54 -9.33 2.39
-8.36 -9.51 2.39
-8.17 -9.68 2.39
-7.98 -9.85 2.39
-7.79 -10.02 2.39
-7.59 -10.18 2.39
-7.40 -10.34 2.39
-7.19 -10.49 2.39
-6.99 -10.64 2.39
-6.78 -10.79 2.39
-6.56 -10.93 2.39
-6.35 -11.07 2.39
-6.13 -11.21 2.39
-6.08 -11.66 2.46
-5.93 -11.96 2.49
-5.69 -12.08 2.49
-5.45 -12.20 2.49
-5.21 -12.32 2.49
-4.97 -12.43 2.49
-4.72 -12.54 2.49
-4.47 -12.64 2.49
-4.22 -12.74 2.49
-3.97 -12.83 2.49
-3.71 -12.92 2.49
-3.45 -13.00 2.49
-3.19 -13.08 2.49
-2.93 -13.15 2.49
-2.67 -13.22 2.49
-2.41 -13.28 2.49
-2.14 -13.33 2.49
-1.88 -13.38 2.49
-1.61 -13.43 2.49
-1.34 -13.47 2.49
-1.07 -13.50 2.49
-0.80 -13.53 2.49
-0.53 -13.55 2.49
-0.26 -13.57 2.49
0.02 -12.05 2.49
0.26 -12.05 2.49
0.50 -12.05 2.49
0.74 -12.05 2.49
0.98 -12.04 2.49
1.23 -12.02 2.49
1.47 -12.00 2.49
1.71 -11.98 2.49
1.95 -11.95 2.49
2.10 -11.42 2.39
2.33 -11.38 2.39
2.40 -10.64 2.24
2.79 -11.29 2.39
3.01 -11.24 2.39
3.24 -11.18 2.39
3.46 -11.12 2.39
3.69 -11.05 2.39
3.91 -10.98 2.39
4.13 -10.90 2.39
4.35 -10.82 2.39
4.57 -10.74 2.39
4.79 -10.65 2.39
5.00 -10.55 2.39
5.21 -10.46 2.39
5.42 -10.35 2.39
5.63 -10.25 2.39
5.84 -10.13 2.39
11.60 -19.23 4.59
12.27 -19.46 4.70
12.98 -19.69 4.82
13.77 -20.00 4.96
6.04 -8.41 2.11
15.58 -20.80 5.31
16.66 -21.33 5.52
17.89 -21.99 5.79
19.44 -22.94 6.13
21.52 -24.39 6.63
25.55 -27.81 7.70
6.09 -6.37 1.80
32.69 -32.84 9.45
6.11 -5.90 1.73
22.29 -20.66 6.19
22.72 -20.23 6.20
24.28 -20.77 6.51
6.14 -4.64 1.57
6.14 -4.45 1.55
47.48 8.37 9.93
41.11 8.10 8.63
39.83 8.68 8.40
22.87 5.47 4.85
20.51 5.34 4.37
17.93 5.06 3.85
16.74 5.09 3.61
15.69 5.11 3.41
14.76 5.14 3.23
13.92 5.16 3.07
13.16 5.18 2.93
12.46 5.20 2.80
11.83 5.22 2.68
11.25 5.23 2.57
10.71 5.25 2.48
10.22 5.26 2.39
9.75 5.27 2.30
9.32 5.28 2.23
6.36 3.78 1.54
6.37 3.95 1.56
8.19 5.31 2.03
7.85 5.32 1.98
7.53 5.33 1.93
7.23 5.34 1.88
6.95 5.35 1.83
6.67 5.35 1.79
6.41 5.36 1.75
6.40 5.57 1.78
7.97 7.22 2.25
7.82 7.38 2.25
7.66 7.53 2.25
7.50 7.67 2.25
7.34 7.82 2.25
7.18 7.96 2.25
7.01 8.09 2.25
6.85 8.23 2.25
6.67 8.36 2.25
6.54 8.54 2.27
6.55 8.92 2.34
6.52 9.25 2.39
6.33 9.37 2.39
6.13 9.49 2.39
5.94 9.61 2.39
5.74 9.72 2.39
5.54 9.82 2.39
5.34 9.93 2.39
5.13 10.02 2.39
4.93 10.12 2.39
4.72 10.21 2.39
4.51 10.29 2.39
4.30 10.37 2.39
4.09 10.45 2.39
3.87 10.52 2.39
3.66 10.59 2.39
3.44 10.65 2.39
3.23 10.71 2.39
3.01 10.77 2.39
2.79 10.82 2.39
2.58 10.90 2.40
2.45 11.38 2.49
2.22 11.42 2.49
1.99 11.45 2.49
1.76 11.48 2.49
1.53 11.51 2.49
1.29 11.53 2.49
1.06 11.55 2.49
0.83 11.56 2.49
0.60 11.57 2.49
0.36 11.57 2.49
0.13 11.57 2.49
-0.10 11.56 2.49
-0.33 11.55 2.49
-0.57 11.53 2.49
-0.80 11.51 2.49
-1.03 11.49 2.49
-1.26 11.46 2.49
-1.49 11.43 2.49
-1.71 11.39 2.49
-1.94 11.35 2.49
-2.17 11.30 2.49
-2.39 11.25 2.49
-2.62 11.19 2.49
-2.84 11.13 2.49
-3.06 11.07 2.49
-3.28 11.00 2.49
-3.50 10.92 2.49
-3.72 10.85 2.49
-3.93 10.77 2.49
-4.15 10.68 2.49
-4.36 10.59 2.49
-4.57 10.50 2.49
-4.78 10.40 2.49
-4.99 10.30 2.49
-5.19 10.19 2.49
-5.39 10.08 2.49
-5.51 9.82 2.46
-5.55 9.44 2.39
-5.74 9.33 2.39
-5.92 9.21 2.39
-6.10 9.08 2.39
-6.28 8.96 2.39
-6.46 8.83 2.39
-5.87 7.68 2.11
-6.81 8.56 2.39
-6.98 8.42 2.39
-7.14 8.27 2.39
-7.31 8.13 2.39
-7.47 7.98 2.39
-7.62 7.82 2.39
-7.78 7.67 2.39
-7.32 6.93 2.21
-7.36 6.69 2.18
-7.54 6.58 2.19
-8.37 7.01 2.39
-8.51 6.84 2.39
-8.64 6.67 2.39
-8.77 6.50 2.39
-8.90 6.32 2.39
-9.03 6.14 2.39
-9.15 5.96 2.39
-9.27 5.77 2.39
-9.38 5.58 2.39
-9.49 5.39 2.39
-9.52 5.16 2.37
-9.53 4.92 2.35
-9.54 4.68 2.33
-9.55 4.45 2.31
-9.55 4.22 2.29
-9.56 4.00 2.27
-9.56 3.78 2.25
-9.57 3.56 2.23
-9.58 3.34 2.22
-9.58 3.13 2.20
-9.59 2.92 2.19
-9.59 2.71 2.18
-9.60 2.51 2.17
-9.60 2.30 2.16
-9.61 2.10 2.15
-9.61 1.90 2.14
-9.62 1.70 2.13
-9.62 1.50 2.13
-9.63 1.31 2.12
-9.63 1.11 2.12
-9.64 0.91 2.11
-9.65 0.72 2.11
-9.65 0.53 2.11
-9.66 0.33 2.10
-9.66 0.14 2.10
-9.67 -0.06 2.10
-9.67 -0.25 2.11
-9.68 -0.45 2.11
-9.68 -0.64 2.11
-9.69 -0.84 2.11
-9.69 -1.04 2.12
-9.70 -1.23 2.12
-9.70 -1.43 2.13
-9.71 -1.63 2.14
-9.17 -1.73 2.02
-9.00 -1.89 1.99
-9.01 -2.08 2.00
-9.73 -2.45 2.17
-9.73 -2.66 2.18
-9.74 -2.88 2.20
-8.75 -2.78 1.98
-8.48 -2.88 1.93
-8.48 -3.07 1.95
-8.49 -3.27 1.96
-10.21 -4.17 2.38
-10.14 -4.38 2.38
-10.08 -4.60 2.39
-10.01 -4.81 2.39
-9.77 -4.94 2.36
-9.77 -5.19 2.38
-9.73 -5.42 2.39
-8.64 -5.04 2.15
-8.54 -5.22 2.15
-8.55 -5.46 2.17
-9.28 -6.20 2.39
-9.16 -6.39 2.39
-9.04 -6.57 2.39
-8.91 -6.76 2.39
-8.78 -6.94 2.39
-8.64 -7.12 2.39
-8.51 -7.30 2.39
-8.36 -7.47 2.39
-8.22 -7.64 2.39
-8.07 -7.81 2.39
-7.91 -7.98 2.39
-7.76 -8.14 2.39
-7.60 -8.30 2.39
-7.44 -8.46 2.39
-7.27 -8.61 2.39
-7.10 -8.76 2.39
-6.93 -8.91 2.39
-6.75 -9.05 2.39
-6.57 -9.20 2.39
-6.39 -9.33 2.39
-6.23 -9.50 2.40
-6.04 -9.62 2.40
-6.04 -10.06 2.47
-5.88 -10.27 2.49
-5.68 -10.39 2.49
-5.48 -10.51 2.49
-5.27 -10.63 2.49
-5.06 -10.74 2.49
-4.84 -10.85 2.49
-4.63 -10.95 2.49
-4.41 -11.05 2.49
-4.19 -11.14 2.49
-3.97 -11.23 2.49
-3.75 -11.32 2.49
-3.52 -11.40 2.49
-3.29 -11.47 2.49
-3.07 -11.55 2.49
-2.83 -11.61 2.49
-2.60 -11.68 2.49
-2.37 -11.73 2.49
-2.14 -11.79 2.49
-1.90 -11.83 2.49
-1.66 -11.88 2.49
-1.43 -11.92 2.49
-1.19 -11.95 2.49
-0.95 -11.98 2.49
-0.71 -12.00 2.49
-0.47 -12.02 2.49
-0.23 -12.04 2.49
0.02 -10.82 2.49
0.23 -10.82 2.49
0.45 -10.82 2.49
0.67 -10.81 2.49
0.88 -10.80 2.49
1.10 -10.79 2.49
1.32 -10.77 2.49
1.53 -10.75 2.49
1.75 -10.72 2.49
1.97 -10.69 2.49
2.09 -10.21 2.39
2.30 -10.17 2.39
2.50 -10.13 2.39
2.70 -10.08 2.39
2.91 -10.03 2.39
3.11 -9.97 2.39
3.31 -9.91 2.39
3.51 -9.85 2.39
3.71 -9.78 2.39
3.90 -9.71 2.39
4.10 -9.63 2.39
4.29 -9.55 2.39
4.48 -9.46 2.39
4.67 -9.38 2.39
4.86 -9.28 2.39
5.05 -9.19 2.39
5.23 -9.09 2.39
5.42 -8.98 2.39
5.60 -8.87 2.39
5.78 -8.76 2.39
5.95 -8.65 2.39
6.04 -8.41 2.36
13.67 -18.25 5.19
14.47 -18.53 5.35
15.31 -18.82 5.52
16.33 -19.27 5.75
6.09 -6.90 2.09
18.64 -20.29 6.27
6.09 -6.37 2.00
21.52 -21.61 6.94
22.06 -21.28 6.97
22.26 -20.63 6.90
6.12 -5.45 1.86
23.63 -20.20 7.07
29.19 -23.96 8.59
6.14 -4.45 1.72
6.18 -3.11 1.57
6.18 -2.96 1.56
6.19 -2.81 1.55
6.21 -2.68 1.54
47.16 -6.95 10.87
47.53 -6.03 10.93
48.15 5.53 11.11
47.86 6.47 11.07
47.58 7.41 11.05
47.33 8.34 11.03
41.12 8.10 9.62
39.83 8.68 9.36
34.84 8.33 8.23
21.56 5.61 5.12
19.44 5.48 4.65
17.68 5.37 4.25
15.70 5.11 3.80
6.32 2.20 1.54
6.32 2.34 1.55
6.33 2.49 1.57
12.47 5.20 3.12
11.84 5.22 2.99
11.25 5.23 2.87
10.72 5.25 2.76
6.36 3.27 1.65
9.47 5.12 2.49
6.36 3.60 1.69
8.92 5.29 2.40
8.54 5.30 2.33
6.38 4.14 1.76
7.85 5.32 2.20
7.53 5.33 2.14
6.39 4.72 1.85
6.95 5.35 2.04
6.68 5.35 1.99
6.42 5.36 1.95
6.40 5.57 1.98
7.16 6.49 2.25
7.03 6.63 2.25
6.89 6.76 2.25
6.75 6.90 2.25
6.60 7.02 2.25
6.51 7.21 2.27
6.52 7.51 2.33
6.52 7.84 2.39
6.37 7.97 2.39
6.20 8.09 2.39
6.03 8.21 2.39
5.86 8.32 2.39
5.69 8.43 2.39
5.52 8.54 2.39
5.34 8.64 2.39
5.16 8.74 2.39
4.98 8.84 2.39
4.80 8.93 2.39
4.62 9.02 2.39
4.44 9.10 2.39
4.25 9.18 2.39
4.06 9.26 2.39
3.87 9.34 2.39
3.68 9.41 2.39
3.49 9.47 2.39
3.30 9.53 2.39
3.10 9.59 2.39
2.91 9.65 2.39
2.73 9.76 2.41
2.55 9.87 2.42
2.42 10.21 2.49
2.21 10.25 2.49
2.00 10.28 2.49
1.79 10.32 2.49
1.59 10.34 2.49
1.38 10.37 2.49
1.17 10.39 2.49
0.96 10.40 2.49
0.75 10.41 2.49
0.54 10.42 2.49
0.33 10.42 2.49
0.12 10.42 2.49
-0.09 10.42 2.49
-0.30 10.41 2.49
-0.51 10.39 2.49
-0.72 10.38 2.49
-0.92 10.35 2.49
-1.13 10.33 2.49
-1.34 10.30 2.49
-1.54 10.27 2.49
-1.75 10.23 2.49
-1.95 10.19 2.49
-2.16 10.14 2.49
-2.36 10.09 2.49
-2.56 10.04 2.49
-2.76 9.98 2.49
-2.96 9.92 2.49
-3.16 9.85 2.49
-3.35 9.78 2.49
-3.55 9.71 2.49
-3.74 9.63 2.49
-3.93 9.55 2.49
-4.12 9.47 2.49
-4.31 9.38 2.49
-4.50 9.29 2.49
-4.68 9.19 2.49
-4.86 9.09 2.49
-5.04 8.99 2.49
-5.22 8.89 2.49
-5.40 8.78 2.49
-5.54 8.62 2.48
-5.56 8.27 2.41
-5.67 8.08 2.39
-5.83 7.96 2.39
-5.86 7.68 2.34
-6.14 7.72 2.39
-6.29 7.59 2.39
-6.44 7.46 2.39
-6.59 7.33 2.39
-6.74 7.20 2.39
-6.88 7.06 2.39
-7.02 6.92 2.39
-7.16 6.77 2.39
-7.29 6.63 2.39
-7.42 6.48 2.39
-7.55 6.33 2.39
-7.67 6.18 2.39
-7.80 6.02 2.39
-7.92 5.86 2.39
-8.03 5.70 2.39
-8.14 5.54 2.39
-8.25 5.37 2.39
-8.36 5.21 2.39
-8.46 5.04 2.39
-8.56 4.87 2.39
-8.66 4.69 2.39
-8.75 4.52 2.39
-8.84 4.34 2.39
-8.93 4.16 2.39
-9.01 3.98 2.39
-9.09 3.80 2.39
-9.17 3.62 2.39
-9.24 3.44 2.39
-9.31 3.25 2.39
-9.38 3.06 2.39
-9.44 2.87 2.39
-9.49 2.68 2.39
-9.55 2.49 2.39
-9.60 2.30 2.39
-9.61 2.10 2.38
-9.61 1.90 2.37
-9.62 1.70 2.36
-9.62 1.50 2.36
-9.63 1.31 2.35
-9.63 1.11 2.35
-9.64 0.91 2.34
-9.65 0.72 2.34
-9.65 0.52 2.34
-9.66 0.33 2.33
-9.66 0.14 2.33
-9.67 -0.06 2.33
-9.67 -0.25 2.33
-9.68 -0.45 2.34
-9.68 -0.64 2.34
-9.69 -0.84 2.34
-9.69 -1.04 2.35
-6.05 -0.77 1.47
-6.03 -0.89 1.47
-6.13 -1.03 1.50
-9.22 -1.74 2.26
-9.01 -1.89 2.21
-9.02 -2.09 2.23
-9.65 -2.44 2.39
-9.61 -2.63 2.39
-9.56 -2.83 2.39
-8.75 -2.78 2.20
-8.48 -2.88 2.15
-8.48 -3.08 2.16
-8.49 -3.27 2.18
-9.25 -3.78 2.39
-9.18 -3.97 2.39
-9.10 -4.15 2.39
-9.02 -4.34 2.39
-8.94 -4.52 2.39
-8.85 -4.70 2.39
-8.76 -4.88 2.39
-8.66 -5.06 2.39
-8.57 -5.24 2.39
-8.46 -5.41 2.39
-8.36 -5.58 2.39
-8.25 -5.75 2.39
-8.14 -5.92 2.39
-8.02 -6.09 2.39
-7.90 -6.25 2.39
-7.78 -6.41 2.39
-7.66 -6.57 2.39
-7.53 -6.73 2.39
-7.39 -6.88 2.39
-7.26 -7.03 2.39
-7.12 -7.18 2.39
-6.98 -7.33 2.39
-6.84 -7.47 2.39
-6.69 -7.61 2.39
-6.54 -7.75 2.39
-6.39 -7.89 2.39
-6.23 -8.02 2.39
-6.07 -8.15 2.39
-6.00 -8.39 2.42
-6.00 -8.76 2.49
-5.82 -8.88 2.49
-5.65 -9.00 2.49
-5.47 -9.12 2.49
-5.29 -9.23 2.49
-5.11 -9.34 2.49
-4.92 -9.45 2.49
-4.73 -9.55 2.49
-4.54 -9.65 2.49
-4.35 -9.75 2.49
-4.16 -9.84 2.49
-3.96 -9.93 2.49
-3.77 -10.01 2.49
-3.57 -10.09 2.49
-3.36 -10.17 2.49
-3.16 -10.24 2.49
-2.96 -10.31 2.49
-2.75 -10.37 2.49
-2.54 -10.43 2.49
-2.34 -10.49 2.49
-2.13 -10.54 2.49
-1.92 -10.59 2.49
-1.70 -10.63 2.49
-1.49 -10.67 2.49
-1.28 -10.70 2.49
-1.06 -10.73 2.49
-0.85 -10.76 2.49
-0.63 -10.78 2.49
-0.42 -10.79 2.49
-0.20 -10.81 2.49
0.02 -9.80 2.49
0.21 -9.80 2.49
0.41 -9.80 2.49
0.61 -9.80 2.49
0.80 -9.79 2.49
1.00 -9.77 2.49
1.20 -9.76 2.49
1.39 -9.74 2.49
1.59 -9.71 2.49
1.78 -9.68 2.49
1.98 -9.65 2.49
2.08 -9.21 2.39
2.27 -9.17 2.39
2.45 -9.13 2.39
2.63 -9.08 2.39
2.82 -9.03 2.39
3.00 -8.98 2.39
3.18 -8.92 2.39
3.36 -8.86 2.39
3.54 -8.79 2.39
3.71 -8.72 2.39
3.89 -8.65 2.39
4.06 -8.57 2.39
4.23 -8.49 2.39
4.40 -8.41 2.39
4.57 -8.32 2.39
4.74 -8.23 2.39
4.91 -8.13 2.39
5.07 -8.03 2.39
5.23 -7.93 2.39
5.39 -7.83 2.39
5.55 -7.72 2.39
5.70 -7.61 2.39
5.85 -7.49 2.39
6.00 -7.38 2.39
14.27 -16.84 5.55
15.04 -17.04 5.71
6.09 -6.63 2.26
6.09 -6.37 2.21
6.11 -6.13 2.17
19.28 -18.60 6.73
20.66 -19.15 7.08
22.05 -19.63 7.42
23.50 -20.09 7.76
24.97 -20.50 8.11
26.56 -20.92 8.49
23.03 -17.41 7.25
6.14 -4.45 1.91
6.19 -2.82 1.71
6.20 -2.38 1.67
6.21 -2.11 1.65
43.52 -10.95 11.29
45.07 -10.39 11.64
42.50 -8.90 10.93
46.21 -8.72 11.84
46.26 -7.77 11.81
44.56 -6.57 11.35
46.65 -5.92 11.85
46.76 -4.99 11.85
6.26 -0.54 1.58
6.25 -0.41 1.58
6.25 -0.29 1.58
6.26 -0.16 1.58
43.51 -0.26 10.98
41.89 0.59 10.58
42.00 1.43 10.62
46.64 2.52 11.80
40.91 3.04 10.37
41.55 3.92 10.55
45.95 5.27 11.70
45.70 6.17 11.67
45.46 7.07 11.65
44.20 7.79 11.37
40.97 8.07 10.58
6.30 1.37 1.64
34.83 8.32 9.09
6.30 1.64 1.65
29.83 8.40 7.87
18.48 5.61 4.91
16.87 5.49 4.51
15.51 5.39 4.18
13.93 5.16 3.78
13.17 5.18 3.60
12.47 5.20 3.44
11.84 5.22 3.30
6.35 2.95 1.78
8.70 4.26 2.47
8.61 4.43 2.47
8.51 4.60 2.47
6.36 3.60 1.87
8.31 4.93 2.47
8.27 5.13 2.49
8.19 5.31 2.50
6.39 4.33 1.98
7.54 5.33 2.37
7.24 5.34 2.31
6.95 5.35 2.25
6.68 5.35 2.20
6.42 5.36 2.15
6.40 5.56 2.18
6.50 5.89 2.25
6.48 6.11 2.29
6.49 6.36 2.34
6.49 6.63 2.39
6.36 6.76 2.39
6.22 6.88 2.39
6.07 7.00 2.39
5.93 7.12 2.39
5.78 7.23 2.39
5.63 7.34 2.39
5.48 7.45 2.39
5.32 7.55 2.39
5.17 7.65 2.39
5.01 7.75 2.39
4.85 7.84 2.39
4.69 7.93 2.39
4.53 8.02 2.39
4.36 8.11 2.39
4.20 8.19 2.39
4.03 8.27 2.39
3.86 8.34 2.39
3.69 8.41 2.39
3.52 8.48 2.39
3.34 8.54 2.39
3.17 8.60 2.39
3.00 8.66 2.39
2.82 8.71 2.39
2.64 8.76 2.39
2.52 9.01 2.44
2.38 9.23 2.49
2.20 9.27 2.49
2.01 9.31 2.49
1.82 9.34 2.49
1.63 9.37 2.49
1.44 9.40 2.49
1.25 9.42 2.49
1.06 9.44 2.49
0.87 9.45 2.49
0.68 9.46 2.49
0.49 9.47 2.49
0.30 9.47 2.49
0.11 9.47 2.49
-0.08 9.47 2.49
-0.27 9.46 2.49
-0.46 9.45 2.49
-0.65 9.43 2.49
-0.84 9.41 2.49
-1.03 9.39 2.49
-1.22 9.37 2.49
-1.40 9.33 2.49
-1.59 9.30 2.49
-1.78 9.26 2.49
-1.96 9.22 2.49
-2.14 9.18 2.49
-2.33 9.13 2.49
-2.51 9.08 2.49
-2.69 9.02 2.49
-2.87 8.96 2.49
-3.05 8.90 2.49
-3.23 8.83 2.49
-3.40 8.76 2.49
-3.58 8.69 2.49
-3.75 8.61 2.49
-3.92 8.53 2.49
-4.09 8.45 2.49
-4.26 8.36 2.49
-4.42 8.27 2.49
-4.59 8.18 2.49
-4.75 8.09 2.49
-4.91 7.99 2.49
-5.07 7.88 2.49
-5.23 7.78 2.49
-5.38 7.67 2.49
-5.53 7.56 2.49
-5.57 7.31 2.45
-5.59 7.03 2.39
-5.73 6.91 2.39
-5.86 6.79 2.39
-6.00 6.67 2.39
-6.13 6.55 2.39
-6.26 6.42 2.39
-6.39 6.30 2.39
-6.51 6.17 2.39
-6.63 6.03 2.39
-6.75 5.90 2.39
-6.87 5.76 2.39
-6.98 5.62 2.39
-7.10 5.48 2.39
-7.20 5.33 2.39
-7.31 5.19 2.39
-7.41 5.04 2.39
-7.51 4.89 2.39
-7.61 4.74 2.39
-7.70 4.58 2.39
-7.79 4.43 2.39
-7.88 4.27 2.39
-7.97 4.11 2.39
-8.05 3.95 2.39
-8.13 3.79 2.39
-8.20 3.63 2.39
-8.28 3.46 2.39
-8.34 3.29 2.39
-8.41 3.13 2.39
-8.47 2.96 2.39
-8.53 2.79 2.39
-8.59 2.61 2.39
-8.64 2.44 2.39
-8.69 2.27 2.39
-8.73 2.09 2.39
-8.78 1.92 2.39
-8.82 1.74 2.39
-8.85 1.56 2.39
-8.88 1.39 2.39
-8.91 1.21 2.39
-8.94 1.03 2.39
-8.96 0.85 2.39
-8.98 0.67 2.39
-8.99 0.49 2.39
-9.00 0.31 2.39
-9.01 0.13 2.39
-9.01 -0.06 2.39
-9.01 -0.24 2.39
-9.01 -0.42 2.39
-9.00 -0.60 2.39
-8.99 -0.78 2.39
-6.16 -0.66 1.64
-6.03 -0.77 1.61
-6.00 -0.89 1.61
-6.10 -1.03 1.64
-8.88 -1.68 2.39
-8.85 -1.86 2.39
-8.82 -2.04 2.39
-8.78 -2.22 2.39
-8.74 -2.39 2.39
-8.69 -2.57 2.39
-8.64 -2.75 2.39
-8.59 -2.92 2.39
-8.53 -3.09 2.39
-8.47 -3.27 2.39
-8.41 -3.44 2.39
-8.34 -3.61 2.39
-8.27 -3.78 2.39
-8.20 -3.94 2.39
-8.12 -4.11 2.39
-8.04 -4.27 2.39
-7.96 -4.44 2.39
-7.87 -4.60 2.39
-7.78 -4.76 2.39
-7.69 -4.92 2.39
-7.59 -5.07 2.39
-7.49 -5.23 2.39
-7.39 -5.38 2.39
-7.29 -5.53 2.39
-7.18 -5.68 2.39
-7.07 -5.83 2.39
-6.95 -5.97 2.39
-6.84 -6.11 2.39
-6.72 -6.25 2.39
-6.59 -6.39 2.39
-6.47 -6.52 2.39
-6.34 -6.66 2.39
-6.21 -6.79 2.39
-6.07 -6.91 2.39
-5.97 -7.07 2.40
-5.96 -7.37 2.46
-5.90 -7.59 2.49
-5.75 -7.72 2.49
-5.60 -7.83 2.49
-5.44 -7.95 2.49
-5.28 -8.06 2.49
-5.13 -8.17 2.49
-4.96 -8.28 2.49
-4.80 -8.38 2.49
-4.63 -8.48 2.49
-4.46 -8.58 2.49
-4.29 -8.67 2.49
-4.12 -8.76 2.49
-3.95 -8.85 2.49
-3.77 -8.93 2.49
-3.59 -9.01 2.49
-3.41 -9.08 2.49
-3.23 -9.16 2.49
-3.05 -9.22 2.49
-2.87 -9.29 2.49
-2.68 -9.35 2.49
-2.49 -9.41 2.49
-2.31 -9.46 2.49
-2.12 -9.51 2.49
-1.93 -9.56 2.49
-1.74 -9.60 2.49
-1.54 -9.64 2.49
-1.35 -9.67 2.49
-1.16 -9.70 2.49
-0.96 -9.73 2.49
-0.77 -9.75 2.49
-0.57 -9.77 2.49
-0.38 -9.78 2.49
-0.18 -9.80 2.49
0.02 -8.95 2.49
0.19 -8.96 2.49
0.37 -8.95 2.49
0.55 -8.95 2.49
0.73 -8.94 2.49
0.91 -8.93 2.49
1.09 -8.91 2.49
1.27 -8.89 2.49
1.45 -8.87 2.49
1.63 -8.84 2.49
1.81 -8.81 2.49
1.98 -8.77 2.49
2.07 -8.38 2.39
2.25 -8.37 2.40
2.41 -8.29 2.39
2.44 -7.83 2.27
2.69 -8.06 2.35
2.85 -8.01 2.35
3.01 -7.93 2.35
3.06 -7.61 2.27
3.39 -7.96 2.39
3.55 -7.89 2.39
3.71 -7.82 2.39
3.87 -7.75 2.39
4.02 -7.67 2.39
4.17 -7.59 2.39
4.33 -7.51 2.39
4.48 -7.42 2.39
4.63 -7.33 2.39
4.77 -7.24 2.39
4.92 -7.14 2.39
5.06 -7.05 2.39
5.20 -6.94 2.39
5.34 -6.84 2.39
5.48 -6.73 2.39
5.61 -6.62 2.39
5.75 -6.51 2.39
5.88 -6.39 2.39
6.00 -6.28 2.39
6.13 -6.15 2.39
16.49 -15.91 6.31
17.48 -16.20 6.56
6.12 -5.45 2.26
19.81 -16.94 7.18
15.12 -12.41 5.38
15.28 -12.04 5.35
16.23 -12.27 5.60
6.14 -4.45 2.09
26.98 -18.75 9.04
28.84 -19.19 9.53
30.98 -19.74 10.11
6.17 -3.59 1.97
6.19 -3.44 1.95
30.40 -14.57 9.28
6.20 -2.38 1.83
45.21 -14.32 13.07
44.74 -13.19 12.86
6.24 -1.70 1.78
44.06 -11.09 12.52
43.99 -10.14 12.45
39.49 -8.27 11.13
39.59 -7.47 11.11
40.25 -6.76 11.26
6.24 -0.92 1.74
44.70 -5.68 12.44
38.79 -4.14 10.77
42.01 -3.63 11.65
6.25 -0.41 1.73
44.77 -2.07 12.39
43.69 -1.14 12.08
43.64 -0.27 12.07
6.27 0.09 1.73
38.27 1.30 10.60
41.87 2.26 11.61
38.82 2.88 10.78
39.49 3.73 10.99
39.60 4.54 11.05
43.01 5.80 12.03
6.29 0.98 1.77
42.54 7.49 11.98
38.42 7.56 10.87
38.39 8.36 10.91
34.83 8.32 9.95
6.30 1.64 1.81
29.84 8.40 8.62
29.77 9.03 8.65
17.61 5.73 5.15
16.14 5.61 4.76
14.88 5.51 4.42
6.34 2.49 1.90
8.89 3.70 2.69
8.10 3.57 2.47
8.03 3.73 2.47
7.95 3.89 2.47
7.86 4.04 2.47
7.78 4.20 2.47
6.36 3.60 2.04
7.59 4.50 2.47
7.52 4.66 2.48
7.44 4.83 2.48
7.43 5.03 2.51
7.54 5.33 2.59
7.24 5.34 2.52
6.40 4.92 2.27
6.68 5.35 2.40
6.42 5.36 2.35
6.40 5.56 2.38
6.30 5.71 2.39
6.18 5.83 2.39
6.06 5.95 2.39
5.94 6.07 2.39
5.81 6.18 2.39
5.68 6.29 2.39
5.55 6.40 2.39
5.42 6.51 2.39
5.29 6.61 2.39
5.15 6.71 2.39
5.01 6.81 2.39
4.87 6.91 2.39
4.73 7.00 2.39
4.58 7.09 2.39
4.44 7.17 2.39
4.29 7.26 2.39
4.14 7.34 2.39
3.99 7.42 2.39
3.84 7.49 2.39
3.69 7.56 2.39
3.53 7.63 2.39
3.38 7.70 2.39
3.22 7.76 2.39
3.06 7.82 2.39
2.90 7.87 2.39
2.74 7.92 2.39
2.58 7.97 2.39
2.50 8.29 2.47
2.35 8.41 2.49
2.18 8.45 2.49
2.01 8.49 2.49
1.84 8.52 2.49
1.67 8.55 2.49
1.50 8.58 2.49
1.32 8.60 2.49
1.15 8.63 2.49
0.97 8.64 2.49
0.80 8.66 2.49
0.63 8.67 2.49
0.45 8.67 2.49
0.28 8.68 2.49
0.10 8.68 2.49
-0.07 8.67 2.49
-0.25 8.67 2.49
-0.42 8.65 2.49
-0.59 8.64 2.49
-0.77 8.62 2.49
-0.94 8.60 2.49
-1.11 8.58 2.49
-1.28 8.55 2.49
-1.45 8.52 2.49
-1.63 8.49 2.49
-1.79 8.45 2.49
-1.96 8.41 2.49
-2.13 8.36 2.49
-2.30 8.31 2.49
-2.46 8.26 2.49
-2.63 8.21 2.49
-2.79 8.15 2.49
-2.95 8.09 2.49
-3.12 8.03 2.49
-3.28 7.96 2.49
-3.43 7.89 2.49
-3.59 7.82 2.49
-3.75 7.74 2.49
-3.90 7.66 2.49
-4.05 7.58 2.49
-4.20 7.50 2.49
-4.35 7.41 2.49
-4.50 7.32 2.49
-4.64 7.23 2.49
-4.79 7.13 2.49
-4.93 7.03 2.49
-5.07 6.93 2.49
-5.21 6.82 2.49
-5.34 6.72 2.49
-5.47 6.61 2.49
-5.60 6.48 2.49
-5.60 6.23 2.44
-5.62 6.01 2.39
-5.74 5.89 2.39
-5.85 5.77 2.39
-5.97 5.65 2.39
-6.08 5.53 2.39
-6.19 5.41 2.39
-6.30 5.28 2.39
-6.40 5.15 2.39
-6.50 5.02 2.39
-6.60 4.89 2.39
-6.70 4.76 2.39
-6.79 4.62 2.39
-6.89 4.48 2.39
-6.97 4.34 2.39
-7.06 4.20 2.39
-7.14 4.06 2.39
-7.23 3.92 2.39
-7.30 3.77 2.39
-7.38 3.62 2.39
-7.45 3.47 2.39
-7.52 3.32 2.39
-7.58 3.17 2.39
-7.65 3.02 2.39
-7.71 2.86 2.39
-7.77 2.71 2.39
-7.82 2.55 2.39
-7.87 2.40 2.39
-7.92 2.24 2.39
-7.96 2.08 2.39
-8.00 1.92 2.39
-8.04 1.76 2.39
-8.08 1.59 2.39
-8.11 1.43 2.39
-8.14 1.27 2.39
-8.17 1.11 2.39
-8.19 0.94 2.39
-8.21 0.78 2.39
-8.22 0.61 2.39
-8.24 0.45 2.39
-8.25 0.28 2.39
-8.25 0.11 2.39
-8.26 -0.05 2.39
-8.26 -0.22 2.39
-8.25 -0.38 2.39
-8.25 -0.55 2.39
-8.24 -0.72 2.39
-6.16 -0.66 1.79
-6.00 -0.77 1.75
-5.98 -0.88 1.75
-6.08 -1.02 1.78
-8.14 -1.54 2.39
-8.11 -1.71 2.39
-8.08 -1.87 2.39
-8.04 -2.03 2.39
-8.00 -2.19 2.39
-7.96 -2.36 2.39
-7.91 -2.52 2.39
-7.86 -2.68 2.39
-7.81 -2.83 2.39
-7.76 -2.99 2.39
-7.70 -3.15 2.39
-7.64 -3.30 2.39
-7.57 -3.46 2.39
-7.51 -3.61 2.39
-7.44 -3.76 2.39
-7.36 -3.91 2.39
-7.29 -4.06 2.39
-7.21 -4.21 2.39
-7.12 -4.36 2.39
-7.04 -4.50 2.39
-6.95 -4.64 2.39
-6.86 -4.79 2.39
-6.77 -4.93 2.39
-6.67 -5.06 2.39
-6.57 -5.20 2.39
-6.47 -5.33 2.39
-6.36 -5.46 2.39
-6.25 -5.59 2.39
-6.14 -5.72 2.39
-6.03 -5.85 2.39
-5.94 -5.99 2.40
-5.93 -6.23 2.45
-5.92 -6.48 2.49
-5.79 -6.60 2.49
-5.66 -6.72 2.49
-5.53 -6.83 2.49
-5.40 -6.95 2.49
-5.26 -7.06 2.49
-5.12 -7.17 2.49
-4.98 -7.27 2.49
-4.83 -7.37 2.49
-4.69 -7.47 2.49
-4.54 -7.57 2.49
-4.39 -7.66 2.49
-4.23 -7.76 2.49
-4.08 -7.84 2.49
-3.92 -7.93 2.49
-3.77 -8.01 2.49
-3.61 -8.09 2.49
-3.45 -8.16 2.49
-3.28 -8.24 2.49
-3.12 -8.30 2.49
-2.95 -8.37 2.49
-2.79 -8.43 2.49
-2.62 -8.49 2.49
-2.45 -8.55 2.49
-2.28 -8.60 2.49
-2.11 -8.65 2.49
-1.93 -8.69 2.49
-1.76 -8.73 2.49
-1.58 -8.77 2.49
-1.41 -8.81 2.49
-1.23 -8.84 2.49
-1.06 -8.86 2.49
-0.88 -8.89 2.49
-0.70 -8.91 2.49
-0.52 -8.93 2.49
-0.34 -8.94 2.49
-0.16 -8.95 2.49
0.02 -8.23 2.49
0.18 -8.23 2.49
0.35 -8.23 2.49
0.51 -8.23 2.49
0.68 -8.22 2.49
0.84 -8.21 2.49
1.01 -8.19 2.49
1.17 -8.17 2.49
1.33 -8.15 2.49
1.50 -8.12 2.49
1.66 -8.10 2.49
1.82 -8.06 2.49
1.99 -8.03 2.49
2.08 -7.74 2.42
2.21 -7.62 2.39
2.36 -7.58 2.39
2.44 -7.31 2.32
2.53 -7.10 2.27
2.77 -7.31 2.35
2.92 -7.25 2.35
3.04 -7.13 2.33
3.10 -6.88 2.27
3.41 -7.19 2.39
3.55 -7.12 2.39
3.69 -7.05 2.39
3.84 -6.97 2.39
3.98 -6.90 2.39
4.11 -6.82 2.39
4.25 -6.74 2.39
4.39 -6.65 2.39
4.52 -6.56 2.39
4.65 -6.47 2.39
4.78 -6.38 2.39
4.91 -6.28 2.39
5.03 -6.18 2.39
5.16 -6.08 2.39
5.28 -5.98 2.39
5.40 -5.87 2.39
5.52 -5.76 2.39
5.63 -5.65 2.39
5.74 -5.54 2.39
5.85 -5.42 2.39
5.96 -5.31 2.39
6.07 -5.19 2.39
14.71 -12.08 5.70
14.62 -11.52 5.58
14.95 -11.30 5.61
6.14 -4.45 2.27
16.14 -11.22 5.89
24.22 -16.11 8.71
25.72 -16.38 9.13
24.10 -14.68 8.45
23.87 -13.89 8.27
24.28 -13.49 8.32
29.72 -15.74 10.08
30.23 -15.24 10.14
6.19 -2.97 2.06
30.80 -13.27 10.05
31.86 -12.98 10.31
6.20 -2.38 1.99
35.04 -11.88 11.10
43.31 -13.72 13.62
42.74 -12.60 13.36
42.50 -11.61 13.22
42.31 -10.65 13.09
42.25 -9.74 13.01
6.23 -1.31 1.91
42.36 -8.00 12.94
35.16 -5.91 10.71
42.50 -6.27 12.90
42.54 -5.41 12.88
38.46 -4.11 11.62
38.68 -3.35 11.67
6.25 -0.42 1.88
42.33 -1.96 12.75
37.76 -0.99 11.36
37.75 -0.24 11.36
36.65 0.51 11.03
36.81 1.25 11.09
36.81 1.98 11.10
37.75 2.79 11.41
40.18 3.79 12.16
39.64 4.54 12.03
37.45 5.05 11.40
35.81 5.56 10.94
36.11 6.35 11.07
37.44 7.36 11.52
37.24 8.10 11.51
34.65 8.27 10.76
6.30 1.64 1.97
29.85 8.40 9.38
29.77 9.03 9.41
26.14 8.50 8.32
6.34 2.20 2.03
8.62 3.19 2.78
7.73 3.04 2.52
7.53 3.14 2.47
7.48 3.29 2.48
7.42 3.45 2.48
7.36 3.60 2.49
7.30 3.75 2.49
6.36 3.43 2.20
6.36 3.60 2.22
6.37 3.78 2.25
7.04 4.36 2.52
7.00 4.53 2.54
6.99 4.73 2.57
6.41 4.53 2.39
6.31 4.65 2.39
6.21 4.78 2.39
6.11 4.90 2.39
6.01 5.02 2.39
5.91 5.13 2.39
5.80 5.25 2.39
5.69 5.36 2.39
5.58 5.47 2.39
5.47 5.58 2.39
5.35 5.68 2.39
5.23 5.79 2.39
5.11 5.89 2.39
4.99 5.99 2.39
4.87 6.08 2.39
4.74 6.18 2.39
4.61 6.27 2.39
4.48 6.35 2.39
4.35 6.44 2.39
4.22 6.52 2.39
4.09 6.60 2.39
3.95 6.68 2.39
3.81 6.75 2.39
3.68 6.83 2.39
3.54 6.89 2.39
3.40 6.96 2.39
3.25 7.02 2.39
3.11 7.08 2.39
2.97 7.14 2.39
2.82 7.20 2.39
2.67 7.25 2.39
2.53 7.30 2.39
2.48 7.66 2.49
2.33 7.70 2.49
2.17 7.74 2.49
2.01 7.78 2.49
1.85 7.82 2.49
1.70 7.85 2.49
1.54 7.88 2.49
1.38 7.90 2.49
1.22 7.93 2.49
1.06 7.95 2.49
0.90 7.96 2.49
0.74 7.97 2.49
0.58 7.98 2.49
0.42 7.99 2.49
0.26 7.99 2.49
0.10 7.99 2.49
-0.07 7.99 2.49
-0.23 7.98 2.49
-0.39 7.97 2.49
-0.55 7.96 2.49
-0.71 7.95 2.49
-0.87 7.93 2.49
-1.02 7.91 2.49
-1.18 7.88 2.49
-1.34 7.85 2.49
-1.50 7.82 2.49
-1.65 7.79 2.49
-1.81 7.75 2.49
-1.96 7.71 2.49
-2.12 7.66 2.49
-2.27 7.62 2.49
-2.42 7.57 2.49
-2.57 7.52 2.49
-2.72 7.46 2.49
-2.87 7.40 2.49
-3.02 7.34 2.49
-3.17 7.28 2.49
-3.31 7.21 2.49
-3.45 7.14 2.49
-3.60 7.07 2.49
-3.74 6.99 2.49
-3.87 6.91 2.49
-4.01 6.83 2.49
-4.15 6.75 2.49
-4.28 6.66 2.49
-4.41 6.57 2.49
-4.54 6.48 2.49
-4.67 6.39 2.49
-4.80 6.29 2.49
