ply
format ascii 1.0
element vertex 2846
property float32 x
property float32 y
property float32 z
end_header
4.67 -33.01 2.49
5.34 -32.93 2.49
1.85 -10.12 0.77
6.66 -32.72 2.49
7.32 -32.60 2.49
7.98 -32.47 2.49
5.37 -20.09 1.55
9.29 -32.16 2.49
9.94 -31.98 2.49
10.58 -31.80 2.49
11.23 -31.60 2.49
11.87 -31.38 2.49
12.50 -31.16 2.49
13.13 -30.92 2.49
11.54 -25.71 2.09
11.98 -25.34 2.08
12.62 -25.35 2.10
13.26 -25.35 2.12
13.92 -25.36 2.14
14.60 -25.37 2.16
15.29 -25.38 2.19
16.00 -25.39 2.22
16.72 -25.39 2.24
17.47 -25.40 2.27
18.24 -25.41 2.31
19.03 -25.42 2.34
19.85 -25.43 2.37
20.69 -25.44 2.41
21.56 -25.45 2.45
22.46 -25.46 2.49
23.40 -25.48 2.54
24.37 -25.49 2.59
25.38 -25.50 2.64
26.43 -25.51 2.69
27.53 -25.53 2.75
28.68 -25.54 2.81
29.89 -25.55 2.87
31.15 -25.57 2.94
32.47 -25.59 3.02
33.87 -25.60 3.10
35.35 -25.62 3.18
36.91 -25.64 3.27
38.57 -25.66 3.37
40.34 -25.68 3.48
42.22 -25.70 3.59
5.87 21.11 1.56
5.95 27.78 2.02
6.00 31.05 2.25
5.70 33.05 2.39
5.03 33.14 2.39
4.36 33.22 2.39
3.69 33.29 2.39
2.24 24.75 1.77
2.35 33.38 2.39
1.75 34.84 2.49
1.05 34.85 2.49
0.35 34.85 2.49
-0.34 34.83 2.49
-1.04 34.80 2.49
-1.74 34.75 2.49
-2.44 34.69 2.49
-3.13 34.62 2.49
-3.82 34.53 2.49
-4.51 34.43 2.49
-5.20 34.31 2.49
-5.88 34.18 2.49
-6.29 32.63 2.39
-6.94 32.47 2.39
-7.59 32.31 2.39
-8.23 32.13 2.39
-8.87 31.94 2.39
-9.50 31.73 2.39
-9.49 29.51 2.24
-10.10 29.37 2.24
-11.36 31.02 2.39
-11.86 30.47 2.37
-12.37 29.99 2.35
-12.87 29.50 2.33
-13.37 29.04 2.32
-13.86 28.58 2.30
-14.29 28.03 2.28
-14.72 27.49 2.26
-15.03 26.77 2.23
-14.90 25.32 2.14
-15.31 24.87 2.13
-15.80 24.54 2.13
-16.27 24.20 2.13
-16.43 23.40 2.09
-16.44 22.45 2.03
-16.90 22.13 2.03
-16.93 21.27 1.99
-16.94 20.43 1.94
-6.49 7.51 0.73
-16.96 18.86 1.86
-16.97 18.12 1.82
-16.98 17.42 1.78
-16.99 16.74 1.75
-10.62 10.06 1.07
-10.82 9.84 1.07
-11.10 9.69 1.08
-11.56 9.69 1.11
-12.05 9.70 1.14
-12.60 9.73 1.17
-13.19 9.77 1.21
-13.73 9.75 1.24
-14.39 9.79 1.28
-15.04 9.80 1.33
-15.68 9.77 1.37
-16.48 9.81 1.42
-17.27 9.82 1.47
-18.13 9.83 1.53
-19.05 9.84 1.59
-19.98 9.82 1.65
-21.07 9.83 1.73
-22.25 9.85 1.81
-23.55 9.86 1.90
-17.83 7.05 1.43
-17.83 6.64 1.42
-17.84 6.24 1.41
-18.11 5.93 1.42
-18.12 5.53 1.41
-18.13 5.14 1.41
-17.85 4.67 1.38
-17.86 4.29 1.37
-17.86 3.92 1.37
-17.86 3.54 1.36
-18.15 3.22 1.38
-18.15 2.85 1.37
-18.16 2.48 1.37
-17.88 2.08 1.35
-17.88 1.71 1.35
-17.89 1.35 1.35
-16.92 0.94 1.27
-17.10 0.60 1.28
-17.11 0.26 1.28
-17.11 -0.08 1.29
-17.11 -0.43 1.29
-17.12 -0.77 1.29
-17.12 -1.12 1.29
-17.13 -1.46 1.29
-17.13 -1.81 1.30
-17.14 -2.16 1.30
-17.14 -2.51 1.31
-17.47 -2.92 1.34
-17.47 -3.28 1.34
-17.48 -3.65 1.35
-17.48 -4.01 1.35
-17.91 -4.49 1.39
-17.91 -4.88 1.40
-17.53 -5.16 1.38
-17.50 -5.53 1.39
-17.50 -5.92 1.40
-17.51 -6.32 1.41
-17.99 -6.90 1.46
-18.00 -7.32 1.47
-18.00 -7.75 1.48
-18.01 -8.18 1.50
-18.01 -8.63 1.51
-18.02 -9.08 1.53
-18.02 -9.54 1.54
-18.03 -10.01 1.56
-18.03 -10.49 1.58
-18.04 -10.99 1.60
-18.05 -11.49 1.62
-18.05 -12.01 1.64
-18.06 -12.55 1.67
-18.07 -13.10 1.69
-18.07 -13.66 1.72
-18.08 -14.25 1.75
-18.09 -14.85 1.77
-18.09 -15.48 1.81
-21.89 -19.50 2.22
-21.43 -19.87 2.22
-21.15 -20.42 2.23
-20.85 -20.96 2.24
-20.36 -21.30 2.23
-19.86 -21.63 2.23
-19.80 -22.45 2.27
-20.49 -24.20 2.40
-20.03 -24.64 2.41
-19.56 -25.07 2.41
-18.89 -25.25 2.39
-18.38 -25.63 2.39
-17.87 -25.99 2.39
-17.34 -26.35 2.39
-13.45 -21.36 1.91
-16.28 -27.03 2.39
-15.73 -27.36 2.39
-15.18 -27.68 2.39
-14.63 -27.98 2.39
-14.07 -28.28 2.39
-13.50 -28.56 2.39
-12.93 -28.83 2.39
-12.35 -29.09 2.39
-12.27 -30.61 2.49
-11.66 -30.86 2.49
-11.04 -31.09 2.49
-10.42 -31.32 2.49
-9.79 -31.53 2.49
-9.16 -31.73 2.49
-8.52 -31.92 2.49
-7.88 -32.10 2.49
-7.24 -32.26 2.49
-6.59 -32.41 2.49
-5.94 -32.55 2.49
-5.29 -32.67 2.49
-4.63 -32.79 2.49
-3.98 -32.89 2.49
-3.32 -32.97 2.49
-1.27 -15.78 1.19
-0.95 -15.78 1.19
-0.63 -15.79 1.19
-0.31 -15.79 1.19
0.00 -15.79 1.54
0.52 -25.51 2.49
1.03 -25.51 2.49
1.54 -25.49 2.49
1.97 -24.41 2.39
1.84 -18.29 1.79
2.95 -24.33 2.39
3.44 -24.28 2.39
3.93 -24.21 2.39
1.85 -10.13 1.00
4.90 -24.06 2.39
5.38 -23.96 2.39
6.35 -25.81 2.59
6.63 -24.80 2.50
7.13 -24.66 2.50
7.62 -24.51 2.49
8.11 -24.36 2.49
5.43 -15.27 1.57
9.16 -24.22 2.51
9.69 -24.14 2.52
10.22 -24.07 2.53
10.79 -24.05 2.55
11.41 -24.12 2.58
12.04 -24.18 2.61
12.68 -24.23 2.65
13.39 -24.39 2.69
14.60 -25.37 2.83
15.29 -25.38 2.86
16.00 -25.39 2.90
16.72 -25.39 2.93
17.47 -25.40 2.97
18.24 -25.41 3.01
19.03 -25.42 3.06
19.85 -25.43 3.11
20.69 -25.44 3.16
21.56 -25.45 3.21
22.47 -25.46 3.26
23.40 -25.48 3.32
24.37 -25.49 3.39
25.38 -25.50 3.45
26.44 -25.51 3.52
27.54 -25.53 3.60
28.69 -25.54 3.68
29.89 -25.55 3.77
31.17 -25.59 3.86
32.64 -25.71 3.97
34.55 -26.11 4.14
36.20 -26.23 4.27
37.96 -26.36 4.41
39.85 -26.50 4.57
41.87 -26.65 4.74
5.80 15.83 1.58
12.45 36.20 3.59
11.06 34.38 3.39
9.99 33.34 3.27
5.88 21.17 2.06
7.04 27.45 2.66
5.83 24.79 2.39
5.33 24.89 2.39
4.83 24.99 2.39
4.32 25.07 2.39
3.82 25.15 2.39
3.31 25.21 2.39
2.80 25.26 2.39
2.25 24.74 2.34
1.86 26.43 2.49
1.33 26.45 2.49
0.80 26.46 2.49
0.27 26.46 2.49
-0.26 26.45 2.49
-0.79 26.43 2.49
-1.32 26.40 2.49
-1.85 26.36 2.49
-2.38 26.30 2.49
-2.90 26.24 2.49
-3.43 26.17 2.49
-3.95 26.08 2.49
-4.47 25.98 2.49
-4.99 25.88 2.49
-5.51 25.76 2.49
-6.02 25.63 2.49
-6.26 24.44 2.39
-6.75 24.30 2.39
-7.23 24.15 2.39
-7.71 23.99 2.39
-8.18 23.81 2.39
-8.66 23.63 2.39
-9.12 23.44 2.39
-9.59 23.24 2.39
-10.04 23.01 2.39
-10.57 22.97 2.41
-11.03 22.74 2.41
-11.43 22.42 2.40
-11.80 22.04 2.38
-12.17 21.67 2.37
-12.52 21.29 2.36
-12.87 20.90 2.34
-13.20 20.52 2.33
-13.54 20.14 2.32
-13.87 19.75 2.31
-14.18 19.37 2.30
-14.50 18.98 2.29
-14.80 18.59 2.28
-14.83 17.88 2.23
-6.48 7.51 0.95
-15.45 17.18 2.22
-15.81 16.89 2.22
-16.17 16.59 2.22
-16.52 16.28 2.23
-10.30 9.75 1.36
-10.68 9.71 1.39
-11.16 9.75 1.43
-11.63 9.75 1.46
-12.13 9.76 1.50
-12.60 9.73 1.53
-13.19 9.77 1.58
-13.72 9.75 1.62
-14.39 9.79 1.68
-15.04 9.80 1.73
-15.68 9.77 1.78
-16.47 9.81 1.85
-17.27 9.82 1.92
-18.13 9.83 2.00
-19.05 9.84 2.08
-19.98 9.82 2.16
-21.06 9.83 2.25
-22.02 9.75 2.34
-21.84 9.15 2.30
-17.83 7.05 1.86
-17.83 6.64 1.85
-17.84 6.24 1.84
-17.84 5.84 1.82
-17.85 5.45 1.81
-17.85 5.06 1.80
-17.85 4.68 1.80
-17.86 4.30 1.79
-17.86 3.92 1.78
-17.86 3.55 1.77
-17.87 3.17 1.77
-17.87 2.81 1.76
-17.88 2.44 1.76
-17.88 2.08 1.76
-17.88 1.71 1.75
-17.89 1.35 1.75
-16.92 0.94 1.66
-17.10 0.60 1.67
-17.11 0.26 1.67
-17.11 -0.08 1.67
-17.11 -0.43 1.68
-17.12 -0.77 1.68
-17.12 -1.12 1.68
-17.13 -1.46 1.68
-17.13 -1.81 1.69
-17.14 -2.16 1.69
-17.14 -2.51 1.70
-17.47 -2.92 1.74
-17.47 -3.28 1.74
-17.48 -3.65 1.75
-17.48 -4.01 1.76
-17.91 -4.49 1.81
-17.91 -4.88 1.82
-17.54 -5.16 1.80
-17.50 -5.53 1.80
-17.50 -5.92 1.82
-17.51 -6.32 1.83
-17.99 -6.90 1.89
-18.00 -7.32 1.91
-18.00 -7.75 1.93
-18.01 -8.18 1.95
-18.01 -8.62 1.97
-18.02 -9.08 1.99
-18.02 -9.54 2.01
-18.03 -10.01 2.03
-18.03 -10.49 2.05
-18.04 -10.99 2.08
-18.05 -11.49 2.11
-18.05 -12.01 2.14
-18.06 -12.55 2.17
-18.07 -13.10 2.20
-18.07 -13.66 2.23
-18.08 -14.25 2.27
-18.09 -14.85 2.31
-18.56 -15.88 2.41
-18.10 -16.13 2.39
-17.68 -16.40 2.38
-17.24 -16.64 2.36
-16.80 -16.88 2.35
-16.46 -17.22 2.35
-16.12 -17.56 2.35
-15.79 -17.90 2.35
-15.54 -18.35 2.37
-15.30 -18.82 2.39
-15.04 -19.29 2.41
-14.65 -19.58 2.41
-14.25 -19.86 2.41
-13.84 -20.14 2.41
-13.44 -20.41 2.41
-13.03 -20.68 2.41
-12.61 -20.94 2.41
-12.19 -21.19 2.41
-11.76 -21.44 2.41
-11.33 -21.67 2.41
-10.89 -21.90 2.41
-10.38 -21.97 2.39
-9.94 -22.18 2.39
-9.50 -22.38 2.39
-9.05 -22.57 2.39
-8.60 -22.75 2.39
-8.14 -22.93 2.39
-7.68 -23.09 2.39
-7.22 -23.25 2.39
-6.75 -23.39 2.39
-6.55 -24.54 2.49
-6.06 -24.68 2.49
-5.56 -24.80 2.49
-5.07 -24.91 2.49
-4.57 -25.02 2.49
-4.06 -25.11 2.49
-3.56 -25.20 2.49
-3.05 -25.27 2.49
-2.55 -25.34 2.49
-1.27 -15.78 1.55
-0.95 -15.78 1.55
-0.63 -15.79 1.55
-0.31 -15.79 1.54
0.00 -15.72 1.89
0.42 -20.69 2.49
0.84 -20.68 2.49
1.25 -20.67 2.49
1.61 -19.92 2.41
1.85 -18.29 2.21
2.39 -19.72 2.39
2.79 -19.68 2.39
3.18 -19.62 2.39
1.85 -10.13 1.24
3.97 -19.49 2.39
4.36 -19.42 2.39
4.75 -19.33 2.39
5.14 -19.24 2.39
6.14 -21.25 2.65
6.26 -20.15 2.53
6.61 -19.84 2.51
7.15 -20.11 2.56
7.65 -20.23 2.59
8.20 -20.43 2.64
5.47 -12.87 1.67
9.34 -20.81 2.73
5.50 -11.62 1.54
10.65 -21.40 2.86
11.18 -21.37 2.88
11.73 -21.37 2.91
12.35 -21.47 2.96
12.91 -21.42 2.99
13.38 -21.23 2.99
13.86 -21.04 3.00
14.35 -20.87 3.02
14.85 -20.69 3.04
15.31 -20.45 3.04
15.74 -20.16 3.04
16.14 -19.84 3.04
16.54 -19.52 3.04
17.06 -19.34 3.07
17.76 -19.33 3.12
18.38 -19.22 3.16
26.08 -26.20 4.39
27.25 -26.29 4.49
28.48 -26.39 4.61
29.77 -26.50 4.73
31.14 -26.62 4.86
32.58 -26.74 4.99
34.12 -26.87 5.14
36.11 -27.29 5.36
5.77 11.88 1.54
13.26 28.79 3.69
12.09 27.69 3.52
11.10 26.89 3.39
5.80 14.88 1.86
5.80 15.83 1.96
8.98 26.12 3.22
7.65 23.77 2.91
4.63 15.46 1.88
4.32 15.54 1.88
4.19 16.33 1.97
4.69 19.95 2.39
4.29 20.04 2.39
3.89 20.11 2.39
3.48 20.18 2.39
2.92 19.21 2.27
2.62 19.96 2.35
2.23 20.09 2.36
1.88 20.75 2.43
1.50 21.28 2.49
1.07 21.30 2.49
0.65 21.31 2.49
0.22 21.31 2.49
-0.21 21.31 2.49
-0.64 21.29 2.49
-1.06 21.27 2.49
-1.49 21.23 2.49
-1.91 21.19 2.49
-2.34 21.14 2.49
-2.76 21.08 2.49
-3.18 21.02 2.49
-3.60 20.94 2.49
-4.02 20.86 2.49
-4.44 20.77 2.49
-4.85 20.66 2.49
-5.26 20.56 2.49
-5.67 20.44 2.49
-6.08 20.31 2.49
-6.21 19.34 2.39
-6.60 19.21 2.39
-6.98 19.06 2.39
-7.36 18.91 2.39
-7.73 18.75 2.39
-8.11 18.59 2.39
-8.47 18.41 2.39
-8.84 18.23 2.39
-9.20 18.04 2.39
-9.55 17.85 2.39
-9.91 17.64 2.39
-10.32 17.55 2.41
-10.67 17.33 2.41
-11.01 17.11 2.41
-11.33 16.85 2.40
-11.59 16.52 2.39
-11.86 16.20 2.38
-12.12 15.87 2.37
-12.37 15.55 2.36
-12.62 15.22 2.34
-6.48 7.51 1.18
-13.09 14.56 2.32
-13.39 14.30 2.33
-13.75 14.11 2.34
-14.12 13.92 2.36
-10.30 9.75 1.69
-10.68 9.71 1.72
-11.16 9.75 1.76
-11.63 9.75 1.81
-12.12 9.76 1.85
-12.60 9.73 1.90
-13.19 9.77 1.96
-13.72 9.75 2.01
-14.38 9.79 2.08
-15.04 9.80 2.14
-15.68 9.77 2.21
-16.47 9.81 2.29
-17.23 9.80 2.37
-17.27 9.37 2.35
-17.31 8.95 2.33
-17.32 8.52 2.31
-17.38 8.11 2.30
-17.43 7.72 2.28
-17.47 7.32 2.27
-17.52 6.93 2.26
-17.55 6.54 2.25
-17.66 6.18 2.24
-17.79 5.82 2.25
-17.85 5.45 2.24
-17.85 5.06 2.23
-17.85 4.68 2.22
-17.86 4.30 2.21
-17.86 3.92 2.20
-17.86 3.55 2.19
-17.87 3.18 2.18
-17.87 2.81 2.18
-17.88 2.44 2.17
-17.88 2.08 2.17
-17.88 1.71 2.16
-17.89 1.35 2.16
-16.92 0.94 2.04
-17.10 0.60 2.06
-17.11 0.26 2.06
-17.11 -0.08 2.06
-17.11 -0.43 2.07
-17.12 -0.77 2.07
-17.12 -1.12 2.07
-17.13 -1.46 2.08
-17.13 -1.81 2.08
-17.14 -2.16 2.09
-17.14 -2.51 2.09
-13.94 -2.33 1.71
-17.28 -3.24 2.13
-17.20 -3.59 2.13
-17.13 -3.93 2.13
-17.04 -4.27 2.13
-16.95 -4.61 2.13
-16.85 -4.95 2.13
-16.74 -5.29 2.13
-16.63 -5.62 2.13
-16.51 -5.95 2.13
-16.38 -6.28 2.13
-16.25 -6.61 2.13
-17.53 -7.54 2.31
-17.25 -7.84 2.30
-16.94 -8.11 2.28
-16.63 -8.38 2.26
-16.46 -8.71 2.26
-16.64 -9.24 2.31
-16.83 -9.79 2.36
-16.70 -10.17 2.37
-16.55 -10.54 2.38
-16.42 -10.93 2.39
-16.29 -11.32 2.41
-16.16 -11.72 2.42
-16.05 -12.14 2.44
-15.80 -12.45 2.44
-15.54 -12.76 2.44
-15.30 -13.09 2.44
-15.03 -13.39 2.44
-14.67 -13.60 2.43
-14.31 -13.81 2.41
-13.99 -14.06 2.41
-13.71 -14.34 2.41
-13.42 -14.61 2.41
-13.12 -14.88 2.41
-12.82 -15.14 2.41
-12.51 -15.40 2.41
-12.20 -15.64 2.41
-11.89 -15.89 2.41
-11.57 -16.12 2.41
-11.24 -16.35 2.41
-10.91 -16.58 2.41
-10.51 -16.68 2.39
-10.17 -16.89 2.39
-9.83 -17.10 2.39
-9.49 -17.29 2.39
-9.14 -17.48 2.39
-8.79 -17.66 2.39
-8.43 -17.84 2.39
-8.07 -18.01 2.39
-7.71 -18.17 2.39
-7.35 -18.32 2.39
-6.98 -18.47 2.39
-6.64 -18.71 2.40
-6.50 -19.55 2.49
-6.11 -19.68 2.49
-5.71 -19.80 2.49
-5.32 -19.92 2.49
-4.92 -20.03 2.49
-4.51 -20.12 2.49
-4.11 -20.22 2.49
-3.70 -20.30 2.49
-3.30 -20.37 2.49
-2.89 -20.44 2.49
-2.48 -20.50 2.49
-1.58 -15.74 1.91
-1.26 -15.68 1.90
-0.95 -15.78 1.91
-0.63 -15.78 1.91
-0.31 -15.74 1.90
0.00 -15.58 2.23
0.35 -17.38 2.49
0.70 -17.38 2.49
1.05 -17.36 2.49
1.40 -17.34 2.49
1.68 -16.60 2.39
2.01 -16.57 2.39
2.34 -16.53 2.39
2.68 -16.48 2.39
1.85 -10.09 1.47
3.34 -16.37 2.39
3.67 -16.31 2.39
3.99 -16.24 2.39
4.32 -16.16 2.39
3.83 -13.25 1.97
4.02 -12.92 1.93
4.31 -12.93 1.95
6.07 -17.07 2.59
5.44 -14.39 2.20
6.78 -16.90 2.60
7.43 -17.49 2.71
8.00 -17.82 2.79
8.60 -18.17 2.86
9.09 -18.26 2.91
5.49 -10.49 1.69
10.08 -18.35 2.98
5.50 -9.55 1.57
11.02 -18.29 3.04
11.40 -18.08 3.04
11.76 -17.85 3.04
12.12 -17.62 3.04
12.48 -17.38 3.04
12.83 -17.13 3.04
13.17 -16.88 3.04
13.51 -16.61 3.04
13.85 -16.35 3.04
14.18 -16.07 3.04
14.51 -15.79 3.04
14.84 -15.51 3.04
15.23 -15.29 3.06
15.61 -15.06 3.07
15.99 -14.82 3.09
16.37 -14.57 3.10
16.74 -14.31 3.11
5.73 9.73 1.57
12.58 22.39 3.58
11.81 22.04 3.48
11.10 21.74 3.40
10.61 21.87 3.39
10.11 21.95 3.37
9.61 22.02 3.35
9.10 22.04 3.32
6.82 17.50 2.62
5.80 15.82 2.35
4.39 12.76 1.88
4.15 12.91 1.89
4.92 16.42 2.39
4.27 15.36 2.22
4.26 16.60 2.39
3.92 16.68 2.39
3.59 16.75 2.39
3.25 16.81 2.39
2.91 16.87 2.39
2.57 16.92 2.39
2.23 16.97 2.39
1.89 17.01 2.39
1.61 17.77 2.49
1.26 17.80 2.49
0.90 17.81 2.49
0.54 17.82 2.49
0.18 17.83 2.49
-0.17 17.82 2.49
-0.53 17.81 2.49
-0.89 17.79 2.49
-1.25 17.76 2.49
-1.60 17.73 2.49
-1.96 17.69 2.49
-2.31 17.64 2.49
-2.66 17.59 2.49
-3.01 17.52 2.49
-3.36 17.45 2.49
-3.71 17.38 2.49
-4.06 17.29 2.49
-4.40 17.20 2.49
-4.75 17.11 2.49
-5.09 17.00 2.49
-5.43 16.89 2.49
-5.76 16.77 2.49
-6.10 16.65 2.49
-6.23 16.01 2.42
-6.47 15.70 2.39
-6.79 15.56 2.39
-7.09 15.42 2.39
-7.40 15.27 2.39
-7.70 15.11 2.39
-8.00 14.95 2.39
-8.30 14.78 2.39
-8.59 14.61 2.39
-8.88 14.42 2.39
-9.16 14.24 2.39
-9.44 14.05 2.39
-9.72 13.85 2.39
-9.99 13.65 2.39
-10.26 13.44 2.39
-10.35 13.00 2.35
-10.49 12.65 2.33
-6.47 7.49 1.40
-10.93 12.15 2.31
-11.16 11.93 2.31
-11.40 11.69 2.31
-11.62 11.46 2.31
-10.30 9.75 2.01
-10.67 9.71 2.05
-11.16 9.75 2.10
-11.63 9.75 2.15
-10.40 8.38 1.90
-12.60 9.73 2.26
-13.19 9.77 2.33
-13.54 9.62 2.36
-13.58 9.24 2.34
-10.42 6.79 1.77
-10.42 6.50 1.75
-13.73 8.18 2.28
-13.88 7.90 2.27
-14.05 7.62 2.28
-14.21 7.35 2.28
-10.43 5.13 1.66
-14.53 6.79 2.29
-14.68 6.50 2.29
-14.82 6.21 2.29
-14.95 5.92 2.30
-15.08 5.62 2.30
-15.20 5.32 2.30
-15.32 5.02 2.30
-15.44 4.71 2.31
-15.55 4.41 2.31
-15.64 4.10 2.31
-15.73 3.79 2.31
-15.82 3.47 2.32
-15.90 3.16 2.32
-15.98 2.84 2.32
-16.06 2.52 2.33
-16.11 2.20 2.33
-16.13 1.87 2.33
-16.13 1.55 2.32
-16.11 1.22 2.32
-16.09 0.89 2.31
-16.07 0.57 2.31
-16.05 0.25 2.30
-16.06 -0.08 2.31
-15.72 -0.39 2.26
-15.41 -0.69 2.21
-15.21 -0.99 2.19
-14.98 -1.28 2.16
-14.61 -1.54 2.11
-14.43 -1.82 2.09
-14.61 -2.14 2.12
-13.74 -2.29 2.00
-12.26 -2.30 1.79
-15.17 -3.16 2.23
-15.36 -3.52 2.27
-14.98 -3.76 2.22
-14.66 -3.99 2.19
-14.60 -4.29 2.19
-14.53 -4.59 2.19
-14.46 -4.89 2.20
-14.38 -5.19 2.20
-14.30 -5.48 2.21
-14.21 -5.78 2.21
-14.51 -6.25 2.28
-14.34 -6.52 2.27
-14.23 -6.81 2.27
-14.12 -7.11 2.28
-14.01 -7.41 2.28
-13.89 -7.71 2.29
-13.90 -8.09 2.32
-13.98 -8.51 2.36
-14.05 -8.95 2.40
-14.12 -9.40 2.45
-14.18 -9.85 2.49
-14.04 -10.18 2.50
-13.90 -10.51 2.51
-13.75 -10.84 2.53
-13.57 -11.14 2.53
-13.28 -11.35 2.52
-12.94 -11.52 2.50
-12.57 -11.66 2.47
-12.21 -11.79 2.45
-11.85 -11.91 2.42
-11.53 -12.06 2.41
-11.28 -12.29 2.41
-11.03 -12.51 2.41
-10.78 -12.73 2.41
-10.45 -12.86 2.39
-10.19 -13.07 2.39
-9.93 -13.27 2.39
-9.66 -13.47 2.39
-9.39 -13.66 2.39
-9.12 -13.85 2.39
-8.84 -14.03 2.39
-8.55 -14.21 2.39
-8.27 -14.38 2.39
-7.98 -14.54 2.39
-7.68 -14.70 2.39
-7.39 -14.85 2.39
-7.09 -15.00 2.39
-6.79 -15.14 2.39
-6.60 -15.54 2.43
-6.44 -16.07 2.49
-6.12 -16.20 2.49
-5.79 -16.32 2.49
-5.47 -16.44 2.49
-5.14 -16.55 2.49
-4.80 -16.65 2.49
-4.47 -16.75 2.49
-4.13 -16.84 2.49
-3.79 -16.92 2.49
-3.45 -16.99 2.49
-3.11 -17.06 2.49
-2.77 -17.13 2.49
-2.43 -17.18 2.49
-2.08 -17.23 2.49
-1.57 -15.59 2.25
-1.25 -15.56 2.24
-1.04 -17.34 2.49
-0.69 -17.36 2.49
-0.31 -15.59 2.24
0.00 -14.97 2.49
0.31 -14.98 2.49
0.61 -14.97 2.49
0.91 -14.96 2.49
1.21 -14.94 2.49
1.47 -14.52 2.43
1.73 -14.27 2.39
2.02 -14.24 2.39
2.30 -14.20 2.39
1.85 -10.09 1.70
2.87 -14.10 2.39
3.16 -14.04 2.39
3.44 -13.98 2.39
3.72 -13.91 2.39
4.00 -13.84 2.39
4.09 -13.16 2.29
4.56 -13.67 2.39
3.86 -10.86 1.91
4.02 -10.61 1.88
4.23 -10.53 1.88
6.05 -14.23 2.56
6.36 -14.18 2.57
6.71 -14.18 2.60
7.34 -14.73 2.72
5.49 -10.49 1.96
8.62 -15.69 2.96
5.50 -9.56 1.82
5.51 -9.14 1.76
9.67 -15.33 3.00
10.02 -15.21 3.01
10.37 -15.07 3.02
5.52 -7.69 1.56
11.02 -14.72 3.03
11.32 -14.50 3.03
11.61 -14.27 3.04
11.90 -14.05 3.04
12.19 -13.81 3.04
12.47 -13.57 3.04
12.75 -13.33 3.04
13.03 -13.08 3.04
13.30 -12.83 3.04
13.57 -12.58 3.05
13.83 -12.31 3.05
14.10 -12.05 3.05
14.38 -11.80 3.06
14.64 -11.53 3.06
15.62 -11.80 3.22
16.30 -11.81 3.31
47.65 9.46 7.90
47.06 10.33 7.83
13.64 17.85 3.64
5.71 7.79 1.57
12.21 17.38 3.45
11.65 17.32 3.39
11.11 17.25 3.33
10.63 17.25 3.29
5.73 9.73 1.83
9.68 17.23 3.21
5.76 10.75 1.98
7.99 15.66 2.85
7.00 14.42 2.60
6.85 14.86 2.66
6.69 15.32 2.71
5.62 13.61 2.39
4.55 11.67 2.03
4.28 11.67 2.02
4.43 12.89 2.21
4.51 14.01 2.39
4.22 14.09 2.39
3.94 14.17 2.39
3.65 14.25 2.39
3.37 14.31 2.39
3.08 14.38 2.39
2.79 14.43 2.39
2.50 14.48 2.39
2.21 14.53 2.39
1.92 14.57 2.39
1.69 15.23 2.49
1.39 15.26 2.49
1.08 15.28 2.49
0.77 15.29 2.49
0.47 15.30 2.49
0.16 15.30 2.49
-0.15 15.30 2.49
-0.46 15.29 2.49
-0.76 15.28 2.49
-1.07 15.25 2.49
-1.37 15.23 2.49
-1.68 15.19 2.49
-1.98 15.15 2.49
-2.29 15.10 2.49
-2.59 15.05 2.49
-2.89 14.99 2.49
-3.19 14.93 2.49
-3.49 14.86 2.49
-3.78 14.78 2.49
-4.08 14.70 2.49
-4.37 14.61 2.49
-4.66 14.51 2.49
-4.95 14.41 2.49
-5.24 14.31 2.49
-5.52 14.19 2.49
-5.80 14.08 2.49
-6.08 13.95 2.49
-6.25 13.59 2.45
-6.36 13.12 2.39
-6.62 12.99 2.39
-6.88 12.85 2.39
-7.13 12.70 2.39
-7.38 12.55 2.39
-7.63 12.40 2.39
-7.88 12.24 2.39
-8.12 12.08 2.39
-8.36 11.91 2.39
-8.59 11.73 2.39
-8.82 11.56 2.39
-9.05 11.37 2.39
-9.27 11.19 2.39
-6.46 7.49 1.63
-9.71 10.80 2.39
-9.92 10.60 2.39
-10.13 10.39 2.39
-10.25 10.11 2.37
-10.30 9.75 2.34
-10.34 9.41 2.31
-10.35 9.04 2.27
-10.35 8.68 2.23
-10.35 8.34 2.19
-10.36 8.00 2.16
-10.36 7.68 2.13
-10.34 7.35 2.10
-10.40 7.08 2.08
-10.42 6.79 2.06
-10.42 6.50 2.03
-12.33 7.35 2.37
-12.45 7.08 2.37
-10.44 5.66 1.97
-12.67 6.55 2.36
-12.80 6.29 2.36
-12.95 6.05 2.37
-13.10 5.80 2.37
-10.45 4.38 1.88
-13.38 5.29 2.39
-10.46 3.90 1.85
-13.63 4.77 2.40
-13.75 4.50 2.40
-13.85 4.23 2.40
-10.47 2.97 1.81
-14.01 3.67 2.40
-14.06 3.38 2.40
-14.11 3.10 2.40
-14.15 2.81 2.40
-14.19 2.52 2.40
-14.21 2.23 2.39
-14.22 1.94 2.39
-14.22 1.65 2.38
-10.49 1.01 1.75
-10.49 0.79 1.75
-10.50 0.58 1.75
-14.21 0.50 2.37
-10.50 0.16 1.75
-10.50 -0.05 1.75
-13.74 -0.34 2.29
-13.45 -0.60 2.24
-13.20 -0.86 2.21
-12.96 -1.10 2.17
-12.91 -1.36 2.16
-10.46 -1.32 1.76
-10.45 -1.53 1.76
-10.45 -1.74 1.77
-10.44 -1.96 1.77
-10.44 -2.18 1.78
-13.56 -3.11 2.32
-13.78 -3.45 2.37
-13.95 -3.80 2.41
-13.00 -3.82 2.26
-12.94 -4.09 2.27
-12.87 -4.35 2.27
-12.80 -4.62 2.27
-12.72 -4.88 2.28
-12.64 -5.14 2.28
-12.56 -5.40 2.29
-12.47 -5.67 2.29
-12.69 -6.08 2.35
-12.59 -6.34 2.36
-12.48 -6.60 2.36
-12.37 -6.87 2.37
-12.26 -7.13 2.37
-12.14 -7.39 2.38
-12.02 -7.65 2.38
-11.94 -7.94 2.40
-11.91 -8.27 2.42
-11.68 -8.46 2.41
-11.48 -8.68 2.41
-11.30 -8.90 2.41
-11.12 -9.13 2.41
-10.93 -9.35 2.41
-10.74 -9.57 2.41
-10.48 -9.72 2.39
-10.28 -9.92 2.39
-10.08 -10.13 2.39
-9.87 -10.33 2.39
-9.66 -10.53 2.39
-9.45 -10.72 2.39
-9.23 -10.91 2.39
-9.01 -11.09 2.39
-8.79 -11.27 2.39
-8.56 -11.44 2.39
-8.33 -11.61 2.39
-8.10 -11.78 2.39
-7.86 -11.94 2.39
-7.62 -12.10 2.39
-7.37 -12.25 2.39
-7.13 -12.39 2.39
-6.88 -12.54 2.39
-6.62 -12.67 2.39
-6.57 -13.20 2.46
-6.37 -13.49 2.49
-6.10 -13.62 2.49
-5.83 -13.74 2.49
-5.55 -13.85 2.49
-5.27 -13.96 2.49
-4.99 -14.07 2.49
-4.71 -14.17 2.49
-4.43 -14.26 2.49
-4.14 -14.35 2.49
-3.85 -14.43 2.49
-3.56 -14.51 2.49
-3.27 -14.58 2.49
-2.98 -14.65 2.49
-2.68 -14.71 2.49
-2.39 -14.76 2.49
-2.09 -14.81 2.49
-1.79 -14.85 2.49
-1.49 -14.88 2.49
-1.20 -14.91 2.49
-0.90 -14.94 2.49
-0.60 -14.96 2.49
-0.30 -14.97 2.49
0.00 -13.14 2.49
0.27 -13.14 2.49
0.53 -13.14 2.49
0.80 -13.13 2.49
1.06 -13.11 2.49
1.32 -13.09 2.49
1.52 -12.52 2.39
1.77 -12.49 2.39
2.02 -12.46 2.39
1.85 -10.09 1.94
2.52 -12.37 2.39
2.77 -12.32 2.39
3.02 -12.27 2.39
3.26 -12.20 2.39
3.51 -12.14 2.39
3.75 -12.07 2.39
4.00 -12.00 2.39
4.24 -11.92 2.39
4.07 -10.74 2.17
3.87 -9.65 1.96
4.05 -9.52 1.95
4.28 -9.53 1.97
5.42 -11.45 2.39
5.99 -12.02 2.53
5.49 -10.49 2.23
6.51 -11.86 2.55
6.85 -11.91 2.59
7.41 -12.29 2.71
8.05 -12.77 2.85
8.72 -13.23 2.99
9.00 -13.09 2.99
9.29 -12.93 3.00
9.57 -12.77 3.00
9.84 -12.61 3.01
5.54 -6.81 1.65
5.53 -6.53 1.61
5.54 -6.27 1.57
5.54 -6.03 1.54
11.15 -11.66 3.03
11.39 -11.44 3.03
11.63 -11.21 3.03
11.86 -10.99 3.04
12.08 -10.75 3.04
12.30 -10.51 3.04
12.52 -10.27 3.04
12.73 -10.02 3.04
12.97 -9.79 3.05
13.22 -9.58 3.06
13.48 -9.35 3.08
13.72 -9.12 3.09
13.96 -8.88 3.10
14.20 -8.64 3.11
14.43 -8.39 3.13
14.66 -8.13 3.14
45.58 6.23 8.55
48.11 7.56 9.05
46.90 8.34 8.85
46.02 9.14 8.72
46.07 10.11 8.76
47.62 11.46 9.10
36.20 26.81 8.35
35.19 27.17 8.24
34.20 27.52 8.14
33.31 27.92 8.06
32.90 28.72 8.10
14.57 13.24 3.65
13.76 13.02 3.51
13.00 12.81 3.38
12.68 13.00 3.37
5.68 6.07 1.54
5.69 6.32 1.58
11.61 13.44 3.29
11.23 13.53 3.26
10.86 13.64 3.23
10.51 13.75 3.21
5.71 7.79 1.79
9.85 14.02 3.18
9.51 14.13 3.16
5.73 8.89 1.96
8.24 13.37 2.91
5.73 9.73 2.09
6.88 12.24 2.60
5.75 10.72 2.26
6.63 12.99 2.71
4.43 9.12 1.88
4.24 9.21 1.88
4.11 9.41 1.90
4.92 11.91 2.39
4.68 12.00 2.39
4.37 11.91 2.35
4.19 12.18 2.39
3.94 12.26 2.39
3.70 12.33 2.39
3.45 12.40 2.39
3.20 12.47 2.39
2.95 12.53 2.39
2.70 12.58 2.39
2.44 12.63 2.39
2.19 12.67 2.39
1.93 12.71 2.39
1.75 13.30 2.49
1.48 13.33 2.49
1.21 13.35 2.49
0.95 13.37 2.49
0.68 13.39 2.49
0.41 13.39 2.49
0.14 13.40 2.49
-0.13 13.39 2.49
-0.40 13.39 2.49
-0.67 13.37 2.49
-0.93 13.35 2.49
-1.20 13.33 2.49
-1.47 13.30 2.49
-1.74 13.26 2.49
-2.00 13.22 2.49
-2.27 13.18 2.49
-2.53 13.13 2.49
-2.79 13.07 2.49
-3.05 13.01 2.49
-3.31 12.94 2.49
-3.57 12.87 2.49
-3.83 12.79 2.49
-4.08 12.71 2.49
-4.33 12.62 2.49
-4.59 12.53 2.49
-4.84 12.43 2.49
-5.08 12.33 2.49
-5.33 12.22 2.49
-5.57 12.11 2.49
-5.81 11.99 2.49
-6.05 11.87 2.49
-6.27 11.72 2.49
-6.29 11.20 2.41
-6.47 11.00 2.39
-6.68 10.86 2.39
-6.90 10.73 2.39
-7.11 10.58 2.39
-7.32 10.43 2.39
-7.53 10.28 2.39
-7.73 10.13 2.39
-7.93 9.97 2.39
-8.12 9.80 2.39
-6.46 7.49 1.86
-8.51 9.46 2.39
-8.69 9.29 2.39
-8.87 9.11 2.39
-9.05 8.93 2.39
-9.23 8.74 2.39
-9.40 8.55 2.39
-9.57 8.36 2.39
-9.73 8.16 2.39
-9.89 7.96 2.39
-10.04 7.76 2.39
-10.19 7.56 2.39
-10.34 7.35 2.39
-10.37 7.06 2.36
-10.37 6.76 2.33
-10.38 6.47 2.31
-10.38 6.19 2.28
-10.38 5.91 2.25
-10.39 5.64 2.23
-10.39 5.37 2.21
-10.39 5.11 2.19
-10.40 4.86 2.17
-10.40 4.61 2.15
-10.40 4.36 2.13
-10.38 4.11 2.11
-10.38 3.87 2.10
-10.39 3.64 2.08
-10.45 3.42 2.08
-10.51 3.21 2.08
-10.47 2.97 2.06
-12.31 3.23 2.41
-12.38 2.98 2.41
-12.43 2.73 2.41
-12.48 2.48 2.41
-12.52 2.23 2.41
-12.54 1.97 2.41
-12.56 1.72 2.40
-12.58 1.46 2.40
-10.49 1.01 2.00
-10.49 0.79 2.00
-10.50 0.58 1.99
-12.63 0.45 2.40
-10.50 0.16 1.99
-10.50 -0.05 1.99
-12.14 -0.30 2.31
-12.10 -0.54 2.30
-12.09 -0.79 2.30
-12.08 -1.03 2.30
-12.07 -1.27 2.31
-10.46 -1.32 2.00
-10.45 -1.53 2.01
-10.45 -1.74 2.01
-10.44 -1.96 2.02
-10.44 -2.18 2.03
-12.42 -2.85 2.42
-12.36 -3.10 2.42
-12.28 -3.34 2.42
-12.20 -3.59 2.42
-12.10 -3.82 2.41
-11.59 -3.92 2.33
-11.53 -4.16 2.33
-11.46 -4.39 2.34
-11.38 -4.63 2.34
-11.31 -4.86 2.34
-11.23 -5.10 2.35
-11.14 -5.33 2.35
-11.05 -5.57 2.36
-10.96 -5.80 2.36
-11.05 -6.13 2.41
-10.92 -6.35 2.41
-10.79 -6.57 2.41
-10.66 -6.79 2.41
-10.45 -6.95 2.39
-10.30 -7.16 2.39
-10.16 -7.36 2.39
-10.01 -7.57 2.39
-9.85 -7.77 2.39
-9.70 -7.96 2.39
-9.53 -8.15 2.39
-9.37 -8.34 2.39
-9.20 -8.53 2.39
-9.03 -8.71 2.39
-8.85 -8.89 2.39
-8.67 -9.07 2.39
-8.48 -9.24 2.39
-8.30 -9.41 2.39
-8.11 -9.58 2.39
-7.91 -9.74 2.39
-7.72 -9.89 2.39
-7.52 -10.05 2.39
-7.31 -10.20 2.39
-7.11 -10.34 2.39
-6.90 -10.48 2.39
-6.69 -10.62 2.39
-6.55 -10.88 2.42
-6.53 -11.35 2.49
-6.30 -11.48 2.49
-6.07 -11.61 2.49
-5.83 -11.73 2.49
-5.60 -11.84 2.49
-5.36 -11.95 2.49
-5.12 -12.06 2.49
-4.87 -12.16 2.49
-4.63 -12.26 2.49
-4.38 -12.35 2.49
-4.14 -12.44 2.49
-3.89 -12.52 2.49
-3.63 -12.60 2.49
-3.38 -12.67 2.49
-3.13 -12.74 2.49
-2.87 -12.80 2.49
-2.61 -12.86 2.49
-2.35 -12.91 2.49
-2.09 -12.95 2.49
-1.83 -13.00 2.49
-1.57 -13.03 2.49
-1.31 -13.06 2.49
-1.05 -13.09 2.49
-0.79 -13.11 2.49
-0.52 -13.13 2.49
-0.26 -13.14 2.49
0.00 -11.70 2.49
0.24 -11.70 2.49
0.47 -11.69 2.49
0.71 -11.68 2.49
0.94 -11.67 2.49
1.18 -11.65 2.49
1.41 -11.62 2.49
1.58 -11.12 2.39
1.80 -11.09 2.39
1.85 -10.09 2.18
2.25 -11.01 2.39
2.47 -10.96 2.39
2.69 -10.91 2.39
2.91 -10.86 2.39
3.12 -10.80 2.39
3.34 -10.74 2.39
3.56 -10.67 2.39
3.77 -10.60 2.39
3.98 -10.53 2.39
3.96 -9.85 2.25
4.15 -9.77 2.25
4.61 -10.27 2.39
4.82 -10.18 2.39
5.02 -10.09 2.39
5.23 -9.98 2.39
5.43 -9.88 2.39
5.98 -10.39 2.54
5.51 -9.14 2.26
5.51 -8.74 2.19
6.67 -10.13 2.57
5.52 -8.02 2.06
7.53 -10.48 2.73
5.53 -7.39 1.95
8.53 -10.92 2.93
8.88 -10.92 2.98
5.53 -6.53 1.81
9.36 -10.61 2.99
5.55 -6.03 1.73
9.83 -10.27 3.01
10.06 -10.10 3.01
10.29 -9.92 3.02
10.51 -9.74 3.03
5.55 -4.94 1.57
5.55 -4.75 1.54
11.12 -9.12 3.04
11.31 -8.90 3.04
11.49 -8.68 3.04
11.67 -8.45 3.04
11.84 -8.22 3.04
12.01 -7.98 3.04
12.17 -7.74 3.04
12.32 -7.50 3.04
12.47 -7.25 3.04
12.62 -7.00 3.04
12.76 -6.75 3.04
12.91 -6.50 3.04
13.09 -6.26 3.05
13.26 -6.02 3.06
13.43 -5.77 3.08
13.59 -5.52 3.09
13.76 -5.27 3.10
13.91 -5.01 3.11
14.06 -4.75 3.12
14.20 -4.48 3.13
14.33 -4.21 3.14
14.49 -3.94 3.15
14.67 -3.68 3.18
14.84 -3.40 3.20
48.56 4.66 10.21
46.93 5.46 9.89
45.60 6.23 9.63
45.59 7.16 9.66
45.50 8.09 9.67
45.37 9.01 9.68
45.32 9.95 9.71
45.55 10.96 9.80
45.80 12.00 9.90
46.28 13.12 10.06
46.70 14.26 10.21
14.97 7.73 3.52
14.63 7.93 3.48
14.31 8.14 3.44
14.02 8.35 3.41
13.71 8.54 3.37
13.38 8.71 3.33
13.02 8.85 3.29
12.79 9.08 3.28
12.56 9.30 3.26
12.32 9.51 3.25
12.07 9.71 3.24
5.67 4.75 1.54
5.67 4.95 1.57
11.30 10.27 3.19
11.04 10.45 3.17
10.80 10.63 3.16
5.68 5.83 1.70
10.30 10.99 3.14
10.04 11.16 3.13
9.76 11.29 3.12
5.70 6.87 1.86
9.18 11.52 3.08
8.68 11.36 2.99
5.71 7.78 2.02
7.26 10.34 2.64
6.90 10.25 2.58
6.78 10.53 2.62
6.66 10.81 2.65
5.73 9.73 2.36
5.61 9.98 2.39
4.43 8.27 1.96
4.22 8.27 1.94
4.09 8.43 1.96
4.10 8.90 2.05
4.19 9.60 2.19
4.37 10.57 2.39
4.15 10.66 2.39
3.94 10.74 2.39
3.72 10.81 2.39
3.50 10.88 2.39
3.28 10.95 2.39
3.06 11.01 2.39
2.84 11.07 2.39
2.62 11.12 2.39
2.39 11.17 2.39
2.17 11.22 2.39
1.96 11.34 2.41
1.77 11.66 2.47
1.55 11.81 2.49
1.32 11.84 2.49
1.08 11.86 2.49
0.84 11.88 2.49
0.60 11.89 2.49
0.36 11.90 2.49
0.12 11.90 2.49
-0.11 11.90 2.49
-0.35 11.89 2.49
-0.59 11.88 2.49
-0.83 11.86 2.49
-1.07 11.84 2.49
-1.30 11.82 2.49
-1.54 11.78 2.49
-1.78 11.75 2.49
-2.01 11.71 2.49
-2.25 11.66 2.49
-2.48 11.61 2.49
-2.71 11.56 2.49
-2.94 11.50 2.49
-3.17 11.44 2.49
-3.40 11.37 2.49
-3.63 11.29 2.49
-3.85 11.22 2.49
-4.07 11.14 2.49
-4.30 11.05 2.49
-4.52 10.96 2.49
-4.73 10.86 2.49
-4.95 10.76 2.49
-5.16 10.66 2.49
-5.38 10.55 2.49
-5.58 10.44 2.49
-5.79 10.32 2.49
-6.00 10.20 2.49
-6.20 10.08 2.49
-6.30 9.79 2.45
-6.32 9.41 2.39
-6.52 9.29 2.39
-6.69 9.14 2.39
-6.87 9.00 2.39
-7.05 8.86 2.39
-7.22 8.72 2.39
-6.46 7.49 2.09
-7.56 8.41 2.39
-7.73 8.26 2.39
-7.89 8.10 2.39
-8.05 7.94 2.39
-8.21 7.77 2.39
-8.36 7.61 2.39
-8.51 7.43 2.39
-8.65 7.26 2.39
-8.79 7.08 2.39
-8.93 6.90 2.39
-9.07 6.72 2.39
-9.20 6.54 2.39
-9.33 6.35 2.39
-9.45 6.16 2.39
-9.57 5.97 2.39
-9.68 5.77 2.39
-9.79 5.57 2.39
-9.90 5.38 2.39
-10.01 5.17 2.39
-10.11 4.97 2.39
-10.20 4.77 2.39
-10.29 4.56 2.39
-10.38 4.35 2.39
-10.41 4.12 2.38
-10.41 3.88 2.36
-10.41 3.64 2.34
-10.41 3.41 2.33
-10.42 3.18 2.32
-10.42 2.96 2.30
-10.42 2.73 2.29
-10.42 2.51 2.28
-10.43 2.29 2.27
-10.43 2.07 2.26
-10.43 1.86 2.26
-10.44 1.64 2.25
-10.44 1.43 2.24
-10.44 1.21 2.24
-10.44 1.00 2.24
-10.45 0.79 2.23
-10.45 0.58 2.23
-10.45 0.37 2.23
-10.45 0.16 2.23
-10.45 -0.05 2.23
-10.44 -0.26 2.23
-10.43 -0.47 2.23
-10.43 -0.68 2.23
-10.42 -0.89 2.23
-10.42 -1.10 2.24
-10.41 -1.31 2.24
-10.41 -1.52 2.25
-10.40 -1.74 2.25
-10.40 -1.95 2.26
-10.39 -2.17 2.27
-10.98 -2.52 2.41
-10.93 -2.74 2.41
-10.87 -2.96 2.41
-10.80 -3.17 2.41
-10.74 -3.39 2.41
-10.67 -3.61 2.41
-10.59 -3.82 2.41
-10.41 -3.99 2.38
-10.34 -4.21 2.39
-10.27 -4.42 2.39
-10.18 -4.62 2.39
-10.08 -4.83 2.39
-9.98 -5.03 2.39
-9.88 -5.23 2.39
-9.77 -5.42 2.39
-9.66 -5.62 2.39
-9.54 -5.81 2.39
-9.43 -6.00 2.39
-9.30 -6.19 2.39
-9.18 -6.37 2.39
-9.05 -6.56 2.39
-8.91 -6.74 2.39
-8.77 -6.91 2.39
-8.63 -7.09 2.39
-8.49 -7.26 2.39
-8.34 -7.43 2.39
-8.19 -7.60 2.39
-8.04 -7.76 2.39
-7.88 -7.92 2.39
-7.72 -8.08 2.39
-7.55 -8.23 2.39
-7.39 -8.38 2.39
-7.22 -8.53 2.39
-7.05 -8.67 2.39
-6.87 -8.81 2.39
-6.69 -8.95 2.39
-6.54 -9.11 2.40
-6.53 -9.50 2.47
-6.41 -9.74 2.49
-6.21 -9.86 2.49
-6.01 -9.99 2.49
-5.81 -10.11 2.49
-5.61 -10.22 2.49
-5.40 -10.33 2.49
-5.19 -10.44 2.49
-4.98 -10.54 2.49
-4.77 -10.64 2.49
-4.56 -10.74 2.49
-4.34 -10.83 2.49
-4.12 -10.91 2.49
-3.90 -11.00 2.49
-3.68 -11.07 2.49
-3.46 -11.15 2.49
-3.23 -11.22 2.49
-3.01 -11.28 2.49
-2.78 -11.34 2.49
-2.55 -11.39 2.49
-2.33 -11.44 2.49
-2.10 -11.49 2.49
-1.86 -11.53 2.49
-1.63 -11.57 2.49
-1.40 -11.60 2.49
-1.17 -11.63 2.49
-0.93 -11.65 2.49
-0.70 -11.67 2.49
-0.47 -11.68 2.49
-0.23 -11.69 2.49
0.00 -10.53 2.49
0.22 -10.53 2.49
0.43 -10.52 2.49
0.64 -10.51 2.49
0.85 -10.50 2.49
1.06 -10.48 2.49
1.27 -10.46 2.49
1.48 -10.44 2.49
1.62 -9.98 2.39
1.82 -9.94 2.39
2.02 -9.91 2.39
2.22 -9.87 2.39
2.42 -9.82 2.39
2.62 -9.77 2.39
2.81 -9.72 2.39
3.01 -9.66 2.39
3.20 -9.60 2.39
3.39 -9.54 2.39
3.59 -9.47 2.39
3.78 -9.40 2.39
3.96 -9.32 2.39
4.15 -9.24 2.39
4.34 -9.16 2.39
4.52 -9.07 2.39
3.90 -7.45 1.98
3.90 -7.11 1.91
3.98 -6.92 1.88
4.12 -6.84 1.88
4.26 -6.75 1.88
5.94 -9.01 2.54
6.14 -8.92 2.55
6.34 -8.83 2.56
6.54 -8.73 2.57
6.76 -8.66 2.59
7.21 -8.85 2.69
5.53 -6.53 2.01
8.09 -9.16 2.87
8.51 -9.25 2.96
8.84 -9.23 3.00
9.04 -9.07 3.01
9.24 -8.91 3.01
9.43 -8.74 3.02
9.62 -8.56 3.03
9.81 -8.39 3.03
5.56 -4.56 1.69
10.18 -8.01 3.04
10.34 -7.81 3.04
10.49 -7.60 3.04
10.65 -7.39 3.04
5.57 -3.70 1.57
5.57 -3.54 1.55
11.08 -6.74 3.04
11.22 -6.52 3.04
11.35 -6.29 3.04
11.47 -6.06 3.04
11.60 -5.84 3.04
11.73 -5.61 3.04
11.85 -5.38 3.04
11.96 -5.14 3.05
12.07 -4.90 3.05
12.17 -4.66 3.05
12.27 -4.42 3.05
12.36 -4.18 3.05
12.45 -3.93 3.05
12.54 -3.68 3.06
12.63 -3.43 3.06
12.71 -3.18 3.06
12.78 -2.93 3.06
12.85 -2.68 3.07
12.92 -2.42 3.07
13.02 -2.17 3.08
13.16 -1.92 3.10
13.35 -1.68 3.14
13.54 -1.43 3.18
13.69 -1.16 3.20
13.81 -0.90 3.23
13.93 -0.62 3.25
14.03 -0.35 3.27
14.11 -0.07 3.29
14.25 0.22 3.32
14.39 0.51 3.35
14.51 0.81 3.39
14.61 1.11 3.41
14.71 1.41 3.44
14.78 1.72 3.47
14.80 2.02 3.48
14.71 2.31 3.47
14.59 2.60 3.45
14.46 2.87 3.43
14.31 3.14 3.41
14.17 3.41 3.39
14.03 3.68 3.37
13.87 3.93 3.36
13.67 4.17 3.33
13.43 4.40 3.29
13.24 4.63 3.26
13.06 4.86 3.24
12.92 5.11 3.23
12.80 5.36 3.23
12.68 5.61 3.22
12.54 5.85 3.22
12.39 6.09 3.21
12.24 6.32 3.20
12.08 6.55 3.20
11.92 6.78 3.19
5.68 3.38 1.54
5.65 3.52 1.55
5.66 3.68 1.57
11.18 7.60 3.14
10.98 7.80 3.13
10.81 8.01 3.13
10.63 8.20 3.12
10.45 8.41 3.12
10.26 8.60 3.11
10.07 8.79 3.11
9.88 8.98 3.10
9.66 9.14 3.09
9.43 9.29 3.08
5.68 5.83 1.89
8.96 9.57 3.05
8.34 9.27 2.90
7.77 8.99 2.76
7.25 8.74 2.64
6.89 8.66 2.57
6.78 8.88 2.60
5.71 7.78 2.24
6.55 9.33 2.65
5.74 8.53 2.39
5.57 8.65 2.39
5.39 8.76 2.39
5.22 8.86 2.39
5.04 8.96 2.39
4.86 9.06 2.39
4.34 8.51 2.22
4.18 8.61 2.23
4.30 9.34 2.39
4.11 9.42 2.39
3.92 9.50 2.39
3.73 9.58 2.39
3.54 9.65 2.39
3.34 9.72 2.39
3.15 9.78 2.39
2.95 9.84 2.39
2.75 9.90 2.39
2.55 9.95 2.39
2.35 10.00 2.39
2.15 10.04 2.39
1.95 10.08 2.39
1.76 10.20 2.41
1.61 10.58 2.49
1.40 10.61 2.49
1.18 10.64 2.49
0.97 10.66 2.49
0.76 10.67 2.49
0.54 10.68 2.49
0.33 10.69 2.49
0.11 10.69 2.49
-0.10 10.69 2.49
-0.32 10.69 2.49
-0.53 10.68 2.49
-0.75 10.66 2.49
-0.96 10.64 2.49
-1.17 10.62 2.49
-1.38 10.59 2.49
-1.60 10.56 2.49
-1.81 10.52 2.49
-2.02 10.48 2.49
-2.23 10.44 2.49
-2.44 10.39 2.49
-2.64 10.34 2.49
-2.85 10.28 2.49
-3.06 10.22 2.49
-3.26 10.15 2.49
-3.46 10.08 2.49
-3.66 10.01 2.49
-3.86 9.93 2.49
-4.06 9.85 2.49
-4.26 9.77 2.49
-4.45 9.68 2.49
-4.64 9.58 2.49
-4.83 9.49 2.49
-5.02 9.38 2.49
-5.21 9.28 2.49
-5.39 9.17 2.49
-5.57 9.06 2.49
-5.75 8.94 2.49
-5.93 8.82 2.49
-6.10 8.70 2.49
-6.28 8.58 2.49
-6.32 8.28 2.44
-6.34 7.97 2.39
-6.50 7.84 2.39
-6.46 7.48 2.32
-6.80 7.57 2.39
-6.95 7.43 2.39
-7.10 7.29 2.39
-7.24 7.14 2.39
-7.38 6.99 2.39
-7.52 6.84 2.39
-7.65 6.69 2.39
-7.78 6.53 2.39
-7.91 6.37 2.39
-8.03 6.21 2.39
-8.16 6.05 2.39
-8.27 5.88 2.39
-8.39 5.71 2.39
-8.50 5.54 2.39
-8.61 5.37 2.39
-8.71 5.19 2.39
-8.81 5.02 2.39
-8.91 4.84 2.39
-9.00 4.66 2.39
-9.09 4.47 2.39
-9.18 4.29 2.39
-9.26 4.10 2.39
-9.34 3.92 2.39
-9.41 3.73 2.39
-9.48 3.54 2.39
-9.55 3.34 2.39
-9.62 3.15 2.39
-9.67 2.96 2.39
-9.73 2.76 2.39
-9.78 2.57 2.39
-9.83 2.37 2.39
-9.87 2.17 2.39
-9.91 1.97 2.39
-9.95 1.77 2.39
-9.98 1.57 2.39
-10.01 1.37 2.39
-10.03 1.17 2.39
-10.05 0.97 2.39
-10.07 0.76 2.39
-10.08 0.56 2.39
-10.09 0.36 2.39
-10.09 0.16 2.39
-10.09 -0.05 2.39
-10.08 -0.25 2.39
-10.08 -0.45 2.39
-10.06 -0.65 2.39
-10.05 -0.86 2.39
-10.03 -1.06 2.39
-10.00 -1.26 2.39
-9.97 -1.46 2.39
-9.94 -1.66 2.39
-9.90 -1.86 2.39
-9.86 -2.06 2.39
-9.82 -2.25 2.39
-9.77 -2.45 2.39
-9.72 -2.64 2.39
-9.66 -2.84 2.39
-9.60 -3.03 2.39
-9.54 -3.22 2.39
-9.47 -3.41 2.39
-9.40 -3.60 2.39
-9.33 -3.79 2.39
-9.25 -3.98 2.39
-9.16 -4.16 2.39
-9.08 -4.35 2.39
-8.99 -4.53 2.39
-8.89 -4.71 2.39
-8.80 -4.88 2.39
-8.70 -5.06 2.39
-8.59 -5.23 2.39
-8.49 -5.40 2.39
-8.38 -5.57 2.39
-8.26 -5.74 2.39
-8.14 -5.90 2.39
-8.02 -6.07 2.39
-7.90 -6.23 2.39
-7.77 -6.38 2.39
-7.64 -6.54 2.39
-7.51 -6.69 2.39
-7.38 -6.84 2.39
-7.24 -6.99 2.39
-7.09 -7.13 2.39
-6.95 -7.27 2.39
-6.80 -7.41 2.39
-6.65 -7.54 2.39
-6.52 -7.70 2.40
-6.51 -8.01 2.45
-6.45 -8.27 2.49
-6.29 -8.40 2.49
-6.12 -8.53 2.49
-5.94 -8.65 2.49
-5.77 -8.77 2.49
-5.59 -8.88 2.49
-5.41 -8.99 2.49
-5.23 -9.10 2.49
-5.05 -9.20 2.49
-4.86 -9.30 2.49
-4.68 -9.40 2.49
-4.49 -9.49 2.49
-4.29 -9.58 2.49
-4.10 -9.67 2.49
-3.91 -9.75 2.49
-3.71 -9.83 2.49
-3.51 -9.90 2.49
-3.31 -9.97 2.49
-3.11 -10.04 2.49
-2.91 -10.10 2.49
-2.71 -10.15 2.49
-2.50 -10.21 2.49
-2.30 -10.26 2.49
-2.09 -10.30 2.49
-1.89 -10.34 2.49
-1.68 -10.38 2.49
-1.47 -10.41 2.49
-1.26 -10.44 2.49
-1.05 -10.47 2.49
-0.84 -10.49 2.49
-0.63 -10.50 2.49
-0.42 -10.52 2.49
-0.21 -10.52 2.49
0.00 -9.56 2.49
0.20 -9.56 2.49
0.39 -9.56 2.49
0.58 -9.55 2.49
0.77 -9.54 2.49
0.96 -9.52 2.49
1.15 -9.50 2.49
1.35 -9.48 2.49
1.52 -9.34 2.47
1.65 -9.03 2.39
1.84 -9.00 2.39
2.02 -8.96 2.39
2.20 -8.92 2.39
2.38 -8.87 2.39
2.55 -8.83 2.39
2.73 -8.78 2.39
2.91 -8.72 2.39
3.08 -8.66 2.39
3.26 -8.60 2.39
3.43 -8.53 2.39
3.60 -8.47 2.39
3.77 -8.39 2.39
3.94 -8.32 2.39
4.11 -8.24 2.39
4.27 -8.16 2.39
4.01 -7.30 2.16
3.91 -6.79 2.03
3.91 -6.49 1.97
3.92 -6.21 1.91
4.02 -6.09 1.89
4.19 -6.09 1.92
4.37 -6.09 1.94
5.53 -7.38 2.39
6.06 -7.76 2.55
5.54 -6.80 2.27
5.53 -6.53 2.22
5.54 -6.28 2.17
6.80 -7.39 2.60
7.12 -7.44 2.67
7.47 -7.50 2.74
7.89 -7.61 2.84
8.32 -7.71 2.94
8.77 -7.80 3.04
8.93 -7.63 3.04
5.56 -4.56 1.86
9.23 -7.26 3.04
9.37 -7.08 3.04
9.51 -6.89 3.04
9.65 -6.70 3.04
9.78 -6.50 3.03
9.91 -6.30 3.03
10.04 -6.10 3.03
10.16 -5.90 3.03
10.28 -5.70 3.04
10.40 -5.50 3.04
10.51 -5.29 3.04
5.59 -2.67 1.60
5.58 -2.53 1.58
5.58 -2.40 1.57
5.58 -2.27 1.55
5.59 -2.14 1.54
5.61 -2.02 1.54
11.19 -3.78 3.04
11.28 -3.56 3.05
11.36 -3.33 3.05
11.43 -3.11 3.05
11.50 -2.88 3.05
11.57 -2.65 3.06
11.63 -2.42 3.06
11.69 -2.19 3.06
11.74 -1.96 3.06
11.80 -1.72 3.07
11.86 -1.49 3.08
11.91 -1.25 3.08
11.96 -1.02 3.09
11.99 -0.78 3.09
12.01 -0.54 3.09
12.03 -0.30 3.09
12.04 -0.05 3.09
12.06 0.19 3.10
12.09 0.43 3.11
12.11 0.67 3.12
12.13 0.92 3.12
12.14 1.17 3.13
12.12 1.41 3.13
12.10 1.65 3.13
12.06 1.90 3.13
12.03 2.14 3.14
11.99 2.38 3.14
11.96 2.62 3.14
11.91 2.87 3.14
11.85 3.10 3.14
11.78 3.34 3.14
11.69 3.57 3.14
11.61 3.80 3.13
5.66 1.98 1.54
5.64 2.10 1.54
5.64 2.23 1.55
5.64 2.36 1.57
11.10 4.92 3.11
10.98 5.13 3.11
10.88 5.35 3.11
10.77 5.56 3.11
10.65 5.78 3.11
10.53 5.99 3.10
5.66 3.37 1.69
10.27 6.40 3.10
10.13 6.60 3.10
9.99 6.79 3.10
9.84 6.99 3.09
9.68 7.17 3.09
9.51 7.34 3.08
9.34 7.52 3.07
9.17 7.68 3.07
8.99 7.85 3.06
8.57 7.79 2.97
8.09 7.66 2.85
7.64 7.52 2.75
5.68 5.83 2.09
5.70 6.09 2.14
6.77 7.53 2.60
6.66 7.71 2.61
6.55 7.90 2.63
6.47 8.12 2.66
5.66 7.41 2.39
5.51 7.52 2.39
5.36 7.63 2.39
5.21 7.74 2.39
5.05 7.84 2.39
4.89 7.94 2.39
4.73 8.04 2.39
4.57 8.13 2.39
4.41 8.22 2.39
4.24 8.30 2.39
4.07 8.39 2.39
3.90 8.47 2.39
3.73 8.54 2.39
3.56 8.62 2.39
3.38 8.68 2.39
3.21 8.75 2.39
3.03 8.81 2.39
2.86 8.87 2.39
2.68 8.92 2.39
2.50 8.98 2.39
2.32 9.02 2.39
2.13 9.07 2.39
1.95 9.11 2.39
1.77 9.14 2.39
1.65 9.57 2.49
1.46 9.60 2.49
1.27 9.63 2.49
1.07 9.65 2.49
0.88 9.67 2.49
0.69 9.68 2.49
0.49 9.69 2.49
0.30 9.70 2.49
0.10 9.70 2.49
-0.09 9.70 2.49
-0.29 9.69 2.49
-0.48 9.69 2.49
-0.68 9.67 2.49
-0.87 9.66 2.49
-1.06 9.63 2.49
-1.26 9.61 2.49
-1.45 9.58 2.49
-1.64 9.55 2.49
-1.83 9.51 2.49
-2.02 9.47 2.49
-2.21 9.43 2.49
-2.40 9.38 2.49
-2.59 9.33 2.49
-2.77 9.27 2.49
-2.96 9.21 2.49
-3.14 9.15 2.49
-3.32 9.08 2.49
-3.50 9.01 2.49
-3.68 8.94 2.49
-3.86 8.86 2.49
-4.04 8.78 2.49
-4.21 8.70 2.49
-4.38 8.61 2.49
-4.56 8.52 2.49
-4.72 8.42 2.49
-4.89 8.32 2.49
-5.06 8.22 2.49
-5.22 8.12 2.49
-5.38 8.01 2.49
-5.54 7.90 2.49
-5.70 7.78 2.49
-5.85 7.67 2.49
-6.00 7.55 2.49
-6.15 7.42 2.49
-6.30 7.30 2.49
-6.33 7.04 2.45
-6.34 6.78 2.40
-6.44 6.61 2.39
-6.57 6.48 2.39
-6.70 6.35 2.39
-6.82 6.21 2.39
-6.95 6.07 2.39
-7.06 5.93 2.39
-7.18 5.78 2.39
-7.29 5.64 2.39
-7.40 5.49 2.39
-7.51 5.34 2.39
-7.62 5.19 2.39
-7.72 5.03 2.39
-7.81 4.87 2.39
-7.91 4.72 2.39
-8.00 4.55 2.39
-8.09 4.39 2.39
-8.17 4.23 2.39
-8.26 4.06 2.39
-8.33 3.90 2.39
-8.41 3.73 2.39
-8.48 3.56 2.39
-8.55 3.38 2.39
-8.61 3.21 2.39
-8.67 3.04 2.39
-8.73 2.86 2.39
-8.79 2.69 2.39
-8.84 2.51 2.39
-8.88 2.33 2.39
-8.93 2.15 2.39
-8.97 1.97 2.39
-9.00 1.79 2.39
-9.04 1.61 2.39
-9.06 1.43 2.39
-9.09 1.24 2.39
-9.11 1.06 2.39
-9.13 0.88 2.39
-9.14 0.69 2.39
-9.15 0.51 2.39
-9.16 0.33 2.39
-9.16 0.14 2.39
-9.16 -0.04 2.39
-9.16 -0.23 2.39
-9.15 -0.41 2.39
-9.14 -0.59 2.39
-9.13 -0.78 2.39
-9.11 -0.96 2.39
-9.09 -1.14 2.39
-9.06 -1.32 2.39
-9.03 -1.51 2.39
-9.00 -1.69 2.39
-8.96 -1.87 2.39
-8.92 -2.05 2.39
-8.88 -2.22 2.39
-8.83 -2.40 2.39
-8.78 -2.58 2.39
-8.72 -2.75 2.39
-8.67 -2.93 2.39
-8.60 -3.10 2.39
-8.54 -3.27 2.39
-8.47 -3.44 2.39
-8.40 -3.61 2.39
-8.33 -3.78 2.39
-8.25 -3.95 2.39
-8.17 -4.11 2.39
-8.08 -4.28 2.39
-7.99 -4.44 2.39
-7.90 -4.60 2.39
-7.81 -4.75 2.39
-7.71 -4.91 2.39
-7.61 -5.06 2.39
-7.51 -5.21 2.39
-7.40 -5.36 2.39
-7.29 -5.51 2.39
-7.18 -5.66 2.39
-7.06 -5.80 2.39
-6.94 -5.94 2.39
-6.82 -6.08 2.39
-6.70 -6.22 2.39
-6.57 -6.35 2.39
-6.50 -6.53 2.41
-6.50 -6.80 2.46
-6.45 -7.02 2.49
-6.30 -7.15 2.49
-6.16 -7.28 2.49
-6.01 -7.40 2.49
-5.86 -7.52 2.49
-5.71 -7.63 2.49
-5.56 -7.75 2.49
-5.40 -7.86 2.49
-5.24 -7.97 2.49
-5.08 -8.07 2.49
-4.92 -8.17 2.49
-4.75 -8.27 2.49
-4.59 -8.36 2.49
-4.42 -8.45 2.49
-4.25 -8.54 2.49
-4.08 -8.63 2.49
-3.90 -8.71 2.49
-3.73 -8.78 2.49
-3.55 -8.86 2.49
-3.37 -8.93 2.49
-3.19 -8.99 2.49
-3.01 -9.06 2.49
-2.83 -9.12 2.49
-2.64 -9.17 2.49
-2.46 -9.22 2.49
-2.27 -9.27 2.49
-2.09 -9.32 2.49
-1.90 -9.36 2.49
-1.71 -9.40 2.49
-1.52 -9.43 2.49
-1.33 -9.46 2.49
-1.14 -9.49 2.49
-0.95 -9.51 2.49
-0.76 -9.53 2.49
-0.57 -9.54 2.49
-0.38 -9.55 2.49
-0.19 -9.56 2.49
0.00 -8.75 2.49
0.18 -8.75 2.49
0.36 -8.75 2.49
0.53 -8.74 2.49
0.71 -8.73 2.49
0.88 -8.71 2.49
1.06 -8.69 2.49
1.23 -8.67 2.49
1.41 -8.65 2.49
1.53 -8.37 2.42
1.68 -8.23 2.39
1.85 -8.20 2.39
2.01 -8.16 2.39
2.17 -8.12 2.39
2.34 -8.08 2.39
2.50 -8.03 2.39
2.66 -7.98 2.39
2.82 -7.92 2.39
2.98 -7.87 2.39
3.14 -7.81 2.39
3.29 -7.74 2.39
3.45 -7.68 2.39
3.60 -7.61 2.39
3.76 -7.54 2.39
3.91 -7.46 2.39
4.01 -7.30 2.37
4.21 -7.30 2.39
4.35 -7.22 2.39
4.00 -6.34 2.13
4.17 -6.33 2.15
4.78 -6.94 2.39
4.92 -6.85 2.39
5.06 -6.75 2.39
5.19 -6.65 2.39
5.33 -6.54 2.39
5.46 -6.44 2.39
5.99 -6.78 2.56
6.15 -6.69 2.57
5.55 -5.80 2.27
6.46 -6.48 2.59
6.61 -6.37 2.60
6.76 -6.26 2.61
5.57 -4.95 2.11
7.32 -6.25 2.72
5.56 -4.56 2.03
7.89 -6.21 2.84
8.19 -6.18 2.90
8.49 -6.15 2.96
8.79 -6.10 3.02
8.92 -5.92 3.02
9.03 -5.74 3.02
5.58 -3.39 1.84
9.24 -5.37 3.02
9.34 -5.18 3.02
9.44 -4.99 3.01
9.53 -4.79 3.01
9.62 -4.60 3.01
5.58 -2.53 1.73
9.77 -4.20 3.00
9.85 -4.00 3.00
5.59 -2.14 1.69
10.04 -3.62 3.01
10.13 -3.42 3.01
10.22 -3.22 3.02
10.30 -3.02 3.02
10.37 -2.82 3.03
10.44 -2.61 3.03
10.51 -2.41 3.04
10.57 -2.20 3.04
10.63 -1.99 3.04
10.68 -1.78 3.05
10.72 -1.57 3.05
5.61 -0.70 1.59
5.60 -0.59 1.59
5.61 -0.48 1.58
10.85 -0.70 3.06
5.61 -0.25 1.58
5.61 -0.14 1.58
5.61 -0.03 1.58
5.61 0.09 1.58
5.61 0.20 1.58
10.90 0.61 3.07
10.89 0.83 3.07
10.87 1.04 3.07
10.85 1.26 3.07
10.83 1.48 3.07
10.80 1.70 3.07
10.77 1.92 3.07
10.74 2.13 3.07
10.70 2.35 3.08
10.65 2.56 3.08
5.64 1.48 1.64
10.54 2.99 3.08
5.63 1.72 1.65
5.63 1.84 1.66
10.35 3.62 3.08
10.27 3.83 3.08
5.65 2.23 1.70
10.11 4.24 3.08
10.03 4.44 3.08
9.94 4.64 3.08
9.84 4.84 3.08
9.74 5.04 3.08
5.66 3.07 1.80
9.53 5.42 3.07
9.41 5.60 3.07
9.29 5.79 3.07
9.17 5.97 3.07
9.04 6.15 3.07
8.84 6.28 3.04
8.47 6.27 2.95
8.10 6.26 2.87
7.75 6.24 2.79
7.41 6.21 2.71
7.08 6.18 2.63
6.86 6.24 2.60
6.77 6.40 2.61
6.67 6.57 2.62
5.68 5.83 2.28
6.46 6.90 2.65
5.70 6.34 2.39
5.57 6.45 2.39
5.44 6.56 2.39
5.31 6.67 2.39
5.18 6.77 2.39
5.04 6.88 2.39
4.90 6.98 2.39
4.76 7.07 2.39
4.62 7.17 2.39
4.47 7.26 2.39
4.32 7.34 2.39
4.18 7.43 2.39
4.03 7.51 2.39
3.87 7.59 2.39
3.72 7.67 2.39
3.57 7.74 2.39
3.41 7.81 2.39
3.25 7.87 2.39
3.09 7.94 2.39
2.78 7.59 2.27
2.67 7.75 2.30
2.57 7.97 2.35
2.41 8.02 2.35
2.17 7.79 2.27
2.09 8.13 2.36
1.95 8.29 2.39
1.78 8.32 2.39
1.69 8.72 2.49
1.51 8.75 2.49
1.34 8.78 2.49
1.16 8.80 2.49
0.98 8.82 2.49
0.80 8.84 2.49
0.63 8.85 2.49
0.45 8.86 2.49
0.27 8.87 2.49
0.09 8.87 2.49
-0.08 8.87 2.49
-0.26 8.86 2.49
-0.44 8.85 2.49
-0.62 8.84 2.49
-0.79 8.83 2.49
-0.97 8.81 2.49
-1.15 8.78 2.49
-1.32 8.76 2.49
-1.50 8.73 2.49
-1.67 8.70 2.49
-1.85 8.66 2.49
-2.02 8.62 2.49
-2.19 8.58 2.49
-2.36 8.53 2.49
-2.53 8.48 2.49
-2.70 8.42 2.49
-2.87 8.37 2.49
-3.04 8.31 2.49
-3.20 8.24 2.49
-3.37 8.17 2.49
-3.53 8.10 2.49
-3.69 8.03 2.49
-3.85 7.95 2.49
-4.01 7.87 2.49
-4.17 7.79 2.49
-4.32 7.70 2.49
-4.47 7.61 2.49
-4.62 7.52 2.49
-4.77 7.42 2.49
-4.92 7.32 2.49
-5.07 7.22 2.49
-5.21 7.12 2.49
-5.35 7.01 2.49
-5.49 6.90 2.49
-5.62 6.79 2.49
-5.76 6.67 2.49
-5.89 6.55 2.49
-6.02 6.43 2.49
-6.15 6.31 2.49
-6.27 6.18 2.49
-6.34 6.01 2.47
-6.35 5.78 2.43
-6.36 5.56 2.39
-6.46 5.42 2.39
-6.57 5.29 2.39
-6.67 5.16 2.39
-6.77 5.02 2.39
-6.87 4.88 2.39
-6.97 4.74 2.39
-7.06 4.60 2.39
-7.15 4.46 2.39
-7.23 4.31 2.39
-7.32 4.17 2.39
-7.40 4.02 2.39
-7.48 3.87 2.39
-7.55 3.72 2.39
-7.62 3.56 2.39
-7.69 3.41 2.39
-7.76 3.25 2.39
-7.82 3.10 2.39
-7.88 2.94 2.39
-7.94 2.78 2.39
-7.99 2.62 2.39
-8.04 2.46 2.39
-8.08 2.30 2.39
-8.13 2.13 2.39
-8.17 1.97 2.39
-8.20 1.80 2.39
-8.24 1.64 2.39
-8.27 1.47 2.39
-8.29 1.31 2.39
-8.32 1.14 2.39
-8.34 0.97 2.39
-8.35 0.80 2.39
-8.37 0.64 2.39
-8.38 0.47 2.39
-8.38 0.30 2.39
-8.39 0.13 2.39
-8.39 -0.04 2.39
-8.38 -0.21 2.39
-8.38 -0.37 2.39
-8.37 -0.54 2.39
-8.35 -0.71 2.39
-8.34 -0.88 2.39
-8.31 -1.05 2.39
-8.29 -1.21 2.39
-8.26 -1.38 2.39
-8.23 -1.54 2.39
-8.20 -1.71 2.39
-8.16 -1.87 2.39
-8.12 -2.04 2.39
-8.08 -2.20 2.39
-8.03 -2.36 2.39
-7.98 -2.52 2.39
-7.93 -2.68 2.39
-7.88 -2.84 2.39
-7.82 -3.00 2.39
-7.75 -3.15 2.39
-7.69 -3.31 2.39
-7.62 -3.46 2.39
-7.55 -3.61 2.39
-7.47 -3.76 2.39
-7.40 -3.91 2.39
-7.32 -4.06 2.39
-7.23 -4.21 2.39
-7.15 -4.35 2.39
-7.06 -4.49 2.39
-6.97 -4.63 2.39
-6.87 -4.77 2.39
-6.77 -4.91 2.39
-6.69 -5.06 2.40
-6.57 -5.18 2.39
-6.49 -5.33 2.40
-6.48 -5.54 2.44
-6.48 -5.78 2.48
-6.40 -5.93 2.49
-6.28 -6.06 2.49
-6.15 -6.19 2.49
-6.03 -6.31 2.49
-5.90 -6.43 2.49
-5.77 -6.55 2.49
-5.64 -6.66 2.49
-5.50 -6.77 2.49
-5.37 -6.88 2.49
-5.23 -6.99 2.49
-5.09 -7.09 2.49
-4.94 -7.19 2.49
-4.80 -7.29 2.49
-4.65 -7.39 2.49
-4.50 -7.48 2.49
-4.35 -7.57 2.49
-4.20 -7.65 2.49
-4.04 -7.74 2.49
-3.89 -7.82 2.49
-3.73 -7.89 2.49
-3.57 -7.97 2.49
-3.41 -8.04 2.49
-3.25 -8.11 2.49
-3.09 -8.17 2.49
-2.92 -8.23 2.49
-2.75 -8.29 2.49
-2.59 -8.34 2.49
-2.42 -8.39 2.49
-2.25 -8.44 2.49
-2.08 -8.49 2.49
-1.91 -8.53 2.49
-1.74 -8.57 2.49
-1.57 -8.60 2.49
-1.39 -8.63 2.49
-1.22 -8.66 2.49
-1.05 -8.68 2.49
-0.87 -8.70 2.49
-0.70 -8.72 2.49
-0.52 -8.73 2.49
-0.35 -8.74 2.49
-0.17 -8.75 2.49
0.00 -8.06 2.49
0.17 -8.06 2.49
0.33 -8.05 2.49
0.49 -8.05 2.49
0.65 -8.04 2.49
0.81 -8.02 2.49
0.97 -8.01 2.49
1.13 -7.99 2.49
1.29 -7.96 2.49
1.45 -7.94 2.49
1.55 -7.59 2.40
1.70 -7.55 2.39
1.85 -7.51 2.39
2.00 -7.48 2.39
2.15 -7.44 2.39
2.30 -7.39 2.39
2.45 -7.34 2.39
2.60 -7.30 2.39
2.74 -7.24 2.39
2.89 -7.19 2.39
3.03 -7.13 2.39
3.18 -7.07 2.39
3.32 -7.00 2.39
3.46 -6.94 2.39
3.60 -6.87 2.39
3.74 -6.80 2.39
3.87 -6.72 2.39
4.01 -6.64 2.39
4.00 -6.34 2.31
4.17 -6.33 2.33
4.40 -6.39 2.39
4.53 -6.30 2.39
4.66 -6.21 2.39
4.78 -6.12 2.39
4.90 -6.02 2.39
5.02 -5.92 2.39
5.14 -5.82 2.39
5.26 -5.72 2.39
5.37 -5.61 2.39
5.49 -5.51 2.39
5.98 -5.76 2.55
6.11 -5.65 2.56
6.23 -5.54 2.56
5.58 -4.76 2.25
5.56 -4.56 2.21
6.58 -5.18 2.57
5.57 -4.20 2.14
6.83 -4.94 2.59
7.02 -4.87 2.63
7.22 -4.80 2.66
7.42 -4.72 2.70
7.61 -4.63 2.73
7.81 -4.53 2.77
7.99 -4.43 2.80
8.18 -4.32 2.84
8.36 -4.20 2.87
8.53 -4.08 2.90
5.58 -2.53 1.88
8.86 -3.81 2.96
8.95 -3.64 2.96
9.04 -3.46 2.97
9.12 -3.28 2.97
9.20 -3.11 2.97
9.27 -2.92 2.98
9.34 -2.74 2.98
9.41 -2.56 2.99
9.47 -2.37 2.99
9.53 -2.18 2.99
5.60 -1.17 1.75
9.63 -1.80 3.00
9.68 -1.61 3.00
9.72 -1.42 3.00
9.75 -1.22 3.01
5.60 -0.59 1.72
5.61 -0.48 1.72
9.84 -0.64 3.01
9.85 -0.44 3.02
9.87 -0.24 3.02
5.62 -0.03 1.72
9.89 0.15 3.02
9.89 0.35 3.02
9.88 0.55 3.02
9.87 0.75 3.02
9.86 0.95 3.03
9.85 1.15 3.03
9.85 1.35 3.03
9.83 1.55 3.04
9.82 1.75 3.04
5.63 1.12 1.75
9.77 2.15 3.05
9.72 2.34 3.05
9.68 2.54 3.05
9.63 2.73 3.05
5.63 1.72 1.80
5.63 1.84 1.81
9.45 3.31 3.05
9.38 3.49 3.05
9.31 3.68 3.05
9.23 3.87 3.05
9.15 4.05 3.05
9.07 4.23 3.05
8.98 4.41 3.05
5.66 2.93 1.94
8.61 4.67 2.99
8.37 4.76 2.94
8.14 4.85 2.89
7.90 4.92 2.84
7.65 4.98 2.78
7.38 5.02 2.72
7.11 5.05 2.66
6.87 5.09 2.61
6.79 5.25 2.62
6.71 5.40 2.63
5.68 4.76 2.26
6.54 5.71 2.64
6.45 5.86 2.66
5.70 5.39 2.39
5.59 5.50 2.39
5.48 5.61 2.39
5.36 5.72 2.39
5.25 5.83 2.39
5.13 5.93 2.39
5.01 6.03 2.39
4.89 6.13 2.39
4.76 6.23 2.39
4.64 6.32 2.39
4.51 6.42 2.39
4.38 6.50 2.39
4.25 6.59 2.39
4.11 6.67 2.39
3.98 6.76 2.39
3.84 6.83 2.39
3.70 6.91 2.39
3.56 6.98 2.39
3.42 7.05 2.39
3.28 7.12 2.39
3.14 7.18 2.39
2.99 7.24 2.39
2.70 6.93 2.27
2.65 7.23 2.35
2.51 7.29 2.35
2.36 7.33 2.35
2.14 7.12 2.27
2.08 7.47 2.37
1.95 7.59 2.39
1.80 7.62 2.39
1.71 7.99 2.49
1.55 8.02 2.49
1.39 8.05 2.49
1.23 8.07 2.49
1.07 8.09 2.49
0.90 8.11 2.49
0.74 8.13 2.49
0.58 8.14 2.49
0.41 8.15 2.49
0.25 8.16 2.49
0.09 8.16 2.49
-0.08 8.16 2.49
-0.24 8.15 2.49
-0.40 8.15 2.49
-0.57 8.13 2.49
-0.73 8.12 2.49
-0.89 8.10 2.49
-1.06 8.08 2.49
-1.22 8.06 2.49
-1.38 8.03 2.49
-1.54 8.00 2.49
-1.70 7.97 2.49
-1.86 7.93 2.49
-2.02 7.89 2.49
-2.17 7.85 2.49
-2.33 7.80 2.49
-2.49 7.75 2.49
-2.64 7.70 2.49
-2.79 7.64 2.49
-2.95 7.58 2.49
-3.10 7.52 2.49
-3.25 7.46 2.49
-3.40 7.39 2.49
-3.54 7.32 2.49
-3.69 7.24 2.49
-3.83 7.17 2.49
-3.98 7.09 2.49
-4.12 7.01 2.49
-4.25 6.92 2.49
-4.39 6.83 2.49
-4.53 6.74 2.49
-4.66 6.65 2.49
-4.79 6.55 2.49
-4.92 6.45 2.49
-5.05 6.35 2.49
-5.18 6.25 2.49
-5.30 6.14 2.49
-5.42 6.03 2.49
-5.54 5.92 2.49
-5.66 5.81 2.49
-5.77 5.69 2.49
-5.88 5.58 2.49
-5.99 5.45 2.49
-6.10 5.33 2.49
-6.20 5.21 2.49
-6.31 5.08 2.49
-6.36 4.91 2.47
-6.36 4.72 2.44
-6.37 4.53 2.41
-6.41 4.37 2.39
-6.50 4.24 2.39
-6.58 4.11 2.39
-6.66 3.97 2.39
-6.74 3.84 2.39
-6.81 3.70 2.39
-6.88 3.56 2.39
-6.95 3.42 2.39
-7.02 3.28 2.39
-7.08 3.14 2.39
-7.14 3.00 2.39
-7.20 2.85 2.39
-7.25 2.71 2.39
-7.31 2.56 2.39
-7.35 2.41 2.39
-7.40 2.26 2.39
-7.44 2.11 2.39
-7.48 1.96 2.39
-7.52 1.81 2.39
