ply
format ascii 1.0
element vertex 2721
property float32 x
property float32 y
property float32 z
end_header
-21.79 19.80 -3.70
-21.80 19.02 -3.64
-21.86 18.31 -3.58
-19.30 15.52 -3.11
-18.49 14.27 -2.94
-19.92 14.74 -3.11
-20.21 14.34 -3.11
-20.50 13.94 -3.11
-20.78 13.52 -3.11
-11.44 7.12 -1.69
-11.55 6.88 -1.69
-11.71 6.66 -1.69
-11.94 6.47 -1.70
-12.47 6.44 -1.76
-21.23 10.43 -2.97
-21.82 10.18 -3.02
-21.89 9.68 -3.00
-21.89 9.16 -2.98
-11.59 4.58 -1.56
-11.43 4.25 -1.53
-11.47 4.01 -1.52
-11.55 3.78 -1.52
-11.71 3.57 -1.53
-11.75 3.33 -1.53
-21.83 5.71 -2.83
-23.27 5.59 -3.00
-23.30 5.11 -2.99
-23.30 4.62 -2.98
-23.30 4.14 -2.97
-25.40 3.99 -3.22
-11.63 1.59 -1.47
-11.63 1.35 -1.47
-11.55 1.11 -1.46
-11.53 0.87 -1.45
-11.69 0.65 -1.47
-11.77 0.42 -1.48
-11.77 0.18 -1.48
-25.48 -2.17 -3.22
-20.56 -2.17 -2.60
-20.54 -2.59 -2.61
-20.57 -3.01 -2.62
-20.60 -3.44 -2.63
-20.63 -3.87 -2.64
-20.66 -4.31 -2.66
-20.70 -4.75 -2.68
-20.75 -5.20 -2.70
-20.79 -5.66 -2.72
-20.84 -6.12 -2.74
-20.90 -6.60 -2.77
-20.96 -7.08 -2.79
-21.02 -7.58 -2.82
-21.09 -8.08 -2.86
-21.17 -8.60 -2.89
-21.25 -9.14 -2.93
-21.33 -9.68 -2.97
-21.42 -10.25 -3.01
-21.52 -10.83 -3.05
-21.62 -11.43 -3.10
-21.74 -12.06 -3.15
2.47 4.62 -0.57
-5.38 22.83 -2.46
-17.55 45.01 -5.04
-18.64 45.10 -5.09
-11.74 23.00 -2.68
-12.12 22.60 -2.66
-12.14 18.84 -2.32
-11.56 16.45 -2.08
-11.74 16.02 -2.06
-12.19 15.95 -2.08
-11.48 13.28 -1.81
-11.66 12.95 -1.80
-11.93 12.73 -1.80
-12.45 12.76 -1.84
-21.86 21.52 -3.16
-21.86 20.67 -3.10
-21.86 19.86 -3.04
-21.80 19.02 -2.98
-21.86 18.32 -2.94
-19.78 15.91 -2.61
-18.47 14.25 -2.40
-21.80 16.14 -2.79
-21.81 15.47 -2.75
-18.40 12.51 -2.29
-11.63 7.57 -1.43
-11.52 7.17 -1.39
-11.53 6.86 -1.38
-11.70 6.65 -1.38
-11.78 6.38 -1.37
-12.39 6.40 -1.43
-21.21 10.42 -2.42
-21.82 10.18 -2.47
-21.89 9.68 -2.45
-21.89 9.16 -2.43
-11.69 4.62 -1.29
-11.28 4.20 -1.23
-11.47 4.01 -1.25
-11.36 3.72 -1.23
-11.71 3.57 -1.26
-11.81 3.35 -1.26
-21.83 5.71 -2.31
-23.27 5.59 -2.45
-23.30 5.11 -2.45
-23.30 4.62 -2.44
-23.30 4.14 -2.43
-25.41 3.99 -2.64
-11.72 1.60 -1.21
-11.73 1.36 -1.21
-11.42 1.09 -1.18
-11.49 0.87 -1.18
-11.63 0.64 -1.20
-11.83 0.42 -1.22
-14.35 0.22 -1.47
-26.43 -2.26 -2.73
-24.01 -2.53 -2.49
-20.37 -2.56 -2.11
-20.37 -2.98 -2.12
-20.37 -3.40 -2.13
-20.37 -3.82 -2.14
-20.37 -4.25 -2.15
-19.67 -4.51 -2.08
-19.67 -4.93 -2.09
-19.67 -5.35 -2.11
-19.67 -5.78 -2.12
-19.68 -6.21 -2.13
-19.68 -6.65 -2.15
-19.68 -7.09 -2.17
-19.68 -7.55 -2.18
-19.71 -8.01 -2.21
-19.77 -8.50 -2.23
-19.83 -9.00 -2.26
-19.90 -9.52 -2.29
-19.97 -10.05 -2.32
-20.04 -10.60 -2.36
-20.12 -11.16 -2.39
-20.21 -11.75 -2.43
-20.30 -12.35 -2.48
-22.56 -20.08 -3.17
-21.83 -20.23 -3.13
-21.36 -20.60 -3.12
-21.32 -21.41 -3.18
-21.14 -22.10 -3.22
-21.75 -23.67 -3.39
-21.90 -24.82 -3.49
-22.07 -26.04 -3.60
-22.25 -27.35 -3.72
1.66 -27.76 -2.40
2.23 -27.86 -2.42
2.47 4.62 -0.45
-11.65 38.83 -3.32
-14.38 44.66 -3.84
-17.53 44.98 -3.94
-18.49 44.76 -3.95
-19.51 44.67 -3.97
-11.76 23.03 -2.10
-12.07 22.51 -2.07
-11.73 19.04 -1.81
-12.12 18.82 -1.81
-11.53 17.12 -1.67
-11.55 16.43 -1.62
-11.65 15.90 -1.59
-12.18 15.93 -1.62
-11.61 13.99 -1.46
-11.40 13.18 -1.40
-11.67 12.97 -1.40
-11.77 12.56 -1.38
-12.53 12.84 -1.44
-21.86 21.52 -2.46
-21.86 20.68 -2.42
-21.86 19.86 -2.37
-21.80 19.02 -2.32
-21.86 18.32 -2.29
-19.77 15.90 -2.03
-18.46 14.24 -1.87
-21.80 16.14 -2.17
-21.81 15.47 -2.14
-11.53 7.84 -1.12
-11.36 7.40 -1.08
-11.41 7.11 -1.08
-11.54 6.87 -1.07
-11.67 6.63 -1.07
-11.85 6.42 -1.08
-12.21 6.31 -1.10
-21.21 10.42 -1.89
-21.82 10.18 -1.92
-21.82 9.65 -1.91
-11.54 4.83 -1.00
-11.63 4.59 -1.00
-11.64 4.33 -0.99
-11.56 4.04 -0.98
-11.50 3.76 -0.97
-11.87 3.62 -0.99
-11.87 3.36 -0.98
-21.83 5.71 -1.80
-23.27 5.59 -1.91
-23.30 5.11 -1.90
-23.30 4.62 -1.90
-23.30 4.14 -1.89
-11.54 1.81 -0.93
-11.65 1.59 -0.94
-11.69 1.36 -0.94
-11.53 1.10 -0.93
-11.60 0.88 -0.93
-11.72 0.65 -0.94
-11.89 0.42 -0.95
-20.15 0.31 -1.61
-46.03 -0.23 -3.69
-46.02 -1.15 -3.69
-46.03 -2.07 -3.69
-48.93 -3.19 -3.93
-27.45 -2.34 -2.21
-24.00 -2.53 -1.94
-20.37 -2.57 -1.65
-20.37 -2.98 -1.65
-20.25 -3.38 -1.65
-20.12 -3.77 -1.65
-20.11 -4.19 -1.65
-20.15 -4.62 -1.66
-20.20 -5.06 -1.68
-20.38 -5.55 -1.70
-20.38 -5.99 -1.71
-20.38 -6.44 -1.73
-20.38 -6.89 -1.74
-20.38 -7.35 -1.75
-20.38 -7.81 -1.77
-20.38 -8.29 -1.78
-20.38 -8.77 -1.80
-20.39 -9.26 -1.82
-20.24 -9.69 -1.82
-20.13 -10.14 -1.83
-20.13 -10.65 -1.85
-20.13 -11.17 -1.87
-20.39 -11.86 -1.92
-24.09 -19.77 -2.56
-22.74 -19.44 -2.46
-21.83 -19.43 -2.40
-21.15 -19.60 -2.37
-20.25 -19.54 -2.32
-20.27 -20.36 -2.37
-20.36 -21.29 -2.43
-20.24 -22.02 -2.47
-20.57 -23.31 -2.57
-20.69 -24.41 -2.65
-20.81 -25.58 -2.73
-20.95 -26.83 -2.83
-21.09 -28.17 -2.92
-21.25 -29.60 -3.03
-21.23 -30.87 -3.12
-21.61 -32.81 -3.28
-21.82 -34.62 -3.42
2.47 4.62 -0.33
-11.54 38.49 -2.38
-12.33 38.32 -2.38
-12.12 33.05 -2.08
-17.46 44.79 -2.84
-11.75 28.44 -1.81
-12.30 28.17 -1.81
-21.74 44.78 -2.92
-11.61 22.75 -1.50
-12.02 22.42 -1.49
-11.74 19.05 -1.31
-12.06 18.72 -1.30
-11.60 17.23 -1.21
-11.45 16.30 -1.16
-11.72 15.99 -1.15
-12.09 15.81 -1.16
-11.34 13.67 -1.03
-11.52 13.33 -1.02
-11.68 12.98 -1.01
-11.84 12.63 -1.00
-12.43 12.75 -1.03
-21.79 21.46 -1.77
-21.79 20.62 -1.73
-21.79 19.80 -1.70
-21.80 19.02 -1.67
-21.80 18.27 -1.64
-19.77 15.90 -1.46
-18.45 14.24 -1.34
-21.80 16.14 -1.56
-21.81 15.47 -1.54
-18.38 12.50 -1.28
-11.17 7.27 -0.77
-11.50 7.16 -0.78
-11.30 6.72 -0.75
-11.47 6.52 -0.76
-11.83 6.41 -0.77
-12.25 6.32 -0.79
-12.37 6.08 -0.79
-21.82 10.18 -1.38
-21.82 9.65 -1.37
-21.82 9.14 -1.35
-11.45 4.52 -0.70
-11.51 4.29 -0.70
-11.49 4.02 -0.70
-11.47 3.75 -0.69
-11.50 3.51 -0.69
-11.85 3.36 -0.70
-12.36 3.23 -0.73
-23.27 5.59 -1.37
-23.30 5.11 -1.36
-23.30 4.62 -1.36
-23.30 4.14 -1.35
-25.41 3.99 -1.47
-11.46 1.56 -0.66
-11.52 1.34 -0.66
-11.52 1.10 -0.66
-11.54 0.87 -0.66
-11.54 0.64 -0.66
-11.87 0.42 -0.68
-12.36 0.19 -0.71
-46.22 -0.23 -2.66
-46.22 -1.16 -2.66
-46.22 -2.08 -2.66
-46.05 -3.00 -2.66
-23.42 -2.00 -1.35
-22.66 -2.39 -1.31
-20.37 -2.57 -1.18
-20.37 -2.98 -1.19
-20.25 -3.38 -1.19
-20.12 -3.78 -1.18
-20.11 -4.19 -1.19
-20.15 -4.63 -1.20
-20.20 -5.07 -1.21
-20.38 -5.55 -1.22
-20.38 -5.99 -1.23
-20.38 -6.44 -1.24
-19.47 -6.58 -1.20
-19.23 -6.94 -1.19
-19.25 -7.38 -1.20
-19.27 -7.84 -1.21
-20.38 -8.77 -1.30
-20.39 -9.26 -1.31
-20.23 -9.69 -1.31
-20.17 -10.16 -1.32
-20.18 -10.67 -1.34
-20.18 -11.20 -1.36
-20.39 -11.86 -1.39
-24.16 -19.03 -1.82
-22.86 -18.76 -1.76
-21.98 -18.79 -1.72
-21.23 -18.90 -1.69
-20.35 -18.87 -1.66
-19.51 -18.83 -1.62
-19.20 -19.28 -1.63
-19.26 -20.14 -1.67
-19.32 -21.04 -1.71
-19.40 -21.98 -1.76
-19.47 -22.98 -1.81
-19.55 -24.04 -1.87
-19.38 -24.83 -1.90
-18.57 -24.80 -1.87
-17.79 -24.78 -1.85
-17.03 -24.76 -1.82
-16.30 -24.75 -1.80
-15.58 -24.72 -1.78
-17.37 -28.83 -2.05
-16.58 -28.81 -2.03
-15.81 -28.79 -2.01
2.47 4.62 -0.21
8.68 25.26 -1.06
-12.19 43.84 -1.67
-11.57 38.59 -1.48
-12.34 38.36 -1.48
-12.03 32.81 -1.27
-17.52 44.97 -1.76
-11.64 28.19 -1.11
-12.25 28.05 -1.11
-21.68 44.67 -1.79
-11.60 22.72 -0.92
-12.01 22.41 -0.91
-11.64 18.90 -0.79
-12.08 18.76 -0.80
-11.24 16.71 -0.72
-11.36 16.18 -0.70
-11.63 15.86 -0.70
-12.08 15.81 -0.71
-12.53 15.73 -0.71
-11.23 13.53 -0.62
-11.30 13.07 -0.61
-11.52 12.80 -0.61
-11.86 12.66 -0.61
-12.30 12.61 -0.62
-21.79 21.46 -1.07
-21.79 20.62 -1.05
-21.79 19.81 -1.03
-21.80 19.02 -1.01
-21.80 18.27 -1.00
-19.77 15.90 -0.89
-18.45 14.24 -0.81
-21.80 16.14 -0.95
-21.81 15.48 -0.93
-11.65 7.92 -0.49
-11.51 7.49 -0.48
-11.50 7.16 -0.47
-11.42 6.80 -0.46
-11.56 6.57 -0.46
-11.90 6.45 -0.47
-11.98 6.19 -0.47
-21.21 10.42 -0.82
-21.82 10.18 -0.83
-21.82 9.65 -0.83
-11.29 4.73 -0.42
-11.42 4.51 -0.43
-11.32 4.21 -0.42
-11.19 3.91 -0.41
-11.41 3.73 -0.42
-11.67 3.56 -0.42
-11.77 3.34 -0.42
-21.83 5.71 -0.78
-23.27 5.59 -0.83
-23.30 5.11 -0.83
-23.30 4.62 -0.82
-23.30 4.14 -0.82
-11.71 1.84 -0.41
-11.41 1.56 -0.40
-11.40 1.32 -0.40
-11.53 1.10 -0.40
-11.41 0.86 -0.40
-11.38 0.63 -0.40
-11.86 0.42 -0.41
-14.26 0.22 -0.50
-46.21 -0.23 -1.61
-46.21 -1.16 -1.61
-46.22 -2.09 -1.62
-46.05 -3.01 -1.61
-23.41 -2.00 -0.82
-22.66 -2.40 -0.80
-20.37 -2.57 -0.72
-20.37 -2.98 -0.72
-20.25 -3.38 -0.72
-20.12 -3.78 -0.72
-20.11 -4.20 -0.72
-20.15 -4.63 -0.73
-20.20 -5.07 -0.74
-20.38 -5.55 -0.75
-20.29 -5.97 -0.75
-19.15 -6.05 -0.71
-18.66 -6.31 -0.70
-18.50 -6.67 -0.70
-18.49 -7.09 -0.71
-18.50 -7.53 -0.71
-18.52 -7.97 -0.72
-18.68 -8.49 -0.74
-20.39 -9.76 -0.81
-20.39 -10.27 -0.82
-20.38 -10.78 -0.83
-20.39 -11.32 -0.84
-20.39 -11.86 -0.85
-31.85 -19.39 -1.35
-30.35 -19.33 -1.31
-28.61 -19.03 -1.25
-27.66 -19.21 -1.23
-25.28 -18.32 -1.14
-24.21 -18.30 -1.11
-23.19 -18.27 -1.09
-22.23 -18.25 -1.06
-21.32 -18.23 -1.04
-20.44 -18.21 -1.01
-19.61 -18.19 -0.99
-18.82 -18.17 -0.97
-14.37 -14.44 -0.76
-13.87 -14.51 -0.75
-13.33 -14.51 -0.74
-12.80 -14.51 -0.73
-12.29 -14.51 -0.72
-11.80 -14.51 -0.71
-11.33 -14.52 -0.70
-10.48 -14.00 -0.66
-10.42 -14.51 -0.68
-10.42 -15.15 -0.70
-10.00 -15.19 -0.69
-10.14 -16.09 -0.73
-10.16 -16.87 -0.76
-10.26 -17.83 -0.79
-10.17 -18.52 -0.81
-19.20 -36.70 -1.60
17.00 25.28 -0.55
2.47 4.62 -0.09
-12.20 43.91 -0.65
-11.48 38.32 -0.57
-12.24 38.04 -0.56
-11.41 33.18 -0.49
-12.01 32.76 -0.49
-17.48 44.87 -0.67
-11.66 28.23 -0.42
-12.17 27.88 -0.42
-21.61 44.54 -0.67
-11.54 22.62 -0.34
-12.01 22.41 -0.34
-12.49 22.23 -0.34
-11.60 19.71 -0.30
-11.68 18.96 -0.30
-12.01 18.65 -0.29
-11.24 16.71 -0.26
-11.44 16.29 -0.26
-11.75 16.03 -0.26
-11.99 15.70 -0.26
-12.76 16.02 -0.26
-11.24 13.55 -0.23
-11.39 13.18 -0.22
-11.64 12.94 -0.22
-11.95 12.75 -0.22
-12.23 12.54 -0.22
-12.89 12.70 -0.23
-21.86 20.68 -0.38
-21.86 19.87 -0.37
-21.80 19.02 -0.36
-21.86 18.32 -0.36
-19.77 15.91 -0.32
-18.45 14.24 -0.29
-21.80 16.14 -0.34
-21.81 15.48 -0.33
-21.81 14.83 -0.32
-11.48 7.47 -0.17
-11.42 7.11 -0.16
-11.52 6.86 -0.16
-11.60 6.59 -0.16
-11.73 6.36 -0.16
-12.21 6.30 -0.17
-12.93 6.35 -0.18
-21.82 10.18 -0.29
-21.89 9.68 -0.29
-21.89 9.16 -0.29
-11.47 4.53 -0.15
-11.52 4.29 -0.15
-11.63 4.06 -0.15
-11.54 3.78 -0.15
-11.68 3.56 -0.15
-11.85 3.36 -0.15
-12.94 3.39 -0.16
-23.27 5.59 -0.29
-23.30 5.11 -0.29
-23.30 4.62 -0.29
-23.30 4.14 -0.29
-25.42 3.99 -0.31
-11.46 1.56 -0.14
-11.49 1.33 -0.14
-11.42 1.09 -0.14
-11.60 0.88 -0.14
-11.48 0.63 -0.14
-11.62 0.41 -0.14
-11.94 0.18 -0.15
-29.89 -0.15 -0.37
-46.02 -1.15 -0.57
-46.03 -2.08 -0.57
-43.70 -2.85 -0.54
-46.05 -3.94 -0.58
-23.97 -2.53 -0.30
-20.37 -2.57 -0.26
-20.37 -2.98 -0.26
-20.37 -3.40 -0.26
-20.37 -3.83 -0.26
-20.37 -4.25 -0.26
-20.37 -4.68 -0.27
-20.37 -5.11 -0.27
-20.38 -5.55 -0.27
-19.68 -5.79 -0.27
-18.88 -5.97 -0.26
-18.47 -6.25 -0.25
-18.32 -6.61 -0.26
-18.27 -7.01 -0.26
-18.27 -7.43 -0.26
-18.27 -7.87 -0.26
-18.35 -8.34 -0.27
-20.39 -9.76 -0.30
-20.39 -10.27 -0.31
-20.39 -10.79 -0.31
-20.39 -11.32 -0.32
-20.39 -11.86 -0.32
-29.69 -18.08 -0.48
-28.36 -18.06 -0.47
-26.45 -17.60 -0.44
-25.33 -17.59 -0.43
-24.26 -17.59 -0.42
-23.26 -17.58 -0.41
-22.31 -17.58 -0.40
-21.40 -17.57 -0.40
-20.54 -17.57 -0.39
-19.72 -17.56 -0.38
-18.93 -17.55 -0.38
-18.18 -17.55 -0.37
-14.38 -14.45 -0.30
-17.38 -18.18 -0.37
-17.39 -18.94 -0.38
-17.41 -19.74 -0.39
-17.43 -20.58 -0.41
-17.45 -21.47 -0.42
-14.38 -18.43 -0.36
-17.50 -23.38 -0.45
-10.38 -14.47 -0.27
-16.19 -23.56 -0.44
-15.53 -23.59 -0.44
-15.96 -25.34 -0.47
-15.74 -26.14 -0.48
-10.48 -18.22 -0.33
-16.25 -29.61 -0.54
-15.67 -29.96 -0.54
-17.81 -35.79 -0.65
-17.87 -37.78 -0.68
17.00 25.27 0.13
2.47 4.62 0.03
-11.36 44.31 0.37
-12.12 43.64 0.37
-11.48 38.34 0.33
-12.27 38.16 0.34
-11.38 33.09 0.30
-12.01 32.77 0.30
-17.46 44.84 0.42
-11.65 28.22 0.27
-12.15 27.85 0.27
-21.50 44.32 0.44
-11.54 22.63 0.23
-11.89 22.20 0.23
-12.62 22.46 0.24
-11.37 19.32 0.21
-11.60 18.84 0.21
-11.95 18.55 0.21
-11.49 17.08 0.19
-11.38 16.20 0.19
-11.67 15.93 0.19
-11.92 15.60 0.19
-12.69 15.94 0.20
-11.51 13.88 0.17
-11.31 13.08 0.17
-11.60 12.89 0.17
-11.91 12.72 0.17
-12.21 12.52 0.17
-21.86 21.53 0.30
-21.86 20.68 0.30
-21.86 19.87 0.30
-21.80 19.03 0.29
-21.86 18.33 0.29
-19.78 15.91 0.26
-18.46 14.25 0.24
-21.80 16.14 0.28
-21.81 15.48 0.27
-21.81 14.83 0.27
-11.53 7.51 0.14
-11.57 7.21 0.14
-11.35 6.76 0.14
-11.40 6.48 0.14
-11.85 6.42 0.14
-11.99 6.19 0.14
-21.21 10.42 0.25
-21.82 10.18 0.25
-21.89 9.68 0.25
-21.89 9.16 0.25
-11.52 4.55 0.13
-11.59 4.31 0.13
-11.47 4.01 0.13
-11.46 3.75 0.13
-11.64 3.55 0.13
-11.94 3.38 0.13
-11.93 3.12 0.13
-23.27 5.59 0.25
-23.30 5.11 0.25
-23.30 4.62 0.25
-23.30 4.13 0.25
-12.33 1.93 0.13
-11.52 1.57 0.12
-11.60 1.35 0.12
-11.56 1.10 0.12
-11.17 0.84 0.12
-11.46 0.63 0.12
-11.74 0.41 0.12
-11.98 0.18 0.12
-46.20 -0.23 0.47
-46.20 -1.16 0.47
-46.03 -2.08 0.47
-43.79 -2.86 0.44
-46.05 -3.94 0.46
-23.96 -2.53 0.24
-20.37 -2.57 0.20
-20.37 -2.99 0.20
-20.37 -3.41 0.20
-20.37 -3.83 0.20
-20.37 -4.25 0.20
-20.37 -4.68 0.20
-20.37 -5.11 0.20
-20.38 -5.55 0.20
-20.38 -5.99 0.20
-20.38 -6.44 0.20
-18.90 -6.39 0.19
-20.28 -7.32 0.20
-20.28 -7.78 0.20
-20.32 -8.27 0.20
-20.38 -8.78 0.20
-20.39 -9.27 0.21
-20.39 -9.76 0.21
-20.39 -10.27 0.21
-20.39 -10.79 0.21
-20.39 -11.32 0.21
-20.39 -11.87 0.21
-28.15 -17.14 0.29
-26.79 -17.06 0.28
-25.65 -17.07 0.27
-24.56 -17.07 0.26
-23.55 -17.07 0.25
-22.58 -17.07 0.24
-21.66 -17.08 0.23
-20.79 -17.08 0.22
-19.97 -17.08 0.21
-19.17 -17.08 0.21
-18.42 -17.08 0.20
-17.69 -17.08 0.19
-14.38 -14.45 0.16
-16.66 -17.43 0.19
-16.66 -18.15 0.19
-16.67 -18.90 0.19
-16.67 -19.69 0.19
-16.67 -20.51 0.19
-14.37 -18.43 0.17
-16.67 -22.29 0.20
-10.38 -14.47 0.13
-15.90 -23.13 0.20
-15.74 -23.91 0.20
-15.74 -24.99 0.20
-15.74 -26.15 0.21
-10.60 -18.44 0.14
-16.25 -29.62 0.22
-16.02 -30.64 0.22
-16.71 -33.58 0.24
-16.71 -35.35 0.24
-16.72 -37.28 0.25
-16.72 -39.39 0.26
-18.35 -45.77 0.29
-17.46 -46.21 0.29
17.00 25.26 0.82
2.47 4.62 0.14
3.93 25.86 0.76
-3.29 46.82 1.41
-8.35 48.50 1.50
-9.65 45.11 1.41
-9.62 40.96 1.29
-9.63 37.59 1.19
-12.15 43.73 1.40
-9.65 32.21 1.04
-7.62 23.71 0.77
-9.68 28.16 0.92
-9.66 26.37 0.87
-17.47 44.88 1.50
-11.65 28.24 0.95
-9.67 22.17 0.76
-20.03 43.51 1.50
-9.70 20.01 0.70
-11.52 22.59 0.80
-11.96 22.33 0.80
-24.45 43.52 1.58
-11.55 18.76 0.70
-11.96 18.57 0.70
-12.55 18.65 0.72
-11.38 16.21 0.63
-11.71 15.98 0.63
-12.05 15.78 0.64
-11.41 13.20 0.56
-11.59 12.88 0.56
-11.92 12.73 0.56
-12.31 12.63 0.57
-21.86 21.53 1.00
-21.86 20.69 0.98
-21.86 19.87 0.96
-21.80 19.03 0.94
-21.86 18.33 0.93
-19.77 15.91 0.83
-18.45 14.25 0.76
-21.80 16.15 0.89
-21.81 15.48 0.88
-21.81 14.83 0.86
-11.59 7.54 0.45
-11.28 7.03 0.44
-11.48 6.83 0.44
-11.55 6.56 0.44
-11.99 6.50 0.45
-12.25 6.33 0.45
-21.21 10.42 0.78
-21.82 10.18 0.79
-21.89 9.68 0.79
-21.89 9.16 0.78
-11.58 4.58 0.41
-11.59 4.31 0.41
-11.23 3.93 0.39
-11.61 3.80 0.40
-11.68 3.56 0.40
-12.02 3.41 0.41
-12.51 3.27 0.43
-23.28 5.59 0.79
-23.30 5.11 0.79
-23.30 4.62 0.78
-23.30 4.13 0.78
-12.24 1.92 0.41
-11.58 1.58 0.38
-11.62 1.35 0.38
-11.53 1.10 0.38
-11.42 0.86 0.38
-11.56 0.64 0.38
-11.67 0.41 0.38
-11.88 0.18 0.39
-36.70 -0.19 1.20
-27.25 -0.69 0.89
-36.46 -1.65 1.19
-43.79 -2.86 1.43
-46.05 -3.94 1.51
-23.95 -2.53 0.78
-20.37 -2.57 0.67
-20.37 -2.99 0.67
-20.37 -3.41 0.67
-20.37 -3.83 0.67
-20.37 -4.25 0.67
-20.37 -4.68 0.67
-20.37 -5.12 0.68
-20.38 -5.55 0.68
-20.38 -6.00 0.68
-20.38 -6.44 0.69
-18.90 -6.39 0.64
-20.28 -7.32 0.69
-20.28 -7.78 0.69
-20.32 -8.27 0.70
-20.38 -8.78 0.70
-20.39 -9.27 0.71
-20.39 -9.77 0.72
-20.39 -10.28 0.72
-20.39 -10.79 0.73
-20.39 -11.33 0.73
-20.39 -11.87 0.74
-28.19 -17.17 1.03
-27.59 -17.57 1.02
-26.41 -17.58 0.99
-25.30 -17.58 0.96
-24.25 -17.58 0.93
-23.25 -17.59 0.90
-22.31 -17.59 0.88
-20.93 -17.19 0.83
-20.09 -17.19 0.81
-19.30 -17.19 0.79
-18.54 -17.20 0.77
-17.81 -17.20 0.75
-14.37 -14.45 0.62
-16.70 -17.48 0.73
-16.97 -18.49 0.76
-16.98 -19.26 0.77
-16.70 -19.73 0.77
-16.70 -20.55 0.79
-14.37 -18.43 0.70
-16.70 -22.33 0.83
-10.38 -14.47 0.53
-15.95 -23.21 0.83
-15.91 -24.18 0.85
-15.92 -25.28 0.88
-15.92 -26.45 0.90
-10.60 -18.44 0.62
-16.25 -29.62 0.98
-16.73 -32.01 1.05
-17.02 -34.22 1.10
-16.74 -35.43 1.13
-17.03 -37.99 1.19
-16.75 -39.48 1.23
-17.18 -42.84 1.31
-16.19 -42.85 1.30
-15.21 -42.85 1.29
-14.25 -42.85 1.27
-13.30 -42.86 1.26
-12.36 -42.82 1.25
-11.43 -42.83 1.24
-10.52 -42.83 1.23
2.90 -47.94 2.35
3.93 -48.76 2.39
4.92 -48.76 2.39
4.79 -39.47 1.94
6.07 -33.18 1.63
44.43 20.72 2.31
42.21 20.73 2.22
40.16 20.73 2.14
38.27 20.74 2.06
36.51 20.74 1.99
34.87 20.75 1.93
33.33 20.75 1.87
31.89 20.76 1.81
30.54 20.76 1.76
29.26 20.76 1.72
28.06 20.77 1.67
26.92 20.77 1.63
31.05 24.97 1.92
35.08 29.39 2.20
33.69 29.40 2.16
32.36 29.40 2.11
22.00 20.81 1.47
29.87 29.41 2.03
28.69 29.41 2.00
27.57 29.41 1.96
26.48 29.42 1.93
25.43 29.42 1.90
24.42 29.42 1.87
16.59 20.82 1.31
22.49 29.43 1.82
21.57 29.43 1.80
20.68 29.43 1.77
16.98 25.23 1.50
18.97 29.44 1.73
18.14 29.44 1.71
17.34 29.44 1.70
16.55 29.44 1.68
2.47 4.62 0.26
15.03 29.45 1.65
14.29 29.45 1.64
13.66 29.64 1.64
12.17 29.47 1.60
8.72 25.33 1.36
9.49 29.48 1.57
6.94 29.49 1.55
4.46 25.87 1.35
3.92 25.78 1.34
6.04 45.96 2.39
5.11 45.99 2.39
4.18 46.00 2.39
3.16 44.80 2.33
2.32 45.96 2.39
1.45 47.90 2.49
0.49 47.83 2.49
-0.47 47.75 2.49
-1.42 47.65 2.49
-2.38 47.53 2.49
-3.32 47.39 2.49
-4.27 47.23 2.49
-5.21 47.06 2.49
-5.89 44.92 2.39
-6.77 44.72 2.39
-7.66 44.51 2.39
-8.54 44.27 2.39
-9.41 44.02 2.39
-9.62 40.98 2.24
-9.63 37.61 2.07
-9.64 34.72 1.92
-9.65 32.22 1.80
-7.60 23.66 1.33
-9.66 28.10 1.59
-9.66 26.38 1.51
-9.67 24.83 1.43
-9.66 23.41 1.36
-9.67 22.18 1.30
-9.70 21.07 1.25
-9.71 20.03 1.20
-11.47 22.50 1.37
-11.97 22.35 1.37
-20.25 36.06 2.24
-9.83 16.71 1.05
-9.73 15.80 1.01
-12.02 18.67 1.21
-9.84 14.63 0.96
-9.73 13.86 0.92
-11.81 16.13 1.09
-12.19 15.96 1.10
-9.85 12.37 0.87
-9.78 11.80 0.84
-11.51 13.33 0.97
-11.59 12.89 0.95
-11.81 12.61 0.95
-9.81 10.06 0.77
-21.79 21.47 1.68
-21.72 20.56 1.65
-21.72 19.75 1.62
-21.72 18.97 1.59
-9.73 8.16 0.70
-18.26 14.69 1.29
-18.40 14.21 1.28
-21.80 16.15 1.50
-21.81 15.48 1.48
-21.81 14.83 1.46
-11.66 7.59 0.77
-11.41 7.11 0.74
-11.61 6.91 0.75
-11.31 6.43 0.72
-11.77 6.38 0.74
-12.34 6.37 0.77
-21.13 10.38 1.31
-21.82 10.18 1.34
-21.89 9.68 1.33
-21.89 9.16 1.32
-11.65 4.61 0.70
-11.69 4.35 0.69
-11.39 3.98 0.67
-11.62 3.80 0.68
-11.46 3.50 0.67
-11.77 3.33 0.68
-21.83 5.71 1.25
-23.28 5.59 1.33
-23.30 5.11 1.32
-23.30 4.62 1.32
-23.30 4.13 1.31
-25.36 3.98 1.42
-11.65 1.59 0.65
-11.69 1.35 0.65
-11.67 1.12 0.65
-11.52 0.87 0.64
-11.66 0.64 0.65
-11.76 0.41 0.65
-36.70 0.55 2.03
-36.70 -0.19 2.03
-27.12 -0.68 1.50
-16.51 -0.75 0.91
-12.34 -0.81 0.68
-40.53 -3.47 2.24
-23.94 -2.53 1.33
-20.37 -2.57 1.13
-20.37 -2.99 1.13
-20.37 -3.41 1.14
-20.37 -3.83 1.14
-20.37 -4.25 1.14
-20.37 -4.68 1.15
-20.37 -5.12 1.15
-20.38 -5.55 1.16
-20.38 -6.00 1.16
-20.38 -6.44 1.17
-18.90 -6.40 1.09
-20.28 -7.32 1.18
-20.28 -7.78 1.18
-20.32 -8.27 1.19
-20.38 -8.78 1.21
-20.39 -9.27 1.22
-20.39 -9.77 1.23
-20.48 -10.32 1.24
-20.48 -10.84 1.25
-20.39 -11.33 1.26
-20.39 -11.87 1.27
-22.81 -13.90 1.44
-21.81 -13.90 1.39
-20.93 -13.93 1.35
-20.05 -13.94 1.31
-19.22 -13.94 1.27
-18.39 -13.91 1.23
-17.68 -13.94 1.20
-16.97 -13.95 1.17
-16.23 -13.89 1.14
-15.59 -13.89 1.11
-14.97 -13.89 1.08
-14.59 -14.09 1.07
-14.37 -14.45 1.08
-16.70 -17.48 1.28
-16.97 -18.49 1.32
-16.98 -19.27 1.35
-16.70 -19.73 1.36
-16.70 -20.56 1.39
-14.37 -18.43 1.22
-16.70 -22.33 1.46
-10.38 -14.48 0.93
-15.95 -23.21 1.47
-15.91 -24.19 1.51
-15.92 -25.28 1.55
-15.92 -26.45 1.60
-10.60 -18.44 1.10
-10.01 -18.26 1.07
-9.94 -19.01 1.11
-9.94 -19.99 1.15
-10.00 -21.17 1.20
-9.99 -22.29 1.25
-9.97 -23.51 1.31
-16.87 -42.08 2.31
-16.05 -42.49 2.31
-15.21 -42.85 2.31
-14.25 -42.85 2.29
-13.30 -42.86 2.27
-12.35 -42.82 2.25
-11.43 -42.83 2.24
-10.51 -42.83 2.22
-10.04 -44.76 2.31
-9.49 -46.69 2.39
-8.57 -46.96 2.39
-7.64 -47.22 2.39
-6.70 -47.45 2.39
0.01 -34.72 2.49
0.71 -34.75 2.49
1.41 -34.78 2.49
2.08 -34.29 2.46
2.56 -31.65 2.27
3.37 -33.32 2.39
4.04 -33.29 2.39
4.71 -33.24 2.39
5.39 -33.18 2.39
6.06 -33.11 2.39
7.37 -36.17 2.62
9.49 -42.20 3.07
10.53 -42.81 3.12
6.11 -22.87 1.67
6.09 -21.09 1.55
14.17 -45.57 3.37
44.43 20.72 3.42
42.21 20.73 3.29
40.17 20.73 3.16
38.27 20.74 3.05
36.51 20.74 2.94
34.87 20.75 2.85
33.34 20.75 2.76
31.90 20.76 2.68
30.55 20.76 2.60
29.27 20.76 2.53
28.06 20.77 2.46
26.92 20.77 2.40
25.84 20.77 2.34
24.80 20.78 2.29
23.82 20.78 2.24
22.88 20.78 2.19
21.98 20.78 2.15
21.11 20.79 2.11
20.29 20.79 2.07
19.49 20.79 2.03
18.72 20.79 2.00
17.98 20.79 1.96
17.26 20.80 1.93
16.57 20.80 1.90
15.90 20.80 1.88
15.25 20.80 1.85
14.62 20.80 1.83
14.01 20.81 1.81
13.41 20.81 1.78
12.83 20.81 1.76
12.26 20.81 1.75
11.70 20.81 1.73
2.48 4.62 0.38
10.63 20.81 1.70
10.11 20.82 1.68
9.60 20.82 1.67
9.09 20.82 1.65
8.60 20.82 1.64
8.12 20.82 1.63
7.64 20.83 1.62
8.70 25.28 1.96
9.42 29.26 2.25
8.82 29.41 2.25
8.20 29.47 2.25
7.56 29.47 2.24
6.94 29.47 2.23
6.32 29.47 2.22
6.14 31.76 2.39
4.47 25.88 1.94
3.92 25.77 1.93
4.20 31.95 2.39
3.56 31.99 2.39
2.86 31.49 2.35
2.27 32.09 2.40
1.69 33.41 2.49
1.02 33.39 2.49
0.35 33.36 2.49
-0.32 33.32 2.49
-0.99 33.27 2.49
-1.66 33.20 2.49
-2.32 33.12 2.49
-2.98 33.03 2.49
-3.64 32.92 2.49
-4.29 32.81 2.49
-4.95 32.68 2.49
-5.60 32.53 2.49
-6.00 31.14 2.40
-6.60 30.88 2.39
-7.21 30.70 2.39
-7.81 30.52 2.39
-8.42 30.33 2.39
-9.01 30.12 2.39
-7.60 23.66 1.89
-9.66 28.11 2.27
-9.66 26.39 2.14
-9.67 24.84 2.04
-9.66 23.42 1.94
-9.67 22.18 1.85
-9.70 21.08 1.78
-9.71 20.03 1.71
-9.72 19.06 1.64
-9.72 18.15 1.58
-9.72 17.31 1.53
-9.72 16.53 1.48
-9.73 15.80 1.43
-9.73 15.11 1.38
-9.73 14.47 1.34
-9.73 13.86 1.31
-9.73 13.29 1.27
-9.73 12.75 1.24
-9.76 12.26 1.21
-9.78 11.80 1.19
-11.73 13.58 1.39
-11.71 13.02 1.36
-11.99 12.81 1.36
-20.18 20.70 2.24
-9.82 9.68 1.07
-20.97 19.85 2.24
-21.36 19.42 2.24
-9.82 8.57 1.01
-9.73 8.16 0.99
-18.20 14.65 1.82
-9.82 7.58 0.97
-18.19 13.47 1.76
-9.83 6.98 0.94
-18.14 12.34 1.71
-9.72 6.33 0.90
-9.88 6.16 0.91
-11.67 6.95 1.06
-9.83 5.59 0.88
-9.83 5.33 0.87
-9.83 5.08 0.86
-9.83 4.83 0.86
-21.82 10.18 1.88
-9.72 4.30 0.83
-9.83 4.12 0.83
-21.82 8.63 1.83
-9.83 3.66 0.82
-11.56 4.04 0.96
-11.69 3.83 0.96
-9.84 3.00 0.80
-11.84 3.35 0.96
-9.83 2.57 0.79
-9.73 2.34 0.78
-9.84 2.16 0.79
-9.84 1.95 0.78
-9.84 1.75 0.78
-9.83 1.54 0.78
-9.83 1.34 0.77
-9.83 1.14 0.77
-9.83 0.94 0.77
-9.84 0.74 0.77
-9.84 0.54 0.77
-9.73 0.34 0.76
-9.84 0.15 0.77
-9.84 -0.05 0.77
-9.84 -0.25 0.77
-9.84 -0.45 0.77
-9.84 -0.64 0.77
-28.74 -2.46 2.24
-23.93 -2.53 1.87
-20.37 -2.57 1.59
-20.37 -2.99 1.60
-20.46 -3.42 1.61
-20.46 -3.85 1.61
-20.46 -4.27 1.62
-20.46 -4.71 1.63
-20.37 -5.12 1.63
-20.38 -5.56 1.63
-20.38 -6.00 1.64
-20.38 -6.45 1.65
-18.90 -6.40 1.54
-20.28 -7.32 1.66
-20.28 -7.78 1.67
-20.32 -8.27 1.69
-20.38 -8.78 1.71
-20.39 -9.27 1.72
-20.39 -9.77 1.74
-20.48 -10.32 1.76
-20.48 -10.85 1.78
-20.39 -11.33 1.79
-20.39 -11.87 1.81
-22.80 -13.90 2.04
-21.81 -13.90 1.98
-20.93 -13.93 1.92
-20.05 -13.94 1.86
-19.21 -13.94 1.81
-18.38 -13.91 1.75
-17.68 -13.94 1.71
-16.97 -13.95 1.67
-16.26 -13.91 1.62
-15.65 -13.95 1.59
-15.03 -13.95 1.55
-14.41 -13.92 1.51
-13.87 -13.95 1.49
-13.30 -13.92 1.45
-12.81 -13.96 1.43
-12.27 -13.92 1.40
-11.81 -13.96 1.37
-11.31 -13.93 1.35
-10.88 -13.96 1.33
-10.41 -13.93 1.30
-10.01 -13.96 1.28
-9.95 -14.48 1.31
-9.98 -15.18 1.36
-9.99 -15.87 1.40
-9.95 -16.54 1.44
-9.97 -17.34 1.49
-9.99 -18.23 1.54
-10.00 -19.13 1.60
-10.00 -20.11 1.66
-10.00 -21.17 1.73
-9.99 -22.29 1.80
-9.97 -23.52 1.88
-9.18 -22.92 1.82
-11.13 -29.48 2.32
-10.96 -30.88 2.41
-10.35 -31.14 2.41
-9.67 -31.17 2.39
-9.05 -31.40 2.39
-8.43 -31.61 2.39
-7.80 -31.82 2.39
-7.17 -32.01 2.39
-6.54 -32.19 2.39
-5.97 -32.74 2.42
-5.48 -33.92 2.49
-4.81 -34.07 2.49
-4.13 -34.20 2.49
-3.44 -34.32 2.49
-2.76 -34.43 2.49
-2.07 -34.52 2.49
-1.38 -34.60 2.49
-0.68 -34.67 2.49
0.01 -26.39 2.49
0.54 -26.41 2.49
1.07 -26.42 2.49
1.60 -26.42 2.49
2.10 -25.97 2.45
2.46 -24.35 2.30
2.95 -24.28 2.30
3.58 -25.21 2.39
4.09 -25.16 2.39
4.59 -25.10 2.39
5.10 -25.02 2.39
5.61 -24.94 2.39
6.11 -24.84 2.39
6.10 -22.79 2.20
9.69 -33.50 3.25
10.49 -33.72 3.29
11.41 -34.25 3.36
12.43 -34.95 3.45
13.50 -35.68 3.55
15.10 -37.63 3.77
17.57 -41.34 4.17
42.99 21.11 4.43
40.76 21.04 4.25
38.72 20.98 4.08
36.57 20.77 3.90
34.88 20.75 3.77
33.34 20.75 3.65
31.91 20.76 3.54
30.55 20.76 3.44
29.28 20.76 3.34
28.07 20.77 3.25
26.93 20.77 3.17
25.84 20.77 3.10
24.81 20.78 3.02
23.82 20.78 2.96
22.88 20.78 2.89
21.98 20.78 2.83
21.12 20.79 2.78
20.29 20.79 2.73
19.49 20.79 2.68
18.72 20.79 2.63
17.98 20.79 2.59
17.27 20.80 2.55
16.58 20.80 2.51
15.91 20.80 2.47
15.26 20.80 2.44
14.62 20.80 2.41
14.01 20.81 2.37
13.41 20.81 2.35
12.83 20.81 2.32
12.26 20.81 2.29
11.71 20.81 2.27
2.48 4.62 0.50
10.63 20.81 2.23
10.11 20.82 2.21
9.60 20.82 2.19
9.10 20.82 2.17
6.19 14.98 1.55
8.12 20.82 2.14
7.64 20.82 2.13
6.21 18.04 1.83
6.71 20.83 2.10
6.25 20.83 2.09
6.28 22.57 2.25
6.18 24.05 2.39
5.69 24.14 2.39
5.20 24.23 2.39
4.70 24.30 2.39
4.21 24.37 2.39
3.72 24.42 2.39
3.22 24.47 2.39
2.73 24.51 2.39
2.25 24.68 2.41
1.81 25.61 2.49
1.30 25.61 2.49
0.78 25.61 2.49
0.27 25.60 2.49
-0.25 25.57 2.49
-0.76 25.54 2.49
-1.27 25.49 2.49
-1.78 25.44 2.49
-2.29 25.37 2.49
-2.79 25.30 2.49
-3.30 25.22 2.49
-3.80 25.12 2.49
-4.30 25.02 2.49
-4.80 24.91 2.49
-5.29 24.78 2.49
-5.78 24.65 2.49
-6.02 23.53 2.39
-6.48 23.35 2.39
-6.94 23.20 2.39
-7.40 23.03 2.39
-7.85 22.86 2.39
-8.30 22.68 2.39
-8.75 22.49 2.39
-9.19 22.30 2.39
-6.16 14.14 1.53
-9.70 21.08 2.30
-9.71 20.04 2.21
-9.72 19.06 2.13
-9.72 18.16 2.05
-9.72 17.32 1.98
-9.72 16.53 1.91
-9.73 15.80 1.85
-9.73 15.12 1.79
-9.73 14.47 1.74
-9.07 12.92 1.58
-9.47 12.93 1.60
-9.73 12.75 1.60
-9.74 12.23 1.56
-9.78 11.80 1.53
-11.69 13.53 1.79
-11.83 13.15 1.77
-12.07 12.89 1.77
-9.71 9.96 1.39
-9.71 9.57 1.37
-9.71 9.19 1.34
-9.71 8.83 1.32
-9.71 8.48 1.29
-9.73 8.16 1.28
-9.71 7.82 1.25
-9.71 7.50 1.23
-9.71 7.19 1.22
-9.71 6.90 1.20
-9.75 6.63 1.19
-9.72 6.33 1.17
-9.88 6.16 1.17
-11.74 6.99 1.38
-9.83 5.59 1.14
-9.83 5.33 1.13
-9.83 5.08 1.11
-9.83 4.83 1.10
-20.16 9.41 2.24
-9.72 4.30 1.07
-9.83 4.12 1.07
-20.69 8.18 2.24
-9.83 3.66 1.06
-11.50 4.02 1.23
-11.81 3.86 1.25
-9.84 3.00 1.04
-21.40 6.06 2.24
-9.83 2.57 1.02
-9.73 2.34 1.01
-9.84 2.16 1.02
-21.83 4.33 2.24
-9.84 1.75 1.01
-21.99 3.45 2.24
-22.06 3.01 2.24
-11.74 1.36 1.19
-11.61 1.11 1.17
-9.84 0.74 0.99
-11.55 0.64 1.16
-9.73 0.34 0.98
-22.29 0.33 2.24
-22.30 -0.12 2.24
-22.30 -0.56 2.24
-15.74 -0.71 1.58
-9.93 -0.65 1.00
-22.25 -1.91 2.24
-22.21 -2.35 2.24
-20.37 -2.57 2.06
-20.37 -2.99 2.07
-20.37 -3.41 2.07
-20.37 -3.83 2.08
-20.37 -4.26 2.09
-20.37 -4.69 2.09
-20.37 -5.12 2.10
-20.38 -5.56 2.11
-20.38 -6.00 2.12
-19.49 -6.17 2.04
-18.83 -6.38 1.99
-18.90 -6.83 2.01
-18.77 -7.21 2.01
-18.69 -7.61 2.01
-18.70 -8.05 2.03
-18.70 -8.50 2.05
-20.33 -9.74 2.24
-20.14 -10.16 2.24
-19.95 -10.57 2.24
-19.74 -10.97 2.24
-19.53 -11.37 2.24
-19.31 -11.77 2.24
-19.09 -12.17 2.24
-18.86 -12.56 2.24
-18.61 -12.94 2.24
-18.36 -13.32 2.24
-18.11 -13.70 2.24
-17.68 -13.94 2.22
-16.97 -13.95 2.17
-16.25 -13.91 2.11
-15.61 -13.91 2.06
-15.03 -13.95 2.02
-14.40 -13.92 1.97
-13.87 -13.95 1.93
-13.30 -13.92 1.89
-12.80 -13.96 1.86
-12.27 -13.92 1.82
-11.81 -13.96 1.79
-11.31 -13.93 1.75
-10.88 -13.96 1.73
-10.41 -13.93 1.70
-10.01 -13.96 1.67
-9.95 -14.49 1.71
-9.98 -15.18 1.77
-9.99 -15.87 1.82
-9.95 -16.55 1.88
-9.96 -17.34 1.94
-9.99 -18.23 2.01
-10.00 -19.14 2.09
-10.00 -20.12 2.17
-10.00 -21.18 2.26
-9.98 -22.29 2.36
-9.68 -22.83 2.39
-9.23 -23.04 2.39
-8.77 -23.24 2.39
-8.31 -23.44 2.39
-7.85 -23.62 2.39
-7.38 -23.80 2.39
-6.91 -23.97 2.39
-6.43 -24.13 2.39
-5.95 -24.28 2.39
-5.70 -25.47 2.49
-5.20 -25.60 2.49
-4.69 -25.73 2.49
-4.17 -25.84 2.49
-3.66 -25.95 2.49
-3.14 -26.04 2.49
-2.62 -26.13 2.49
-2.10 -26.20 2.49
-1.57 -26.26 2.49
-1.05 -26.32 2.49
-0.52 -26.36 2.49
0.01 -21.26 2.49
0.44 -21.28 2.49
0.87 -21.28 2.49
1.29 -21.28 2.49
1.72 -21.26 2.49
2.11 -20.89 2.45
2.47 -20.33 2.39
2.78 -19.56 2.31
3.18 -19.57 2.31
3.70 -20.19 2.39
4.11 -20.13 2.39
4.51 -20.06 2.39
4.92 -19.98 2.39
4.49 -16.76 2.02
4.54 -15.69 1.90
4.88 -15.68 1.91
7.18 -21.56 2.63
9.53 -26.81 3.30
6.11 -16.16 2.00
10.89 -27.12 3.38
11.63 -27.36 3.44
12.68 -28.25 3.58
6.12 -12.92 1.65
16.88 -33.90 4.37
42.06 21.70 5.46
39.56 21.43 5.19
37.58 21.34 4.99
35.77 21.28 4.81
34.09 21.21 4.64
32.53 21.16 4.49
31.06 21.10 4.35
29.69 21.06 4.22
28.40 21.01 4.10
27.00 20.83 3.96
25.85 20.78 3.85
24.81 20.78 3.76
23.83 20.78 3.68
22.89 20.78 3.60
21.99 20.78 3.52
21.12 20.79 3.45
20.29 20.79 3.39
19.50 20.79 3.33
18.73 20.79 3.27
17.99 20.79 3.21
17.27 20.80 3.16
16.58 20.80 3.11
15.91 20.80 3.07
15.26 20.80 3.03
14.63 20.80 2.98
14.01 20.81 2.95
13.41 20.81 2.91
12.83 20.81 2.88
12.26 20.81 2.84
11.71 20.81 2.81
2.48 4.62 0.62
10.63 20.81 2.76
6.19 12.75 1.67
9.19 19.93 2.59
8.51 19.46 2.51
6.20 15.00 1.92
7.57 19.42 2.47
7.23 19.69 2.49
6.21 18.02 2.26
6.17 19.16 2.39
5.78 19.26 2.39
5.39 19.36 2.39
5.00 19.45 2.39
4.60 19.53 2.39
4.21 19.60 2.39
3.81 19.67 2.39
3.24 18.72 2.27
2.86 18.78 2.27
2.61 19.81 2.39
2.23 20.04 2.41
1.89 20.72 2.49
1.47 20.74 2.49
1.05 20.75 2.49
0.64 20.75 2.49
0.22 20.74 2.49
-0.20 20.73 2.49
-0.61 20.70 2.49
-1.03 20.67 2.49
-1.44 20.63 2.49
-1.85 20.58 2.49
-2.26 20.53 2.49
-2.67 20.46 2.49
-3.08 20.39 2.49
-3.49 20.31 2.49
-3.89 20.22 2.49
-4.30 20.12 2.49
-4.70 20.02 2.49
-5.09 19.91 2.49
-5.49 19.79 2.49
-5.82 19.46 2.47
-6.01 18.72 2.39
-6.38 18.58 2.39
-6.75 18.44 2.39
-7.11 18.29 2.39
-7.47 18.13 2.39
-6.16 14.12 1.88
-8.19 17.79 2.39
-8.54 17.62 2.39
-8.88 17.43 2.39
-9.23 17.24 2.39
-9.57 17.04 2.39
-9.72 16.54 2.35
-9.73 15.80 2.27
-9.73 15.12 2.20
-9.73 14.47 2.14
-9.08 12.94 1.94
-9.73 13.29 2.02
-9.73 12.75 1.97
-9.74 12.23 1.92
-9.78 11.80 1.88
-10.56 12.22 1.99
-10.99 12.22 2.02
-13.40 14.31 2.41
-9.71 9.96 1.71
-9.71 9.57 1.68
-9.71 9.19 1.65
-9.71 8.83 1.62
-9.71 8.48 1.59
-9.73 8.16 1.57
-9.71 7.82 1.54
-9.71 7.50 1.51
-9.71 7.20 1.49
-9.71 6.90 1.47
-9.72 6.61 1.45
-9.72 6.33 1.43
-9.72 6.05 1.41
-9.72 5.79 1.40
-9.72 5.53 1.38
-9.72 5.27 1.37
-9.72 5.02 1.35
-9.72 4.78 1.34
-9.72 4.54 1.33
-9.72 4.30 1.31
-9.72 4.07 1.30
-9.72 3.84 1.29
-9.72 3.62 1.28
-9.72 3.40 1.27
-9.72 3.18 1.27
-9.73 2.97 1.26
-9.73 2.75 1.25
-9.73 2.54 1.24
-9.73 2.34 1.24
-9.73 2.13 1.23
-9.73 1.93 1.23
-9.73 1.73 1.22
-9.73 1.53 1.22
-9.73 1.33 1.21
-9.73 1.13 1.21
-9.73 0.93 1.21
-9.73 0.73 1.21
-9.73 0.54 1.20
-9.73 0.34 1.20
-9.73 0.14 1.20
-9.73 -0.05 1.20
-9.73 -0.25 1.20
-9.73 -0.44 1.20
-9.73 -0.64 1.20
-9.59 -0.82 1.19
-18.10 -1.92 2.24
-18.06 -2.28 2.24
-18.02 -2.65 2.24
-17.97 -3.01 2.24
-17.91 -3.37 2.24
-17.85 -3.73 2.24
-17.78 -4.09 2.24
-17.70 -4.45 2.24
-17.61 -4.80 2.24
-17.52 -5.16 2.24
-17.42 -5.51 2.24
-17.32 -5.86 2.24
-17.20 -6.21 2.24
-16.56 -6.36 2.17
-15.90 -6.48 2.10
-15.79 -6.80 2.11
-15.67 -7.13 2.11
-15.55 -7.46 2.11
-15.42 -7.78 2.11
-15.29 -8.10 2.11
-15.15 -8.42 2.12
-15.88 -9.25 2.24
-15.70 -9.57 2.24
-15.52 -9.89 2.24
-15.33 -10.21 2.24
-15.13 -10.52 2.24
-14.92 -10.83 2.24
-14.71 -11.13 2.24
-14.50 -11.44 2.24
-14.37 -11.82 2.26
-14.20 -12.16 2.27
-14.00 -12.48 2.27
-13.80 -12.81 2.28
-13.58 -13.13 2.29
-13.37 -13.45 2.29
-13.14 -13.76 2.30
-12.80 -13.96 2.29
-10.72 -12.17 1.96
-10.72 -12.68 2.00
-10.72 -13.21 2.05
-10.88 -13.96 2.13
-10.41 -13.93 2.09
-10.01 -13.96 2.07
-9.95 -14.49 2.11
-9.98 -15.19 2.18
-9.99 -15.87 2.25
-9.95 -16.55 2.32
-9.96 -17.34 2.40
-9.60 -17.52 2.39
-9.25 -17.72 2.39
-8.90 -17.92 2.39
-8.55 -18.11 2.39
-8.19 -18.29 2.39
-7.83 -18.47 2.39
-7.46 -18.63 2.39
-7.09 -18.80 2.39
-6.72 -18.95 2.39
-6.34 -19.10 2.39
-5.96 -19.24 2.39
-5.82 -20.20 2.49
-5.42 -20.33 2.49
-5.01 -20.45 2.49
-4.60 -20.57 2.49
-4.19 -20.67 2.49
-3.78 -20.77 2.49
-3.37 -20.86 2.49
-2.95 -20.94 2.49
-2.53 -21.01 2.49
-2.11 -21.07 2.49
-1.69 -21.13 2.49
-1.27 -21.18 2.49
-0.84 -21.21 2.49
-0.41 -21.24 2.49
0.01 -17.79 2.49
0.37 -17.80 2.49
0.73 -17.80 2.49
1.08 -17.79 2.49
1.44 -17.78 2.49
1.80 -17.76 2.49
2.12 -17.46 2.46
2.41 -16.96 2.39
2.75 -16.92 2.39
3.09 -16.87 2.39
3.43 -16.82 2.39
3.77 -16.76 2.39
4.11 -16.69 2.39
4.45 -16.61 2.39
4.61 -15.92 2.30
5.12 -16.44 2.39
4.49 -13.48 1.97
4.55 -12.78 1.88
4.80 -12.69 1.88
6.12 -15.23 2.27
7.72 -18.17 2.73
9.42 -20.98 3.18
6.12 -12.92 1.98
10.74 -21.56 3.33
6.13 -11.70 1.83
12.38 -22.53 3.55
13.34 -23.16 3.69
6.14 -9.31 1.54
39.54 24.60 6.45
39.55 25.72 6.54
31.79 21.59 5.33
30.22 21.42 5.14
28.89 21.37 4.99
27.64 21.31 4.85
26.46 21.27 4.72
25.35 21.22 4.60
24.29 21.18 4.48
23.28 21.14 4.38
22.33 21.10 4.28
21.41 21.07 4.19
20.54 21.03 4.10
19.57 20.86 3.99
18.76 20.83 3.92
17.99 20.80 3.84
17.28 20.80 3.78
16.58 20.80 3.72
15.91 20.80 3.67
15.26 20.80 3.62
14.63 20.80 3.57
6.18 9.17 1.55
13.42 20.81 3.48
12.84 20.81 3.44
12.27 20.81 3.40
6.19 11.00 1.78
2.48 4.62 0.74
6.21 12.14 1.92
9.21 18.94 2.97
7.74 16.77 2.61
7.03 16.07 2.48
6.20 15.00 2.29
6.15 15.75 2.39
5.83 15.86 2.39
5.50 15.97 2.39
5.18 16.06 2.39
4.85 16.15 2.39
4.52 16.23 2.39
4.19 16.31 2.39
3.86 16.38 2.39
3.53 16.44 2.39
3.14 16.23 2.35
2.82 16.28 2.35
2.53 16.59 2.39
2.22 16.84 2.42
1.94 17.37 2.49
1.59 17.40 2.49
1.24 17.42 2.49
0.89 17.43 2.49
0.54 17.43 2.49
0.19 17.42 2.49
-0.16 17.41 2.49
-0.51 17.39 2.49
-0.86 17.37 2.49
-1.21 17.34 2.49
-1.56 17.30 2.49
-1.90 17.25 2.49
-2.25 17.20 2.49
-2.59 17.14 2.49
-2.93 17.08 2.49
-3.27 17.00 2.49
-3.61 16.92 2.49
-3.95 16.84 2.49
-4.28 16.75 2.49
-4.62 16.65 2.49
-4.95 16.54 2.49
-5.27 16.43 2.49
-5.60 16.31 2.49
-5.83 15.94 2.46
-5.99 15.39 2.39
-6.29 15.26 2.39
-6.59 15.12 2.39
-6.89 14.98 2.39
-7.19 14.83 2.39
-7.48 14.68 2.39
-7.77 14.52 2.39
-8.05 14.35 2.39
-8.34 14.18 2.39
-8.62 14.00 2.39
-8.89 13.82 2.39
-9.16 13.64 2.39
-8.48 12.08 2.15
-8.64 11.80 2.13
-9.73 12.75 2.34
-9.74 12.24 2.28
-9.78 11.80 2.23
-8.66 10.02 1.93
-8.97 9.97 1.96
-8.94 9.55 1.91
-9.71 9.96 2.03
-9.71 9.57 1.99
-9.71 9.19 1.95
-9.71 8.83 1.92
-9.71 8.48 1.88
-9.73 8.16 1.86
-9.71 7.82 1.82
-9.71 7.50 1.80
-9.71 7.20 1.77
-9.71 6.90 1.74
-9.72 6.61 1.72
-9.72 6.33 1.70
-9.72 6.05 1.68
-9.72 5.79 1.66
-9.72 5.53 1.64
-9.72 5.27 1.62
-9.72 5.02 1.60
-9.72 4.78 1.59
-9.72 4.54 1.57
-9.72 4.30 1.56
-9.72 4.07 1.54
-9.72 3.84 1.53
-9.72 3.62 1.52
-9.72 3.40 1.51
-9.72 3.18 1.50
-9.73 2.97 1.49
-9.73 2.75 1.48
-9.73 2.54 1.47
-9.73 2.34 1.47
-9.73 2.13 1.46
-9.73 1.93 1.45
-9.73 1.73 1.45
-9.73 1.52 1.44
-9.73 1.33 1.44
-9.73 1.13 1.43
-9.73 0.93 1.43
-9.73 0.73 1.43
-9.73 0.54 1.43
-9.73 0.34 1.43
-9.73 0.14 1.42
-9.73 -0.05 1.42
-9.73 -0.25 1.42
-9.73 -0.44 1.43
-9.73 -0.64 1.43
-9.44 -0.81 1.39
-15.77 -1.67 2.32
-15.73 -1.99 2.32
-15.71 -2.31 2.32
-15.61 -2.61 2.31
-15.45 -2.91 2.29
-15.28 -3.19 2.28
-15.11 -3.48 2.26
-14.94 -3.76 2.25
-14.90 -4.06 2.25
-14.85 -4.37 2.26
-14.79 -4.68 2.26
-14.73 -4.99 2.26
-14.67 -5.30 2.27
-14.53 -5.58 2.27
-14.32 -5.83 2.25
-14.21 -6.12 2.25
-14.00 -6.37 2.23
-13.44 -6.45 2.17
-13.35 -6.74 2.17
-13.26 -7.02 2.18
-13.15 -7.31 2.18
-13.05 -7.60 2.19
-12.94 -7.89 2.20
-12.82 -8.18 2.20
-12.70 -8.46 2.21
-12.81 -8.91 2.26
-12.69 -9.21 2.27
-12.56 -9.51 2.28
-12.43 -9.81 2.29
-12.33 -10.13 2.30
-10.97 -9.39 2.08
-10.71 -9.55 2.07
-10.71 -9.95 2.11
-10.72 -10.36 2.15
-11.63 -11.70 2.37
-11.44 -11.98 2.38
-11.25 -12.27 2.39
-10.74 -12.20 2.34
-10.75 -12.71 2.39
-10.57 -13.03 2.41
-10.32 -13.25 2.41
-10.06 -13.46 2.41
-9.73 -13.58 2.39
-9.46 -13.78 2.39
-9.18 -13.97 2.39
-8.91 -14.16 2.39
-8.63 -14.35 2.39
-8.34 -14.53 2.39
-8.06 -14.70 2.39
-7.76 -14.87 2.39
-7.47 -15.04 2.39
-7.17 -15.19 2.39
-6.87 -15.34 2.39
-6.56 -15.49 2.39
-6.26 -15.63 2.39
-5.94 -15.76 2.39
-5.87 -16.58 2.49
-5.54 -16.70 2.49
-5.21 -16.82 2.49
-4.88 -16.93 2.49
-4.54 -17.04 2.49
-4.20 -17.14 2.49
-3.86 -17.23 2.49
-3.51 -17.32 2.49
-3.17 -17.40 2.49
-2.82 -17.47 2.49
-2.47 -17.54 2.49
-2.12 -17.59 2.49
-1.77 -17.64 2.49
-1.41 -17.69 2.49
-1.06 -17.72 2.49
-0.70 -17.75 2.49
-0.35 -17.78 2.49
0.01 -15.28 2.49
0.32 -15.29 2.49
0.63 -15.29 2.49
0.93 -15.28 2.49
1.24 -15.27 2.49
1.55 -15.25 2.49
1.85 -15.22 2.49
2.13 -14.99 2.46
2.36 -14.52 2.39
2.66 -14.48 2.39
2.95 -14.43 2.39
3.24 -14.38 2.39
3.53 -14.32 2.39
3.82 -14.25 2.39
4.10 -14.18 2.39
4.39 -14.10 2.39
4.67 -14.02 2.39
4.80 -13.50 2.32
4.74 -12.52 2.16
5.52 -13.73 2.39
5.79 -13.62 2.39
6.07 -13.51 2.39
6.12 -12.92 2.31
7.30 -14.66 2.64
8.80 -16.81 3.06
9.68 -17.63 3.24
10.20 -17.72 3.29
10.74 -17.81 3.35
6.15 -9.75 1.86
12.02 -18.24 3.52
6.13 -8.90 1.74
6.14 -8.54 1.69
6.13 -7.54 1.56
39.54 24.60 7.52
39.55 25.71 7.62
35.94 24.41 7.03
34.56 24.50 6.85
34.57 25.56 6.96
30.40 24.43 6.32
29.48 24.68 6.23
24.80 21.62 5.34
23.64 21.46 5.18
22.66 21.41 5.06
21.73 21.37 4.95
20.83 21.33 4.85
19.98 21.29 4.75
19.16 21.26 4.66
6.18 7.14 1.54
6.17 7.43 1.57
16.88 21.17 4.41
16.18 21.14 4.34
15.50 21.12 4.27
14.84 21.09 4.21
14.20 21.07 4.15
13.58 21.05 4.10
12.89 20.89 4.02
12.30 20.87 3.97
6.19 11.00 2.07
2.48 4.62 0.86
9.14 17.88 3.29
7.04 14.49 2.64
6.10 13.23 2.39
5.83 13.34 2.39
5.56 13.44 2.39
5.29 13.54 2.39
5.01 13.64 2.39
4.73 13.73 2.39
4.45 13.81 2.39
4.17 13.89 2.39
3.89 13.96 2.39
3.61 14.03 2.39
3.32 14.09 2.39
3.02 14.05 2.37
2.72 14.05 2.37
2.47 14.24 2.39
2.21 14.52 2.43
1.97 14.93 2.49
1.67 14.96 2.49
1.37 14.98 2.49
1.07 15.00 2.49
0.77 15.00 2.49
0.46 15.01 2.49
0.16 15.01 2.49
-0.14 15.00 2.49
-0.44 14.98 2.49
-0.74 14.96 2.49
-1.04 14.94 2.49
-1.34 14.91 2.49
-1.64 14.87 2.49
-1.93 14.82 2.49
-2.23 14.77 2.49
-2.53 14.72 2.49
-2.82 14.66 2.49
-3.11 14.59 2.49
-3.40 14.52 2.49
-3.69 14.44 2.49
-3.98 14.35 2.49
-4.26 14.26 2.49
-4.55 14.17 2.49
-4.83 14.07 2.49
-5.11 13.96 2.49
-5.38 13.85 2.49
-5.66 13.73 2.49
-5.84 13.40 2.46
-5.94 12.92 2.39
-6.20 12.80 2.39
-6.45 12.67 2.39
-6.70 12.53 2.39
-6.95 12.39 2.39
-7.19 12.24 2.39
-7.44 12.09 2.39
-7.67 11.93 2.39
-7.91 11.77 2.39
-8.14 11.60 2.39
-8.37 11.43 2.39
-8.60 11.26 2.39
-8.82 11.08 2.39
-9.03 10.90 2.39
-8.48 9.82 2.19
-8.58 9.54 2.17
-8.93 9.54 2.21
-9.71 9.96 2.35
-9.71 9.57 2.31
-9.71 9.19 2.26
-9.71 8.83 2.22
-9.71 8.48 2.18
-9.73 8.16 2.15
-9.71 7.82 2.11
-9.71 7.50 2.08
-9.71 7.20 2.05
-9.71 6.90 2.02
-9.72 6.61 1.99
-9.72 6.33 1.97
-9.72 6.05 1.94
-9.72 5.79 1.92
-9.72 5.53 1.90
-9.72 5.27 1.87
-9.72 5.02 1.86
-9.72 4.78 1.84
-9.72 4.54 1.82
-9.72 4.30 1.80
-9.72 4.07 1.79
-9.72 3.84 1.77
-9.72 3.62 1.76
-9.72 3.40 1.75
-9.72 3.18 1.74
-9.73 2.97 1.73
-9.73 2.75 1.71
-9.73 2.54 1.71
-9.73 2.34 1.70
-9.73 2.13 1.69
-9.73 1.93 1.68
-9.73 1.73 1.68
-9.73 1.52 1.67
-9.73 1.33 1.67
-9.73 1.13 1.66
-9.73 0.93 1.66
-9.73 0.73 1.65
-9.73 0.54 1.65
-9.73 0.34 1.65
-9.73 0.14 1.65
-9.73 -0.05 1.65
-9.73 -0.25 1.65
-9.73 -0.44 1.65
-9.73 -0.64 1.65
-9.44 -0.81 1.60
-13.93 -1.48 2.37
-13.87 -1.75 2.36
-13.75 -2.02 2.35
-13.62 -2.28 2.34
-13.57 -2.55 2.33
-13.56 -2.83 2.34
-13.54 -3.12 2.35
-11.07 -2.78 1.93
-13.49 -3.68 2.36
-13.45 -3.96 2.37
-13.40 -4.24 2.37
-13.23 -4.48 2.36
-13.05 -4.72 2.34
-12.87 -4.95 2.32
-11.13 -4.53 2.02
-10.70 -4.61 1.96
-10.70 -4.87 1.98
-10.70 -5.13 2.00
-10.70 -5.40 2.02
-12.08 -6.40 2.30
-11.76 -6.54 2.26
-11.66 -6.79 2.27
-11.56 -7.05 2.27
-11.46 -7.31 2.28
-11.35 -7.56 2.29
-11.23 -7.82 2.29
-11.11 -8.07 2.30
-10.99 -8.32 2.31
-11.19 -8.83 2.39
-11.06 -9.10 2.40
-10.93 -9.36 2.41
-10.74 -9.58 2.41
-10.55 -9.80 2.41
-10.36 -10.02 2.41
-10.16 -10.23 2.41
-9.89 -10.36 2.39
-9.69 -10.57 2.39
-9.48 -10.76 2.39
-9.27 -10.96 2.39
-9.05 -11.15 2.39
-8.83 -11.33 2.39
-8.60 -11.52 2.39
-8.37 -11.69 2.39
-8.14 -11.87 2.39
-7.91 -12.03 2.39
-7.67 -12.20 2.39
-7.43 -12.36 2.39
-7.18 -12.51 2.39
-6.93 -12.66 2.39
-6.68 -12.80 2.39
-6.43 -12.94 2.39
-6.17 -13.08 2.39
-5.92 -13.23 2.40
-5.89 -13.90 2.49
-5.61 -14.03 2.49
-5.33 -14.15 2.49
-5.05 -14.26 2.49
-4.77 -14.37 2.49
-4.48 -14.47 2.49
-4.19 -14.56 2.49
-3.90 -14.65 2.49
-3.61 -14.74 2.49
-3.31 -14.82 2.49
-3.02 -14.89 2.49
-2.72 -14.95 2.49
-2.42 -15.02 2.49
-2.12 -15.07 2.49
-1.82 -15.12 2.49
-1.52 -15.16 2.49
-1.21 -15.20 2.49
-0.91 -15.23 2.49
-0.60 -15.25 2.49
-0.30 -15.27 2.49
0.01 -13.38 2.49
0.28 -13.38 2.49
0.55 -13.38 2.49
0.82 -13.37 2.49
1.09 -13.36 2.49
1.35 -13.34 2.49
1.62 -13.32 2.49
1.89 -13.29 2.49
2.14 -13.12 2.47
2.33 -12.69 2.40
2.58 -12.63 2.39
2.83 -12.58 2.39
3.09 -12.53 2.39
3.34 -12.47 2.39
3.59 -12.40 2.39
3.84 -12.33 2.39
4.09 -12.26 2.39
4.34 -12.18 2.39
4.58 -12.10 2.39
4.82 -12.01 2.39
5.07 -11.91 2.39
4.50 -10.02 2.03
4.50 -9.51 1.94
4.55 -9.13 1.88
4.73 -9.04 1.88
4.92 -8.94 1.88
6.13 -10.64 2.26
8.61 -14.29 3.07
9.51 -15.08 3.28
9.88 -15.00 3.31
6.13 -8.90 1.99
10.64 -14.81 3.36
11.07 -14.78 3.40
11.56 -14.80 3.45
12.19 -14.98 3.55
12.82 -15.13 3.64
6.13 -6.95 1.70
28.46 -30.97 7.72
31.02 -32.43 8.24
6.14 -5.92 1.56
6.15 -5.70 1.54
39.54 24.59 8.60
39.54 25.71 8.72
35.95 24.41 8.04
34.56 24.50 7.84
34.56 25.55 7.96
30.41 24.43 7.22
29.48 24.67 7.12
29.49 25.70 7.25
6.17 5.60 1.54
6.17 5.83 1.57
24.85 24.44 6.47
24.33 24.90 6.47
24.33 25.93 6.61
19.60 21.75 5.44
6.17 7.13 1.75
17.86 21.50 5.20
17.11 21.45 5.11
16.39 21.41 5.02
15.70 21.38 4.94
15.03 21.36 4.87
14.38 21.33 4.80
13.75 21.31 4.73
13.13 21.28 4.67
6.19 10.49 2.28
6.19 11.00 2.36
2.48 4.62 0.98
5.82 11.37 2.39
5.58 11.48 2.39
5.35 11.59 2.39
5.11 11.69 2.39
4.87 11.78 2.39
4.63 11.87 2.39
4.39 11.95 2.39
4.15 12.03 2.39
3.90 12.10 2.39
3.66 12.18 2.39
3.24 11.62 2.27
3.00 11.67 2.27
2.77 11.73 2.27
2.67 12.40 2.39
2.41 12.45 2.39
2.21 12.74 2.44
1.99 13.06 2.49
1.73 13.09 2.49
1.47 13.12 2.49
1.20 13.14 2.49
0.94 13.15 2.49
0.67 13.16 2.49
0.41 13.17 2.49
0.14 13.17 2.49
-0.12 13.16 2.49
-0.38 13.15 2.49
-0.65 13.13 2.49
-0.91 13.11 2.49
-1.17 13.08 2.49
-1.44 13.05 2.49
-1.70 13.01 2.49
-1.96 12.97 2.49
-2.22 12.92 2.49
-2.47 12.87 2.49
-2.73 12.81 2.49
-2.99 12.75 2.49
-3.24 12.68 2.49
-3.49 12.61 2.49
-3.74 12.53 2.49
-3.99 12.44 2.49
-4.24 12.36 2.49
-4.48 12.26 2.49
-4.73 12.17 2.49
-4.97 12.06 2.49
-5.21 11.96 2.49
-5.45 11.85 2.49
-5.68 11.73 2.49
-5.84 11.47 2.46
-5.89 11.01 2.39
-6.11 10.88 2.39
-6.32 10.75 2.39
-6.53 10.62 2.39
-6.74 10.48 2.39
-6.95 10.34 2.39
-7.15 10.20 2.39
-7.36 10.05 2.39
-7.55 9.90 2.39
-7.75 9.74 2.39
-7.94 9.58 2.39
-8.13 9.42 2.39
-8.31 9.25 2.39
-8.50 9.08 2.39
-8.67 8.90 2.39
-8.85 8.72 2.39
-9.02 8.54 2.39
-9.19 8.36 2.39
-9.35 8.17 2.39
-9.51 7.98 2.39
-9.67 7.79 2.39
-9.71 7.50 2.36
-9.71 7.20 2.33
-9.71 6.90 2.30
-9.72 6.61 2.26
-9.72 6.33 2.24
-9.72 6.06 2.21
-9.72 5.79 2.18
-9.72 5.53 2.16
-9.72 5.27 2.13
-9.72 5.02 2.11
-9.72 4.78 2.09
-9.72 4.54 2.07
-9.72 4.30 2.05
-9.72 4.07 2.03
-9.72 3.84 2.02
-9.72 3.62 2.00
-9.72 3.40 1.99
-9.72 3.18 1.97
-9.73 2.97 1.96
-9.73 2.75 1.95
-9.73 2.54 1.94
-9.73 2.34 1.93
-9.73 2.13 1.92
-9.73 1.93 1.91
-9.73 1.73 1.91
-9.73 1.52 1.90
-9.73 1.32 1.89
-9.73 1.13 1.89
-9.73 0.93 1.88
-9.73 0.73 1.88
-9.73 0.54 1.88
-9.73 0.34 1.88
-9.73 0.14 1.88
-9.73 -0.05 1.88
-9.73 -0.25 1.88
-9.73 -0.44 1.88
-9.73 -0.64 1.88
-9.44 -0.81 1.82
-12.30 -1.31 2.38
-12.27 -1.55 2.38
-12.25 -1.80 2.38
-10.69 -1.79 2.09
-10.69 -2.01 2.09
-10.69 -2.24 2.10
-10.69 -2.46 2.11
-10.70 -2.69 2.12
-12.09 -3.30 2.41
-12.02 -3.54 2.41
-11.95 -3.78 2.41
-11.81 -4.00 2.39
-11.65 -4.21 2.38
-11.51 -4.42 2.37
-11.44 -4.66 2.37
-10.70 -4.61 2.23
-10.70 -4.87 2.25
-10.70 -5.13 2.27
-10.73 -5.41 2.30
-11.07 -5.87 2.40
-10.98 -6.11 2.40
-10.87 -6.34 2.41
-10.53 -6.43 2.36
-10.35 -6.60 2.35
-10.25 -6.83 2.35
-10.14 -7.06 2.36
-10.03 -7.29 2.37
-9.92 -7.51 2.37
-9.80 -7.74 2.38
-9.68 -7.96 2.39
-9.53 -8.16 2.39
-9.37 -8.36 2.39
-9.20 -8.55 2.39
-9.03 -8.73 2.39
-8.86 -8.92 2.39
-8.68 -9.10 2.39
-8.50 -9.28 2.39
-8.32 -9.45 2.39
-8.13 -9.62 2.39
-7.94 -9.78 2.39
-7.75 -9.95 2.39
-7.55 -10.11 2.39
-7.35 -10.26 2.39
-7.14 -10.41 2.39
-6.94 -10.56 2.39
-6.73 -10.70 2.39
-6.51 -10.84 2.39
-6.30 -10.97 2.39
-6.08 -11.10 2.39
-5.91 -11.33 2.41
-5.88 -11.84 2.49
-5.64 -11.96 2.49
-5.40 -12.08 2.49
-5.16 -12.19 2.49
-4.92 -12.30 2.49
-4.67 -12.40 2.49
-4.43 -12.50 2.49
-4.18 -12.59 2.49
-3.93 -12.68 2.49
-3.67 -12.76 2.49
-3.42 -12.84 2.49
-3.16 -12.91 2.49
-2.90 -12.98 2.49
-2.64 -13.04 2.49
-2.38 -13.10 2.49
-2.12 -13.15 2.49
-1.86 -13.20 2.49
-1.59 -13.24 2.49
-1.33 -13.28 2.49
-1.06 -13.31 2.49
-0.79 -13.33 2.49
-0.52 -13.35 2.49
-0.26 -13.37 2.49
0.01 -11.89 2.49
0.25 -11.89 2.49
0.49 -11.89 2.49
0.73 -11.88 2.49
0.97 -11.87 2.49
1.20 -11.85 2.49
1.44 -11.83 2.49
1.68 -11.80 2.49
1.92 -11.77 2.49
2.14 -11.66 2.48
2.29 -11.21 2.39
2.52 -11.17 2.39
2.74 -11.12 2.39
2.97 -11.07 2.39
3.19 -11.01 2.39
3.41 -10.95 2.39
3.63 -10.88 2.39
3.85 -10.81 2.39
4.07 -10.74 2.39
4.28 -10.66 2.39
4.50 -10.57 2.39
4.71 -10.48 2.39
4.77 -10.06 2.32
5.13 -10.29 2.39
4.76 -9.08 2.13
5.54 -10.09 2.39
5.75 -9.98 2.39
5.95 -9.86 2.39
6.15 -9.74 2.39
7.13 -10.82 2.69
6.13 -8.90 2.24
9.43 -13.13 3.35
9.78 -13.05 3.38
10.13 -12.97 3.41
10.48 -12.88 3.44
10.82 -12.76 3.47
6.13 -6.95 1.92
11.52 -12.54 3.52
12.04 -12.58 3.60
6.15 -6.18 1.80
13.11 -12.65 3.77
13.90 -12.88 3.92
15.16 -13.49 4.20
6.14 -5.25 1.67
29.15 -23.92 7.79
30.02 -23.64 7.90
30.88 -23.33 8.00
6.14 -4.45 1.57
6.14 -4.26 1.54
33.41 -22.22 8.29
34.47 -21.94 8.44
35.57 -21.65 8.60
37.15 -21.61 8.88
38.50 -21.37 9.09
40.29 -21.31 9.41
40.58 -20.44 9.38
40.72 -19.49 9.32
41.09 -18.67 9.32
41.62 -17.91 9.35
42.33 -17.22 9.43
43.07 -16.52 9.52
44.44 -16.03 9.75
43.31 -14.65 9.44
44.55 -14.08 9.64
39.54 24.59 9.69
6.19 4.03 1.54
6.16 4.18 1.55
6.16 4.37 1.57
34.56 25.55 8.96
30.41 24.42 8.14
29.48 24.67 8.02
29.48 25.69 8.17
6.17 5.60 1.74
25.87 24.44 7.44
24.86 24.44 7.29
24.32 24.90 7.28
24.33 25.92 7.44
6.17 7.13 1.97
20.33 24.45 6.66
19.51 24.46 6.56
19.06 24.90 6.58
6.18 8.78 2.25
27.02 40.08 10.15
6.17 9.56 2.39
5.98 9.68 2.39
5.78 9.79 2.39
5.58 9.90 2.39
2.48 4.61 1.10
5.17 10.11 2.39
4.96 10.21 2.39
4.76 10.30 2.39
4.55 10.39 2.39
4.33 10.47 2.39
4.12 10.55 2.39
3.91 10.63 2.39
3.69 10.70 2.39
3.47 10.77 2.39
3.14 10.46 2.31
2.99 10.71 2.35
2.67 10.38 2.27
2.56 10.83 2.36
2.39 11.12 2.41
2.20 11.35 2.45
2.01 11.59 2.49
1.77 11.62 2.49
1.54 11.65 2.49
1.31 11.67 2.49
1.07 11.69 2.49
0.84 11.70 2.49
0.60 11.71 2.49
0.36 11.72 2.49
0.13 11.72 2.49
-0.11 11.71 2.49
-0.34 11.70 2.49
-0.58 11.69 2.49
-0.81 11.67 2.49
-1.04 11.64 2.49
-1.28 11.62 2.49
-1.51 11.58 2.49
-1.74 11.55 2.49
-1.97 11.50 2.49
-2.20 11.46 2.49
-2.43 11.41 2.49
-2.66 11.35 2.49
-2.88 11.29 2.49
-3.11 11.23 2.49
-3.33 11.16 2.49
-3.55 11.08 2.49
-3.77 11.01 2.49
-3.99 10.92 2.49
-4.21 10.84 2.49
-4.43 10.75 2.49
-4.64 10.65 2.49
-4.85 10.55 2.49
-5.06 10.45 2.49
-5.27 10.34 2.49
-5.47 10.23 2.49
-5.67 10.12 2.49
-5.85 9.95 2.48
-5.86 9.52 2.41
-6.01 9.34 2.39
-6.19 9.22 2.39
-6.37 9.09 2.39
-6.55 8.96 2.39
-6.73 8.82 2.39
-6.90 8.68 2.39
-7.08 8.54 2.39
-7.24 8.39 2.39
-7.41 8.24 2.39
-7.57 8.09 2.39
-7.73 7.94 2.39
-7.89 7.78 2.39
-8.04 7.62 2.39
-8.19 7.45 2.39
-8.34 7.28 2.39
-8.48 7.11 2.39
-8.62 6.94 2.39
-8.76 6.76 2.39
-8.89 6.59 2.39
-9.02 6.41 2.39
-9.14 6.22 2.39
-9.27 6.04 2.39
-9.38 5.85 2.39
-9.50 5.66 2.39
-9.61 5.47 2.39
-9.72 5.27 2.39
-9.72 5.02 2.37
-9.72 4.78 2.34
-9.72 4.54 2.32
-9.72 4.30 2.30
-9.72 4.07 2.28
-9.72 3.84 2.26
-9.72 3.62 2.25
-9.72 3.40 2.23
-9.72 3.18 2.21
-9.73 2.97 2.20
-9.73 2.75 2.19
-9.73 2.54 2.18
-9.73 2.34 2.16
-9.73 2.13 2.15
-9.73 1.93 2.15
-9.73 1.73 2.14
-9.73 1.52 2.13
-9.73 1.32 2.12
-9.73 1.13 2.12
-9.73 0.93 2.11
-9.73 0.73 2.11
-9.73 0.54 2.11
-9.73 0.34 2.11
-9.73 0.14 2.10
-9.73 -0.05 2.10
-9.73 -0.25 2.10
-9.73 -0.44 2.11
-9.73 -0.64 2.11
-9.44 -0.81 2.05
-11.07 -1.18 2.40
-11.05 -1.40 2.40
-11.02 -1.62 2.41
-10.72 -1.80 2.35
-10.72 -2.02 2.35
-10.72 -2.24 2.36
-10.72 -2.47 2.37
-10.72 -2.70 2.38
-10.77 -2.94 2.41
-10.71 -3.16 2.41
-10.65 -3.37 2.41
-10.58 -3.59 2.41
-10.51 -3.80 2.41
-10.44 -4.01 2.41
-10.36 -4.22 2.41
-10.27 -4.43 2.41
-10.19 -4.64 2.41
-10.09 -4.84 2.41
-10.00 -5.05 2.41
-9.83 -5.21 2.39
-9.73 -5.41 2.39
-9.62 -5.61 2.39
-9.51 -5.80 2.39
-9.39 -5.99 2.39
-9.28 -6.18 2.39
-9.15 -6.37 2.39
-9.03 -6.56 2.39
-8.90 -6.74 2.39
-8.76 -6.92 2.39
-8.63 -7.10 2.39
-8.48 -7.27 2.39
-8.34 -7.44 2.39
-8.19 -7.61 2.39
-8.04 -7.78 2.39
-7.89 -7.94 2.39
-7.73 -8.10 2.39
-7.57 -8.26 2.39
-7.40 -8.41 2.39
-7.24 -8.56 2.39
-7.07 -8.71 2.39
-6.89 -8.85 2.39
