ply
format ascii 1.0
element vertex 2713
property float32 x
property float32 y
property float32 z
end_header
-11.58 -7.98 -2.63
-22.88 -16.45 -5.29
-22.88 -17.15 -5.38
-22.87 -17.88 -5.47
-22.86 -18.62 -5.57
-22.77 -19.33 -5.66
-22.50 -19.89 -5.70
-22.62 -20.82 -5.85
-22.75 -21.80 -6.01
-22.88 -22.83 -6.18
-23.02 -23.91 -6.36
-23.18 -25.06 -6.55
-12.03 -14.11 -3.58
-11.70 -14.29 -3.57
-5.97 -7.61 -1.87
-11.91 -17.21 -4.07
-11.67 -17.61 -4.12
2.48 9.75 -1.31
-12.00 13.39 -2.37
-13.87 14.28 -2.63
-14.40 14.24 -2.68
-14.41 13.69 -2.64
-21.52 19.64 -3.88
-16.14 14.15 -2.86
-17.54 14.77 -3.07
-17.62 14.24 -3.04
-18.04 14.00 -3.07
-18.87 14.04 -3.17
-11.65 8.31 -1.93
-11.65 7.97 -1.91
-11.75 7.69 -1.91
-12.18 7.63 -1.96
-23.49 14.07 -3.74
-24.28 13.89 -3.83
-25.93 14.15 -4.06
-26.45 13.76 -4.11
-31.75 14.16 -4.83
-32.27 13.62 -4.88
-11.69 2.85 -1.72
-11.62 2.59 -1.71
-11.67 2.35 -1.71
-12.00 2.17 -1.76
-35.16 3.49 -5.17
-11.81 -1.93 -1.83
-11.69 -2.15 -1.82
-11.67 -2.39 -1.83
-11.83 -2.67 -1.87
-27.28 -9.11 -4.52
-25.59 -9.12 -4.28
-24.00 -9.11 -4.06
-22.58 -9.09 -3.86
-21.61 -9.21 -3.74
-21.61 -9.72 -3.78
-21.60 -10.25 -3.83
-21.60 -10.78 -3.87
-21.59 -11.33 -3.93
-21.58 -11.88 -3.98
-21.58 -12.45 -4.04
-21.57 -13.03 -4.09
-11.90 -7.52 -2.29
-11.54 -7.62 -2.26
-11.46 -7.90 -2.28
-11.69 -8.41 -2.37
-19.63 -14.73 -4.04
-19.21 -15.03 -4.03
-18.85 -15.37 -4.03
-18.49 -15.71 -4.03
-18.13 -16.04 -4.03
-17.91 -16.50 -4.07
-17.82 -17.10 -4.14
-17.81 -17.79 -4.23
-22.20 -23.08 -5.39
-22.33 -24.17 -5.55
-22.46 -25.32 -5.72
-11.89 -13.95 -3.11
-11.57 -14.15 -3.11
-5.97 -7.61 -1.65
-11.91 -17.22 -3.59
-11.41 -17.23 -3.55
2.49 9.75 -1.08
-23.59 28.52 -4.01
-11.95 13.33 -1.95
-13.81 14.79 -2.21
-14.20 14.61 -2.23
-14.32 14.16 -2.21
-14.40 13.68 -2.18
-15.08 13.76 -2.25
-16.20 14.19 -2.38
-16.46 13.85 -2.39
-17.62 14.23 -2.52
-17.73 13.74 -2.50
-11.67 8.68 -1.63
-11.55 8.23 -1.59
-11.61 7.93 -1.58
-11.71 7.66 -1.58
-11.97 7.49 -1.60
-12.16 7.28 -1.61
-23.77 13.58 -3.12
-26.00 14.18 -3.39
-25.94 13.48 -3.36
-27.97 13.83 -3.60
-31.85 14.19 -4.05
-32.16 13.56 -4.07
-35.66 12.57 -4.46
-35.47 9.39 -4.39
-11.93 2.90 -1.47
-11.56 2.57 -1.43
-11.64 2.34 -1.44
-11.93 2.15 -1.47
-35.36 4.93 -4.37
-35.22 2.76 -4.38
-35.70 -0.78 -4.52
-35.55 -2.93 -4.56
-11.86 -1.94 -1.56
-11.50 -2.12 -1.53
-11.70 -2.40 -1.56
-11.76 -2.66 -1.59
-35.24 -8.73 -4.79
-27.32 -9.14 -3.86
-25.54 -9.12 -3.65
-24.07 -9.15 -3.48
-22.65 -9.13 -3.31
-21.68 -9.25 -3.21
-21.67 -9.77 -3.25
-21.67 -10.29 -3.29
-21.66 -10.83 -3.33
-21.66 -11.38 -3.38
-21.65 -11.93 -3.42
-21.64 -12.50 -3.47
-12.23 -7.40 -1.99
-11.93 -7.54 -1.97
-11.63 -7.69 -1.96
-11.50 -7.94 -1.97
-20.11 -14.49 -3.50
-19.56 -14.70 -3.47
-19.15 -15.00 -3.46
-18.79 -15.34 -3.46
-18.44 -15.68 -3.46
-18.08 -16.02 -3.47
-17.90 -16.51 -3.51
-11.96 -11.49 -2.40
-11.66 -11.66 -2.39
-17.87 -18.59 -3.75
-21.54 -23.34 -4.63
-21.65 -24.42 -4.77
-11.83 -13.90 -2.67
-11.48 -14.05 -2.66
-5.97 -7.61 -1.42
-11.83 -17.12 -3.09
-11.31 -17.10 -3.05
-11.79 -23.58 -3.97
2.49 9.75 -0.85
-6.26 24.44 -2.08
-18.06 46.43 -4.12
-23.03 37.46 -3.69
-22.65 35.24 -3.53
-22.31 33.23 -3.38
-22.00 31.40 -3.24
-21.73 29.72 -3.12
-21.48 28.17 -3.01
-22.58 28.42 -3.10
-23.52 28.41 -3.16
-24.48 28.40 -3.22
-11.91 13.26 -1.53
-12.28 13.14 -1.55
-14.07 14.46 -1.75
-14.38 14.21 -1.76
-14.40 13.67 -1.73
-14.62 13.33 -1.73
-16.10 14.10 -1.88
-16.46 13.84 -1.89
-17.61 14.21 -2.00
-17.84 13.82 -2.00
-11.14 8.28 -1.24
-11.34 8.08 -1.25
-11.28 7.70 -1.23
-11.46 7.49 -1.24
-12.06 7.54 -1.29
-23.73 14.19 -2.51
-23.85 13.62 -2.51
-25.53 13.90 -2.67
-25.91 13.45 -2.69
-30.17 14.15 -3.10
-31.77 14.13 -3.25
-32.30 13.60 -3.29
-35.06 13.94 -3.56
-35.63 12.54 -3.59
-35.34 9.33 -3.54
-11.79 2.86 -1.18
-11.65 2.58 -1.17
-11.73 2.35 -1.18
-11.98 2.16 -1.20
-12.25 1.95 -1.23
-35.31 4.90 -3.55
-35.43 4.20 -3.57
-35.53 3.49 -3.59
-35.26 2.75 -3.58
-47.95 2.77 -4.88
-34.91 1.31 -3.57
-47.98 0.84 -4.93
-35.47 -0.09 -3.66
-35.49 -0.80 -3.68
-35.59 -2.23 -3.73
-35.29 -2.93 -3.72
-11.73 -1.93 -1.27
-11.40 -2.11 -1.25
-11.43 -2.35 -1.26
-11.78 -2.67 -1.31
-35.27 -8.75 -3.97
-34.78 -10.89 -4.03
-27.30 -9.16 -3.20
-25.61 -9.16 -3.04
-24.03 -9.15 -2.88
-22.61 -9.13 -2.75
-21.68 -9.27 -2.67
-21.67 -9.78 -2.70
-21.67 -10.31 -2.74
-21.66 -10.84 -2.78
-21.66 -11.39 -2.82
-21.65 -11.95 -2.86
-21.64 -12.52 -2.90
-21.64 -13.10 -2.95
-11.70 -7.41 -1.62
-11.50 -7.61 -1.62
-11.46 -7.92 -1.64
-11.37 -8.20 -1.66
-19.61 -14.75 -2.92
-20.51 -16.08 -3.11
-20.10 -16.43 -3.11
-19.70 -16.77 -3.11
-19.29 -17.10 -3.11
-18.87 -17.42 -3.11
-11.99 -11.53 -2.02
-11.58 -11.59 -2.00
-17.99 -18.74 -3.18
-21.46 -23.26 -3.88
-21.44 -24.21 -3.98
-11.69 -13.75 -2.23
-11.40 -13.97 -2.23
-5.96 -7.61 -1.20
-11.77 -17.06 -2.60
-11.50 -17.40 -2.62
-11.77 -23.56 -3.36
-11.33 -23.85 -3.38
-11.98 -26.61 -3.74
8.82 -5.11 -1.03
2.49 9.75 -0.62
2.09 41.97 -2.53
-6.26 24.44 -1.51
-18.02 46.32 -2.99
-18.84 45.69 -2.98
-19.91 45.67 -3.01
-20.31 44.16 -2.94
-20.71 42.74 -2.88
-21.77 42.73 -2.91
-22.85 42.71 -2.95
-20.64 36.79 -2.57
-20.38 34.67 -2.46
-20.14 32.75 -2.36
-19.93 30.99 -2.27
-19.73 29.38 -2.19
-19.69 28.09 -2.13
-20.81 28.44 -2.19
-21.69 28.43 -2.23
-22.59 28.42 -2.27
-23.53 28.41 -2.32
-11.70 13.56 -1.13
-11.84 13.18 -1.12
-12.38 13.25 -1.15
-14.09 14.48 -1.29
-14.35 14.17 -1.30
-14.34 13.60 -1.28
-15.02 13.68 -1.32
-16.05 14.05 -1.39
-16.13 13.55 -1.38
-17.51 14.12 -1.48
-17.83 13.80 -1.49
-11.25 8.35 -0.93
-11.41 8.12 -0.94
-11.41 7.78 -0.93
-11.59 7.57 -0.94
-12.00 7.50 -0.96
-12.22 7.30 -0.97
-24.09 13.74 -1.90
-25.83 14.05 -2.03
-26.12 13.54 -2.04
-27.67 13.64 -2.16
-30.21 14.16 -2.35
-31.82 14.14 -2.46
-32.21 13.55 -2.49
-33.68 13.37 -2.59
-35.43 13.25 -2.72
-35.75 12.56 -2.74
-35.07 10.00 -2.69
-35.08 9.25 -2.69
-11.72 2.84 -0.90
-11.55 2.55 -0.89
-11.59 2.32 -0.89
-11.77 2.11 -0.91
-35.51 4.91 -2.76
-35.62 4.20 -2.78
-35.61 3.47 -2.79
-35.44 2.74 -2.79
-45.50 2.60 -3.60
-34.75 1.29 -2.76
-46.56 0.79 -3.72
-35.36 -0.11 -2.84
-35.47 -0.82 -2.87
-45.42 -1.96 -3.70
-35.35 -2.24 -2.90
-35.20 -2.94 -2.91
-45.42 -4.71 -3.79
-45.41 -5.63 -3.82
-12.03 -1.74 -1.02
-11.60 -1.91 -0.99
-11.38 -2.11 -0.98
-11.20 -2.31 -0.98
-11.53 -2.62 -1.02
-35.61 -8.86 -3.17
-35.24 -9.52 -3.17
-35.02 -10.22 -3.19
-34.79 -10.92 -3.21
-27.30 -9.17 -2.55
-25.56 -9.16 -2.42
-23.99 -9.15 -2.30
-22.28 -9.01 -2.16
-21.54 -9.22 -2.12
-21.53 -9.73 -2.15
-21.53 -10.26 -2.18
-21.66 -10.86 -2.23
-21.66 -11.41 -2.26
-21.65 -11.96 -2.30
-21.64 -12.53 -2.33
-12.09 -7.33 -1.33
-11.79 -7.48 -1.32
-11.42 -7.57 -1.30
-11.33 -7.84 -1.31
-11.45 -8.26 -1.35
-19.58 -14.75 -2.36
-21.53 -16.90 -2.64
-21.52 -17.60 -2.70
-21.51 -18.33 -2.75
-18.21 -16.16 -2.38
-21.49 -19.86 -2.88
-11.83 -11.38 -1.62
-11.60 -11.61 -1.63
-11.64 -12.14 -1.67
-21.52 -23.36 -3.17
-12.08 -13.65 -1.83
-11.71 -13.78 -1.82
-11.29 -13.85 -1.81
-5.96 -7.61 -0.98
-11.67 -16.92 -2.11
-11.32 -17.14 -2.11
-11.25 -17.80 -2.17
-11.56 -23.16 -2.71
-11.27 -23.75 -2.76
-11.82 -26.27 -3.04
-11.37 -26.69 -3.07
-11.88 -29.51 -3.37
-11.28 -29.75 -3.38
8.82 -5.12 -0.80
2.49 9.75 -0.39
2.09 41.96 -1.58
-6.26 24.44 -0.94
-18.10 46.51 -1.87
-18.88 45.78 -1.86
-19.96 45.77 -1.88
-20.37 44.25 -1.84
-20.72 42.74 -1.80
-21.81 42.78 -1.83
-20.37 38.05 -1.65
-20.15 35.90 -1.58
-20.33 34.57 -1.55
-20.31 33.01 -1.50
-20.30 31.55 -1.46
-20.06 29.85 -1.41
-20.27 28.89 -1.39
-20.81 28.44 -1.40
-21.73 28.47 -1.43
-22.61 28.42 -1.46
-23.54 28.41 -1.49
-11.49 13.31 -0.71
-11.86 13.20 -0.72
-12.23 13.07 -0.74
-13.95 14.32 -0.83
-14.38 14.19 -0.84
-14.58 13.81 -0.84
-14.46 13.17 -0.83
-16.06 14.04 -0.91
-16.40 13.77 -0.92
-17.57 14.16 -0.98
-17.72 13.70 -0.98
-11.30 8.38 -0.62
-11.33 8.06 -0.62
-11.47 7.81 -0.62
-11.46 7.48 -0.62
-11.87 7.41 -0.63
-12.21 7.28 -0.65
-23.77 13.54 -1.26
-25.98 14.12 -1.37
-25.45 13.18 -1.34
-27.76 13.68 -1.46
-29.97 14.03 -1.58
-30.71 13.63 -1.62
-31.98 13.43 -1.68
-33.71 13.37 -1.78
-35.16 13.13 -1.85
-35.65 12.50 -1.88
-35.79 11.76 -1.89
-34.79 10.66 -1.84
-35.03 9.97 -1.86
-11.69 3.07 -0.62
-11.54 2.79 -0.62
-11.56 2.55 -0.62
-11.55 2.30 -0.62
-11.77 2.11 -0.64
-12.05 1.91 -0.66
-35.39 4.87 -1.94
-35.70 4.19 -1.97
-35.23 3.42 -1.96
-35.07 2.69 -1.96
-45.21 2.56 -2.55
-34.55 1.26 -1.96
-35.16 0.58 -2.02
-34.89 -0.13 -2.02
-35.25 -0.83 -2.06
-45.29 -1.98 -2.67
-34.97 -2.23 -2.08
-35.40 -2.98 -2.12
-35.61 -3.71 -2.16
-45.39 -5.66 -2.78
-11.56 -1.68 -0.72
-11.56 -1.91 -0.72
-11.48 -2.14 -0.73
-11.48 -2.38 -0.74
-11.61 -2.65 -0.75
-11.65 -2.91 -0.77
-34.86 -9.44 -2.32
-34.62 -10.13 -2.34
-34.43 -10.82 -2.36
-27.16 -9.14 -1.89
-25.40 -9.12 -1.79
-23.84 -9.10 -1.70
-22.43 -9.09 -1.63
-21.61 -9.26 -1.59
-21.61 -9.78 -1.62
-21.60 -10.31 -1.65
-21.60 -10.84 -1.67
-21.59 -11.39 -1.70
-21.58 -11.94 -1.73
-21.58 -12.51 -1.76
-21.57 -13.09 -1.79
-11.51 -7.30 -0.98
-11.46 -7.60 -0.99
-11.12 -7.71 -0.98
-11.49 -8.30 -1.03
-19.57 -14.75 -1.80
-21.53 -16.92 -2.02
-21.52 -17.62 -2.07
-21.51 -18.35 -2.11
-18.19 -16.16 -1.83
-21.49 -19.88 -2.21
-11.65 -11.21 -1.23
-11.51 -11.53 -1.25
-11.48 -11.97 -1.27
-21.52 -23.38 -2.45
-12.35 -13.97 -1.45
-11.69 -13.77 -1.41
-11.38 -13.96 -1.41
-5.96 -7.62 -0.76
-24.84 -33.12 -3.28
-12.13 -16.87 -1.65
-11.71 -17.00 -1.65
-11.25 -17.05 -1.64
-11.03 -17.47 -1.67
-21.68 -35.92 -3.39
-22.07 -38.28 -3.59
-22.51 -40.91 -3.81
-11.59 -23.23 -2.13
-11.26 -23.75 -2.17
-11.82 -26.28 -2.38
-11.34 -26.64 -2.40
-11.75 -29.23 -2.62
-11.26 -29.71 -2.65
17.06 -5.00 -0.90
2.49 9.75 -0.17
2.10 41.95 -0.64
-6.26 24.44 -0.37
-18.03 46.30 -0.74
-18.85 45.69 -0.75
-19.93 45.67 -0.76
-20.31 44.12 -0.74
-20.73 42.74 -0.73
-21.79 42.73 -0.75
-20.37 38.04 -0.68
-18.38 32.73 -0.60
-18.76 31.88 -0.60
-19.50 31.68 -0.61
-20.30 31.53 -0.62
-20.28 30.16 -0.61
-20.27 28.87 -0.59
-20.83 28.44 -0.60
-21.71 28.43 -0.62
-22.62 28.42 -0.64
-23.56 28.41 -0.66
-11.56 13.39 -0.32
-11.65 12.96 -0.32
-12.14 12.97 -0.33
-13.78 14.14 -0.37
-14.35 14.15 -0.39
-14.52 13.75 -0.39
-14.89 13.55 -0.40
-16.03 14.00 -0.43
-16.29 13.66 -0.43
-17.47 14.06 -0.46
-17.75 13.72 -0.47
-11.20 8.30 -0.30
-11.28 8.02 -0.30
-11.48 7.81 -0.31
-11.56 7.53 -0.31
-11.98 7.47 -0.32
-12.15 7.24 -0.33
-23.53 13.39 -0.64
-24.45 13.27 -0.67
-25.44 13.16 -0.70
-26.56 13.07 -0.73
-30.04 14.04 -0.83
-30.53 13.53 -0.85
-31.78 13.33 -0.90
-32.69 12.95 -0.93
-35.49 13.23 -1.02
-35.60 12.47 -1.03
-35.87 11.76 -1.05
-34.87 10.66 -1.03
-34.94 9.92 -1.04
-34.69 9.10 -1.04
-11.75 2.83 -0.36
-11.41 2.51 -0.35
-11.53 2.29 -0.36
-11.56 2.06 -0.36
-11.96 1.88 -0.38
-12.21 1.67 -0.39
-23.10 2.70 -0.75
-23.09 2.23 -0.76
-23.09 1.76 -0.77
-23.08 1.29 -0.78
-23.08 0.83 -0.79
-23.07 0.37 -0.80
-23.06 -0.10 -0.81
-22.64 -0.55 -0.81
-45.30 -2.01 -1.64
-35.56 -2.29 -1.31
-35.19 -2.98 -1.32
-35.05 -3.68 -1.33
-12.23 -1.53 -0.47
-11.92 -1.74 -0.47
-11.66 -1.94 -0.46
-11.36 -2.12 -0.46
-11.43 -2.37 -0.47
-11.72 -2.68 -0.49
-35.35 -8.84 -1.50
-34.95 -9.49 -1.51
-34.43 -10.09 -1.52
-34.35 -10.82 -1.54
-27.11 -9.14 -1.24
-25.36 -9.12 -1.18
-23.80 -9.10 -1.13
-22.40 -9.09 -1.08
-21.61 -9.28 -1.06
-21.61 -9.79 -1.08
-21.60 -10.32 -1.11
-21.60 -10.85 -1.13
-21.59 -11.40 -1.15
-21.58 -11.96 -1.17
-21.58 -12.53 -1.20
-11.75 -7.14 -0.67
-11.46 -7.28 -0.67
-11.29 -7.50 -0.67
-11.42 -7.92 -0.69
-11.66 -8.44 -0.73
-19.56 -14.76 -1.25
-21.53 -16.93 -1.40
-21.52 -17.64 -1.44
-21.51 -18.37 -1.47
-18.17 -16.16 -1.28
-12.05 -11.15 -0.87
-11.74 -11.31 -0.87
-11.40 -11.44 -0.87
-11.19 -11.69 -0.88
-21.45 -23.33 -1.73
-12.05 -13.64 -1.00
-11.60 -13.68 -0.99
-11.28 -13.86 -1.00
-5.95 -7.62 -0.54
-25.05 -33.42 -2.36
-12.15 -16.91 -1.18
-11.54 -16.76 -1.16
-11.34 -17.20 -1.19
-11.12 -17.62 -1.21
-20.12 -33.36 -2.27
-19.32 -33.53 -2.27
-19.56 -35.59 -2.39
-12.28 -23.45 -1.57
-11.52 -23.11 -1.54
-11.08 -23.40 -1.55
-11.76 -26.18 -1.73
-11.17 -26.27 -1.72
-11.78 -29.31 -1.92
-11.16 -29.48 -1.92
33.82 -4.94 -0.84
2.50 9.74 0.06
2.10 41.94 0.31
-6.27 24.44 0.20
-13.50 41.97 0.34
-14.61 42.47 0.35
-15.54 42.40 0.34
-16.28 41.80 0.34
-16.63 40.28 0.32
-19.98 45.77 0.37
-20.37 44.22 0.35
-20.73 42.74 0.34
-21.82 42.78 0.33
-20.37 38.02 0.29
-20.35 36.22 0.27
-18.89 32.10 0.24
-20.20 32.80 0.24
-20.30 31.52 0.23
-20.28 30.15 0.21
-20.27 28.86 0.20
-20.84 28.44 0.19
-21.72 28.43 0.19
-22.63 28.42 0.18
-23.57 28.41 0.17
-11.66 13.50 0.08
-11.77 13.08 0.07
-11.98 12.79 0.07
-12.45 12.77 0.07
-14.40 14.19 0.07
-14.40 13.63 0.06
-14.85 13.50 0.06
-15.97 13.94 0.05
-16.26 13.63 0.05
-17.03 13.70 0.04
-11.44 8.83 0.02
-11.28 8.36 0.02
-11.48 8.15 0.01
-11.40 7.75 0.01
-11.53 7.51 0.00
-11.48 7.15 -0.00
-12.15 7.23 -0.01
-23.42 13.32 -0.03
-24.38 13.22 -0.04
-25.89 13.38 -0.05
-27.77 13.65 -0.07
-29.91 13.96 -0.09
-30.50 13.50 -0.10
-31.64 13.25 -0.12
-33.77 13.35 -0.14
-35.39 13.18 -0.16
-35.45 12.40 -0.18
-35.73 11.70 -0.19
-34.63 10.57 -0.20
-34.92 9.90 -0.22
-11.77 3.08 -0.08
-11.40 2.74 -0.08
-11.53 2.53 -0.09
-11.66 2.31 -0.09
-11.67 2.07 -0.10
-11.83 1.86 -0.11
-26.03 3.56 -0.24
-35.22 4.09 -0.35
-35.34 3.39 -0.36
-35.41 2.68 -0.38
-34.30 1.91 -0.39
-34.45 1.22 -0.40
-34.68 0.53 -0.42
-35.34 -0.17 -0.45
-23.02 -0.57 -0.30
-45.30 -2.03 -0.62
-35.19 -2.29 -0.50
-35.52 -3.03 -0.52
-35.01 -3.69 -0.54
-45.27 -5.69 -0.72
-11.60 -1.70 -0.19
-11.57 -1.93 -0.20
-11.52 -2.16 -0.20
-11.42 -2.38 -0.21
-11.40 -2.62 -0.21
-35.46 -8.88 -0.68
-35.13 -9.56 -0.70
-34.27 -10.06 -0.70
-34.34 -10.84 -0.73
-27.18 -9.18 -0.59
-25.43 -9.16 -0.57
-23.76 -9.10 -0.55
-22.36 -9.09 -0.53
-21.68 -9.32 -0.53
-21.67 -9.84 -0.55
-21.67 -10.37 -0.57
-21.66 -10.90 -0.58
-21.65 -11.45 -0.60
-21.65 -12.01 -0.62
-21.64 -12.58 -0.64
-11.83 -7.20 -0.36
-11.56 -7.35 -0.36
-11.36 -7.55 -0.37
-11.34 -7.87 -0.38
-11.12 -8.06 -0.38
-19.55 -14.77 -0.69
-21.53 -16.95 -0.79
-21.52 -17.65 -0.81
-21.51 -18.38 -0.84
-18.16 -16.16 -0.73
-21.49 -19.92 -0.89
-11.71 -11.29 -0.50
-11.41 -11.46 -0.51
-11.50 -12.02 -0.53
-21.45 -23.35 -1.02
-12.03 -13.63 -0.59
-11.40 -13.46 -0.58
-11.24 -13.82 -0.59
-5.95 -7.62 -0.32
-25.05 -33.45 -1.42
-12.00 -16.72 -0.71
-11.63 -16.90 -0.71
-11.17 -16.95 -0.71
-11.14 -17.67 -0.74
-20.10 -33.36 -1.39
-19.71 -34.24 -1.42
-19.66 -35.79 -1.48
-12.18 -23.27 -0.96
-11.51 -23.10 -0.95
-11.04 -23.33 -0.96
-11.56 -25.77 -1.06
-11.14 -26.21 -1.08
-11.75 -29.27 -1.20
-11.15 -29.47 -1.21
2.50 9.74 0.29
2.11 41.94 1.26
-6.27 24.44 0.77
-10.50 37.79 1.19
-11.32 37.79 1.20
-12.15 37.78 1.20
-12.99 37.77 1.21
-13.84 37.76 1.21
-14.71 37.75 1.22
-15.58 37.74 1.22
-16.47 37.73 1.23
-17.38 37.72 1.23
-18.30 37.71 1.24
-19.24 37.70 1.25
-20.20 37.69 1.25
-20.35 36.20 1.21
-18.90 32.10 1.08
-20.20 32.79 1.11
-20.29 31.50 1.07
-20.28 30.13 1.03
-20.26 28.84 0.99
-20.85 28.44 0.99
-21.73 28.43 0.99
-22.14 27.79 0.98
-11.61 13.98 0.50
-11.60 13.42 0.48
-11.78 13.09 0.47
-12.16 12.97 0.47
-14.14 14.49 0.53
-14.53 14.30 0.53
-14.59 13.80 0.51
-16.04 14.57 0.55
-16.00 13.96 0.53
-16.26 13.62 0.52
-17.46 14.04 0.55
-17.90 13.81 0.54
-11.28 8.35 0.33
-11.36 8.06 0.33
-11.54 7.84 0.32
-11.64 7.57 0.31
-11.59 7.21 0.30
-12.35 7.34 0.31
-24.03 13.65 0.59
-25.83 13.99 0.62
-26.08 13.46 0.61
-27.77 13.63 0.63
-29.96 13.97 0.66
-30.38 13.43 0.65
-32.13 13.44 0.66
-33.89 13.38 0.68
-36.76 13.67 0.71
-35.73 12.48 0.67
-36.73 12.00 0.67
-34.70 10.57 0.61
-35.07 9.92 0.60
-35.18 9.20 0.58
-11.34 2.72 0.18
-11.41 2.50 0.18
-11.57 2.29 0.17
-11.57 2.05 0.17
-12.08 1.89 0.17
-35.42 4.82 0.47
-35.24 4.08 0.45
-35.35 3.37 0.43
-35.42 2.66 0.42
-34.53 1.90 0.39
-34.42 1.20 0.37
-34.90 0.52 0.36
-35.35 -0.19 0.35
-23.02 -0.58 0.21
-45.31 -2.06 0.40
-30.19 -1.98 0.25
-29.46 -2.53 0.23
-45.27 -4.80 0.33
-11.60 -1.47 0.08
-11.52 -1.69 0.07
-11.52 -1.93 0.07
-11.53 -2.17 0.06
-11.40 -2.38 0.06
-11.28 -2.59 0.05
-11.58 -2.91 0.05
-35.08 -9.56 0.12
-34.38 -10.12 0.10
-34.29 -10.84 0.08
-27.13 -9.18 0.05
-25.38 -9.16 0.04
-23.72 -9.10 0.02
-22.33 -9.09 0.01
-21.68 -9.34 -0.00
-21.67 -9.85 -0.01
-21.67 -10.38 -0.03
-21.66 -10.92 -0.04
-21.65 -11.46 -0.05
-21.65 -12.02 -0.06
-12.16 -7.07 -0.04
-12.09 -7.37 -0.05
-11.56 -7.36 -0.05
-11.27 -7.50 -0.06
-11.37 -7.90 -0.07
-11.26 -8.16 -0.07
-19.55 -14.78 -0.14
-21.57 -17.00 -0.17
-21.56 -17.71 -0.18
-21.51 -18.40 -0.20
-18.15 -16.16 -0.18
-12.03 -11.16 -0.13
-11.50 -11.10 -0.13
-11.32 -11.37 -0.14
-11.33 -11.86 -0.15
-21.52 -23.44 -0.30
-12.07 -13.69 -0.18
-11.50 -13.58 -0.18
-11.24 -13.82 -0.19
-5.95 -7.62 -0.11
-25.00 -33.41 -0.48
-12.05 -16.80 -0.24
-11.43 -16.63 -0.25
-11.21 -17.03 -0.25
-11.02 -17.50 -0.27
-20.09 -33.36 -0.51
-19.70 -34.26 -0.53
-19.65 -35.81 -0.56
-12.02 -22.99 -0.37
-11.52 -23.16 -0.37
-11.02 -23.31 -0.38
-11.67 -26.02 -0.43
-11.19 -26.35 -0.44
-10.88 -27.13 -0.45
-11.10 -29.37 -0.50
-14.05 -45.24 -0.78
-13.06 -45.23 -0.79
-12.08 -45.22 -0.79
-11.11 -45.21 -0.80
-10.15 -45.19 -0.80
-9.33 -45.86 -0.82
2.50 9.74 0.51
5.90 38.85 2.04
5.07 45.65 2.39
4.14 45.63 2.39
3.22 45.59 2.39
2.11 41.90 2.20
1.44 47.45 2.50
0.48 47.38 2.50
-0.47 47.31 2.50
-1.42 47.22 2.50
-2.36 47.12 2.50
-3.31 47.01 2.50
-4.25 46.90 2.50
-5.18 46.77 2.50
-6.12 46.63 2.50
-6.76 44.56 2.39
-7.66 44.41 2.39
-8.55 44.25 2.39
-9.44 44.09 2.39
-10.28 43.70 2.38
-6.26 24.41 1.34
-10.51 37.79 2.08
-11.33 37.79 2.09
-12.16 37.78 2.10
-9.73 28.26 1.58
-10.13 27.62 1.55
-10.77 27.63 1.56
-11.41 27.62 1.57
-12.05 27.58 1.58
-10.11 21.93 1.26
-10.57 21.77 1.26
-11.13 21.80 1.27
-11.68 21.79 1.28
-12.25 21.78 1.29
-12.81 21.74 1.30
-13.42 21.77 1.31
-9.95 15.44 0.94
-7.94 11.78 0.72
-15.29 21.75 1.35
-9.89 13.49 0.85
-11.82 15.45 0.98
-17.32 21.73 1.39
-9.73 11.72 0.76
-9.94 11.49 0.75
-11.81 13.11 0.87
-12.04 12.83 0.86
-14.03 14.37 0.98
-9.70 9.54 0.66
-14.44 13.65 0.96
-21.52 19.53 1.39
-15.88 13.84 1.00
-16.36 13.69 1.01
-17.58 14.12 1.06
-17.73 13.67 1.04
-11.59 8.57 0.67
-11.50 8.15 0.65
-11.48 7.80 0.63
-11.45 7.44 0.62
-11.99 7.46 0.63
-25.57 15.20 1.32
-26.76 15.19 1.35
-25.82 13.97 1.28
-27.67 14.26 1.35
-27.97 13.72 1.33
-30.17 14.05 1.41
-34.20 15.10 1.57
-30.03 12.54 1.35
-34.91 13.77 1.55
-36.76 13.65 1.60
-36.75 12.81 1.57
-36.74 11.99 1.54
-34.87 10.61 1.44
-36.72 10.37 1.49
-11.51 3.00 0.46
-11.32 2.71 0.44
-11.50 2.51 0.44
-11.39 2.25 0.43
-11.51 2.03 0.43
-11.73 1.83 0.43
-36.66 4.97 1.32
-36.65 4.22 1.30
-36.64 3.47 1.28
-36.64 2.73 1.26
-36.63 1.99 1.24
-34.68 1.19 1.16
-36.61 0.52 1.20
-36.79 -0.21 1.19
-23.02 -0.60 0.73
-30.71 -1.41 0.96
-45.30 -3.00 1.40
-36.68 -3.17 1.12
-36.56 -3.90 1.10
-36.66 -4.65 1.08
-11.69 -1.72 0.34
-11.51 -1.93 0.33
-11.38 -2.15 0.32
-11.49 -2.41 0.32
-11.70 -2.70 0.32
-35.30 -8.89 0.96
-36.49 -9.97 0.98
-34.50 -10.17 0.91
-34.58 -10.96 0.90
-27.08 -9.18 0.70
-25.34 -9.16 0.64
-21.28 -8.18 0.53
-22.29 -9.09 0.55
-21.68 -9.35 0.53
-21.67 -9.87 0.52
-21.67 -10.39 0.51
-21.66 -10.93 0.51
-21.65 -11.48 0.50
-21.65 -12.04 0.50
-12.13 -7.07 0.27
-11.86 -7.23 0.26
-11.65 -7.43 0.26
-11.40 -7.60 0.25
-11.39 -7.93 0.25
-11.34 -8.23 0.24
-19.54 -14.79 0.41
-21.57 -17.02 0.45
-21.56 -17.72 0.44
-21.51 -18.42 0.44
-18.13 -16.17 0.37
-12.05 -11.18 0.24
-11.57 -11.18 0.23
-11.27 -11.33 0.22
-11.20 -11.73 0.22
-12.39 -13.51 0.24
-12.07 -13.70 0.23
-11.58 -13.69 0.22
-11.28 -13.89 0.21
-5.94 -7.63 0.11
-24.98 -33.41 0.46
-12.03 -16.78 0.22
-11.55 -16.81 0.21
-11.22 -17.05 0.20
-11.09 -17.62 0.20
-20.07 -33.36 0.36
-19.84 -34.53 0.36
-19.82 -36.15 0.36
-11.93 -22.83 0.22
-11.46 -23.05 0.21
-11.03 -23.35 0.20
-11.68 -26.06 0.21
-11.16 -26.32 0.21
-10.74 -26.81 0.20
-11.07 -29.32 0.21
39.11 -9.03 1.65
42.83 -8.98 1.81
47.29 -8.93 2.02
44.05 -4.71 1.94
49.77 -2.31 2.26
49.28 -1.29 2.26
47.19 -0.29 2.18
14.66 39.92 3.08
13.75 39.90 3.06
12.89 39.98 3.06
6.10 20.33 1.55
11.19 40.16 3.06
2.50 9.74 0.74
6.04 25.65 1.94
7.65 35.65 2.69
6.79 35.06 2.65
5.49 31.77 2.39
4.84 31.80 2.39
4.19 31.82 2.39
3.54 31.84 2.39
2.76 30.35 2.28
2.25 31.84 2.39
1.68 33.20 2.50
1.01 33.18 2.50
0.34 33.15 2.50
-0.33 33.12 2.50
-0.99 33.07 2.50
-1.65 33.01 2.50
-2.32 32.95 2.50
-2.98 32.88 2.50
-3.63 32.79 2.50
-4.29 32.70 2.50
-4.95 32.60 2.50
-5.60 32.49 2.50
-6.10 31.59 2.44
-6.62 30.92 2.39
-7.24 30.79 2.39
-6.26 24.41 1.91
-8.48 30.50 2.39
-9.10 30.35 2.39
-9.72 30.18 2.39
-9.73 28.28 2.26
-10.13 27.61 2.22
-10.77 27.63 2.23
-11.41 27.62 2.25
-12.05 27.58 2.26
-10.11 21.92 1.81
-10.57 21.77 1.81
-11.13 21.80 1.83
-11.69 21.79 1.84
-12.25 21.78 1.86
-12.81 21.74 1.87
-13.43 21.77 1.89
-7.75 12.03 1.06
-7.89 11.71 1.04
-8.20 11.66 1.05
-9.75 13.29 1.21
-9.92 12.96 1.19
-12.24 15.35 1.43
-9.73 11.71 1.10
-9.94 11.49 1.10
-9.83 10.91 1.06
-9.83 10.48 1.03
-14.97 15.32 1.53
-9.71 9.55 0.97
-16.20 15.30 1.58
-9.81 8.90 0.93
-16.06 13.99 1.49
-15.27 12.78 1.39
-9.69 7.78 0.86
-9.72 7.49 0.85
-19.06 14.08 1.63
-11.54 8.17 0.97
-9.79 6.64 0.81
-11.58 7.52 0.94
-9.77 6.07 0.78
-9.67 5.74 0.75
-9.68 5.49 0.74
-25.79 13.94 1.94
-24.03 12.37 1.78
-24.86 12.18 1.81
-30.37 14.13 2.18
-28.67 12.64 2.02
-32.29 13.47 2.25
-32.77 12.91 2.25
-9.75 3.62 0.66
-19.37 6.74 1.29
-34.19 11.14 2.25
-34.66 10.52 2.25
-35.12 9.90 2.25
-11.57 3.01 0.73
-11.50 2.75 0.72
-11.52 2.51 0.71
-11.55 2.27 0.70
-11.63 2.05 0.70
-11.60 1.80 0.69
-36.66 4.95 2.16
-36.66 4.20 2.13
-36.64 3.45 2.11
-24.65 1.83 1.40
-24.89 1.34 1.40
-25.13 0.85 1.40
-36.61 0.50 2.03
-36.60 -0.23 2.01
-23.02 -0.61 1.25
-29.94 -1.39 1.62
-30.31 -2.02 1.62
-29.64 -2.58 1.57
-29.40 -3.15 1.55
-12.13 -1.55 0.63
-11.75 -1.74 0.61
-11.44 -1.93 0.59
-11.51 -2.18 0.59
-11.46 -2.41 0.58
-11.38 -2.63 0.58
-11.78 -2.97 0.59
-36.49 -9.99 1.83
-34.79 -10.28 1.74
-36.47 -11.58 1.81
-27.03 -9.18 1.34
-25.29 -9.16 1.25
-21.15 -8.14 1.04
-22.25 -9.09 1.09
-21.68 -9.36 1.06
-21.67 -9.88 1.06
-21.67 -10.41 1.06
-21.66 -10.95 1.06
-21.65 -11.49 1.05
-21.65 -12.05 1.05
-21.64 -12.62 1.05
-11.71 -7.15 0.57
-11.41 -7.28 0.56
-11.34 -7.56 0.55
-11.36 -7.91 0.56
-11.25 -8.17 0.55
-19.52 -14.79 0.96
-21.57 -17.03 1.07
-21.56 -17.74 1.07
-21.51 -18.44 1.08
-18.11 -16.16 0.91
-11.89 -11.05 0.60
-11.65 -11.27 0.60
-11.38 -11.46 0.59
-11.30 -11.85 0.59
-21.52 -23.48 1.13
-11.91 -13.53 0.63
-11.68 -13.82 0.63
-11.38 -14.02 0.62
-5.94 -7.63 0.33
-23.57 -31.56 1.32
-12.00 -16.76 0.69
-11.66 -17.00 0.68
-11.29 -17.18 0.67
-11.09 -17.63 0.67
-19.00 -31.61 1.18
-19.93 -34.71 1.26
-17.31 -31.60 1.12
-12.02 -23.03 0.80
-11.61 -23.36 0.80
-11.12 -23.56 0.79
-11.74 -26.23 0.86
-9.41 -22.21 0.72
-11.68 -29.18 0.93
-9.42 -24.98 0.78
-9.31 -26.25 0.81
-9.37 -28.21 0.85
-9.37 -30.21 0.90
-12.86 -44.64 1.31
-11.90 -44.66 1.30
-10.94 -44.61 1.28
-10.00 -44.64 1.27
-9.30 -45.78 1.28
2.98 -49.29 2.39
3.97 -49.27 2.39
4.97 -49.22 2.39
5.33 -43.96 2.14
5.56 -39.30 1.92
6.70 -36.69 1.80
19.34 -9.29 1.26
21.72 -9.38 1.41
24.29 -9.36 1.57
25.34 -9.18 1.64
26.96 -9.16 1.75
28.78 -9.14 1.87
30.84 -9.12 2.00
33.18 -9.09 2.16
34.67 -8.76 2.26
34.58 -8.00 2.26
34.48 -7.25 2.26
25.49 -4.83 1.67
28.74 -4.85 1.89
31.16 -4.62 2.06
33.95 -4.34 2.26
33.78 -3.63 2.26
33.61 -2.93 2.26
33.41 -2.24 2.26
33.21 -1.56 2.26
22.91 -0.61 1.57
45.73 -0.31 3.15
49.73 1.66 3.48
14.90 29.12 3.05
14.23 29.24 3.05
13.56 29.36 3.04
12.93 29.53 3.04
12.31 29.74 3.04
11.69 29.92 3.04
6.16 16.74 1.70
10.40 30.13 3.04
9.73 30.15 3.03
8.93 29.72 2.97
7.20 25.82 2.57
2.51 9.74 0.97
5.70 24.17 2.39
5.20 24.23 2.39
4.71 24.29 2.39
4.21 24.33 2.39
3.71 24.37 2.39
3.05 23.16 2.27
2.68 24.02 2.35
2.23 24.44 2.39
1.81 25.50 2.50
1.29 25.50 2.50
0.78 25.49 2.50
0.26 25.48 2.50
-0.25 25.46 2.50
-0.76 25.43 2.50
-1.27 25.39 2.50
-1.78 25.34 2.50
-2.29 25.29 2.50
-2.79 25.23 2.50
-3.30 25.16 2.50
-3.81 25.08 2.50
-4.31 25.00 2.50
-4.81 24.91 2.50
-5.31 24.81 2.50
-5.81 24.71 2.50
-6.05 23.58 2.39
-6.52 23.46 2.39
-7.00 23.34 2.39
-7.47 23.21 2.39
-7.94 23.07 2.39
-8.41 22.93 2.39
-8.88 22.77 2.39
-9.35 22.61 2.39
-9.81 22.45 2.39
-10.11 21.92 2.36
-10.58 21.77 2.36
-11.14 21.80 2.38
-11.69 21.79 2.40
-12.19 21.65 2.41
-12.64 21.44 2.41
-13.09 21.21 2.41
-7.75 12.02 1.38
-7.89 11.71 1.36
-8.21 11.66 1.37
-9.75 13.28 1.58
-9.75 12.73 1.53
-9.74 12.21 1.49
-9.73 11.71 1.45
-9.73 11.23 1.41
-9.72 10.78 1.37
-9.72 10.35 1.34
-9.71 9.94 1.31
-9.71 9.54 1.28
-9.71 9.16 1.25
-9.70 8.79 1.22
-9.70 8.44 1.19
-9.87 8.25 1.19
-9.69 7.77 1.14
-9.73 7.49 1.13
-19.03 14.05 2.16
-11.67 8.26 1.30
-11.72 7.95 1.29
-11.70 7.59 1.26
-9.78 6.07 1.04
-9.67 5.73 1.01
-9.69 5.49 0.99
-22.23 12.01 2.25
-22.57 11.61 2.25
-22.90 11.21 2.25
-23.23 10.79 2.25
-23.56 10.37 2.25
-9.76 4.07 0.92
-24.19 9.51 2.25
-9.64 3.57 0.88
-19.33 6.72 1.75
-9.75 3.17 0.87
-25.39 7.70 2.25
-9.74 2.74 0.85
-11.86 3.08 1.03
-9.74 2.32 0.83
-11.54 2.51 0.98
-9.73 1.91 0.82
-9.62 1.69 0.80
-9.62 1.49 0.79
-27.51 3.70 2.25
-27.74 3.16 2.25
-9.72 0.91 0.78
-9.71 0.71 0.77
-9.72 0.52 0.77
-28.60 0.95 2.25
-28.79 0.38 2.25
-28.98 -0.20 2.25
-9.60 -0.26 0.74
-9.60 -0.45 0.73
-29.48 -1.98 2.25
-28.90 -2.53 2.19
-29.77 -3.21 2.25
-12.26 -1.57 0.92
-11.54 -1.71 0.86
-11.58 -1.96 0.86
-11.50 -2.18 0.85
-11.36 -2.39 0.84
-9.58 -2.22 0.71
-9.58 -2.42 0.71
-30.51 -8.37 2.25
-30.55 -9.05 2.25
-30.58 -9.73 2.25
-26.85 -9.14 1.97
-25.13 -9.12 1.84
-21.14 -8.16 1.55
-22.22 -9.09 1.63
-9.74 -4.21 0.72
-9.55 -4.36 0.70
-21.53 -10.36 1.59
-21.52 -10.89 1.59
-21.52 -11.43 1.60
-21.51 -11.99 1.60
-21.50 -12.56 1.61
-11.96 -7.31 0.90
-9.72 -6.21 0.73
-9.53 -6.36 0.72
-11.31 -7.89 0.87
-11.38 -8.28 0.88
-19.37 -14.69 1.50
-21.57 -17.05 1.69
-21.56 -17.76 1.70
-9.58 -8.22 0.76
-9.51 -8.49 0.77
-9.63 -8.96 0.79
-9.62 -9.31 0.79
-9.62 -9.70 0.80
-9.63 -10.10 0.82
-9.64 -10.53 0.83
-9.52 -10.82 0.83
-11.72 -13.88 1.04
-9.62 -11.86 0.87
-5.94 -7.63 0.55
-7.59 -10.16 0.71
-7.42 -10.36 0.71
-11.71 -17.08 1.15
-9.57 -14.57 0.96
-11.18 -17.80 1.15
-18.92 -31.50 2.00
-9.51 -16.57 1.03
-9.55 -17.44 1.07
-16.42 -31.47 1.90
-11.63 -23.43 1.39
-11.19 -23.72 1.39
-9.37 -20.94 1.21
-9.35 -22.09 1.26
-9.34 -23.35 1.31
-9.32 -24.73 1.37
-9.31 -26.27 1.44
-9.29 -27.99 1.51
-9.27 -29.92 1.60
-9.02 -31.34 1.66
-11.85 -44.50 2.33
-10.50 -42.85 2.22
-9.99 -44.64 2.30
-9.30 -45.83 2.34
-8.60 -47.23 2.39
-7.68 -47.55 2.39
-6.74 -47.85 2.39
-5.80 -48.12 2.39
0.01 -35.02 2.50
0.72 -35.06 2.50
1.42 -35.07 2.50
2.12 -35.06 2.50
2.71 -33.59 2.39
3.26 -32.29 2.30
4.06 -33.49 2.39
4.73 -33.41 2.39
5.40 -33.32 2.39
6.07 -33.20 2.39
7.38 -36.29 2.63
10.17 -45.30 3.29
11.25 -45.81 3.35
6.57 -24.61 1.81
6.52 -21.01 1.56
13.40 -9.34 1.28
13.98 -9.33 1.32
16.69 -9.30 1.53
18.30 -9.26 1.66
19.23 -9.25 1.74
20.23 -9.24 1.82
21.33 -9.23 1.91
22.53 -9.21 2.01
23.84 -9.20 2.12
25.30 -9.18 2.25
25.45 -8.66 2.26
16.52 -5.26 1.46
17.11 -5.07 1.51
25.51 -7.01 2.26
25.51 -6.46 2.26
22.30 -5.17 1.97
22.35 -4.71 1.98
25.44 -4.83 2.26
25.39 -4.30 2.26
25.34 -3.77 2.26
25.27 -3.24 2.26
25.19 -2.72 2.26
25.10 -2.20 2.26
25.01 -1.69 2.26
14.77 -0.70 1.34
21.30 -0.58 1.94
16.91 25.04 3.45
16.16 25.00 3.41
15.42 24.94 3.37
14.72 24.91 3.33
14.03 24.88 3.30
13.37 24.86 3.27
6.20 12.10 1.58
12.18 25.02 3.24
6.18 13.37 1.72
10.99 25.08 3.20
6.18 14.90 1.89
9.60 24.56 3.10
8.72 23.71 2.98
7.55 21.86 2.73
7.01 21.71 2.70
5.82 19.34 2.39
5.42 19.42 2.39
2.51 9.74 1.20
4.62 19.55 2.39
4.21 19.61 2.39
3.81 19.66 2.39
3.41 19.70 2.39
2.90 19.03 2.31
2.48 18.76 2.27
2.21 19.79 2.39
1.89 20.66 2.50
1.47 20.68 2.50
1.05 20.68 2.50
0.63 20.68 2.50
0.22 20.67 2.50
-0.20 20.66 2.50
-0.61 20.63 2.50
-1.03 20.61 2.50
-1.44 20.57 2.50
-1.86 20.53 2.50
-2.27 20.48 2.50
-2.68 20.43 2.50
-3.09 20.37 2.50
-3.50 20.30 2.50
-3.91 20.23 2.50
-4.31 20.15 2.50
-4.72 20.06 2.50
-5.12 19.97 2.50
-5.53 19.87 2.50
-5.93 19.76 2.50
-6.07 18.83 2.39
-6.45 18.72 2.39
-6.83 18.60 2.39
-7.21 18.47 2.39
-7.58 18.34 2.39
-7.96 18.20 2.39
-8.33 18.06 2.39
-8.70 17.90 2.39
-9.07 17.75 2.39
-9.44 17.58 2.39
-9.81 17.41 2.39
-10.15 17.21 2.39
-10.45 16.92 2.37
-7.75 12.01 1.70
-7.89 11.71 1.68
-8.21 11.67 1.69
-9.75 13.28 1.95
-9.75 12.72 1.90
-9.74 12.20 1.84
-9.73 11.70 1.79
-9.73 11.23 1.75
-9.72 10.78 1.70
-9.72 10.34 1.66
-9.71 9.93 1.62
-9.71 9.53 1.59
-9.71 9.15 1.55
-9.70 8.79 1.52
-9.70 8.44 1.49
-9.69 8.10 1.46
-9.69 7.77 1.43
-9.69 7.45 1.40
-9.68 7.14 1.37
-9.68 6.84 1.35
-9.68 6.55 1.33
-9.67 6.27 1.30
-9.67 6.00 1.28
-9.67 5.73 1.26
-9.66 5.47 1.24
-9.66 5.21 1.23
-9.66 4.96 1.21
-9.66 4.72 1.19
-9.77 4.53 1.19
-18.69 8.22 2.25
-18.92 7.87 2.25
-9.65 3.79 1.13
-9.64 3.56 1.12
-18.42 6.39 2.11
-9.75 3.16 1.10
-18.82 5.69 2.11
-9.74 2.74 1.08
-20.42 5.29 2.25
-9.74 2.32 1.06
-11.67 2.53 1.26
-9.73 1.91 1.04
-9.62 1.68 1.02
-9.65 1.49 1.02
-21.48 2.88 2.25
-21.63 2.46 2.25
-9.72 0.91 1.00
-21.92 1.60 2.25
-22.06 1.16 2.25
-9.71 0.32 0.98
-22.30 0.28 2.25
-22.41 -0.17 2.25
-9.60 -0.26 0.96
-9.60 -0.46 0.95
-9.71 -0.66 0.96
-22.78 -2.01 2.25
-22.86 -2.47 2.25
-9.70 -1.25 0.95
-11.78 -1.76 1.15
-11.65 -1.98 1.14
-9.69 -1.84 0.94
-11.48 -2.43 1.12
-9.58 -2.22 0.93
-9.58 -2.43 0.93
-23.12 -6.36 2.25
-23.11 -6.86 2.25
-9.68 -3.08 0.94
-23.07 -7.86 2.25
-9.67 -3.52 0.94
-21.20 -8.19 2.07
-22.18 -9.09 2.17
-9.67 -4.19 0.95
-9.55 -4.37 0.94
-9.66 -4.65 0.96
-21.59 -10.94 2.15
-21.59 -11.49 2.16
-21.58 -12.05 2.17
-21.58 -12.62 2.18
-12.08 -7.39 1.23
-9.64 -6.17 0.99
-9.53 -6.37 0.98
-11.45 -7.99 1.19
-9.62 -7.00 1.01
-19.21 -14.59 2.04
-18.86 -14.92 2.02
-9.61 -7.93 1.04
-9.57 -8.22 1.05
-9.51 -8.50 1.06
-12.02 -11.19 1.35
-11.57 -11.21 1.32
-11.46 -11.56 1.33
-11.39 -11.96 1.34
-9.63 -10.53 1.15
-9.52 -10.83 1.16
-11.69 -13.86 1.45
-9.61 -11.87 1.21
-5.94 -7.64 0.77
-7.52 -10.08 0.99
-7.34 -10.27 0.99
-9.48 -13.84 1.31
-9.47 -14.44 1.34
-9.47 -15.08 1.38
-9.46 -15.76 1.42
-9.45 -16.49 1.46
-9.44 -17.27 1.50
-9.00 -17.27 1.48
-8.70 -17.55 1.48
-11.25 -23.87 1.99
-9.37 -20.96 1.73
-9.35 -22.11 1.80
-9.34 -23.37 1.88
-9.32 -24.76 1.97
-9.31 -26.29 2.07
-9.29 -28.01 2.18
-9.27 -29.94 2.31
-9.01 -31.32 2.39
-8.40 -31.58 2.39
-3.72 -15.19 1.14
-3.40 -15.19 1.13
-3.08 -15.19 1.13
-2.76 -15.19 1.12
-2.53 -15.68 1.15
-4.82 -34.27 2.50
-4.14 -34.44 2.50
-3.46 -34.58 2.50
-2.77 -34.70 2.50
-2.08 -34.81 2.50
-1.38 -34.90 2.50
-0.69 -34.97 2.50
0.01 -26.57 2.50
0.55 -26.59 2.50
1.08 -26.59 2.50
1.61 -26.58 2.50
2.15 -26.56 2.50
2.60 -25.74 2.42
3.08 -25.38 2.39
3.59 -25.32 2.39
4.09 -25.25 2.39
4.60 -25.16 2.39
5.10 -25.06 2.39
5.60 -24.95 2.39
6.09 -24.82 2.39
6.59 -24.69 2.39
11.03 -38.23 3.73
12.13 -39.11 3.84
13.27 -39.94 3.95
6.51 -18.36 1.83
16.48 -43.67 4.39
6.45 -15.23 1.56
10.60 -9.47 1.41
10.92 -9.37 1.43
13.05 -9.50 1.63
13.36 -9.32 1.65
13.93 -9.31 1.70
14.54 -9.30 1.76
15.20 -9.30 1.82
15.89 -9.29 1.89
16.63 -9.28 1.96
17.43 -9.27 2.04
18.28 -9.26 2.13
19.21 -9.25 2.22
19.64 -8.98 2.26
19.73 -8.55 2.26
19.82 -8.12 2.26
19.90 -7.69 2.26
19.97 -7.26 2.26
20.02 -6.83 2.26
16.50 -5.26 1.85
17.10 -5.08 1.92
20.14 -5.54 2.26
19.33 -4.90 2.16
20.18 -4.69 2.26
20.18 -4.27 2.26
20.17 -3.84 2.26
20.16 -3.42 2.26
20.14 -3.01 2.26
20.11 -2.59 2.26
20.07 -2.18 2.26
20.02 -1.77 2.26
11.86 -0.81 1.34
14.39 -0.69 1.63
21.00 -0.59 2.39
4.47 2.65 0.66
4.32 2.67 0.65
4.25 2.75 0.65
4.23 2.86 0.66
18.18 23.68 4.06
17.11 23.24 3.93
16.40 23.24 3.89
15.70 23.24 3.84
6.22 9.62 1.57
14.33 23.16 3.75
13.67 23.12 3.71
13.03 23.09 3.67
12.39 23.01 3.63
11.76 22.94 3.58
11.16 22.89 3.55
6.19 13.37 2.06
9.79 22.32 3.41
6.17 14.88 2.26
7.24 18.50 2.79
5.88 15.96 2.39
5.55 16.05 2.39
5.21 16.13 2.39
4.88 16.21 2.39
4.55 16.28 2.39
2.50 9.71 1.42
3.88 16.40 2.39
3.54 16.45 2.39
3.07 15.81 2.29
2.82 16.26 2.35
2.48 16.22 2.34
2.19 16.60 2.39
1.94 17.34 2.50
1.59 17.36 2.50
1.24 17.37 2.50
0.88 17.38 2.50
0.53 17.38 2.50
0.18 17.37 2.50
-0.17 17.36 2.50
-0.52 17.35 2.50
-0.86 17.33 2.50
-1.21 17.30 2.50
-1.56 17.26 2.50
-1.91 17.22 2.50
-2.25 17.18 2.50
-2.60 17.13 2.50
-2.94 17.07 2.50
-3.29 17.01 2.50
-3.63 16.94 2.50
-3.97 16.87 2.50
-4.31 16.79 2.50
-4.65 16.70 2.50
-4.99 16.61 2.50
-5.32 16.52 2.50
-5.66 16.42 2.50
-5.93 16.13 2.47
-6.06 15.53 2.39
-6.37 15.41 2.39
-6.69 15.29 2.39
-7.00 15.17 2.39
-7.31 15.04 2.39
-7.62 14.90 2.39
-7.93 14.76 2.39
-8.23 14.62 2.39
-8.54 14.47 2.39
-8.84 14.31 2.39
-7.75 12.00 2.03
-7.90 11.70 2.00
-8.22 11.67 2.02
-9.75 13.27 2.33
-9.75 12.72 2.26
-9.74 12.19 2.20
-9.73 11.69 2.14
-9.73 11.22 2.09
-9.72 10.77 2.03
-9.72 10.34 1.99
-9.71 9.92 1.94
-9.71 9.53 1.90
-9.71 9.15 1.86
-9.70 8.78 1.82
-9.70 8.43 1.78
-9.69 8.09 1.74
-9.69 7.76 1.71
-9.69 7.44 1.68
-9.68 7.14 1.65
-9.68 6.84 1.62
-9.68 6.55 1.59
-9.67 6.27 1.57
-9.67 5.99 1.54
-9.67 5.72 1.52
-9.66 5.46 1.50
-9.66 5.21 1.48
-9.66 4.96 1.46
-9.66 4.71 1.44
-9.65 4.47 1.42
-9.65 4.24 1.40
-9.65 4.01 1.38
-9.65 3.78 1.37
-9.64 3.56 1.35
-9.64 3.34 1.34
-9.64 3.12 1.32
-9.64 2.91 1.31
-9.63 2.70 1.30
-9.63 2.49 1.29
-9.63 2.28 1.27
-9.63 2.08 1.26
-9.62 1.88 1.25
-9.62 1.68 1.24
-9.69 1.49 1.24
-9.62 1.28 1.23
-9.61 1.09 1.22
-9.61 0.89 1.21
-9.61 0.70 1.20
-9.61 0.50 1.20
-9.61 0.31 1.19
-9.64 0.12 1.19
-9.67 -0.08 1.19
-9.60 -0.27 1.18
-9.60 -0.46 1.17
-9.77 -0.67 1.19
-9.80 -0.87 1.19
-9.82 -1.07 1.19
-9.70 -1.25 1.17
-12.09 -1.81 1.46
-11.73 -2.00 1.41
-9.69 -1.85 1.17
-11.67 -2.47 1.41
-9.58 -2.23 1.15
-9.58 -2.43 1.16
-18.69 -5.15 2.26
-18.68 -5.55 2.26
-9.68 -3.09 1.17
-18.50 -6.32 2.25
-9.67 -3.52 1.18
-9.74 -3.77 1.19
-9.70 -3.98 1.19
-9.66 -4.19 1.19
-9.55 -4.37 1.18
-9.57 -4.62 1.19
-9.55 -4.84 1.19
-9.55 -5.09 1.20
-9.54 -5.33 1.21
-9.54 -5.59 1.22
-9.54 -5.84 1.23
-9.53 -6.11 1.23
-9.53 -6.38 1.25
-9.51 -6.65 1.25
-9.51 -6.93 1.27
-9.51 -7.23 1.28
-9.51 -7.53 1.30
-9.51 -7.85 1.31
-9.51 -8.17 1.33
-9.51 -8.51 1.35
-9.52 -8.87 1.37
-9.52 -9.23 1.39
-9.52 -9.61 1.41
-9.52 -10.00 1.43
-9.52 -10.41 1.46
-9.52 -10.84 1.49
-9.51 -11.28 1.51
-9.51 -11.74 1.54
-5.94 -7.64 0.99
-7.51 -10.09 1.28
-7.34 -10.27 1.28
-9.48 -13.85 1.69
-9.47 -14.45 1.74
-9.47 -15.09 1.78
-9.46 -15.78 1.83
-9.45 -16.50 1.89
-9.44 -17.28 1.95
-9.00 -17.29 1.93
-8.73 -17.61 1.94
-8.63 -18.32 1.99
-8.19 -18.34 1.97
-9.35 -22.12 2.34
-8.22 -20.58 2.16
-6.09 -16.19 1.68
-5.76 -16.29 1.67
-7.79 -23.52 2.39
-7.34 -23.73 2.39
-6.88 -23.93 2.39
-3.79 -14.25 1.41
-3.52 -14.38 1.42
-3.24 -14.51 1.42
-2.96 -14.62 1.42
-2.68 -14.73 1.42
-2.40 -14.89 1.43
-2.41 -17.12 1.64
-3.15 -26.19 2.50
-2.63 -26.28 2.50
-2.10 -26.37 2.50
-1.58 -26.44 2.50
-1.05 -26.50 2.50
-0.52 -26.54 2.50
0.01 -21.39 2.50
0.44 -21.40 2.50
0.87 -21.40 2.50
1.30 -21.39 2.50
1.73 -21.37 2.50
2.15 -21.34 2.50
2.54 -20.94 2.46
2.88 -20.37 2.39
3.24 -19.97 2.35
3.51 -19.21 2.27
4.10 -20.16 2.39
4.50 -20.07 2.39
4.90 -19.97 2.39
5.30 -19.86 2.39
5.69 -19.74 2.39
6.08 -19.61 2.39
6.47 -19.48 2.39
6.50 -18.32 2.27
13.60 -36.06 4.50
14.75 -36.85 4.64
6.49 -15.31 1.95
6.45 -14.42 1.85
6.44 -12.96 1.70
6.42 -11.72 1.57
8.02 -9.50 1.49
8.26 -9.40 1.50
9.71 -9.41 1.64
10.05 -9.35 1.67
10.45 -9.35 1.71
10.88 -9.34 1.75
11.33 -9.34 1.80
11.79 -9.33 1.85
12.28 -9.33 1.90
12.80 -9.32 1.96
13.34 -9.32 2.02
13.92 -9.31 2.08
14.53 -9.30 2.15
15.18 -9.30 2.22
15.54 -9.09 2.26
15.67 -8.75 2.26
15.79 -8.41 2.26
15.91 -8.07 2.26
16.02 -7.72 2.26
16.11 -7.38 2.26
16.21 -7.03 2.26
16.29 -6.68 2.26
16.36 -6.33 2.26
13.89 -5.06 1.91
14.07 -4.81 1.93
15.02 -4.80 2.05
16.59 -4.93 2.26
16.63 -4.58 2.26
16.66 -4.23 2.26
16.68 -3.89 2.26
16.69 -3.54 2.26
16.70 -3.19 2.26
16.70 -2.85 2.26
16.69 -2.50 2.26
16.68 -2.16 2.26
16.66 -1.82 2.26
9.29 -0.83 1.26
11.71 -0.80 1.59
13.75 -0.67 1.87
20.70 -0.59 2.83
49.36 0.58 6.80
4.50 2.54 0.78
4.31 2.55 0.76
4.22 2.61 0.75
4.16 2.69 0.75
4.12 2.78 0.76
4.13 2.91 0.77
19.48 22.42 4.69
6.25 7.49 1.54
17.51 21.86 4.44
16.79 21.85 4.38
16.11 21.86 4.33
6.23 8.83 1.73
14.77 21.83 4.22
14.11 21.79 4.16
13.48 21.77 4.12
12.82 21.67 4.06
12.18 21.55 4.00
6.23 11.56 2.12
10.92 21.29 3.88
10.21 20.93 3.78
6.19 13.37 2.40
5.90 13.45 2.39
5.62 13.55 2.39
5.34 13.63 2.39
5.06 13.72 2.39
4.77 13.79 2.39
4.49 13.87 2.39
4.20 13.93 2.39
3.91 14.00 2.39
2.50 9.71 1.65
3.34 14.11 2.39
3.05 14.15 2.39
2.76 14.20 2.39
2.47 14.23 2.39
2.18 14.27 2.39
1.97 14.91 2.50
1.67 14.93 2.50
1.37 14.95 2.50
1.07 14.96 2.50
0.76 14.97 2.50
0.46 14.97 2.50
0.16 14.97 2.50
-0.14 14.96 2.50
-0.44 14.95 2.50
-0.74 14.93 2.50
-1.04 14.91 2.50
-1.34 14.88 2.50
-1.64 14.85 2.50
-1.94 14.81 2.50
-2.24 14.77 2.50
-2.54 14.72 2.50
-2.83 14.66 2.50
-3.13 14.60 2.50
-3.42 14.54 2.50
-3.71 14.47 2.50
-4.01 14.40 2.50
-4.30 14.32 2.50
-4.59 14.23 2.50
-4.88 14.15 2.50
-5.16 14.05 2.50
-5.45 13.95 2.50
-5.73 13.85 2.50
-5.89 13.47 2.45
-6.03 13.06 2.39
-6.30 12.95 2.39
-6.57 12.83 2.39
-6.83 12.71 2.39
-7.09 12.58 2.39
-7.35 12.45 2.39
-7.61 12.31 2.39
-7.86 12.17 2.39
-8.10 12.00 2.39
-8.37 11.88 2.39
-8.62 11.72 2.39
-8.87 11.56 2.39
-9.11 11.40 2.39
-9.35 11.23 2.39
-9.59 11.05 2.39
-9.72 10.76 2.37
-9.72 10.33 2.31
-9.71 9.92 2.26
-9.71 9.52 2.21
-9.71 9.14 2.16
-9.70 8.78 2.12
-9.70 8.42 2.07
-9.69 8.08 2.03
-9.69 7.76 2.00
-9.69 7.44 1.96
-9.68 7.13 1.93
-9.68 6.83 1.89
-9.68 6.54 1.86
-9.67 6.26 1.83
-9.67 5.98 1.80
-9.67 5.72 1.78
-9.66 5.46 1.75
-9.66 5.20 1.73
-9.66 4.95 1.70
-9.66 4.71 1.68
-9.65 4.47 1.66
-9.65 4.23 1.64
-9.65 4.00 1.62
-9.65 3.78 1.61
-9.64 3.55 1.59
-9.64 3.33 1.57
-9.64 3.12 1.56
-9.64 2.90 1.54
-9.63 2.69 1.53
-9.63 2.49 1.51
-9.63 2.28 1.50
-9.63 2.08 1.49
-9.62 1.87 1.48
-9.62 1.67 1.47
-9.62 1.47 1.46
-9.62 1.28 1.45
-9.61 1.08 1.44
-9.61 0.89 1.43
-9.61 0.69 1.43
-9.61 0.50 1.42
-9.61 0.30 1.41
-9.60 0.11 1.41
-9.60 -0.08 1.40
-9.60 -0.28 1.40
-9.60 -0.47 1.39
-9.60 -0.66 1.39
-9.59 -0.86 1.39
-9.59 -1.05 1.38
-9.59 -1.24 1.38
-9.59 -1.44 1.38
-9.58 -1.64 1.38
-9.58 -1.84 1.38
-9.58 -2.04 1.38
-9.58 -2.24 1.38
-9.58 -2.44 1.38
-9.57 -2.64 1.38
-9.57 -2.85 1.39
-9.57 -3.06 1.39
-9.57 -3.27 1.39
-9.56 -3.49 1.40
-9.56 -3.71 1.40
-9.56 -3.93 1.41
-9.56 -4.15 1.41
-9.55 -4.38 1.42
-9.55 -4.61 1.43
-9.55 -4.85 1.44
-9.55 -5.09 1.45
-9.54 -5.34 1.46
-9.54 -5.59 1.47
-9.54 -5.85 1.48
-9.53 -6.11 1.49
-9.53 -6.39 1.51
-9.51 -6.65 1.52
-9.51 -6.94 1.54
-9.51 -7.24 1.55
-9.51 -7.54 1.57
-9.51 -7.86 1.59
-9.51 -8.18 1.61
-9.52 -8.53 1.64
-9.52 -8.88 1.66
-9.52 -9.24 1.69
-9.52 -9.62 1.72
-9.52 -10.01 1.75
-9.52 -10.42 1.78
-9.52 -10.85 1.82
-9.51 -11.29 1.85
-9.51 -11.76 1.89
-5.93 -7.65 1.21
-7.51 -10.09 1.56
-7.34 -10.28 1.56
-9.48 -13.86 2.08
-9.47 -14.47 2.13
-9.47 -15.11 2.19
-9.46 -15.79 2.26
-9.45 -16.52 2.33
-9.41 -17.24 2.39
-9.01 -17.31 2.37
-8.76 -17.69 2.39
-8.42 -17.90 2.39
-8.08 -18.11 2.39
-7.74 -18.31 2.39
-7.38 -18.51 2.39
-7.03 -18.69 2.39
-6.67 -18.87 2.39
-6.30 -19.04 2.39
-5.93 -19.20 2.39
-5.55 -19.35 2.39
-3.72 -14.02 1.72
-3.42 -14.02 1.71
-3.13 -14.02 1.70
-2.84 -14.02 1.69
-2.54 -14.03 1.68
-2.40 -14.91 1.78
-2.39 -17.04 2.02
-2.53 -21.11 2.50
-2.11 -21.18 2.50
-1.69 -21.24 2.50
-1.27 -21.30 2.50
-0.84 -21.34 2.50
-0.41 -21.37 2.50
0.01 -17.88 2.50
0.37 -17.89 2.50
0.73 -17.89 2.50
1.09 -17.88 2.50
1.44 -17.86 2.50
1.80 -17.83 2.50
2.16 -17.80 2.50
2.50 -17.67 2.49
2.75 -16.97 2.39
2.93 -16.05 2.27
3.29 -16.19 2.30
3.76 -16.77 2.39
4.10 -16.69 2.39
4.43 -16.60 2.39
4.76 -16.50 2.39
5.08 -16.39 2.39
5.41 -16.28 2.39
5.73 -16.16 2.39
6.05 -16.03 2.39
6.36 -15.90 2.39
6.48 -15.31 2.33
15.15 -33.87 5.20
16.34 -34.64 5.37
17.69 -35.63 5.58
6.43 -12.33 1.95
21.13 -38.61 6.19
6.40 -9.75 1.65
6.54 -9.55 1.64
6.72 -9.41 1.64
7.00 -9.39 1.66
7.29 -9.39 1.69
7.60 -9.38 1.72
7.91 -9.38 1.75
8.23 -9.37 1.78
8.57 -9.37 1.82
8.92 -9.37 1.86
9.28 -9.36 1.90
9.65 -9.36 1.94
10.04 -9.35 1.98
10.45 -9.35 2.03
10.87 -9.35 2.08
11.32 -9.34 2.13
11.78 -9.33 2.19
12.27 -9.33 2.25
12.46 -9.08 2.26
12.60 -8.81 2.26
12.75 -8.53 2.26
12.88 -8.26 2.26
13.01 -7.98 2.26
13.13 -7.69 2.26
13.25 -7.41 2.26
13.36 -7.12 2.26
13.46 -6.84 2.26
13.56 -6.55 2.26
11.46 -5.25 1.89
11.53 -5.01 1.89
11.77 -4.83 1.92
13.88 -5.38 2.26
13.95 -5.09 2.26
14.01 -4.79 2.26
14.06 -4.50 2.26
14.10 -4.20 2.26
14.14 -3.91 2.26
14.17 -3.61 2.26
14.20 -3.32 2.26
14.22 -3.02 2.26
14.23 -2.73 2.26
14.24 -2.43 2.26
14.24 -2.14 2.26
14.24 -1.85 2.26
14.23 -1.56 2.26
9.20 -0.82 1.46
10.31 -0.71 1.64
13.62 -0.67 2.17
20.42 -0.59 3.26
49.36 -0.44 7.91
48.97 0.54 7.87
49.14 1.53 7.92
49.29 2.53 7.98
4.40 2.48 0.88
4.26 2.52 0.86
4.17 2.58 0.85
4.11 2.66 0.86
4.08 2.75 0.86
4.07 2.87 0.88
4.19 3.08 0.92
6.28 5.90 1.54
6.26 6.13 1.57
20.19 21.40 5.30
18.83 20.79 5.06
17.98 20.67 4.96
17.21 20.61 4.87
16.55 20.64 4.81
6.25 8.13 1.87
15.26 20.69 4.69
6.23 8.82 1.97
13.95 20.61 4.56
13.32 20.56 4.50
12.67 20.44 4.42
12.03 20.32 4.35
11.42 20.20 4.28
6.14 11.39 2.39
5.90 11.50 2.39
5.66 11.59 2.39
5.42 11.69 2.39
5.17 11.77 2.39
4.93 11.86 2.39
4.68 11.94 2.39
4.43 12.01 2.39
4.18 12.08 2.39
3.93 12.15 2.39
3.68 12.21 2.39
3.43 12.27 2.39
2.51 9.71 1.89
2.93 12.37 2.39
2.68 12.41 2.39
2.42 12.45 2.39
2.17 12.50 2.40
2.00 13.05 2.50
1.73 13.08 2.50
1.47 13.10 2.50
1.20 13.12 2.50
0.94 13.13 2.50
0.67 13.14 2.50
0.41 13.14 2.50
0.14 13.14 2.50
-0.12 13.13 2.50
-0.39 13.12 2.50
-0.65 13.11 2.50
-0.92 13.09 2.50
-1.18 13.06 2.50
-1.44 13.04 2.50
-1.70 13.00 2.50
-1.97 12.96 2.50
-2.23 12.92 2.50
-2.49 12.87 2.50
-2.75 12.82 2.50
-3.00 12.77 2.50
-3.26 12.70 2.50
-3.52 12.64 2.50
-3.77 12.57 2.50
-4.03 12.50 2.50
-4.28 12.42 2.50
-4.53 12.33 2.50
-4.78 12.25 2.50
-5.03 12.15 2.50
-5.28 12.06 2.50
-5.52 11.96 2.50
-5.77 11.85 2.50
-5.87 11.47 2.44
-5.99 11.15 2.39
-6.22 11.03 2.39
-6.45 10.92 2.39
-6.67 10.80 2.39
-6.90 10.67 2.39
-7.12 10.54 2.39
-7.34 10.41 2.39
-7.56 10.27 2.39
-7.77 10.13 2.39
-7.98 9.98 2.39
-8.19 9.83 2.39
-8.40 9.68 2.39
-8.61 9.52 2.39
-8.81 9.36 2.39
-9.01 9.19 2.39
-9.21 9.03 2.39
-9.41 8.85 2.39
-9.60 8.68 2.39
-9.70 8.42 2.37
-9.69 8.08 2.33
-9.69 7.75 2.28
-9.69 7.43 2.24
-9.68 7.12 2.20
-9.68 6.83 2.17
-9.68 6.54 2.13
-9.67 6.25 2.10
-9.67 5.98 2.07
-9.67 5.71 2.04
-9.66 5.45 2.01
-9.66 5.20 1.98
-9.66 4.95 1.96
-9.66 4.70 1.93
-9.65 4.46 1.91
-9.65 4.23 1.89
-9.65 4.00 1.86
-9.65 3.77 1.84
-9.64 3.55 1.83
-9.64 3.33 1.81
-9.64 3.11 1.79
-9.64 2.90 1.77
-9.63 2.69 1.76
-9.63 2.48 1.74
-9.63 2.27 1.73
-9.63 2.07 1.72
-9.62 1.87 1.71
-9.62 1.67 1.69
-9.62 1.47 1.68
-9.62 1.27 1.67
-9.61 1.08 1.66
-9.61 0.88 1.66
-9.61 0.69 1.65
-9.61 0.49 1.64
-9.61 0.30 1.63
-9.60 0.10 1.63
-9.60 -0.09 1.62
-9.60 -0.28 1.62
-9.60 -0.47 1.61
-9.60 -0.67 1.61
-9.59 -0.86 1.61
-9.59 -1.05 1.61
-9.59 -1.25 1.60
-9.59 -1.45 1.60
-9.58 -1.64 1.60
-9.58 -1.84 1.60
-9.58 -2.04 1.60
-9.58 -2.24 1.61
-9.58 -2.45 1.61
-9.57 -2.65 1.61
-9.57 -2.86 1.62
-9.57 -3.07 1.62
-9.57 -3.28 1.63
-9.56 -3.49 1.63
-9.56 -3.71 1.64
-9.56 -3.93 1.65
-9.56 -4.16 1.65
-9.55 -4.39 1.66
-9.55 -4.62 1.67
-9.55 -4.86 1.69
-9.55 -5.10 1.70
-9.54 -5.35 1.71
-9.54 -5.60 1.72
-9.54 -5.86 1.74
-9.53 -6.12 1.75
-9.53 -6.39 1.77
-9.51 -6.66 1.79
-9.51 -6.95 1.81
-9.51 -7.24 1.83
-9.51 -7.55 1.85
-9.51 -7.86 1.88
-9.51 -8.19 1.90
-9.52 -8.54 1.93
-9.52 -8.89 1.96
-9.52 -9.25 2.00
-9.52 -9.63 2.03
-9.52 -10.02 2.07
-9.52 -10.43 2.11
-9.52 -10.86 2.15
-9.51 -11.30 2.19
-9.51 -11.77 2.24
-5.91 -7.63 1.42
-7.50 -10.09 1.85
-7.33 -10.28 1.85
-9.22 -13.49 2.39
-8.97 -13.71 2.39
-8.71 -13.92 2.39
-8.45 -14.12 2.39
-8.19 -14.32 2.39
-7.92 -14.51 2.39
-7.64 -14.70 2.39
-7.36 -14.88 2.39
-7.08 -15.06 2.39
-6.79 -15.22 2.39
-6.49 -15.39 2.39
-6.20 -15.54 2.39
-5.90 -15.69 2.39
-5.59 -15.84 2.39
-5.51 -16.66 2.50
-5.18 -16.80 2.50
-4.85 -16.92 2.50
-3.72 -14.01 2.05
-3.42 -14.01 2.04
-3.12 -14.02 2.03
-2.83 -14.02 2.02
-2.54 -14.02 2.01
-2.34 -14.56 2.07
-2.41 -17.19 2.44
-2.12 -17.67 2.50
-1.77 -17.72 2.50
-1.41 -17.77 2.50
-1.06 -17.81 2.50
-0.70 -17.84 2.50
-0.34 -17.87 2.50
0.01 -15.35 2.50
0.32 -15.35 2.50
0.63 -15.35 2.50
0.93 -15.34 2.50
1.24 -15.33 2.50
1.55 -15.30 2.50
1.85 -15.27 2.50
2.16 -15.23 2.50
2.46 -15.19 2.50
2.66 -14.55 2.40
2.82 -13.85 2.29
3.17 -14.15 2.35
3.40 -13.87 2.32
3.80 -14.24 2.39
4.08 -14.16 2.39
4.36 -14.07 2.39
4.64 -13.97 2.39
4.92 -13.87 2.39
5.19 -13.76 2.39
5.46 -13.65 2.39
5.73 -13.53 2.39
5.99 -13.40 2.39
6.25 -13.27 2.39
6.73 -13.57 2.47
6.43 -12.33 2.27
7.26 -13.27 2.48
7.52 -13.11 2.48
20.88 -34.80 6.66
6.41 -10.21 1.98
23.14 -35.29 6.94
6.43 -9.40 1.87
6.71 -9.39 1.90
7.00 -9.39 1.93
7.29 -9.39 1.96
7.59 -9.38 2.00
7.91 -9.38 2.03
8.23 -9.37 2.07
8.56 -9.37 2.11
8.91 -9.37 2.15
9.27 -9.36 2.20
9.64 -9.36 2.25
9.86 -9.19 2.26
10.02 -8.97 2.26
10.18 -8.75 2.26
10.33 -8.53 2.26
10.48 -8.31 2.26
10.62 -8.08 2.26
10.76 -7.85 2.26
10.89 -7.62 2.26
11.01 -7.38 2.26
11.14 -7.14 2.26
11.25 -6.90 2.26
11.36 -6.66 2.26
8.94 -5.00 1.76
11.57 -6.17 2.26
11.66 -5.93 2.26
10.69 -5.17 2.05
10.68 -4.90 2.04
11.90 -5.18 2.26
11.95 -4.92 2.25
12.04 -4.67 2.26
12.10 -4.42 2.26
12.16 -4.17 2.26
12.21 -3.91 2.26
12.25 -3.66 2.26
12.29 -3.40 2.26
12.32 -3.15 2.26
12.35 -2.89 2.26
12.37 -2.64 2.26
12.39 -2.38 2.26
12.40 -2.13 2.26
12.41 -1.87 2.26
6.93 -0.91 1.26
6.97 -0.77 1.27
8.91 -0.80 1.62
10.15 -0.71 1.85
13.50 -0.67 2.46
20.13 -0.60 3.68
48.68 -0.46 8.93
48.59 0.51 8.93
48.72 1.49 8.99
48.84 2.48 9.04
48.87 3.46 9.08
48.46 7.37 9.19
48.11 8.31 9.18
46.82 12.02 9.19
46.62 12.97 9.22
45.85 16.83 9.41
4.40 2.47 0.99
4.25 2.51 0.97
4.16 2.57 0.97
4.10 2.65 0.97
4.07 2.74 0.97
4.06 2.86 0.99
4.15 3.05 1.03
6.28 4.81 1.58
23.45 22.02 6.50
20.55 20.09 5.82
19.11 19.44 5.53
6.27 6.64 1.86
17.56 19.36 5.33
16.89 19.40 5.26
16.26 19.45 5.19
6.25 7.79 2.05
14.97 19.45 5.04
14.27 19.34 4.95
6.23 8.81 2.23
13.02 19.22 4.80
7.36 11.34 2.80
6.09 9.81 2.39
5.88 9.92 2.39
5.67 10.02 2.39
5.46 10.11 2.39
5.24 10.21 2.39
5.03 10.29 2.39
4.81 10.38 2.39
4.60 10.46 2.39
4.38 10.53 2.39
4.16 10.61 2.39
3.94 10.67 2.39
3.72 10.74 2.39
3.50 10.80 2.39
3.28 10.85 2.39
3.05 10.91 2.39
2.51 9.71 2.12
2.61 11.00 2.39
2.38 11.04 2.39
2.18 11.20 2.42
2.02 11.58 2.50
1.78 11.61 2.50
1.54 11.64 2.50
1.31 11.66 2.50
1.07 11.67 2.50
0.84 11.69 2.50
0.60 11.69 2.50
0.36 11.70 2.50
0.13 11.70 2.50
-0.11 11.69 2.50
-0.34 11.68 2.50
-0.58 11.67 2.50
-0.81 11.65 2.50
-1.05 11.63 2.50
-1.28 11.61 2.50
-1.52 11.58 2.50
-1.75 11.54 2.50
-1.98 11.50 2.50
-2.21 11.46 2.50
-2.45 11.42 2.50
-2.68 11.37 2.50
-2.90 11.31 2.50
-3.13 11.25 2.50
-3.36 11.19 2.50
-3.59 11.12 2.50
-3.81 11.05 2.50
-4.04 10.98 2.50
-4.26 10.90 2.50
-4.48 10.82 2.50
-4.70 10.73 2.50
-4.92 10.64 2.50
-5.13 10.55 2.50
-5.35 10.45 2.50
-5.56 10.35 2.50
-5.78 10.24 2.50
-5.86 9.91 2.44
-5.94 9.60 2.39
-6.14 9.49 2.39
-6.33 9.37 2.39
-6.53 9.25 2.39
-6.72 9.13 2.39
-6.91 9.00 2.39
-7.10 8.87 2.39
-7.29 8.74 2.39
-7.47 8.60 2.39
-7.65 8.46 2.39
-7.83 8.31 2.39
-8.01 8.16 2.39
-8.18 8.01 2.39
-8.35 7.86 2.39
-8.52 7.70 2.39
-8.69 7.54 2.39
-8.85 7.37 2.39
-9.02 7.21 2.39
-9.18 7.03 2.39
-9.33 6.86 2.39
-9.48 6.68 2.39
-9.63 6.50 2.39
-9.67 6.25 2.37
-9.67 5.97 2.33
-9.67 5.71 2.30
-9.66 5.44 2.27
-9.66 5.19 2.24
-9.66 4.94 2.21
-9.66 4.70 2.18
-9.65 4.46 2.16
-9.65 4.22 2.13
-9.65 3.99 2.11
-9.65 3.77 2.09
-9.64 3.54 2.06
-9.64 3.32 2.04
-9.64 3.11 2.03
-9.64 2.89 2.01
-9.63 2.68 1.99
-9.63 2.47 1.98
-9.63 2.27 1.96
-9.63 2.06 1.95
-9.62 1.86 1.93
-9.62 1.66 1.92
-9.62 1.46 1.91
-9.62 1.27 1.90
-9.61 1.07 1.89
-9.61 0.87 1.88
-9.61 0.68 1.87
-9.61 0.49 1.86
-9.61 0.29 1.86
-9.60 0.10 1.85
-9.60 -0.09 1.85
-9.60 -0.29 1.84
-9.60 -0.48 1.84
-9.60 -0.67 1.83
-9.59 -0.87 1.83
-9.59 -1.06 1.83
-9.59 -1.26 1.83
-9.59 -1.45 1.83
-9.58 -1.65 1.83
-9.58 -1.85 1.83
-9.58 -2.05 1.83
-9.58 -2.25 1.84
-9.58 -2.45 1.84
-9.57 -2.66 1.84
-9.57 -2.86 1.85
-9.57 -3.07 1.85
-9.57 -3.29 1.86
-9.56 -3.50 1.87
-9.56 -3.72 1.88
-9.56 -3.94 1.89
-9.56 -4.16 1.90
-9.55 -4.39 1.91
-9.55 -4.63 1.92
-9.55 -4.86 1.93
-9.55 -5.11 1.95
-9.54 -5.35 1.96
-9.54 -5.61 1.98
-9.54 -5.86 2.00
-9.53 -6.13 2.02
-9.53 -6.40 2.04
-9.51 -6.67 2.06
-9.51 -6.96 2.08
-9.51 -7.25 2.11
-9.51 -7.56 2.13
-9.51 -7.87 2.16
-9.51 -8.20 2.19
-9.52 -8.55 2.23
-9.52 -8.90 2.27
-9.52 -9.26 2.30
-9.52 -9.64 2.34
-9.52 -10.03 2.39
-9.36 -10.27 2.39
-9.17 -10.48 2.39
-8.98 -10.69 2.39
-8.79 -10.89 2.39
-5.91 -7.63 1.65
-7.51 -10.11 2.14
-7.35 -10.31 2.15
-7.96 -11.66 2.39
-7.74 -11.84 2.39
-7.52 -12.02 2.39
-7.29 -12.19 2.39
-7.06 -12.36 2.39
-6.82 -12.52 2.39
-6.58 -12.68 2.39
-6.34 -12.83 2.39
-6.09 -12.98 2.39
-5.84 -13.12 2.39
-5.60 -13.29 2.40
-5.56 -13.97 2.50
-5.29 -14.10 2.50
-5.02 -14.22 2.50
-4.74 -14.34 2.50
-4.46 -14.45 2.50
-4.17 -14.56 2.50
-3.88 -14.66 2.50
-3.60 -14.75 2.50
-3.30 -14.84 2.50
-3.01 -14.92 2.50
-2.71 -14.99 2.50
-2.37 -14.74 2.44
-2.12 -15.12 2.50
-1.82 -15.17 2.50
-1.51 -15.22 2.50
-1.21 -15.26 2.50
-0.91 -15.29 2.50
-0.60 -15.32 2.50
-0.29 -15.34 2.50
0.01 -13.43 2.50
0.28 -13.44 2.50
0.55 -13.43 2.50
0.82 -13.42 2.50
1.09 -13.41 2.50
1.35 -13.39 2.50
1.62 -13.36 2.50
