ply
format ascii 1.0
element vertex 2993
property float32 x
property float32 y
property float32 z
end_header
4.21 -8.05 2.39
4.37 -7.97 2.39
4.53 -7.88 2.39
4.68 -7.78 2.39
4.84 -7.69 2.39
4.99 -7.59 2.39
5.14 -7.49 2.39
5.29 -7.38 2.39
5.44 -7.27 2.39
5.94 -7.61 2.54
5.52 -6.79 2.30
5.53 -6.54 2.25
6.44 -7.30 2.56
6.60 -7.19 2.57
6.78 -7.09 2.58
7.09 -7.12 2.64
7.40 -7.15 2.71
7.73 -7.16 2.77
8.07 -7.18 2.84
5.55 -4.75 1.92
8.77 -7.20 2.98
8.91 -7.02 2.98
9.05 -6.84 2.98
5.57 -4.04 1.81
9.31 -6.47 2.98
9.44 -6.28 2.98
9.59 -6.10 2.99
9.73 -5.92 3.00
5.59 -3.25 1.70
10.01 -5.55 3.01
10.15 -5.37 3.02
5.59 -2.81 1.64
10.40 -4.98 3.03
5.60 -2.54 1.62
10.64 -4.58 3.04
10.76 -4.37 3.05
5.60 -2.14 1.57
5.60 -2.02 1.56
5.60 -1.89 1.55
5.60 -1.77 1.54
5.62 -1.65 1.54
11.29 -3.07 3.07
11.36 -2.84 3.07
11.43 -2.62 3.08
11.49 -2.39 3.08
11.56 -2.16 3.08
11.64 -1.94 3.09
11.71 -1.71 3.10
11.78 -1.48 3.11
11.83 -1.24 3.12
11.87 -1.01 3.12
11.91 -0.77 3.12
11.93 -0.53 3.13
11.95 -0.29 3.13
11.98 -0.05 3.14
12.00 0.19 3.14
12.02 0.43 3.15
12.03 0.67 3.15
12.03 0.92 3.16
12.02 1.16 3.16
12.00 1.40 3.16
11.97 1.64 3.16
11.94 1.88 3.16
11.91 2.12 3.16
11.87 2.36 3.16
11.83 2.60 3.16
11.77 2.84 3.16
11.71 3.08 3.16
5.67 1.61 1.54
5.66 1.73 1.54
5.66 1.86 1.55
5.66 1.98 1.56
5.66 2.11 1.57
11.21 4.44 3.14
11.10 4.66 3.13
10.98 4.87 3.13
10.88 5.09 3.12
10.78 5.31 3.12
10.66 5.52 3.12
5.70 3.10 1.69
10.41 5.93 3.11
10.28 6.14 3.11
5.68 3.55 1.74
10.02 6.54 3.10
9.88 6.74 3.10
9.72 6.91 3.09
9.55 7.09 3.08
5.71 4.41 1.87
9.20 7.42 3.06
9.02 7.57 3.05
8.55 7.48 2.94
8.09 7.37 2.83
7.65 7.25 2.73
7.23 7.14 2.63
5.73 5.89 2.12
6.84 7.32 2.59
6.75 7.52 2.61
5.74 6.66 2.27
6.60 7.97 2.67
5.76 7.25 2.39
4.59 6.03 1.95
4.40 6.02 1.92
4.23 6.03 1.90
4.11 6.12 1.90
4.11 6.39 1.96
4.11 6.69 2.02
4.26 7.25 2.16
4.54 8.10 2.39
4.38 8.19 2.39
4.21 8.28 2.39
4.05 8.37 2.39
3.88 8.45 2.39
3.71 8.53 2.39
3.54 8.60 2.39
3.37 8.67 2.39
3.20 8.74 2.39
3.02 8.81 2.39
2.84 8.87 2.39
2.67 8.93 2.39
2.49 8.98 2.39
2.31 9.03 2.39
2.13 9.08 2.39
1.94 9.12 2.39
1.80 9.35 2.44
1.65 9.59 2.49
1.45 9.63 2.49
1.26 9.66 2.49
1.07 9.68 2.49
0.87 9.70 2.49
0.68 9.72 2.49
0.48 9.74 2.49
0.29 9.75 2.49
0.09 9.75 2.49
-0.10 9.75 2.49
-0.30 9.75 2.49
-0.50 9.75 2.49
-0.69 9.74 2.49
-0.89 9.72 2.49
-1.08 9.70 2.49
-1.28 9.68 2.49
-1.47 9.66 2.49
-1.66 9.63 2.49
-1.86 9.59 2.49
-2.05 9.56 2.49
-2.24 9.51 2.49
-2.43 9.47 2.49
-2.62 9.42 2.49
-2.81 9.37 2.49
-3.00 9.31 2.49
-3.18 9.25 2.49
-3.37 9.18 2.49
-3.55 9.11 2.49
-3.74 9.04 2.49
-3.92 8.97 2.49
-4.10 8.89 2.49
-4.27 8.80 2.49
-4.45 8.72 2.49
-4.62 8.63 2.49
-4.80 8.53 2.49
-4.97 8.44 2.49
-5.14 8.34 2.49
-5.30 8.23 2.49
-5.47 8.12 2.49
-5.63 8.01 2.49
-5.79 7.90 2.49
-5.95 7.78 2.49
-6.10 7.66 2.49
-6.25 7.54 2.49
-6.28 7.27 2.45
-6.30 7.00 2.40
-6.42 6.85 2.39
-6.55 6.72 2.39
-6.69 6.59 2.39
-6.82 6.45 2.39
-6.94 6.31 2.39
-7.07 6.17 2.39
-6.39 5.36 2.12
-7.31 5.88 2.39
-7.43 5.74 2.39
-7.54 5.58 2.39
-7.65 5.43 2.39
-7.76 5.28 2.39
-7.86 5.12 2.39
-7.96 4.96 2.39
-8.06 4.80 2.39
-8.15 4.64 2.39
-8.24 4.47 2.39
-8.33 4.31 2.39
-8.41 4.14 2.39
-8.49 3.97 2.39
-8.57 3.80 2.39
-8.64 3.62 2.39
-8.71 3.45 2.39
-8.78 3.27 2.39
-8.84 3.09 2.39
-8.90 2.92 2.39
-8.95 2.74 2.39
-9.00 2.56 2.39
-9.05 2.37 2.39
-9.10 2.19 2.39
-9.14 2.01 2.39
-9.17 1.82 2.39
-9.21 1.64 2.39
-9.24 1.45 2.39
-9.26 1.27 2.39
-9.28 1.08 2.39
-9.30 0.90 2.39
-9.31 0.71 2.39
-9.32 0.52 2.39
-9.33 0.33 2.39
-9.33 0.15 2.39
-9.33 -0.04 2.39
-9.33 -0.23 2.39
-9.32 -0.41 2.39
-9.30 -0.60 2.39
-9.29 -0.79 2.39
-9.27 -0.97 2.39
-9.24 -1.16 2.39
-9.22 -1.34 2.39
-9.18 -1.53 2.39
-9.15 -1.71 2.39
-9.11 -1.89 2.39
-9.07 -2.07 2.39
-9.02 -2.26 2.39
-8.97 -2.44 2.39
-8.92 -2.61 2.39
-8.86 -2.79 2.39
-8.80 -2.97 2.39
-8.74 -3.14 2.39
-8.67 -3.32 2.39
-8.60 -3.49 2.39
-8.52 -3.66 2.39
-8.45 -3.83 2.39
-8.37 -4.00 2.39
-8.28 -4.16 2.39
-8.19 -4.33 2.39
-8.10 -4.49 2.39
-8.01 -4.65 2.39
-7.91 -4.81 2.39
-7.81 -4.96 2.39
-7.71 -5.12 2.39
-7.60 -5.27 2.39
-7.49 -5.42 2.39
-7.38 -5.57 2.39
-7.26 -5.71 2.39
-7.14 -5.85 2.39
-7.02 -5.99 2.39
-6.90 -6.13 2.39
-6.77 -6.27 2.39
-6.64 -6.40 2.39
-6.51 -6.53 2.39
-6.50 -6.79 2.44
-6.51 -7.07 2.49
-6.36 -7.20 2.49
-6.21 -7.32 2.49
-6.06 -7.44 2.49
-5.91 -7.56 2.49
-5.76 -7.68 2.49
-5.60 -7.79 2.49
-5.44 -7.90 2.49
-5.28 -8.00 2.49
-5.12 -8.10 2.49
-4.95 -8.20 2.49
-4.78 -8.30 2.49
-4.61 -8.39 2.49
-4.44 -8.48 2.49
-4.27 -8.56 2.49
-4.10 -8.64 2.49
-3.92 -8.72 2.49
-3.74 -8.80 2.49
-3.57 -8.87 2.49
-3.39 -8.93 2.49
-3.20 -9.00 2.49
-3.02 -9.06 2.49
-2.84 -9.11 2.49
-2.65 -9.17 2.49
-2.47 -9.22 2.49
-2.28 -9.26 2.49
-2.10 -9.30 2.49
-1.91 -9.34 2.49
-1.72 -9.37 2.49
-1.53 -9.41 2.49
-1.34 -9.43 2.49
-1.15 -9.45 2.49
-0.96 -9.47 2.49
-0.77 -9.49 2.49
-0.58 -9.50 2.49
-0.39 -9.51 2.49
-0.20 -9.51 2.49
-0.01 -8.71 2.49
0.17 -8.70 2.49
0.34 -8.70 2.49
0.52 -8.69 2.49
0.69 -8.67 2.49
0.87 -8.66 2.49
1.04 -8.64 2.49
1.21 -8.61 2.49
1.39 -8.58 2.49
1.52 -8.35 2.43
1.66 -8.17 2.39
1.82 -8.13 2.39
1.89 -7.70 2.28
2.11 -7.92 2.35
2.27 -7.87 2.35
2.43 -7.82 2.35
2.49 -7.50 2.27
2.78 -7.85 2.39
2.94 -7.79 2.39
3.10 -7.73 2.39
3.25 -7.66 2.39
3.40 -7.59 2.39
3.55 -7.52 2.39
3.70 -7.45 2.39
3.85 -7.37 2.39
4.00 -7.29 2.39
4.15 -7.21 2.39
4.29 -7.13 2.39
4.43 -7.04 2.39
4.57 -6.95 2.39
4.71 -6.85 2.39
4.85 -6.76 2.39
4.98 -6.66 2.39
5.12 -6.56 2.39
5.25 -6.45 2.39
5.37 -6.35 2.39
5.50 -6.24 2.39
5.93 -6.46 2.52
6.07 -6.35 2.52
5.55 -5.58 2.26
6.34 -6.12 2.53
6.47 -6.00 2.54
6.61 -5.88 2.54
5.55 -4.75 2.10
6.97 -5.72 2.59
7.22 -5.69 2.64
7.48 -5.65 2.69
5.57 -4.04 1.98
8.00 -5.55 2.80
5.58 -3.71 1.93
8.53 -5.43 2.90
8.79 -5.35 2.96
8.92 -5.19 2.96
9.04 -5.02 2.97
9.16 -4.84 2.98
5.59 -2.81 1.80
9.39 -4.49 2.99
9.49 -4.31 2.99
9.60 -4.13 3.00
9.70 -3.94 3.00
9.79 -3.75 3.01
9.88 -3.56 3.01
9.97 -3.37 3.02
10.05 -3.17 3.02
10.13 -2.97 3.03
10.20 -2.77 3.03
10.27 -2.57 3.03
10.34 -2.37 3.04
10.40 -2.16 3.04
10.45 -1.96 3.05
10.51 -1.75 3.05
10.55 -1.54 3.05
5.63 -0.71 1.62
10.63 -1.12 3.06
5.62 -0.48 1.61
10.69 -0.69 3.07
5.63 -0.25 1.61
10.74 -0.26 3.07
10.76 -0.04 3.08
10.77 0.17 3.08
10.77 0.39 3.08
10.77 0.60 3.08
10.76 0.82 3.08
10.75 1.04 3.08
10.73 1.25 3.08
10.71 1.47 3.09
10.69 1.69 3.09
10.66 1.90 3.09
10.63 2.12 3.09
5.66 1.25 1.65
10.55 2.55 3.09
5.65 1.49 1.67
10.45 2.97 3.10
10.40 3.18 3.10
10.33 3.39 3.10
5.67 1.99 1.71
10.19 3.81 3.10
10.11 4.01 3.10
10.03 4.21 3.09
9.95 4.41 3.09
9.85 4.61 3.09
5.68 2.80 1.80
9.64 4.99 3.08
9.53 5.18 3.08
9.41 5.36 3.07
9.28 5.54 3.07
5.68 3.55 1.90
9.02 5.89 3.06
8.73 5.95 3.00
8.34 5.94 2.90
5.70 4.23 2.01
7.61 5.89 2.73
7.26 5.86 2.64
6.94 5.83 2.56
6.86 6.00 2.58
6.79 6.18 2.60
5.72 5.43 2.23
5.72 5.65 2.27
6.55 6.73 2.65
6.46 6.91 2.67
5.65 6.30 2.39
5.53 6.41 2.39
5.40 6.52 2.39
5.27 6.63 2.39
5.14 6.74 2.39
5.00 6.84 2.39
4.39 6.26 2.16
4.21 6.27 2.13
4.58 7.14 2.39
4.44 7.23 2.39
4.25 7.25 2.37
4.15 7.41 2.39
4.00 7.49 2.39
3.85 7.57 2.39
3.70 7.65 2.39
3.55 7.72 2.39
3.39 7.79 2.39
3.24 7.86 2.39
3.08 7.93 2.39
2.92 7.99 2.39
2.76 8.05 2.39
2.60 8.11 2.39
2.44 8.16 2.39
2.27 8.21 2.39
2.11 8.25 2.39
1.94 8.30 2.39
1.79 8.40 2.41
1.68 8.73 2.49
1.50 8.77 2.49
1.33 8.80 2.49
1.15 8.82 2.49
0.97 8.85 2.49
0.80 8.87 2.49
0.62 8.88 2.49
0.44 8.90 2.49
0.26 8.91 2.49
0.08 8.91 2.49
-0.10 8.91 2.49
-0.27 8.91 2.49
-0.45 8.90 2.49
-0.63 8.90 2.49
-0.81 8.88 2.49
-0.99 8.87 2.49
-1.17 8.85 2.49
-1.34 8.82 2.49
-1.52 8.79 2.49
-1.70 8.76 2.49
-1.87 8.73 2.49
-2.05 8.69 2.49
-2.22 8.65 2.49
-2.40 8.60 2.49
-2.57 8.56 2.49
-2.74 8.50 2.49
-2.91 8.45 2.49
-3.08 8.39 2.49
-3.25 8.33 2.49
-3.41 8.26 2.49
-3.58 8.19 2.49
-3.74 8.12 2.49
-3.90 8.04 2.49
-4.07 7.96 2.49
-4.22 7.88 2.49
-4.38 7.79 2.49
-4.54 7.71 2.49
-4.69 7.61 2.49
-4.84 7.52 2.49
-4.99 7.42 2.49
-5.14 7.32 2.49
-5.29 7.21 2.49
-5.43 7.11 2.49
-5.57 7.00 2.49
-5.71 6.88 2.49
-5.85 6.77 2.49
-5.98 6.65 2.49
-6.11 6.53 2.49
-6.24 6.40 2.49
-6.30 6.21 2.47
-6.31 5.97 2.42
-6.34 5.77 2.39
-6.46 5.64 2.39
-6.39 5.36 2.32
-6.68 5.37 2.39
-6.78 5.24 2.39
-6.89 5.10 2.39
-6.99 4.96 2.39
-7.08 4.82 2.39
-7.18 4.68 2.39
-7.27 4.53 2.39
-7.36 4.39 2.39
-7.45 4.24 2.39
-7.53 4.09 2.39
-7.61 3.93 2.39
-7.68 3.78 2.39
-7.76 3.62 2.39
-7.83 3.47 2.39
-7.89 3.31 2.39
-7.96 3.15 2.39
-8.02 2.99 2.39
-8.08 2.83 2.39
-8.13 2.66 2.39
-8.18 2.50 2.39
-8.23 2.34 2.39
-8.27 2.17 2.39
-8.31 2.00 2.39
-8.35 1.84 2.39
-8.38 1.67 2.39
-8.41 1.50 2.39
-8.44 1.33 2.39
-8.46 1.16 2.39
-8.48 0.99 2.39
-8.50 0.82 2.39
-8.51 0.65 2.39
-8.52 0.48 2.39
-8.53 0.31 2.39
-8.53 0.14 2.39
-8.53 -0.04 2.39
-8.52 -0.21 2.39
-8.52 -0.38 2.39
-8.50 -0.55 2.39
-8.49 -0.72 2.39
-8.47 -0.89 2.39
-8.45 -1.06 2.39
-8.42 -1.23 2.39
-8.40 -1.39 2.39
-8.36 -1.56 2.39
-8.33 -1.73 2.39
-8.29 -1.90 2.39
-8.25 -2.06 2.39
-8.20 -2.23 2.39
-8.15 -2.39 2.39
-8.10 -2.55 2.39
-8.05 -2.71 2.39
-7.99 -2.87 2.39
-7.93 -3.03 2.39
-7.86 -3.19 2.39
-7.79 -3.35 2.39
-7.72 -3.50 2.39
-7.65 -3.65 2.39
-7.57 -3.80 2.39
-7.49 -3.95 2.39
-7.41 -4.10 2.39
-7.32 -4.25 2.39
-7.23 -4.39 2.39
-7.14 -4.54 2.39
-7.05 -4.68 2.39
-6.95 -4.82 2.39
-6.85 -4.95 2.39
-6.75 -5.09 2.39
-6.64 -5.22 2.39
-6.53 -5.35 2.39
-6.49 -5.54 2.42
-6.49 -5.77 2.46
-6.46 -5.98 2.49
-6.34 -6.11 2.49
-6.21 -6.23 2.49
-6.08 -6.35 2.49
-5.95 -6.47 2.49
-5.82 -6.59 2.49
-5.69 -6.70 2.49
-5.55 -6.81 2.49
-5.41 -6.92 2.49
-5.27 -7.02 2.49
-5.12 -7.13 2.49
-4.98 -7.22 2.49
-4.83 -7.32 2.49
-4.68 -7.41 2.49
-4.53 -7.50 2.49
-4.38 -7.59 2.49
-4.22 -7.68 2.49
-4.07 -7.76 2.49
-3.91 -7.83 2.49
-3.75 -7.91 2.49
-3.59 -7.98 2.49
-3.43 -8.05 2.49
-3.26 -8.11 2.49
-3.10 -8.18 2.49
-2.93 -8.23 2.49
-2.77 -8.29 2.49
-2.60 -8.34 2.49
-2.43 -8.39 2.49
-2.26 -8.43 2.49
-2.09 -8.48 2.49
-1.92 -8.51 2.49
-1.75 -8.55 2.49
-1.58 -8.58 2.49
-1.40 -8.61 2.49
-1.23 -8.63 2.49
-1.05 -8.65 2.49
-0.88 -8.67 2.49
-0.71 -8.69 2.49
-0.53 -8.70 2.49
-0.36 -8.70 2.49
-0.18 -8.71 2.49
-0.01 -8.02 2.49
0.15 -8.02 2.49
0.32 -8.01 2.49
0.48 -8.00 2.49
0.64 -7.99 2.49
0.80 -7.97 2.49
0.96 -7.95 2.49
1.12 -7.93 2.49
1.28 -7.91 2.49
1.43 -7.88 2.49
1.54 -7.58 2.41
1.68 -7.49 2.39
1.83 -7.45 2.39
1.89 -7.11 2.29
2.02 -7.00 2.27
2.23 -7.21 2.35
2.38 -7.16 2.35
2.48 -7.00 2.32
2.57 -6.81 2.27
2.85 -7.12 2.39
2.99 -7.06 2.39
3.13 -7.00 2.39
3.27 -6.93 2.39
3.41 -6.86 2.39
3.55 -6.79 2.39
3.69 -6.72 2.39
3.82 -6.64 2.39
3.95 -6.57 2.39
4.08 -6.49 2.39
4.21 -6.40 2.39
4.34 -6.32 2.39
4.47 -6.23 2.39
4.59 -6.14 2.39
4.71 -6.04 2.39
4.83 -5.95 2.39
4.95 -5.85 2.39
5.07 -5.75 2.39
5.18 -5.64 2.39
5.30 -5.54 2.39
5.41 -5.43 2.39
5.51 -5.32 2.39
5.92 -5.49 2.52
6.04 -5.38 2.52
5.55 -4.75 2.28
6.27 -5.15 2.53
6.38 -5.03 2.53
6.49 -4.91 2.54
6.60 -4.78 2.54
6.70 -4.65 2.54
6.84 -4.55 2.56
7.04 -4.48 2.60
5.58 -3.40 2.04
7.44 -4.32 2.68
7.63 -4.23 2.72
7.84 -4.14 2.76
5.59 -2.81 1.95
8.24 -3.94 2.85
8.44 -3.83 2.89
8.63 -3.71 2.93
8.82 -3.58 2.97
8.91 -3.41 2.97
8.99 -3.24 2.98
9.07 -3.06 2.98
9.14 -2.88 2.98
5.62 -1.65 1.82
9.28 -2.52 2.99
9.34 -2.34 3.00
5.62 -1.29 1.79
9.46 -1.97 3.00
9.51 -1.78 3.01
9.55 -1.59 3.01
9.60 -1.40 3.02
9.65 -1.21 3.02
9.69 -1.02 3.03
5.62 -0.48 1.75
9.77 -0.63 3.04
9.80 -0.43 3.05
9.83 -0.24 3.05
9.84 -0.04 3.05
5.64 0.09 1.75
9.85 0.36 3.06
9.85 0.55 3.06
9.84 0.75 3.06
9.83 0.95 3.06
9.81 1.15 3.06
9.79 1.35 3.06
5.65 0.89 1.77
9.74 1.74 3.07
9.71 1.94 3.07
9.68 2.13 3.07
9.64 2.33 3.07
5.65 1.49 1.81
9.55 2.72 3.07
9.49 2.91 3.07
9.43 3.10 3.07
9.37 3.29 3.07
9.30 3.48 3.07
9.23 3.66 3.07
9.16 3.85 3.07
9.08 4.03 3.07
5.68 2.66 1.94
8.79 4.33 3.03
8.53 4.42 2.96
8.27 4.50 2.90
8.01 4.57 2.84
7.75 4.63 2.78
5.68 3.55 2.07
7.20 4.70 2.65
5.70 3.88 2.12
6.85 4.88 2.59
6.78 5.03 2.60
6.70 5.19 2.61
5.71 4.60 2.26
6.54 5.50 2.63
6.48 5.67 2.65
5.75 5.24 2.39
5.64 5.35 2.39
5.54 5.47 2.39
5.43 5.58 2.39
5.31 5.69 2.39
5.20 5.79 2.39
5.09 5.90 2.39
4.97 6.00 2.39
4.85 6.10 2.39
4.73 6.20 2.39
4.60 6.30 2.39
4.39 6.26 2.34
4.21 6.27 2.31
4.22 6.57 2.39
4.09 6.65 2.39
3.95 6.73 2.39
3.82 6.81 2.39
3.68 6.89 2.39
3.54 6.96 2.39
3.40 7.04 2.39
3.26 7.11 2.39
3.12 7.17 2.39
2.98 7.23 2.39
2.83 7.29 2.39
2.69 7.35 2.39
2.54 7.41 2.39
2.39 7.46 2.39
2.24 7.51 2.39
2.09 7.55 2.39
1.96 7.67 2.41
1.79 7.63 2.39
1.70 8.00 2.49
1.54 8.03 2.49
1.38 8.06 2.49
1.22 8.09 2.49
1.06 8.12 2.49
0.89 8.14 2.49
0.73 8.16 2.49
0.57 8.17 2.49
0.40 8.18 2.49
0.24 8.19 2.49
0.08 8.19 2.49
-0.09 8.20 2.49
-0.25 8.19 2.49
-0.42 8.19 2.49
-0.58 8.18 2.49
-0.75 8.17 2.49
-0.91 8.15 2.49
-1.07 8.13 2.49
-1.24 8.11 2.49
-1.40 8.09 2.49
-1.56 8.06 2.49
-1.72 8.03 2.49
-1.88 7.99 2.49
-2.04 7.95 2.49
-2.20 7.91 2.49
-2.36 7.87 2.49
-2.52 7.82 2.49
-2.68 7.77 2.49
-2.83 7.71 2.49
-2.99 7.66 2.49
-3.14 7.60 2.49
-3.29 7.53 2.49
-3.44 7.46 2.49
-3.59 7.39 2.49
-3.74 7.32 2.49
-3.88 7.25 2.49
-4.03 7.17 2.49
-4.17 7.09 2.49
-4.31 7.00 2.49
-4.45 6.91 2.49
-4.59 6.82 2.49
-4.73 6.73 2.49
-4.86 6.63 2.49
-4.99 6.53 2.49
-5.12 6.43 2.49
-5.25 6.33 2.49
-5.38 6.22 2.49
-5.50 6.11 2.49
-5.62 6.00 2.49
-5.74 5.89 2.49
-5.86 5.77 2.49
-5.97 5.65 2.49
-6.08 5.53 2.49
-6.19 5.41 2.49
-6.30 5.28 2.49
-6.32 5.09 2.46
-6.33 4.89 2.42
-6.34 4.69 2.39
-6.42 4.56 2.39
-6.51 4.43 2.39
-6.60 4.30 2.39
-6.69 4.17 2.39
-6.77 4.03 2.39
-6.85 3.90 2.39
-6.92 3.76 2.39
-7.00 3.62 2.39
-7.07 3.48 2.39
-7.13 3.33 2.39
-7.20 3.19 2.39
-7.26 3.04 2.39
-7.32 2.90 2.39
-7.37 2.75 2.39
-7.43 2.60 2.39
-7.48 2.45 2.39
-7.52 2.30 2.39
-7.57 2.15 2.39
-7.61 2.00 2.39
-7.64 1.84 2.39
-7.68 1.69 2.39
-7.71 1.53 2.39
-7.74 1.38 2.39
-7.76 1.22 2.39
-7.78 1.07 2.39
-7.80 0.91 2.39
-7.82 0.75 2.39
-7.83 0.60 2.39
-7.84 0.44 2.39
-7.84 0.28 2.39
-7.84 0.13 2.39
-7.84 -0.03 2.39
-7.84 -0.19 2.39
-7.83 -0.35 2.39
-7.82 -0.50 2.39
-7.81 -0.66 2.39
-7.79 -0.82 2.39
-7.77 -0.97 2.39
-7.75 -1.13 2.39
-7.72 -1.28 2.39
-7.69 -1.44 2.39
-7.66 -1.59 2.39
-7.63 -1.74 2.39
-7.59 -1.90 2.39
-7.55 -2.05 2.39
-7.50 -2.20 2.39
-7.45 -2.35 2.39
-7.40 -2.50 2.39
-7.35 -2.64 2.39
-7.29 -2.79 2.39
-7.23 -2.93 2.39
-7.17 -3.08 2.39
-7.11 -3.22 2.39
-7.04 -3.36 2.39
-6.97 -3.50 2.39
-6.89 -3.64 2.39
-6.82 -3.78 2.39
-6.74 -3.91 2.39
-6.67 -4.05 2.40
-6.57 -4.17 2.39
-6.49 -4.30 2.39
-6.47 -4.49 2.42
-6.47 -4.68 2.45
-6.47 -4.88 2.49
-6.38 -5.01 2.49
-6.27 -5.14 2.49
-6.17 -5.26 2.49
-6.06 -5.38 2.49
-5.95 -5.50 2.49
-5.83 -5.62 2.49
-5.72 -5.73 2.49
-5.60 -5.85 2.49
-5.48 -5.95 2.49
-5.36 -6.06 2.49
-5.23 -6.17 2.49
-5.11 -6.27 2.49
-4.98 -6.37 2.49
-4.85 -6.47 2.49
-4.72 -6.56 2.49
-4.58 -6.65 2.49
-4.45 -6.74 2.49
-4.31 -6.83 2.49
-4.17 -6.91 2.49
-4.03 -6.99 2.49
-3.89 -7.07 2.49
-3.74 -7.14 2.49
-3.60 -7.21 2.49
-3.45 -7.28 2.49
-3.31 -7.35 2.49
-3.16 -7.41 2.49
-3.01 -7.47 2.49
-2.85 -7.53 2.49
-2.70 -7.58 2.49
-2.55 -7.63 2.49
-2.39 -7.68 2.49
-2.24 -7.73 2.49
-2.08 -7.77 2.49
-1.93 -7.81 2.49
-1.77 -7.84 2.49
-1.61 -7.87 2.49
-1.45 -7.90 2.49
-1.29 -7.93 2.49
-1.13 -7.95 2.49
-0.97 -7.97 2.49
-0.81 -7.99 2.49
-0.65 -8.00 2.49
-0.49 -8.01 2.49
-0.33 -8.02 2.49
-0.17 -8.02 2.49
-0.01 -7.43 2.49
0.14 -7.42 2.49
0.29 -7.42 2.49
0.44 -7.41 2.49
0.59 -7.40 2.49
0.74 -7.38 2.49
0.89 -7.37 2.49
1.03 -7.35 2.49
1.18 -7.32 2.49
1.33 -7.30 2.49
1.47 -7.27 2.49
1.55 -6.94 2.39
1.69 -6.90 2.39
1.83 -6.87 2.39
1.90 -6.60 2.31
2.00 -6.44 2.27
2.20 -6.63 2.35
2.33 -6.58 2.35
2.47 -6.54 2.35
2.51 -6.26 2.27
2.63 -6.20 2.27
2.90 -6.48 2.39
3.03 -6.42 2.39
3.16 -6.36 2.39
3.29 -6.29 2.39
3.41 -6.22 2.39
3.54 -6.15 2.39
3.66 -6.08 2.39
3.78 -6.01 2.39
3.90 -5.93 2.39
4.02 -5.85 2.39
4.14 -5.77 2.39
4.25 -5.68 2.39
4.36 -5.60 2.39
4.48 -5.51 2.39
4.59 -5.42 2.39
4.69 -5.32 2.39
4.80 -5.23 2.39
4.90 -5.13 2.39
5.01 -5.03 2.39
5.11 -4.93 2.39
5.20 -4.83 2.39
5.30 -4.72 2.39
5.39 -4.61 2.39
5.49 -4.50 2.39
5.58 -4.39 2.39
5.98 -4.52 2.53
6.08 -4.41 2.53
6.18 -4.29 2.53
5.58 -3.71 2.26
6.38 -4.06 2.54
6.48 -3.94 2.55
6.57 -3.82 2.56
5.59 -3.10 2.15
6.76 -3.57 2.57
5.59 -2.81 2.10
7.04 -3.37 2.62
7.18 -3.26 2.65
7.33 -3.15 2.68
7.47 -3.03 2.71
7.61 -2.91 2.74
7.74 -2.79 2.77
5.61 -1.89 1.99
8.01 -2.52 2.82
5.63 -1.65 1.97
8.26 -2.24 2.88
8.37 -2.09 2.90
8.47 -1.94 2.92
8.57 -1.78 2.94
8.67 -1.62 2.96
8.75 -1.46 2.98
8.84 -1.29 3.00
8.89 -1.11 3.01
8.93 -0.94 3.01
5.62 -0.48 1.89
8.99 -0.58 3.02
9.02 -0.40 3.03
9.05 -0.22 3.03
9.06 -0.04 3.04
9.06 0.15 3.04
9.06 0.33 3.04
9.06 0.51 3.04
5.64 0.43 1.90
9.04 0.87 3.04
9.03 1.06 3.04
9.01 1.24 3.04
8.99 1.42 3.05
8.96 1.60 3.05
8.93 1.78 3.05
8.88 1.96 3.04
8.78 2.12 3.02
5.65 1.49 1.95
8.57 2.44 2.98
8.45 2.59 2.95
8.33 2.74 2.93
8.19 2.88 2.90
8.06 3.01 2.87
7.88 3.13 2.83
7.69 3.23 2.79
7.51 3.33 2.74
7.32 3.43 2.70
7.13 3.52 2.65
6.94 3.60 2.61
6.86 3.73 2.60
6.80 3.88 2.61
5.69 3.40 2.21
5.68 3.55 2.23
5.69 3.72 2.26
6.55 4.47 2.64
6.49 4.62 2.65
6.42 4.76 2.66
5.68 4.40 2.39
5.59 4.51 2.39
5.50 4.63 2.39
5.41 4.74 2.39
5.32 4.85 2.39
5.22 4.95 2.39
5.12 5.06 2.39
5.02 5.16 2.39
4.92 5.26 2.39
4.81 5.36 2.39
4.70 5.46 2.39
4.60 5.55 2.39
4.48 5.65 2.39
4.37 5.74 2.39
4.26 5.82 2.39
4.14 5.91 2.39
4.02 5.99 2.39
3.90 6.07 2.39
3.78 6.15 2.39
3.66 6.23 2.39
3.53 6.30 2.39
3.40 6.37 2.39
3.28 6.44 2.39
3.15 6.51 2.39
3.02 6.57 2.39
2.89 6.63 2.39
2.75 6.69 2.39
2.62 6.75 2.39
2.48 6.80 2.39
2.35 6.85 2.39
2.21 6.90 2.39
2.07 6.94 2.39
1.95 7.04 2.41
1.79 7.02 2.39
1.72 7.36 2.49
1.57 7.40 2.49
1.43 7.43 2.49
1.28 7.46 2.49
1.13 7.48 2.49
0.98 7.51 2.49
0.83 7.53 2.49
0.68 7.54 2.49
0.52 7.56 2.49
0.37 7.57 2.49
0.22 7.57 2.49
0.07 7.58 2.49
-0.08 7.58 2.49
-0.23 7.58 2.49
-0.39 7.57 2.49
-0.54 7.56 2.49
-0.69 7.55 2.49
-0.84 7.54 2.49
-0.99 7.52 2.49
-1.14 7.50 2.49
-1.29 7.48 2.49
-1.44 7.45 2.49
-1.59 7.42 2.49
-1.74 7.39 2.49
-1.89 7.35 2.49
-2.04 7.32 2.49
-2.18 7.27 2.49
-2.33 7.23 2.49
-2.47 7.18 2.49
-2.62 7.13 2.49
-2.76 7.08 2.49
-2.90 7.02 2.49
-3.04 6.96 2.49
-3.18 6.90 2.49
-3.32 6.84 2.49
-3.46 6.77 2.49
-3.59 6.70 2.49
-3.72 6.63 2.49
-3.86 6.55 2.49
-3.99 6.47 2.49
-4.12 6.39 2.49
-4.24 6.31 2.49
-4.37 6.22 2.49
-4.49 6.13 2.49
-4.62 6.04 2.49
-4.74 5.95 2.49
-4.85 5.85 2.49
-4.97 5.75 2.49
-5.09 5.65 2.49
-5.20 5.55 2.49
-5.31 5.44 2.49
-5.42 5.34 2.49
-5.52 5.23 2.49
-5.62 5.11 2.49
-5.73 5.00 2.49
-5.82 4.88 2.49
-5.92 4.77 2.49
-6.02 4.65 2.49
-6.11 4.52 2.49
-6.20 4.40 2.49
-6.28 4.28 2.49
-6.33 4.13 2.48
-6.34 3.95 2.45
-6.34 3.78 2.42
-6.35 3.61 2.40
-6.40 3.47 2.39
-6.47 3.34 2.39
-6.53 3.21 2.39
-6.59 3.08 2.39
-6.65 2.95 2.39
-6.71 2.81 2.39
-6.77 2.68 2.39
-6.82 2.54 2.39
-6.87 2.40 2.39
-6.91 2.27 2.39
-6.95 2.13 2.39
-7.00 1.99 2.39
-7.03 1.85 2.39
-7.07 1.70 2.39
-7.10 1.56 2.39
-7.13 1.42 2.39
-7.15 1.28 2.39
-7.18 1.13 2.39
-7.20 0.99 2.39
-7.21 0.84 2.39
-7.23 0.70 2.39
-7.24 0.55 2.39
-7.25 0.41 2.39
-7.25 0.26 2.39
-7.25 0.12 2.39
-7.25 -0.03 2.39
-7.25 -0.17 2.39
-7.24 -0.32 2.39
-7.23 -0.46 2.39
-7.22 -0.61 2.39
-7.21 -0.75 2.39
-7.19 -0.90 2.39
-7.17 -1.04 2.39
-7.14 -1.19 2.39
-7.12 -1.33 2.39
-7.09 -1.47 2.39
-7.05 -1.61 2.39
-7.02 -1.75 2.39
-6.98 -1.89 2.39
-6.94 -2.03 2.39
-6.90 -2.17 2.39
-6.85 -2.31 2.39
-6.80 -2.44 2.39
-6.75 -2.58 2.39
-6.69 -2.71 2.39
-6.65 -2.85 2.40
-6.57 -2.98 2.39
-6.51 -3.11 2.39
-6.46 -3.24 2.40
-6.46 -3.41 2.42
-6.45 -3.57 2.45
-6.46 -3.75 2.48
-6.43 -3.90 2.49
-6.34 -4.03 2.49
-6.26 -4.15 2.49
-6.17 -4.28 2.49
-6.09 -4.40 2.49
-5.99 -4.52 2.49
-5.90 -4.64 2.49
-5.81 -4.75 2.49
-5.71 -4.87 2.49
-5.61 -4.98 2.49
-5.50 -5.09 2.49
-5.40 -5.20 2.49
-5.29 -5.30 2.49
-5.18 -5.41 2.49
-5.07 -5.51 2.49
-4.96 -5.61 2.49
-4.84 -5.71 2.49
-4.73 -5.80 2.49
-4.61 -5.89 2.49
-4.49 -5.98 2.49
-4.37 -6.07 2.49
-4.24 -6.16 2.49
-4.12 -6.24 2.49
-3.99 -6.32 2.49
-3.86 -6.39 2.49
-3.73 -6.47 2.49
-3.60 -6.54 2.49
-3.47 -6.61 2.49
-3.33 -6.68 2.49
-3.20 -6.74 2.49
-3.06 -6.80 2.49
-2.92 -6.86 2.49
-2.78 -6.92 2.49
-2.64 -6.97 2.49
-2.50 -7.02 2.49
-2.36 -7.07 2.49
-2.22 -7.11 2.49
-2.07 -7.15 2.49
-1.93 -7.19 2.49
-1.78 -7.23 2.49
-1.64 -7.26 2.49
-1.49 -7.29 2.49
-1.34 -7.32 2.49
-1.20 -7.34 2.49
-1.05 -7.36 2.49
-0.90 -7.38 2.49
-0.75 -7.39 2.49
-0.60 -7.41 2.49
-0.45 -7.42 2.49
-0.30 -7.42 2.49
-0.16 -7.43 2.49
-0.01 -6.91 2.49
0.13 -6.90 2.49
0.27 -6.90 2.49
0.41 -6.89 2.49
0.55 -6.88 2.49
0.69 -6.87 2.49
0.82 -6.85 2.49
0.96 -6.83 2.49
1.10 -6.81 2.49
1.23 -6.79 2.49
1.37 -6.76 2.49
1.51 -6.73 2.49
1.57 -6.42 2.39
1.70 -6.39 2.39
1.83 -6.35 2.39
1.91 -6.16 2.33
1.98 -5.95 2.27
2.17 -6.12 2.35
2.29 -6.08 2.35
2.42 -6.03 2.35
2.50 -5.90 2.32
2.56 -5.72 2.27
2.82 -5.97 2.39
2.94 -5.91 2.39
3.06 -5.85 2.39
3.17 -5.79 2.39
3.29 -5.72 2.39
3.40 -5.66 2.39
3.52 -5.59 2.39
3.63 -5.51 2.39
3.74 -5.44 2.39
3.85 -5.36 2.39
3.95 -5.29 2.39
4.06 -5.21 2.39
4.16 -5.12 2.39
4.27 -5.04 2.39
4.37 -4.95 2.39
4.46 -4.86 2.39
4.56 -4.77 2.39
4.66 -4.68 2.39
4.75 -4.58 2.39
4.84 -4.49 2.39
4.93 -4.39 2.39
5.02 -4.29 2.39
5.10 -4.19 2.39
5.19 -4.09 2.39
5.27 -3.98 2.39
5.35 -3.87 2.39
5.42 -3.77 2.39
5.50 -3.66 2.39
5.57 -3.55 2.39
6.03 -3.67 2.55
6.11 -3.55 2.56
6.20 -3.44 2.57
6.29 -3.32 2.57
5.59 -2.81 2.26
6.45 -3.09 2.59
6.53 -2.96 2.59
6.61 -2.84 2.60
6.68 -2.71 2.61
6.75 -2.59 2.61
6.83 -2.46 2.63
6.94 -2.34 2.65
7.05 -2.22 2.67
7.15 -2.10 2.69
7.24 -1.97 2.71
7.33 -1.83 2.73
7.41 -1.70 2.75
7.49 -1.56 2.76
5.63 -1.05 2.07
7.65 -1.27 2.80
7.73 -1.12 2.82
7.80 -0.98 2.84
7.87 -0.82 2.85
5.62 -0.48 2.04
7.99 -0.51 2.89
8.04 -0.35 2.90
8.09 -0.19 2.92
8.11 -0.03 2.92
8.11 0.13 2.92
5.64 0.20 2.03
8.11 0.46 2.93
8.09 0.62 2.92
8.08 0.78 2.92
8.06 0.94 2.92
7.98 1.10 2.90
7.87 1.24 2.87
5.65 1.01 2.07
7.63 1.52 2.80
7.50 1.65 2.76
7.37 1.78 2.73
5.65 1.49 2.10
7.17 2.04 2.68
7.07 2.17 2.66
5.67 1.86 2.14
6.86 2.41 2.61
6.83 2.55 2.62
6.78 2.69 2.62
6.74 2.83 2.63
6.70 2.97 2.63
5.69 2.66 2.25
5.68 2.80 2.27
6.55 3.39 2.64
6.49 3.53 2.65
6.45 3.68 2.66
6.40 3.82 2.67
5.66 3.54 2.39
5.59 3.65 2.39
5.51 3.76 2.39
5.44 3.87 2.39
5.36 3.98 2.39
5.28 4.09 2.39
5.20 4.20 2.39
5.12 4.30 2.39
5.03 4.40 2.39
4.94 4.50 2.39
4.85 4.60 2.39
4.76 4.70 2.39
4.67 4.80 2.39
4.57 4.89 2.39
4.47 4.98 2.39
4.37 5.07 2.39
4.27 5.16 2.39
4.17 5.25 2.39
4.06 5.33 2.39
3.95 5.41 2.39
3.85 5.49 2.39
3.74 5.57 2.39
3.62 5.65 2.39
3.51 5.72 2.39
3.40 5.79 2.39
3.28 5.86 2.39
3.16 5.92 2.39
3.04 5.99 2.39
2.78 5.74 2.27
2.69 5.85 2.29
2.57 5.92 2.30
2.44 5.92 2.28
2.31 5.95 2.27
2.19 6.00 2.27
2.10 6.14 2.31
2.05 6.41 2.39
1.94 6.50 2.41
1.79 6.49 2.39
1.74 6.81 2.49
1.60 6.84 2.49
1.46 6.87 2.49
1.32 6.90 2.49
1.19 6.93 2.49
1.05 6.95 2.49
0.91 6.97 2.49
0.77 6.99 2.49
0.63 7.01 2.49
0.49 7.02 2.49
0.35 7.03 2.49
0.21 7.04 2.49
0.06 7.04 2.49
-0.08 7.04 2.49
-0.22 7.04 2.49
-0.36 7.03 2.49
-0.50 7.03 2.49
-0.64 7.02 2.49
-0.78 7.00 2.49
-0.92 6.99 2.49
-1.06 6.97 2.49
-1.20 6.95 2.49
-1.34 6.92 2.49
-1.48 6.89 2.49
-1.62 6.86 2.49
-1.76 6.83 2.49
-1.89 6.79 2.49
-2.03 6.76 2.49
-2.16 6.72 2.49
-2.30 6.67 2.49
-2.43 6.62 2.49
-2.56 6.57 2.49
-2.70 6.52 2.49
-2.83 6.47 2.49
-2.96 6.41 2.49
-3.08 6.35 2.49
-3.21 6.29 2.49
-3.34 6.22 2.49
-3.46 6.15 2.49
-3.58 6.08 2.49
-3.70 6.01 2.49
-3.82 5.94 2.49
-3.94 5.86 2.49
-4.06 5.78 2.49
-4.17 5.70 2.49
-4.29 5.61 2.49
-4.40 5.52 2.49
-4.51 5.43 2.49
-4.62 5.34 2.49
-4.72 5.25 2.49
-4.83 5.15 2.49
-4.93 5.06 2.49
-5.03 4.96 2.49
-5.13 4.85 2.49
-5.22 4.75 2.49
-5.32 4.64 2.49
-5.41 4.54 2.49
-5.50 4.43 2.49
-5.59 4.32 2.49
-5.67 4.20 2.49
-5.76 4.09 2.49
-5.84 3.97 2.49
-5.91 3.85 2.49
-5.99 3.73 2.49
-6.06 3.61 2.49
-6.13 3.49 2.49
-6.20 3.37 2.49
-6.27 3.24 2.49
-6.33 3.11 2.49
-6.35 2.97 2.48
-6.35 2.82 2.46
-6.36 2.67 2.44
-6.36 2.52 2.42
-6.37 2.38 2.40
-6.38 2.23 2.39
-6.42 2.11 2.39
-6.46 1.98 2.39
-6.50 1.85 2.39
-6.53 1.72 2.39
-6.58 1.59 2.40
-6.59 1.45 2.39
-6.62 1.32 2.39
-6.64 1.19 2.39
-6.67 1.05 2.39
-6.68 0.92 2.39
-6.70 0.78 2.39
-6.71 0.65 2.39
-6.72 0.51 2.39
-6.73 0.38 2.39
-6.74 0.24 2.39
-6.74 0.11 2.39
-6.74 -0.03 2.39
-6.74 -0.16 2.39
-6.73 -0.30 2.39
-6.72 -0.43 2.39
-6.71 -0.57 2.39
-6.70 -0.70 2.39
-6.68 -0.83 2.39
-6.66 -0.97 2.39
-6.64 -1.10 2.39
-6.63 -1.24 2.40
-6.58 -1.37 2.39
-6.55 -1.50 2.39
-6.52 -1.63 2.39
-6.49 -1.76 2.39
-6.45 -1.89 2.39
-6.44 -2.03 2.40
-6.44 -2.17 2.42
-6.44 -2.31 2.43
-6.44 -2.46 2.45
-6.44 -2.61 2.47
-6.43 -2.76 2.49
-6.37 -2.89 2.49
-6.31 -3.01 2.49
-6.25 -3.14 2.49
-6.18 -3.26 2.49
-6.12 -3.38 2.49
-6.05 -3.51 2.49
-5.97 -3.63 2.49
-5.90 -3.74 2.49
-5.82 -3.86 2.49
-5.74 -3.98 2.49
-5.66 -4.09 2.49
-5.57 -4.20 2.49
-5.49 -4.31 2.49
-5.40 -4.42 2.49
-5.31 -4.52 2.49
-5.21 -4.63 2.49
-5.12 -4.73 2.49
-5.02 -4.83 2.49
-4.92 -4.93 2.49
-4.82 -5.03 2.49
-4.72 -5.12 2.49
-4.61 -5.21 2.49
-4.50 -5.30 2.49
-4.40 -5.39 2.49
-4.29 -5.48 2.49
-4.17 -5.56 2.49
-4.06 -5.64 2.49
-3.95 -5.72 2.49
-3.83 -5.80 2.49
-3.71 -5.87 2.49
-3.59 -5.94 2.49
-3.47 -6.01 2.49
-3.35 -6.08 2.49
-3.22 -6.15 2.49
-3.10 -6.21 2.49
-2.97 -6.27 2.49
-2.85 -6.32 2.49
-2.72 -6.38 2.49
-2.59 -6.43 2.49
-2.46 -6.48 2.49
-2.33 -6.53 2.49
-2.20 -6.57 2.49
-2.06 -6.61 2.49
-1.93 -6.65 2.49
-1.79 -6.69 2.49
-1.66 -6.72 2.49
-1.52 -6.75 2.49
-1.39 -6.78 2.49
-1.25 -6.80 2.49
-1.11 -6.83 2.49
-0.98 -6.85 2.49
-0.84 -6.86 2.49
-0.70 -6.88 2.49
-0.56 -6.89 2.49
-0.42 -6.90 2.49
-0.28 -6.90 2.49
-0.15 -6.91 2.49
-0.01 -6.45 2.49
0.12 -6.45 2.49
0.25 -6.44 2.49
0.38 -6.43 2.49
0.51 -6.42 2.49
0.64 -6.41 2.49
0.77 -6.40 2.49
0.90 -6.38 2.49
1.02 -6.36 2.49
1.15 -6.34 2.49
1.28 -6.31 2.49
1.41 -6.28 2.49
1.53 -6.25 2.49
1.59 -5.96 2.39
1.71 -5.93 2.39
1.83 -5.89 2.39
1.92 -5.77 2.36
1.96 -5.52 2.27
2.14 -5.68 2.35
2.26 -5.63 2.35
2.37 -5.58 2.35
2.48 -5.54 2.35
2.51 -5.32 2.28
2.61 -5.24 2.27
2.86 -5.46 2.39
2.96 -5.41 2.39
3.07 -5.35 2.39
3.18 -5.28 2.39
3.28 -5.22 2.39
3.39 -5.15 2.39
3.49 -5.08 2.39
3.59 -5.01 2.39
3.69 -4.94 2.39
3.79 -4.86 2.39
3.89 -4.78 2.39
3.98 -4.70 2.39
4.08 -4.62 2.39
4.17 -4.54 2.39
4.26 -4.46 2.39
4.35 -4.37 2.39
4.44 -4.28 2.39
4.52 -4.19 2.39
4.60 -4.10 2.39
4.69 -4.01 2.39
4.77 -3.91 2.39
4.84 -3.81 2.39
4.92 -3.72 2.39
4.99 -3.62 2.39
5.07 -3.52 2.39
5.14 -3.41 2.39
5.20 -3.31 2.39
5.27 -3.21 2.39
5.33 -3.10 2.39
5.39 -2.99 2.39
5.45 -2.88 2.39
5.51 -2.77 2.39
5.57 -2.66 2.39
5.62 -2.55 2.39
6.16 -2.65 2.60
6.23 -2.53 2.60
6.29 -2.41 2.61
6.35 -2.29 2.61
6.41 -2.16 2.62
5.61 -1.77 2.28
5.61 -1.64 2.26
5.62 -1.53 2.25
6.66 -1.66 2.66
6.71 -1.54 2.66
6.77 -1.41 2.67
6.82 -1.27 2.68
6.88 -1.14 2.70
6.94 -1.01 2.71
5.63 -0.70 2.19
7.06 -0.74 2.74
5.62 -0.47 2.18
7.16 -0.46 2.77
5.63 -0.25 2.18
7.24 -0.17 2.80
7.25 -0.03 2.80
7.26 0.12 2.80
7.25 0.26 2.80
7.18 0.41 2.78
7.11 0.55 2.75
7.04 0.68 2.73
6.96 0.82 2.70
6.88 0.95 2.68
6.82 1.08 2.66
6.78 1.21 2.65
6.73 1.34 2.64
6.67 1.47 2.63
6.62 1.60 2.62
5.65 1.49 2.25
5.66 1.61 2.27
6.59 2.02 2.65
6.55 2.15 2.66
6.52 2.29 2.66
6.48 2.42 2.66
6.44 2.56 2.67
6.40 2.69 2.67
5.68 2.52 2.39
5.63 2.64 2.39
5.58 2.75 2.39
5.52 2.86 2.39
5.47 2.97 2.39
5.41 3.08 2.39
5.34 3.19 2.39
5.28 3.30 2.39
5.21 3.41 2.39
5.15 3.51 2.39
5.08 3.61 2.39
5.00 3.72 2.39
4.93 3.82 2.39
4.85 3.92 2.39
4.77 4.01 2.39
4.69 4.11 2.39
4.61 4.20 2.39
4.53 4.30 2.39
4.44 4.39 2.39
4.35 4.48 2.39
4.26 4.56 2.39
4.17 4.65 2.39
4.08 4.73 2.39
3.98 4.82 2.39
3.89 4.90 2.39
3.79 4.97 2.39
3.69 5.05 2.39
3.59 5.13 2.39
3.49 5.20 2.39
3.38 5.27 2.39
3.28 5.34 2.39
3.17 5.40 2.39
3.06 5.47 2.39
2.80 5.25 2.27
2.70 5.30 2.27
2.68 5.54 2.35
2.57 5.60 2.35
2.46 5.66 2.35
2.35 5.71 2.35
2.15 5.55 2.27
2.10 5.74 2.33
2.03 5.94 2.39
1.93 6.03 2.41
1.79 6.02 2.39
1.75 6.31 2.49
1.62 6.35 2.49
1.49 6.38 2.49
1.36 6.41 2.49
1.23 6.44 2.49
1.11 6.46 2.49
0.98 6.49 2.49
0.85 6.50 2.49
0.72 6.52 2.49
0.58 6.54 2.49
0.45 6.55 2.49
0.32 6.56 2.49
0.19 6.56 2.49
0.06 6.57 2.49
-0.07 6.57 2.49
-0.20 6.57 2.49
-0.34 6.56 2.49
-0.47 6.55 2.49
-0.60 6.54 2.49
-0.73 6.53 2.49
-0.86 6.52 2.49
-0.99 6.50 2.49
-1.12 6.48 2.49
-1.25 6.46 2.49
-1.38 6.43 2.49
-1.51 6.40 2.49
-1.64 6.37 2.49
-1.77 6.34 2.49
-1.89 6.30 2.49
-2.02 6.26 2.49
-2.14 6.22 2.49
-2.27 6.18 2.49
-2.39 6.13 2.49
-2.51 6.08 2.49
-2.64 6.03 2.49
-2.76 5.98 2.49
-2.88 5.92 2.49
-2.99 5.86 2.49
-3.11 5.80 2.49
-3.23 5.74 2.49
-3.34 5.67 2.49
-3.45 5.61 2.49
-3.57 5.54 2.49
-3.68 5.46 2.49
-3.79 5.39 2.49
-3.89 5.31 2.49
-4.00 5.23 2.49
-4.10 5.15 2.49
-4.21 5.07 2.49
-4.31 4.98 2.49
-4.40 4.90 2.49
-4.50 4.81 2.49
-4.60 4.72 2.49
-4.69 4.62 2.49
-4.78 4.53 2.49
-4.87 4.43 2.49
-4.96 4.33 2.49
-5.05 4.23 2.49
-5.13 4.13 2.49
-5.21 4.02 2.49
-5.29 3.92 2.49
-5.37 3.81 2.49
-5.44 3.70 2.49
-5.51 3.59 2.49
-5.59 3.48 2.49
-5.65 3.37 2.49
-5.72 3.26 2.49
-5.78 3.14 2.49
-5.84 3.02 2.49
-5.90 2.90 2.49
-5.96 2.79 2.49
-6.01 2.67 2.49
-6.07 2.54 2.49
-6.11 2.42 2.49
-6.16 2.30 2.49
-6.20 2.17 2.49
-6.25 2.05 2.49
-6.29 1.92 2.49
-6.32 1.80 2.49
-6.36 1.67 2.49
-6.37 1.54 2.49
-6.38 1.40 2.48
-6.38 1.27 2.47
-6.38 1.14 2.46
-6.38 1.01 2.45
-6.38 0.88 2.45
-6.39 0.75 2.44
-6.39 0.62 2.44
-6.39 0.49 2.44
-6.39 0.36 2.43
-6.40 0.23 2.43
-6.40 0.10 2.43
-6.40 -0.02 2.43
-6.40 -0.15 2.44
-6.40 -0.28 2.44
-6.40 -0.41 2.44
-6.41 -0.54 2.45
-6.41 -0.67 2.45
-6.41 -0.80 2.46
-6.41 -0.93 2.47
-6.41 -1.06 2.48
-6.42 -1.20 2.49
-6.41 -1.33 2.49
-6.38 -1.46 2.49
-6.35 -1.58 2.49
-6.31 -1.71 2.49
-6.28 -1.84 2.49
-6.24 -1.96 2.49
-6.19 -2.09 2.49
-6.15 -2.21 2.49
-6.10 -2.33 2.49
-6.05 -2.45 2.49
-6.00 -2.57 2.49
-5.95 -2.69 2.49
-5.89 -2.81 2.49
-5.83 -2.93 2.49
-5.77 -3.04 2.49
-5.71 -3.16 2.49
-5.64 -3.27 2.49
-5.57 -3.38 2.49
-5.50 -3.49 2.49
-5.43 -3.60 2.49
-5.36 -3.71 2.49
-5.28 -3.81 2.49
-5.20 -3.92 2.49
-5.12 -4.02 2.49
-5.04 -4.12 2.49
-4.95 -4.22 2.49
-4.86 -4.32 2.49
-4.78 -4.42 2.49
-4.68 -4.51 2.49
-4.59 -4.60 2.49
-4.50 -4.69 2.49
-4.40 -4.78 2.49
-4.30 -4.87 2.49
-4.20 -4.95 2.49
-4.10 -5.03 2.49
-4.00 -5.11 2.49
-3.90 -5.19 2.49
-3.79 -5.27 2.49
-3.68 -5.34 2.49
-3.57 -5.41 2.49
-3.46 -5.48 2.49
-3.35 -5.55 2.49
-3.24 -5.61 2.49
-3.13 -5.68 2.49
-3.01 -5.74 2.49
-2.89 -5.79 2.49
-2.78 -5.85 2.49
-2.66 -5.90 2.49
-2.54 -5.95 2.49
-2.42 -6.00 2.49
-2.30 -6.05 2.49
-2.17 -6.09 2.49
-2.05 -6.13 2.49
-1.93 -6.17 2.49
-1.80 -6.21 2.49
-1.68 -6.24 2.49
-1.55 -6.27 2.49
-1.42 -6.30 2.49
-1.30 -6.33 2.49
-1.17 -6.35 2.49
-1.04 -6.37 2.49
-0.91 -6.39 2.49
-0.78 -6.41 2.49
-0.65 -6.42 2.49
-0.52 -6.43 2.49
-0.40 -6.44 2.49
-0.27 -6.44 2.49
-0.14 -6.45 2.49
-0.01 -6.04 2.49
0.11 -6.04 2.49
0.24 -6.03 2.49
0.36 -6.03 2.49
0.48 -6.02 2.49
0.60 -6.01 2.49
0.72 -5.99 2.49
0.84 -5.98 2.49
0.96 -5.96 2.49
1.08 -5.94 2.49
1.20 -5.91 2.49
1.32 -5.89 2.49
1.43 -5.86 2.49
1.55 -5.83 2.49
1.60 -5.55 2.39
1.71 -5.52 2.39
1.82 -5.49 2.39
1.92 -5.42 2.38
1.94 -5.13 2.27
2.04 -5.09 2.27
2.22 -5.23 2.35
2.32 -5.19 2.35
2.43 -5.14 2.35
2.51 -5.06 2.34
2.54 -4.86 2.27
2.64 -4.81 2.27
2.88 -5.01 2.39
2.98 -4.95 2.39
3.08 -4.89 2.39
3.17 -4.82 2.39
3.27 -4.76 2.39
3.37 -4.69 2.39
3.46 -4.62 2.39
3.55 -4.55 2.39
3.64 -4.48 2.39
3.73 -4.41 2.39
3.82 -4.33 2.39
3.91 -4.25 2.39
3.99 -4.17 2.39
4.07 -4.09 2.39
4.16 -4.01 2.39
4.24 -3.93 2.39
4.31 -3.84 2.39
4.39 -3.75 2.39
4.46 -3.66 2.39
4.54 -3.57 2.39
4.61 -3.48 2.39
4.68 -3.39 2.39
4.75 -3.29 2.39
4.81 -3.20 2.39
4.87 -3.10 2.39
4.94 -3.00 2.39
5.00 -2.90 2.39
5.05 -2.80 2.39
5.11 -2.70 2.39
5.16 -2.60 2.39
5.21 -2.49 2.39
5.26 -2.39 2.39
5.31 -2.28 2.39
5.36 -2.18 2.39
5.40 -2.07 2.39
5.44 -1.96 2.39
5.48 -1.85 2.39
5.52 -1.74 2.39
5.55 -1.63 2.39
5.58 -1.52 2.39
5.61 -1.40 2.39
5.64 -1.29 2.39
6.31 -1.31 2.66
6.36 -1.19 2.67
6.40 -1.06 2.68
6.44 -0.94 2.69
6.48 -0.81 2.69
6.51 -0.68 2.70
5.62 -0.47 2.33
6.58 -0.42 2.72
6.60 -0.29 2.73
6.62 -0.16 2.73
6.60 -0.02 2.72
6.58 0.11 2.71
6.56 0.24 2.70
6.53 0.37 2.70
6.50 0.50 2.69
6.47 0.63 2.68
6.43 0.75 2.67
6.39 0.88 2.66
6.35 1.01 2.65
6.31 1.13 2.64
6.26 1.25 2.63
5.67 1.25 2.39
5.65 1.37 2.39
5.62 1.48 2.39
5.59 1.59 2.39
5.56 1.70 2.39
5.52 1.82 2.39
5.49 1.93 2.39
5.45 2.04 2.39
5.41 2.15 2.39
5.37 2.26 2.39
5.32 2.36 2.39
5.27 2.47 2.39
5.22 2.58 2.39
5.17 2.68 2.39
5.12 2.79 2.39
5.06 2.89 2.39
5.00 2.99 2.39
4.94 3.09 2.39
4.88 3.19 2.39
4.82 3.29 2.39
4.75 3.39 2.39
4.68 3.48 2.39
4.61 3.57 2.39
4.54 3.67 2.39
4.47 3.76 2.39
4.39 3.85 2.39
4.32 3.94 2.39
4.24 4.02 2.39
4.16 4.11 2.39
4.08 4.19 2.39
3.99 4.27 2.39
3.91 4.35 2.39
3.82 4.43 2.39
3.73 4.51 2.39
3.64 4.58 2.39
3.55 4.66 2.39
3.45 4.73 2.39
3.36 4.80 2.39
3.26 4.87 2.39
3.16 4.93 2.39
3.07 5.00 2.39
2.97 5.06 2.39
2.72 4.86 2.27
2.67 5.01 2.31
2.61 5.14 2.35
2.51 5.20 2.35
2.41 5.25 2.35
2.22 5.11 2.27
2.12 5.15 2.27
2.09 5.39 2.35
2.01 5.52 2.39
1.90 5.56 2.39
1.79 5.60 2.39
1.74 5.84 2.48
1.63 5.91 2.49
1.51 5.94 2.49
1.40 5.97 2.49
1.28 6.00 2.49
1.16 6.03 2.49
1.03 6.05 2.49
0.91 6.07 2.49
0.79 6.09 2.49
0.67 6.10 2.49
0.55 6.12 2.49
0.42 6.13 2.49
0.30 6.14 2.49
0.18 6.14 2.49
0.06 6.15 2.49
-0.07 6.15 2.49
-0.19 6.14 2.49
-0.31 6.14 2.49
-0.44 6.13 2.49
-0.56 6.12 2.49
-0.68 6.11 2.49
-0.81 6.10 2.49
-0.93 6.08 2.49
-1.05 6.06 2.49
-1.17 6.04 2.49
-1.29 6.02 2.49
-1.41 5.99 2.49
-1.53 5.96 2.49
-1.65 5.93 2.49
-1.77 5.90 2.49
-1.89 5.86 2.49
-2.01 5.82 2.49
-2.12 5.78 2.49
-2.24 5.74 2.49
-2.35 5.69 2.49
-2.47 5.64 2.49
-2.58 5.59 2.49
-2.69 5.54 2.49
-2.80 5.49 2.49
-2.91 5.43 2.49
-3.02 5.37 2.49
-3.13 5.31 2.49
-3.23 5.25 2.49
-3.34 5.18 2.49
-3.44 5.11 2.49
-3.54 5.04 2.49
-3.64 4.97 2.49
-3.74 4.90 2.49
-3.84 4.82 2.49
-3.94 4.74 2.49
-4.03 4.66 2.49
-4.12 4.58 2.49
-4.21 4.50 2.49
-4.30 4.41 2.49
-4.39 4.33 2.49
-4.48 4.24 2.49
-4.56 4.15 2.49
-4.64 4.05 2.49
-4.72 3.96 2.49
-4.80 3.86 2.49
-4.88 3.77 2.49
-4.95 3.67 2.49
-5.02 3.57 2.49
-5.09 3.47 2.49
-5.16 3.36 2.49
-5.23 3.26 2.49
-5.29 3.15 2.49
-5.35 3.05 2.49
-5.41 2.94 2.49
-5.47 2.83 2.49
-5.52 2.72 2.49
-5.58 2.61 2.49
-5.63 2.49 2.49
-5.68 2.38 2.49
-5.72 2.27 2.49
-5.77 2.15 2.49
-5.81 2.03 2.49
-5.85 1.92 2.49
-5.88 1.80 2.49
-5.92 1.68 2.49
-5.95 1.56 2.49
-5.98 1.44 2.49
-6.00 1.32 2.49
-6.03 1.20 2.49
-6.05 1.08 2.49
-6.07 0.96 2.49
-6.09 0.84 2.49
-6.10 0.71 2.49
-6.11 0.59 2.49
-6.12 0.47 2.49
-6.13 0.35 2.49
-6.14 0.22 2.49
-6.14 0.10 2.49
-6.14 -0.02 2.49
-6.13 -0.15 2.49
-6.13 -0.27 2.49
-6.12 -0.39 2.49
-6.11 -0.51 2.49
-6.10 -0.64 2.49
-6.08 -0.76 2.49
-6.07 -0.88 2.49
-6.05 -1.00 2.49
-6.02 -1.12 2.49
-6.00 -1.24 2.49
-5.97 -1.36 2.49
-5.94 -1.48 2.49
-5.91 -1.60 2.49
-5.87 -1.72 2.49
-5.84 -1.84 2.49
-5.80 -1.95 2.49
-5.76 -2.07 2.49
-5.71 -2.18 2.49
-5.67 -2.30 2.49
-5.62 -2.41 2.49
-5.57 -2.52 2.49
-5.52 -2.63 2.49
-5.46 -2.74 2.49
-5.40 -2.85 2.49
-5.34 -2.96 2.49
-5.28 -3.06 2.49
-5.22 -3.17 2.49
-5.15 -3.27 2.49
-5.08 -3.37 2.49
-5.01 -3.47 2.49
-4.94 -3.57 2.49
-4.87 -3.67 2.49
-4.79 -3.77 2.49
-4.72 -3.86 2.49
-4.64 -3.95 2.49
-4.55 -4.04 2.49
-4.47 -4.13 2.49
-4.39 -4.22 2.49
-4.30 -4.31 2.49
-4.21 -4.39 2.49
-4.12 -4.48 2.49
-4.03 -4.56 2.49
-3.94 -4.63 2.49
-3.84 -4.71 2.49
-3.75 -4.79 2.49
-3.65 -4.86 2.49
-3.55 -4.93 2.49
-3.45 -5.00 2.49
-3.35 -5.07 2.49
-3.24 -5.13 2.49
-3.14 -5.20 2.49
-3.03 -5.26 2.49
-2.93 -5.32 2.49
-2.82 -5.37 2.49
-2.71 -5.43 2.49
-2.60 -5.48 2.49
-2.49 -5.53 2.49
-2.38 -5.58 2.49
-2.26 -5.62 2.49
-2.15 -5.66 2.49
-2.04 -5.71 2.49
-1.92 -5.74 2.49
-1.80 -5.78 2.49
-1.69 -5.81 2.49
-1.57 -5.85 2.49
-1.45 -5.88 2.49
-1.33 -5.90 2.49
-1.21 -5.93 2.49
-1.09 -5.95 2.49
-0.97 -5.97 2.49
-0.85 -5.99 2.49
-0.73 -6.00 2.49
-0.61 -6.01 2.49
-0.49 -6.02 2.49
-0.37 -6.03 2.49
-0.25 -6.04 2.49
-0.13 -6.04 2.49
-0.01 -5.67 2.49
0.11 -5.67 2.49
0.22 -5.67 2.49
0.34 -5.66 2.49
0.45 -5.65 2.49
0.56 -5.64 2.49
0.68 -5.63 2.49
0.79 -5.61 2.49
0.90 -5.60 2.49
1.01 -5.58 2.49
1.13 -5.55 2.49
1.24 -5.53 2.49
1.35 -5.50 2.49
1.46 -5.47 2.49
1.56 -5.43 2.49
1.61 -5.19 2.39
1.71 -5.15 2.39
1.81 -5.12 2.39
1.92 -5.08 2.39
1.93 -4.82 2.29
2.01 -4.74 2.27
2.18 -4.87 2.35
2.28 -4.83 2.35
2.38 -4.78 2.35
2.47 -4.73 2.35
2.52 -4.60 2.31
2.57 -4.47 2.27
2.66 -4.41 2.27
2.89 -4.59 2.39
2.98 -4.53 2.39
3.07 -4.47 2.39
3.16 -4.41 2.39
3.25 -4.34 2.39
3.34 -4.28 2.39
3.42 -4.21 2.39
3.51 -4.14 2.39
3.59 -4.07 2.39
3.67 -4.00 2.39
3.75 -3.92 2.39
3.83 -3.85 2.39
3.90 -3.77 2.39
3.98 -3.69 2.39
4.05 -3.61 2.39
4.12 -3.53 2.39
4.19 -3.44 2.39
4.26 -3.36 2.39
4.33 -3.27 2.39
4.40 -3.18 2.39
4.46 -3.09 2.39
4.52 -3.00 2.39
4.58 -2.91 2.39
4.64 -2.82 2.39
4.69 -2.73 2.39
4.75 -2.63 2.39
4.80 -2.54 2.39
4.85 -2.44 2.39
4.90 -2.34 2.39
4.95 -2.24 2.39
4.99 -2.14 2.39
5.03 -2.04 2.39
5.07 -1.94 2.39
5.11 -1.84 2.39
5.15 -1.74 2.39
5.18 -1.63 2.39
5.22 -1.53 2.39
5.25 -1.42 2.39
5.27 -1.32 2.39
5.30 -1.21 2.39
5.32 -1.11 2.39
5.35 -1.00 2.39
5.37 -0.89 2.39
5.38 -0.78 2.39
5.40 -0.67 2.39
5.41 -0.57 2.39
5.42 -0.46 2.39
5.43 -0.35 2.39
5.44 -0.24 2.39
5.44 -0.13 2.39
5.45 -0.02 2.39
5.45 0.09 2.39
5.44 0.20 2.39
5.44 0.31 2.39
5.43 0.42 2.39
5.43 0.53 2.39
5.41 0.64 2.39
5.40 0.74 2.39
5.39 0.85 2.39
5.37 0.96 2.39
5.35 1.07 2.39
5.33 1.18 2.39
5.30 1.28 2.39
5.28 1.39 2.39
5.25 1.50 2.39
5.22 1.60 2.39
5.19 1.71 2.39
5.15 1.81 2.39
5.12 1.91 2.39
5.08 2.02 2.39
5.04 2.12 2.39
5.00 2.22 2.39
4.95 2.32 2.39
4.91 2.42 2.39
4.86 2.52 2.39
4.81 2.62 2.39
4.75 2.71 2.39
4.70 2.81 2.39
4.64 2.90 2.39
4.58 3.00 2.39
4.52 3.09 2.39
4.46 3.18 2.39
4.40 3.27 2.39
4.33 3.36 2.39
4.27 3.44 2.39
4.20 3.53 2.39
4.13 3.61 2.39
4.05 3.70 2.39
3.98 3.78 2.39
3.90 3.86 2.39
3.83 3.94 2.39
3.75 4.01 2.39
3.67 4.09 2.39
3.59 4.16 2.39
3.50 4.24 2.39
3.42 4.31 2.39
3.33 4.37 2.39
3.24 4.44 2.39
3.15 4.51 2.39
3.06 4.57 2.39
2.97 4.63 2.39
2.73 4.45 2.27
2.67 4.55 2.29
2.64 4.73 2.35
2.55 4.78 2.35
2.45 4.83 2.35
2.36 4.88 2.35
2.18 4.75 2.27
2.09 4.81 2.27
2.09 5.08 2.38
1.99 5.14 2.39
1.89 5.18 2.39
1.79 5.22 2.39
1.73 5.42 2.47
1.64 5.52 2.49
1.53 5.55 2.49
1.42 5.58 2.49
1.31 5.61 2.49
1.20 5.63 2.49
1.08 5.66 2.49
0.97 5.68 2.49
0.86 5.70 2.49
0.74 5.72 2.49
0.63 5.73 2.49
0.51 5.74 2.49
0.40 5.75 2.49
0.28 5.76 2.49
0.17 5.77 2.49
0.05 5.77 2.49
-0.06 5.77 2.49
-0.18 5.77 2.49
-0.30 5.76 2.49
-0.41 5.76 2.49
-0.53 5.75 2.49
-0.64 5.74 2.49
-0.76 5.72 2.49
-0.87 5.71 2.49
-0.99 5.69 2.49
-1.10 5.67 2.49
-1.21 5.65 2.49
-1.33 5.62 2.49
-1.44 5.60 2.49
-1.55 5.57 2.49
-1.66 5.53 2.49
-1.77 5.50 2.49
-1.88 5.46 2.49
-1.99 5.43 2.49
-2.10 5.39 2.49
-2.21 5.34 2.49
-2.32 5.30 2.49
-2.42 5.25 2.49
-2.53 5.20 2.49
-2.63 5.15 2.49
-2.73 5.10 2.49
-2.83 5.04 2.49
-2.94 4.98 2.49
-3.03 4.92 2.49
-3.13 4.86 2.49
-3.23 4.80 2.49
-3.33 4.73 2.49
-3.42 4.67 2.49
-3.51 4.60 2.49
-3.60 4.52 2.49
-3.69 4.45 2.49
-3.78 4.38 2.49
-3.87 4.30 2.49
-3.95 4.22 2.49
-4.04 4.14 2.49
-4.12 4.06 2.49
-4.20 3.98 2.49
-4.28 3.89 2.49
-4.36 3.80 2.49
-4.43 3.72 2.49
-4.51 3.63 2.49
-4.58 3.54 2.49
-4.65 3.44 2.49
-4.71 3.35 2.49
-4.78 3.25 2.49
-4.84 3.16 2.49
-4.91 3.06 2.49
-4.97 2.96 2.49
-5.02 2.86 2.49
-5.08 2.76 2.49
-5.13 2.66 2.49
-5.19 2.55 2.49
-5.24 2.45 2.49
-5.28 2.34 2.49
-5.33 2.24 2.49
-5.37 2.13 2.49
-5.41 2.02 2.49
-5.45 1.91 2.49
-5.49 1.80 2.49
-5.52 1.69 2.49
-5.55 1.58 2.49
-5.58 1.47 2.49
-5.61 1.35 2.49
-5.64 1.24 2.49
-5.66 1.13 2.49
-5.68 1.01 2.49
-5.70 0.90 2.49
-5.71 0.79 2.49
-5.73 0.67 2.49
-5.74 0.56 2.49
-5.75 0.44 2.49
-5.76 0.33 2.49
-5.76 0.21 2.49
-5.76 0.09 2.49
-5.76 -0.02 2.49
-5.76 -0.14 2.49
-5.75 -0.25 2.49
-5.75 -0.37 2.49
-5.74 -0.48 2.49
-5.73 -0.60 2.49
-5.71 -0.71 2.49
-5.70 -0.83 2.49
-5.68 -0.94 2.49
-5.66 -1.05 2.49
-5.63 -1.17 2.49
-5.61 -1.28 2.49
-5.58 -1.39 2.49
-5.55 -1.50 2.49
-5.52 -1.61 2.49
-5.48 -1.72 2.49
-5.44 -1.83 2.49
-5.41 -1.94 2.49
-5.36 -2.05 2.49
-5.32 -2.16 2.49
-5.28 -2.26 2.49
-5.23 -2.37 2.49
-5.18 -2.47 2.49
-5.13 -2.57 2.49
-5.07 -2.67 2.49
-5.02 -2.77 2.49
-4.96 -2.87 2.49
-4.90 -2.97 2.49
-4.84 -3.07 2.49
-4.77 -3.17 2.49
-4.71 -3.26 2.49
-4.64 -3.35 2.49
-4.57 -3.45 2.49
-4.50 -3.54 2.49
-4.43 -3.62 2.49
-4.35 -3.71 2.49
-4.28 -3.80 2.49
-4.20 -3.88 2.49
-4.12 -3.96 2.49
-4.04 -4.05 2.49
-3.96 -4.12 2.49
-3.87 -4.20 2.49
-3.79 -4.28 2.49
-3.70 -4.35 2.49
-3.61 -4.42 2.49
-3.52 -4.50 2.49
-3.43 -4.56 2.49
-3.33 -4.63 2.49
-3.24 -4.70 2.49
-3.14 -4.76 2.49
-3.05 -4.82 2.49
-2.95 -4.88 2.49
-2.85 -4.94 2.49
-2.75 -4.99 2.49
-2.65 -5.05 2.49
-2.55 -5.10 2.49
-2.44 -5.15 2.49
-2.34 -5.19 2.49
-2.23 -5.24 2.49
-2.13 -5.28 2.49
-2.02 -5.32 2.49
-1.91 -5.36 2.49
-1.80 -5.40 2.49
-1.70 -5.43 2.49
-1.59 -5.46 2.49
-1.48 -5.49 2.49
-1.36 -5.52 2.49
-1.25 -5.54 2.49
-1.14 -5.57 2.49
-1.03 -5.59 2.49
-0.92 -5.61 2.49
-0.80 -5.62 2.49
-0.69 -5.64 2.49
-0.58 -5.65 2.49
-0.46 -5.66 2.49
-0.35 -5.67 2.49
-0.23 -5.67 2.49
-0.12 -5.67 2.49
-0.01 -5.34 2.49
0.10 -5.34 2.49
0.21 -5.34 2.49
0.32 -5.33 2.49
0.42 -5.32 2.49
0.53 -5.31 2.49
0.64 -5.30 2.49
0.74 -5.29 2.49
0.85 -5.27 2.49
0.95 -5.25 2.49
1.06 -5.23 2.49
1.16 -5.21 2.49
1.27 -5.18 2.49
1.37 -5.16 2.49
1.48 -5.13 2.49
1.57 -5.07 2.48
1.61 -4.85 2.39
1.71 -4.82 2.39
1.80 -4.78 2.39
1.90 -4.75 2.39
1.93 -4.56 2.32
1.98 -4.43 2.27
2.07 -4.39 2.27
2.24 -4.50 2.35
2.33 -4.46 2.35
2.42 -4.41 2.35
2.50 -4.36 2.35
2.53 -4.20 2.29
2.58 -4.11 2.27
2.67 -4.05 2.27
2.89 -4.21 2.39
2.98 -4.15 2.39
3.06 -4.09 2.39
3.14 -4.03 2.39
3.22 -3.97 2.39
3.30 -3.90 2.39
3.38 -3.83 2.39
3.46 -3.76 2.39
3.53 -3.69 2.39
3.61 -3.62 2.39
3.68 -3.55 2.39
3.75 -3.47 2.39
3.82 -3.40 2.39
3.89 -3.32 2.39
3.95 -3.24 2.39
4.02 -3.16 2.39
4.08 -3.08 2.39
4.14 -3.00 2.39
4.20 -2.92 2.39
4.26 -2.83 2.39
4.31 -2.74 2.39
4.37 -2.66 2.39
4.42 -2.57 2.39
4.47 -2.48 2.39
4.52 -2.39 2.39
4.57 -2.30 2.39
4.61 -2.21 2.39
4.66 -2.11 2.39
4.70 -2.02 2.39
4.74 -1.92 2.39
4.78 -1.83 2.39
4.82 -1.73 2.39
4.85 -1.64 2.39
4.88 -1.54 2.39
4.91 -1.44 2.39
4.94 -1.34 2.39
4.97 -1.24 2.39
4.99 -1.14 2.39
5.01 -1.04 2.39
5.04 -0.94 2.39
5.05 -0.84 2.39
5.07 -0.74 2.39
5.08 -0.63 2.39
5.10 -0.53 2.39
5.11 -0.43 2.39
5.12 -0.33 2.39
5.12 -0.22 2.39
5.13 -0.12 2.39
5.13 -0.02 2.39
5.13 0.08 2.39
5.13 0.19 2.39
5.12 0.29 2.39
5.12 0.39 2.39
5.11 0.50 2.39
5.10 0.60 2.39
5.09 0.70 2.39
5.07 0.80 2.39
5.06 0.91 2.39
5.04 1.01 2.39
5.02 1.11 2.39
5.00 1.21 2.39
4.97 1.31 2.39
4.94 1.41 2.39
4.92 1.51 2.39
4.89 1.61 2.39
4.85 1.71 2.39
4.82 1.80 2.39
4.78 1.90 2.39
4.74 2.00 2.39
4.70 2.09 2.39
4.66 2.19 2.39
4.62 2.28 2.39
4.57 2.37 2.39
4.53 2.46 2.39
4.48 2.56 2.39
4.42 2.65 2.39
4.37 2.73 2.39
4.32 2.82 2.39
4.26 2.91 2.39
4.20 2.99 2.39
4.14 3.08 2.39
4.08 3.16 2.39
4.02 3.24 2.39
3.95 3.32 2.39
3.88 3.40 2.39
3.82 3.48 2.39
3.75 3.56 2.39
3.68 3.63 2.39
3.60 3.71 2.39
3.53 3.78 2.39
3.45 3.85 2.39
3.37 3.92 2.39
3.30 3.99 2.39
3.22 4.05 2.39
3.13 4.12 2.39
3.05 4.18 2.39
2.97 4.24 2.39
2.74 4.08 2.27
2.66 4.15 2.28
2.66 4.33 2.34
2.58 4.40 2.35
2.49 4.45 2.35
2.40 4.50 2.35
2.31 4.55 2.35
2.14 4.43 2.27
2.08 4.53 2.30
2.07 4.76 2.39
1.97 4.80 2.39
1.88 4.84 2.39
1.78 4.88 2.39
1.73 5.05 2.46
1.65 5.16 2.49
1.55 5.19 2.49
1.44 5.22 2.49
1.34 5.25 2.49
1.23 5.28 2.49
1.13 5.30 2.49
1.02 5.33 2.49
0.91 5.35 2.49
0.81 5.36 2.49
0.70 5.38 2.49
0.59 5.39 2.49
0.48 5.41 2.49
0.37 5.41 2.49
0.27 5.42 2.49
0.16 5.43 2.49
0.05 5.43 2.49
-0.06 5.43 2.49
-0.17 5.43 2.49
-0.28 5.42 2.49
-0.39 5.42 2.49
-0.50 5.41 2.49
-0.60 5.40 2.49
-0.71 5.39 2.49
-0.82 5.37 2.49
-0.93 5.36 2.49
-1.04 5.34 2.49
-1.14 5.32 2.49
-1.25 5.29 2.49
-1.35 5.27 2.49
-1.46 5.24 2.49
-1.56 5.21 2.49
-1.67 5.18 2.49
-1.77 5.14 2.49
-1.88 5.11 2.49
-1.98 5.07 2.49
-2.08 5.03 2.49
-2.18 4.99 2.49
-2.28 4.94 2.49
-2.38 4.90 2.49
-2.48 4.85 2.49
-2.57 4.80 2.49
-2.67 4.74 2.49
-2.76 4.69 2.49
-2.86 4.63 2.49
-2.95 4.58 2.49
-3.04 4.52 2.49
-3.13 4.45 2.49
-3.22 4.39 2.49
-3.31 4.33 2.49
-3.39 4.26 2.49
-3.48 4.19 2.49
-3.56 4.12 2.49
-3.64 4.05 2.49
-3.72 3.97 2.49
-3.80 3.90 2.49
-3.88 3.82 2.49
-3.95 3.74 2.49
-4.03 3.66 2.49
-4.10 3.58 2.49
-4.17 3.50 2.49
-4.24 3.41 2.49
-4.31 3.33 2.49
-4.37 3.24 2.49
-4.44 3.15 2.49
-4.50 3.06 2.49
-4.56 2.97 2.49
-4.62 2.88 2.49
-4.67 2.79 2.49
-4.73 2.69 2.49
-4.78 2.60 2.49
-4.83 2.50 2.49
-4.88 2.40 2.49
-4.93 2.30 2.49
-4.97 2.20 2.49
-5.01 2.10 2.49
-5.05 2.00 2.49
-5.09 1.90 2.49
-5.13 1.80 2.49
-5.16 1.70 2.49
-5.20 1.59 2.49
-5.23 1.49 2.49
-5.26 1.38 2.49
-5.28 1.28 2.49
-5.31 1.17 2.49
-5.33 1.06 2.49
-5.35 0.96 2.49
-5.36 0.85 2.49
-5.38 0.74 2.49
-5.39 0.63 2.49
-5.40 0.52 2.49
-5.41 0.42 2.49
-5.42 0.31 2.49
-5.42 0.20 2.49
-5.42 0.09 2.49
-5.42 -0.02 2.49
-5.42 -0.13 2.49
-5.42 -0.24 2.49
-5.41 -0.35 2.49
-5.40 -0.45 2.49
-5.39 -0.56 2.49
-5.38 -0.67 2.49
-5.36 -0.78 2.49
-5.34 -0.88 2.49
-5.32 -0.99 2.49
-5.30 -1.10 2.49
-5.28 -1.20 2.49
-5.25 -1.31 2.49
-5.22 -1.41 2.49
-5.19 -1.52 2.49
-5.16 -1.62 2.49
-5.13 -1.72 2.49
-5.09 -1.83 2.49
-5.05 -1.93 2.49
-5.01 -2.03 2.49
-4.97 -2.13 2.49
-4.92 -2.23 2.49
-4.88 -2.32 2.49
-4.83 -2.42 2.49
-4.78 -2.52 2.49
-4.72 -2.61 2.49
-4.67 -2.71 2.49
-4.61 -2.80 2.49
-4.56 -2.89 2.49
-4.50 -2.98 2.49
-4.43 -3.07 2.49
-4.37 -3.16 2.49
-4.31 -3.24 2.49
-4.24 -3.33 2.49
-4.17 -3.41 2.49
-4.10 -3.49 2.49
-4.03 -3.57 2.49
-3.95 -3.65 2.49
-3.88 -3.73 2.49
-3.80 -3.81 2.49
-3.73 -3.88 2.49
-3.65 -3.96 2.49
-3.57 -4.03 2.49
-3.48 -4.10 2.49
-3.40 -4.17 2.49
-3.31 -4.23 2.49
-3.23 -4.30 2.49
-3.14 -4.36 2.49
-3.05 -4.42 2.49
-2.96 -4.48 2.49
-2.87 -4.54 2.49
-2.78 -4.59 2.49
-2.68 -4.65 2.49
-2.59 -4.70 2.49
-2.49 -4.75 2.49
-2.40 -4.80 2.49
-2.30 -4.85 2.49
-2.20 -4.89 2.49
-2.10 -4.93 2.49
-2.00 -4.97 2.49
-1.90 -5.01 2.49
-1.80 -5.05 2.49
-1.70 -5.08 2.49
-1.60 -5.11 2.49
-1.49 -5.14 2.49
-1.39 -5.17 2.49
-1.29 -5.20 2.49
-1.18 -5.22 2.49
-1.07 -5.24 2.49
-0.97 -5.26 2.49
-0.86 -5.28 2.49
-0.76 -5.30 2.49
-0.65 -5.31 2.49
-0.54 -5.32 2.49
-0.44 -5.33 2.49
-0.33 -5.34 2.49
-0.22 -5.34 2.49
-0.11 -5.34 2.49
-0.01 -5.04 2.49
0.09 -5.04 2.49
0.20 -5.04 2.49
0.30 -5.03 2.49
0.40 -5.03 2.49
0.50 -5.02 2.49
0.60 -5.00 2.49
0.70 -4.99 2.49
0.80 -4.98 2.49
0.90 -4.96 2.49
1.00 -4.94 2.49
1.10 -4.92 2.49
1.20 -4.89 2.49
1.30 -4.87 2.49
1.39 -4.84 2.49
1.49 -4.81 2.49
1.57 -4.75 2.48
1.61 -4.55 2.39
1.70 -4.52 2.39
1.79 -4.48 2.39
1.88 -4.44 2.39
1.94 -4.33 2.35
1.96 -4.14 2.27
2.04 -4.10 2.27
2.20 -4.21 2.35
2.28 -4.16 2.35
2.36 -4.11 2.35
2.45 -4.07 2.35
2.52 -4.01 2.35
2.53 -3.85 2.28
2.59 -3.77 2.27
2.67 -3.72 2.27
2.89 -3.86 2.39
2.97 -3.80 2.39
3.04 -3.74 2.39
3.12 -3.68 2.39
3.19 -3.62 2.39
3.26 -3.55 2.39
3.33 -3.49 2.39
3.40 -3.42 2.39
3.47 -3.35 2.39
3.54 -3.28 2.39
3.60 -3.21 2.39
3.67 -3.14 2.39
3.73 -3.06 2.39
3.79 -2.99 2.39
3.85 -2.91 2.39
3.91 -2.83 2.39
3.96 -2.75 2.39
4.02 -2.67 2.39
4.07 -2.59 2.39
4.12 -2.51 2.39
4.17 -2.42 2.39
4.22 -2.34 2.39
4.27 -2.26 2.39
4.31 -2.17 2.39
4.36 -2.08 2.39
4.40 -1.99 2.39
4.44 -1.91 2.39
4.48 -1.82 2.39
4.51 -1.73 2.39
4.55 -1.64 2.39
4.58 -1.54 2.39
4.61 -1.45 2.39
4.64 -1.36 2.39
4.66 -1.27 2.39
4.69 -1.17 2.39
4.71 -1.08 2.39
4.73 -0.98 2.39
4.75 -0.89 2.39
4.77 -0.79 2.39
4.79 -0.70 2.39
4.80 -0.60 2.39
4.81 -0.50 2.39
4.82 -0.41 2.39
4.83 -0.31 2.39
4.84 -0.21 2.39
4.84 -0.11 2.39
4.84 -0.02 2.39
4.84 0.08 2.39
4.84 0.18 2.39
4.84 0.27 2.39
4.83 0.37 2.39
4.82 0.47 2.39
4.81 0.57 2.39
4.80 0.66 2.39
4.79 0.76 2.39
4.77 0.86 2.39
4.76 0.95 2.39
4.74 1.05 2.39
4.71 1.14 2.39
4.69 1.24 2.39
4.67 1.33 2.39
4.64 1.42 2.39
4.61 1.52 2.39
4.58 1.61 2.39
4.55 1.70 2.39
4.51 1.79 2.39
4.48 1.88 2.39
4.44 1.97 2.39
4.40 2.06 2.39
4.36 2.15 2.39
4.32 2.24 2.39
4.27 2.33 2.39
4.22 2.41 2.39
4.18 2.50 2.39
4.13 2.58 2.39
4.07 2.66 2.39
4.02 2.75 2.39
3.96 2.83 2.39
3.91 2.91 2.39
3.85 2.98 2.39
3.79 3.06 2.39
3.73 3.14 2.39
3.67 3.21 2.39
3.60 3.29 2.39
3.53 3.36 2.39
3.47 3.43 2.39
3.40 3.50 2.39
3.33 3.57 2.39
3.26 3.63 2.39
3.18 3.70 2.39
3.11 3.76 2.39
3.03 3.83 2.39
2.96 3.89 2.39
2.73 3.74 2.27
2.66 3.81 2.27
2.66 3.96 2.33
2.60 4.05 2.35
2.51 4.10 2.35
2.43 4.15 2.35
2.35 4.20 2.35
2.18 4.10 2.27
2.10 4.14 2.27
2.07 4.29 2.33
2.04 4.45 2.39
1.95 4.49 2.39
1.86 4.53 2.39
1.77 4.57 2.39
1.72 4.73 2.46
1.65 4.83 2.49
1.56 4.87 2.49
1.46 4.90 2.49
1.36 4.93 2.49
1.26 4.96 2.49
1.16 4.98 2.49
1.06 5.00 2.49
0.96 5.02 2.49
0.86 5.04 2.49
0.76 5.06 2.49
0.66 5.08 2.49
0.56 5.09 2.49
0.45 5.10 2.49
0.35 5.11 2.49
0.25 5.12 2.49
0.15 5.12 2.49
0.04 5.12 2.49
-0.06 5.12 2.49
-0.16 5.12 2.49
-0.26 5.12 2.49
-0.37 5.11 2.49
-0.47 5.10 2.49
-0.57 5.09 2.49
-0.67 5.08 2.49
-0.77 5.07 2.49
-0.88 5.05 2.49
-0.98 5.03 2.49
-1.08 5.01 2.49
-1.18 4.99 2.49
-1.28 4.97 2.49
-1.38 4.94 2.49
-1.48 4.91 2.49
-1.57 4.88 2.49
-1.67 4.85 2.49
-1.77 4.82 2.49
-1.87 4.78 2.49
-1.96 4.74 2.49
-2.06 4.70 2.49
-2.15 4.66 2.49
-2.24 4.62 2.49
-2.34 4.57 2.49
-2.43 4.52 2.49
-2.52 4.48 2.49
-2.61 4.42 2.49
-2.69 4.37 2.49
-2.78 4.32 2.49
-2.87 4.26 2.49
-2.95 4.20 2.49
-3.04 4.14 2.49
-3.12 4.08 2.49
-3.20 4.02 2.49
-3.28 3.95 2.49
-3.36 3.89 2.49
-3.43 3.82 2.49
-3.51 3.75 2.49
-3.58 3.68 2.49
-3.66 3.60 2.49
-3.73 3.53 2.49
-3.80 3.45 2.49
-3.87 3.38 2.49
