ply
format ascii 1.0
element vertex 2994
property float32 x
property float32 y
property float32 z
end_header
-4.92 -6.55 2.49
-4.78 -6.64 2.49
-4.65 -6.73 2.49
-4.51 -6.82 2.49
-4.37 -6.91 2.49
-4.23 -6.99 2.49
-4.08 -7.07 2.49
-3.94 -7.15 2.49
-3.79 -7.23 2.49
-3.65 -7.30 2.49
-3.50 -7.37 2.49
-3.35 -7.43 2.49
-3.20 -7.50 2.49
-3.05 -7.56 2.49
-2.89 -7.61 2.49
-2.74 -7.66 2.49
-2.58 -7.71 2.49
-2.43 -7.76 2.49
-2.27 -7.81 2.49
-2.11 -7.85 2.49
-1.95 -7.88 2.49
-1.79 -7.92 2.49
-1.63 -7.95 2.49
-1.47 -7.98 2.49
-1.31 -8.00 2.49
-1.15 -8.02 2.49
-0.99 -8.04 2.49
-0.83 -8.06 2.49
-0.66 -8.07 2.49
-0.50 -8.08 2.49
-0.34 -8.08 2.49
-0.18 -8.08 2.49
-0.01 -7.48 2.49
0.14 -7.47 2.49
0.29 -7.47 2.49
0.44 -7.46 2.49
0.58 -7.44 2.49
0.73 -7.43 2.49
0.88 -7.41 2.49
1.03 -7.39 2.49
1.18 -7.36 2.49
1.33 -7.33 2.49
1.47 -7.30 2.49
1.62 -7.27 2.49
1.76 -7.23 2.49
1.91 -7.19 2.49
2.00 -6.99 2.44
2.10 -6.81 2.39
2.24 -6.77 2.39
2.37 -6.72 2.39
2.51 -6.67 2.39
2.64 -6.61 2.39
2.77 -6.56 2.39
2.90 -6.50 2.39
3.03 -6.44 2.39
3.16 -6.37 2.39
3.28 -6.30 2.39
3.41 -6.24 2.39
3.53 -6.16 2.39
3.65 -6.09 2.39
3.77 -6.01 2.39
3.89 -5.93 2.39
4.01 -5.85 2.39
4.13 -5.77 2.39
4.24 -5.68 2.39
4.35 -5.60 2.39
4.46 -5.51 2.39
4.57 -5.41 2.39
4.68 -5.32 2.39
4.78 -5.22 2.39
4.47 -4.68 2.19
4.65 -4.68 2.23
5.09 -4.92 2.39
5.18 -4.82 2.39
5.28 -4.71 2.39
5.37 -4.60 2.39
5.46 -4.49 2.39
5.55 -4.38 2.39
5.63 -4.27 2.39
5.72 -4.15 2.39
5.80 -4.04 2.39
5.88 -3.92 2.39
5.96 -3.80 2.39
6.83 -4.16 2.71
6.87 -4.00 2.69
6.91 -3.85 2.68
5.94 -3.15 2.28
5.94 -3.00 2.25
7.04 -3.37 2.64
7.07 -3.22 2.63
7.10 -3.06 2.62
7.12 -2.90 2.61
7.19 -2.76 2.61
7.40 -2.67 2.67
7.60 -2.58 2.72
5.92 -1.87 2.10
8.00 -2.35 2.83
8.19 -2.23 2.88
8.37 -2.10 2.92
5.93 -1.36 2.06
8.69 -1.82 3.01
8.84 -1.66 3.05
8.98 -1.50 3.09
9.11 -1.33 3.12
9.19 -1.16 3.14
5.91 -0.62 2.01
9.27 -0.79 3.16
9.31 -0.61 3.16
9.34 -0.42 3.17
9.37 -0.23 3.18
9.39 -0.04 3.18
5.89 0.09 2.00
9.42 0.33 3.19
9.43 0.53 3.20
9.43 0.72 3.20
9.43 0.91 3.21
9.43 1.10 3.21
5.89 0.81 2.01
9.46 1.49 3.24
9.48 1.69 3.26
9.48 1.89 3.27
9.49 2.09 3.29
9.49 2.29 3.30
5.88 1.54 2.06
9.48 2.69 3.33
9.44 2.89 3.34
9.38 3.08 3.34
5.86 2.06 2.10
9.24 3.45 3.33
9.16 3.63 3.33
5.87 2.46 2.15
8.88 3.94 3.28
8.68 4.06 3.24
8.48 4.18 3.19
8.24 4.27 3.13
5.86 3.19 2.25
5.85 3.34 2.27
7.50 4.48 2.95
7.25 4.53 2.89
7.04 4.60 2.83
5.86 3.99 2.39
5.78 4.11 2.39
5.70 4.23 2.39
5.61 4.34 2.39
5.52 4.46 2.39
5.43 4.57 2.39
5.34 4.68 2.39
5.25 4.79 2.39
5.15 4.89 2.39
5.06 5.00 2.39
4.96 5.10 2.39
4.85 5.20 2.39
4.75 5.30 2.39
4.64 5.39 2.39
4.54 5.49 2.39
4.43 5.58 2.39
4.32 5.67 2.39
4.20 5.76 2.39
4.09 5.84 2.39
3.97 5.93 2.39
3.85 6.01 2.39
3.73 6.08 2.39
3.61 6.16 2.39
3.49 6.23 2.39
3.36 6.31 2.39
3.24 6.37 2.39
3.11 6.44 2.39
2.98 6.50 2.39
2.85 6.56 2.39
2.72 6.62 2.39
2.59 6.68 2.39
2.45 6.73 2.39
2.32 6.78 2.39
2.18 6.83 2.39
2.05 6.88 2.39
1.91 6.92 2.39
1.82 7.15 2.46
1.70 7.30 2.49
1.55 7.33 2.49
1.41 7.36 2.49
1.26 7.39 2.49
1.11 7.42 2.49
0.96 7.44 2.49
0.81 7.47 2.49
0.66 7.48 2.49
0.51 7.50 2.49
0.36 7.51 2.49
0.21 7.52 2.49
0.06 7.52 2.49
-0.09 7.53 2.49
-0.24 7.53 2.49
-0.39 7.52 2.49
-0.54 7.52 2.49
-0.69 7.51 2.49
-0.85 7.49 2.49
-1.00 7.48 2.49
-1.15 7.46 2.49
-1.30 7.44 2.49
-1.45 7.41 2.49
-1.59 7.39 2.49
-1.74 7.36 2.49
-1.89 7.32 2.49
-2.04 7.28 2.49
-2.18 7.25 2.49
-2.33 7.20 2.49
-2.48 7.16 2.49
-2.62 7.11 2.49
-2.76 7.06 2.49
-2.90 7.00 2.49
-3.04 6.95 2.49
-3.18 6.88 2.49
-3.32 6.82 2.49
-3.46 6.76 2.49
-3.60 6.69 2.49
-3.73 6.62 2.49
-3.86 6.54 2.49
-4.00 6.47 2.49
-4.13 6.39 2.49
-4.25 6.30 2.49
-4.38 6.22 2.49
-4.51 6.13 2.49
-4.63 6.04 2.49
-4.75 5.95 2.49
-4.87 5.85 2.49
-4.99 5.76 2.49
-5.10 5.66 2.49
-5.22 5.56 2.49
-5.33 5.45 2.49
-5.44 5.34 2.49
-5.55 5.24 2.49
-5.65 5.12 2.49
-5.75 5.01 2.49
-5.85 4.90 2.49
-5.95 4.78 2.49
-6.05 4.66 2.49
-6.14 4.54 2.49
-6.19 4.39 2.48
-6.19 4.20 2.44
-6.20 4.03 2.41
-6.22 3.87 2.39
-6.30 3.74 2.39
-6.40 3.63 2.40
-6.44 3.49 2.39
-6.51 3.36 2.39
-6.58 3.23 2.39
-6.64 3.10 2.39
-6.71 2.96 2.39
-6.76 2.83 2.39
-6.82 2.69 2.39
-6.87 2.56 2.39
-6.92 2.42 2.39
-6.97 2.28 2.39
-7.02 2.14 2.39
-7.06 2.00 2.39
-7.10 1.86 2.39
-7.13 1.71 2.39
-7.17 1.57 2.39
-7.20 1.43 2.39
-7.22 1.28 2.39
-7.25 1.14 2.39
-7.27 0.99 2.39
-7.29 0.85 2.39
-7.30 0.70 2.39
-7.31 0.55 2.39
-7.32 0.41 2.39
-7.33 0.26 2.39
-7.33 0.11 2.39
-7.33 -0.03 2.39
-7.33 -0.18 2.39
-7.33 -0.33 2.39
-7.32 -0.47 2.39
-7.31 -0.62 2.39
-7.29 -0.77 2.39
-7.27 -0.91 2.39
-7.25 -1.06 2.39
-7.23 -1.20 2.39
-7.20 -1.35 2.39
-7.17 -1.49 2.39
-7.14 -1.64 2.39
-7.11 -1.78 2.39
-7.07 -1.92 2.39
-7.03 -2.06 2.39
-6.98 -2.20 2.39
-6.94 -2.34 2.39
-6.89 -2.48 2.39
-6.83 -2.61 2.39
-6.78 -2.75 2.39
-6.72 -2.88 2.39
-6.66 -3.02 2.39
-6.60 -3.15 2.39
-6.53 -3.28 2.39
-6.46 -3.41 2.39
-6.39 -3.54 2.39
-6.32 -3.66 2.39
-6.24 -3.79 2.39
-6.16 -3.91 2.39
-6.09 -4.04 2.40
-6.08 -4.22 2.43
-6.08 -4.39 2.46
-6.07 -4.58 2.49
-5.98 -4.70 2.49
-5.88 -4.82 2.49
-5.78 -4.93 2.49
-5.68 -5.04 2.49
-5.58 -5.16 2.49
-5.47 -5.26 2.49
-5.36 -5.37 2.49
-5.25 -5.48 2.49
-5.14 -5.58 2.49
-5.02 -5.68 2.49
-4.91 -5.78 2.49
-4.79 -5.87 2.49
-4.67 -5.96 2.49
-4.55 -6.05 2.49
-4.42 -6.14 2.49
-4.30 -6.23 2.49
-4.17 -6.31 2.49
-4.04 -6.39 2.49
-3.91 -6.47 2.49
-3.78 -6.54 2.49
-3.65 -6.61 2.49
-3.51 -6.68 2.49
-3.37 -6.75 2.49
-3.24 -6.81 2.49
-3.10 -6.88 2.49
-2.96 -6.93 2.49
-2.82 -6.99 2.49
-2.68 -7.04 2.49
-2.53 -7.09 2.49
-2.39 -7.14 2.49
-2.25 -7.18 2.49
-2.10 -7.22 2.49
-1.95 -7.26 2.49
-1.81 -7.29 2.49
-1.66 -7.33 2.49
-1.51 -7.35 2.49
-1.36 -7.38 2.49
-1.21 -7.40 2.49
-1.06 -7.42 2.49
-0.92 -7.44 2.49
-0.77 -7.45 2.49
-0.62 -7.47 2.49
-0.47 -7.47 2.49
-0.32 -7.48 2.49
-0.16 -7.48 2.49
-0.01 -6.95 2.49
0.13 -6.95 2.49
0.26 -6.94 2.49
0.40 -6.93 2.49
0.54 -6.92 2.49
0.68 -6.91 2.49
0.82 -6.89 2.49
0.96 -6.87 2.49
1.09 -6.85 2.49
1.23 -6.82 2.49
1.37 -6.79 2.49
1.50 -6.76 2.49
1.64 -6.73 2.49
1.77 -6.69 2.49
1.91 -6.65 2.49
2.00 -6.47 2.44
2.08 -6.29 2.39
2.21 -6.25 2.39
2.33 -6.20 2.39
2.45 -6.15 2.39
2.58 -6.10 2.39
2.70 -6.04 2.39
2.82 -5.99 2.39
2.94 -5.93 2.39
3.05 -5.86 2.39
3.17 -5.80 2.39
3.28 -5.73 2.39
3.40 -5.66 2.39
3.51 -5.59 2.39
3.62 -5.52 2.39
3.73 -5.44 2.39
3.84 -5.37 2.39
3.94 -5.29 2.39
4.05 -5.21 2.39
4.15 -5.12 2.39
4.25 -5.04 2.39
4.35 -4.95 2.39
4.45 -4.86 2.39
4.47 -4.68 2.35
4.64 -4.67 2.39
4.73 -4.58 2.39
4.82 -4.48 2.39
4.91 -4.38 2.39
5.00 -4.28 2.39
5.08 -4.18 2.39
5.16 -4.08 2.39
5.24 -3.97 2.39
5.32 -3.86 2.39
5.40 -3.76 2.39
5.47 -3.65 2.39
5.54 -3.54 2.39
5.61 -3.42 2.39
5.68 -3.31 2.39
4.52 -2.51 1.88
4.57 -2.42 1.88
4.61 -2.33 1.88
4.66 -2.24 1.88
4.70 -2.14 1.88
4.74 -2.05 1.88
6.87 -2.80 2.70
6.89 -2.65 2.69
6.92 -2.50 2.68
5.92 -2.01 2.28
5.92 -1.87 2.26
5.93 -1.75 2.25
7.00 -1.91 2.64
7.01 -1.76 2.63
7.03 -1.62 2.63
7.04 -1.47 2.62
6.98 -1.31 2.59
7.01 -1.17 2.59
7.04 -1.03 2.59
7.07 -0.89 2.60
7.10 -0.75 2.60
7.15 -0.61 2.62
7.24 -0.47 2.64
7.31 -0.33 2.67
5.91 -0.15 2.15
7.43 -0.03 2.71
5.89 0.09 2.15
7.51 0.27 2.74
7.53 0.42 2.75
5.89 0.45 2.15
7.55 0.73 2.76
7.61 0.89 2.79
7.67 1.05 2.82
7.71 1.21 2.84
7.74 1.38 2.86
7.81 1.55 2.90
7.87 1.73 2.93
7.92 1.91 2.96
7.96 2.09 3.00
8.00 2.27 3.02
8.03 2.46 3.05
5.89 1.93 2.25
5.86 2.06 2.26
5.87 2.19 2.28
7.74 3.07 3.03
7.60 3.19 2.99
7.43 3.30 2.95
7.25 3.39 2.91
7.06 3.48 2.86
5.85 3.03 2.39
5.79 3.15 2.39
5.72 3.26 2.39
5.66 3.38 2.39
5.59 3.49 2.39
5.52 3.61 2.39
5.45 3.72 2.39
5.37 3.83 2.39
5.30 3.94 2.39
5.22 4.04 2.39
5.14 4.15 2.39
5.05 4.25 2.39
4.97 4.35 2.39
4.88 4.45 2.39
4.79 4.55 2.39
4.70 4.65 2.39
4.61 4.74 2.39
4.51 4.84 2.39
4.42 4.93 2.39
4.32 5.02 2.39
4.22 5.10 2.39
4.12 5.19 2.39
4.01 5.27 2.39
3.91 5.35 2.39
3.80 5.43 2.39
3.69 5.51 2.39
3.58 5.59 2.39
3.47 5.66 2.39
3.36 5.73 2.39
3.24 5.80 2.39
3.13 5.86 2.39
3.01 5.93 2.39
2.89 5.99 2.39
2.77 6.05 2.39
2.65 6.10 2.39
2.53 6.16 2.39
2.40 6.21 2.39
2.28 6.26 2.39
2.15 6.31 2.39
2.03 6.35 2.39
1.90 6.39 2.39
1.82 6.62 2.46
1.71 6.75 2.49
1.58 6.78 2.49
1.44 6.82 2.49
1.31 6.85 2.49
1.17 6.87 2.49
1.03 6.90 2.49
0.89 6.92 2.49
0.75 6.94 2.49
0.62 6.96 2.49
0.48 6.97 2.49
0.34 6.98 2.49
0.20 6.99 2.49
0.06 6.99 2.49
-0.08 7.00 2.49
-0.23 6.99 2.49
-0.37 6.99 2.49
-0.51 6.99 2.49
-0.65 6.98 2.49
-0.79 6.96 2.49
-0.93 6.95 2.49
-1.07 6.93 2.49
-1.21 6.91 2.49
-1.34 6.89 2.49
-1.48 6.86 2.49
-1.62 6.83 2.49
-1.76 6.80 2.49
-1.89 6.77 2.49
-2.03 6.73 2.49
-2.17 6.69 2.49
-2.30 6.65 2.49
-2.43 6.60 2.49
-2.57 6.56 2.49
-2.70 6.50 2.49
-2.83 6.45 2.49
-2.96 6.40 2.49
-3.09 6.34 2.49
-3.21 6.28 2.49
-3.34 6.21 2.49
-3.47 6.15 2.49
-3.59 6.08 2.49
-3.71 6.00 2.49
-3.83 5.93 2.49
-3.95 5.85 2.49
-4.07 5.78 2.49
-4.19 5.69 2.49
-4.30 5.61 2.49
-4.41 5.53 2.49
-4.52 5.44 2.49
-4.63 5.35 2.49
-4.74 5.25 2.49
-4.85 5.16 2.49
-4.95 5.06 2.49
-5.05 4.96 2.49
-5.15 4.86 2.49
-5.25 4.76 2.49
-5.34 4.65 2.49
-5.44 4.55 2.49
-5.53 4.44 2.49
-5.62 4.33 2.49
-5.70 4.21 2.49
-5.79 4.10 2.49
-5.87 3.98 2.49
-5.95 3.87 2.49
-6.03 3.75 2.49
-6.10 3.63 2.49
-6.17 3.50 2.49
-6.18 3.35 2.47
-6.18 3.19 2.44
-6.18 3.03 2.42
-6.19 2.88 2.40
-6.23 2.75 2.39
-6.28 2.63 2.39
-6.33 2.50 2.39
-6.38 2.37 2.39
-6.43 2.24 2.39
-6.47 2.12 2.39
-6.51 1.99 2.39
-6.55 1.85 2.39
-6.59 1.72 2.39
-6.62 1.59 2.39
-6.65 1.46 2.39
-6.68 1.32 2.39
-6.71 1.19 2.39
-6.73 1.06 2.39
-6.75 0.92 2.39
-6.77 0.79 2.39
-6.78 0.65 2.39
-6.79 0.51 2.39
-6.80 0.38 2.39
-6.81 0.24 2.39
-6.81 0.10 2.39
-6.81 -0.03 2.39
-6.81 -0.17 2.39
-6.80 -0.30 2.39
-6.79 -0.44 2.39
-6.78 -0.58 2.39
-6.77 -0.71 2.39
-6.75 -0.85 2.39
-6.73 -0.98 2.39
-6.71 -1.12 2.39
-6.69 -1.25 2.39
-6.66 -1.39 2.39
-6.63 -1.52 2.39
-6.60 -1.65 2.39
-6.56 -1.78 2.39
-6.52 -1.91 2.39
-6.48 -2.04 2.39
-6.44 -2.17 2.39
-6.39 -2.30 2.39
-6.35 -2.43 2.39
-6.31 -2.56 2.40
-6.24 -2.68 2.39
-6.19 -2.80 2.39
-6.13 -2.93 2.39
-6.10 -3.07 2.41
-6.10 -3.22 2.43
-6.09 -3.37 2.45
-6.09 -3.53 2.48
-6.05 -3.67 2.49
-5.97 -3.79 2.49
-5.89 -3.91 2.49
-5.81 -4.02 2.49
-5.73 -4.14 2.49
-5.64 -4.25 2.49
-5.55 -4.36 2.49
-5.46 -4.47 2.49
-5.37 -4.58 2.49
-5.28 -4.69 2.49
-5.18 -4.79 2.49
-5.08 -4.89 2.49
-4.98 -4.99 2.49
-4.88 -5.09 2.49
-4.77 -5.18 2.49
-4.67 -5.27 2.49
-4.56 -5.37 2.49
-4.45 -5.45 2.49
-4.34 -5.54 2.49
-4.22 -5.62 2.49
-4.11 -5.71 2.49
-3.99 -5.79 2.49
-3.88 -5.86 2.49
-3.76 -5.94 2.49
-3.63 -6.01 2.49
-3.51 -6.08 2.49
-3.39 -6.15 2.49
-3.26 -6.21 2.49
-3.14 -6.27 2.49
-3.01 -6.33 2.49
-2.88 -6.39 2.49
-2.75 -6.44 2.49
-2.62 -6.49 2.49
-2.49 -6.54 2.49
-2.36 -6.59 2.49
-2.22 -6.63 2.49
-2.09 -6.67 2.49
-1.95 -6.71 2.49
-1.82 -6.75 2.49
-1.68 -6.78 2.49
-1.54 -6.81 2.49
-1.41 -6.84 2.49
-1.27 -6.86 2.49
-1.13 -6.88 2.49
-0.99 -6.90 2.49
-0.85 -6.92 2.49
-0.71 -6.93 2.49
-0.57 -6.94 2.49
-0.43 -6.95 2.49
-0.29 -6.95 2.49
-0.15 -6.95 2.49
-0.01 -6.49 2.49
0.12 -6.49 2.49
0.25 -6.48 2.49
0.38 -6.47 2.49
0.51 -6.46 2.49
0.63 -6.45 2.49
0.76 -6.43 2.49
0.89 -6.41 2.49
1.02 -6.39 2.49
1.15 -6.37 2.49
1.28 -6.34 2.49
1.40 -6.31 2.49
1.53 -6.28 2.49
1.65 -6.25 2.49
1.78 -6.21 2.49
1.90 -6.17 2.49
1.99 -6.02 2.45
2.06 -5.83 2.39
2.18 -5.80 2.40
2.29 -5.74 2.39
2.40 -5.69 2.39
2.52 -5.64 2.39
2.63 -5.59 2.39
2.74 -5.53 2.39
2.85 -5.48 2.39
2.96 -5.42 2.39
3.07 -5.35 2.39
3.17 -5.29 2.39
3.28 -5.22 2.39
3.38 -5.16 2.39
3.48 -5.08 2.39
3.58 -5.01 2.39
3.68 -4.94 2.39
3.78 -4.86 2.39
3.88 -4.78 2.39
3.97 -4.70 2.39
4.06 -4.62 2.39
4.15 -4.54 2.39
4.24 -4.45 2.39
4.33 -4.37 2.39
4.42 -4.28 2.39
4.50 -4.19 2.39
4.58 -4.09 2.39
4.67 -4.00 2.39
4.74 -3.90 2.39
4.82 -3.81 2.39
4.90 -3.71 2.39
4.97 -3.61 2.39
5.04 -3.51 2.39
5.11 -3.41 2.39
5.17 -3.30 2.39
5.24 -3.20 2.39
4.30 -2.51 1.94
4.30 -2.39 1.92
4.31 -2.28 1.90
4.32 -2.18 1.89
4.35 -2.09 1.88
4.39 -2.00 1.88
4.43 -1.91 1.88
4.47 -1.82 1.88
4.50 -1.73 1.88
4.54 -1.64 1.88
4.57 -1.55 1.88
4.60 -1.46 1.88
4.63 -1.36 1.88
4.65 -1.27 1.88
4.68 -1.18 1.88
4.70 -1.08 1.88
6.53 -1.36 2.60
6.52 -1.23 2.59
6.56 -1.10 2.59
6.59 -0.96 2.60
6.61 -0.83 2.60
6.64 -0.70 2.60
6.66 -0.57 2.61
6.68 -0.43 2.61
6.70 -0.30 2.61
6.71 -0.17 2.62
6.72 -0.03 2.62
5.89 0.09 2.30
6.74 0.24 2.63
6.74 0.38 2.63
6.74 0.51 2.64
6.74 0.65 2.64
6.75 0.79 2.65
6.78 0.93 2.67
6.80 1.07 2.68
6.82 1.22 2.70
6.84 1.36 2.72
6.85 1.51 2.73
6.86 1.66 2.75
6.87 1.81 2.77
5.91 1.68 2.39
5.87 1.80 2.39
5.84 1.92 2.39
5.80 2.03 2.39
5.76 2.15 2.39
5.71 2.27 2.39
5.67 2.38 2.39
5.62 2.49 2.39
5.57 2.61 2.39
5.52 2.72 2.39
5.46 2.83 2.39
5.40 2.94 2.39
5.35 3.05 2.39
5.28 3.16 2.39
5.22 3.26 2.39
5.16 3.37 2.39
5.09 3.47 2.39
5.02 3.57 2.39
4.95 3.67 2.39
4.87 3.77 2.39
4.80 3.87 2.39
4.72 3.97 2.39
4.64 4.06 2.39
4.56 4.16 2.39
4.48 4.25 2.39
4.39 4.34 2.39
4.30 4.43 2.39
4.21 4.52 2.39
4.12 4.60 2.39
4.03 4.68 2.39
3.94 4.77 2.39
3.84 4.85 2.39
3.75 4.92 2.39
3.65 5.00 2.39
3.55 5.07 2.39
3.45 5.15 2.39
3.34 5.22 2.39
3.24 5.28 2.39
3.13 5.35 2.39
2.87 5.14 2.27
2.77 5.20 2.27
2.66 5.25 2.27
2.56 5.31 2.27
2.45 5.36 2.27
2.47 5.70 2.39
2.36 5.75 2.39
2.24 5.80 2.39
2.13 5.84 2.39
2.02 5.92 2.41
1.89 5.93 2.39
1.83 6.16 2.47
1.72 6.26 2.49
1.60 6.30 2.49
1.47 6.33 2.49
1.35 6.36 2.49
1.22 6.39 2.49
1.09 6.41 2.49
0.96 6.44 2.49
0.83 6.46 2.49
0.70 6.48 2.49
0.57 6.49 2.49
0.44 6.50 2.49
0.31 6.51 2.49
0.18 6.52 2.49
0.05 6.52 2.49
-0.08 6.53 2.49
-0.21 6.53 2.49
-0.34 6.52 2.49
-0.47 6.52 2.49
-0.60 6.51 2.49
-0.73 6.50 2.49
-0.87 6.48 2.49
-1.00 6.47 2.49
-1.13 6.45 2.49
-1.25 6.43 2.49
-1.38 6.40 2.49
-1.51 6.37 2.49
-1.64 6.35 2.49
-1.77 6.31 2.49
-1.89 6.28 2.49
-2.02 6.24 2.49
-2.15 6.20 2.49
-2.27 6.16 2.49
-2.39 6.11 2.49
-2.52 6.07 2.49
-2.64 6.02 2.49
-2.76 5.96 2.49
-2.88 5.91 2.49
-3.00 5.85 2.49
-3.12 5.79 2.49
-3.23 5.73 2.49
-3.35 5.67 2.49
-3.46 5.60 2.49
-3.57 5.53 2.49
-3.69 5.46 2.49
-3.80 5.39 2.49
-3.90 5.31 2.49
-4.01 5.23 2.49
-4.12 5.15 2.49
-4.22 5.07 2.49
-4.32 4.99 2.49
-4.42 4.90 2.49
-4.52 4.81 2.49
-4.62 4.72 2.49
-4.71 4.63 2.49
-4.80 4.53 2.49
-4.89 4.44 2.49
-4.98 4.34 2.49
-5.07 4.24 2.49
-5.15 4.14 2.49
-5.24 4.03 2.49
-5.32 3.93 2.49
-5.40 3.82 2.49
-5.47 3.71 2.49
-5.55 3.60 2.49
-5.62 3.49 2.49
-5.69 3.38 2.49
-5.76 3.27 2.49
-5.82 3.15 2.49
-5.88 3.03 2.49
-5.94 2.92 2.49
-6.00 2.80 2.49
-6.06 2.68 2.49
-6.11 2.55 2.49
-6.16 2.43 2.49
-6.17 2.29 2.48
-6.16 2.15 2.46
-6.16 2.01 2.44
-6.16 1.88 2.43
-6.17 1.74 2.41
-6.17 1.61 2.40
-6.17 1.48 2.39
-6.20 1.36 2.39
-6.23 1.23 2.39
-6.25 1.11 2.39
-6.27 0.98 2.39
-6.29 0.86 2.39
-6.31 0.73 2.39
-6.32 0.61 2.39
-6.35 0.48 2.40
-6.35 0.35 2.40
-6.35 0.22 2.39
-6.35 0.10 2.39
-6.35 -0.03 2.39
-6.35 -0.16 2.39
-6.35 -0.28 2.39
-6.34 -0.41 2.39
-6.34 -0.54 2.40
-6.31 -0.66 2.39
-6.30 -0.79 2.39
-6.28 -0.92 2.39
-6.26 -1.04 2.39
-6.24 -1.17 2.39
-6.21 -1.29 2.39
-6.18 -1.41 2.39
-6.15 -1.54 2.39
-6.13 -1.66 2.39
-6.12 -1.79 2.41
-6.12 -1.93 2.42
-6.11 -2.06 2.43
-6.11 -2.20 2.45
-6.11 -2.33 2.47
-6.10 -2.48 2.49
-6.07 -2.60 2.49
-6.02 -2.73 2.49
-5.96 -2.84 2.49
-5.90 -2.96 2.49
-5.84 -3.08 2.49
-5.77 -3.20 2.49
-5.71 -3.31 2.49
-5.64 -3.42 2.49
-5.57 -3.53 2.49
-5.49 -3.64 2.49
-5.42 -3.75 2.49
-5.34 -3.86 2.49
-5.26 -3.96 2.49
-5.18 -4.07 2.49
-5.10 -4.17 2.49
-5.01 -4.27 2.49
-4.92 -4.37 2.49
-4.83 -4.47 2.49
-4.74 -4.56 2.49
-4.65 -4.65 2.49
-4.55 -4.74 2.49
-4.45 -4.83 2.49
-4.35 -4.92 2.49
-4.25 -5.00 2.49
-4.15 -5.09 2.49
-4.05 -5.17 2.49
-3.94 -5.25 2.49
-3.83 -5.32 2.49
-3.73 -5.40 2.49
-3.62 -5.47 2.49
-3.50 -5.54 2.49
-3.39 -5.60 2.49
-3.28 -5.67 2.49
-3.16 -5.73 2.49
-3.04 -5.79 2.49
-2.93 -5.85 2.49
-2.81 -5.91 2.49
-2.69 -5.96 2.49
-2.57 -6.01 2.49
-2.45 -6.06 2.49
-2.32 -6.10 2.49
-2.20 -6.15 2.49
-2.07 -6.19 2.49
-1.95 -6.23 2.49
-1.82 -6.26 2.49
-1.70 -6.29 2.49
-1.57 -6.33 2.49
-1.44 -6.35 2.49
-1.31 -6.38 2.49
-1.18 -6.40 2.49
-1.06 -6.42 2.49
-0.93 -6.44 2.49
-0.80 -6.45 2.49
-0.67 -6.47 2.49
-0.54 -6.48 2.49
-0.41 -6.48 2.49
-0.28 -6.49 2.49
-0.14 -6.49 2.49
-0.01 -6.08 2.49
0.11 -6.07 2.49
0.23 -6.07 2.49
0.35 -6.06 2.49
0.47 -6.05 2.49
0.59 -6.04 2.49
0.71 -6.02 2.49
0.84 -6.01 2.49
0.96 -5.99 2.49
1.08 -5.96 2.49
1.19 -5.94 2.49
1.31 -5.91 2.49
1.43 -5.88 2.49
1.55 -5.85 2.49
1.67 -5.82 2.49
1.78 -5.78 2.49
1.90 -5.74 2.49
1.98 -5.63 2.46
2.04 -5.42 2.39
2.14 -5.38 2.39
2.25 -5.33 2.39
2.36 -5.29 2.39
2.46 -5.24 2.39
2.57 -5.18 2.39
2.67 -5.13 2.39
2.77 -5.07 2.39
2.87 -5.02 2.39
2.97 -4.96 2.39
3.07 -4.89 2.39
3.17 -4.83 2.39
3.26 -4.76 2.39
3.36 -4.70 2.39
3.45 -4.63 2.39
3.54 -4.56 2.39
3.63 -4.48 2.39
3.72 -4.41 2.39
3.81 -4.33 2.39
3.89 -4.25 2.39
3.98 -4.17 2.39
4.06 -4.09 2.39
4.14 -4.01 2.39
4.22 -3.92 2.39
4.30 -3.84 2.39
4.37 -3.75 2.39
4.44 -3.66 2.39
4.52 -3.57 2.39
4.59 -3.48 2.39
4.66 -3.38 2.39
4.72 -3.29 2.39
4.79 -3.19 2.39
4.85 -3.09 2.39
4.91 -3.00 2.39
4.97 -2.90 2.39
4.30 -2.39 2.05
4.30 -2.28 2.02
4.30 -2.17 2.00
4.30 -2.06 1.98
4.30 -1.96 1.96
4.29 -1.85 1.95
4.29 -1.75 1.93
4.29 -1.65 1.91
4.30 -1.55 1.90
4.30 -1.46 1.89
4.31 -1.37 1.88
4.34 -1.28 1.88
4.36 -1.19 1.88
4.38 -1.10 1.88
4.42 -1.02 1.89
5.62 -1.17 2.39
5.65 -1.06 2.39
5.67 -0.95 2.39
5.68 -0.83 2.39
5.70 -0.72 2.39
5.71 -0.60 2.39
5.72 -0.49 2.39
5.73 -0.37 2.39
5.74 -0.26 2.39
5.74 -0.14 2.39
5.75 -0.03 2.39
5.74 0.09 2.39
5.74 0.20 2.39
5.74 0.32 2.39
5.73 0.44 2.39
5.72 0.55 2.39
5.71 0.67 2.39
5.70 0.78 2.39
5.68 0.90 2.39
5.66 1.01 2.39
5.64 1.12 2.39
5.62 1.24 2.39
5.59 1.35 2.39
5.56 1.46 2.39
5.53 1.57 2.39
5.50 1.68 2.39
5.47 1.80 2.39
5.43 1.91 2.39
5.39 2.01 2.39
5.35 2.12 2.39
5.31 2.23 2.39
5.26 2.34 2.39
5.22 2.44 2.39
5.17 2.55 2.39
5.12 2.65 2.39
5.06 2.75 2.39
5.01 2.86 2.39
4.95 2.96 2.39
4.89 3.06 2.39
4.83 3.16 2.39
4.77 3.25 2.39
4.70 3.35 2.39
4.63 3.44 2.39
4.56 3.54 2.39
4.49 3.63 2.39
4.42 3.72 2.39
4.35 3.81 2.39
4.27 3.90 2.39
4.19 3.98 2.39
4.11 4.07 2.39
4.03 4.15 2.39
3.95 4.23 2.39
3.86 4.31 2.39
3.78 4.39 2.39
3.69 4.47 2.39
3.60 4.54 2.39
3.51 4.61 2.39
3.42 4.68 2.39
3.32 4.75 2.39
3.23 4.82 2.39
3.13 4.89 2.39
2.88 4.70 2.27
2.79 4.77 2.28
2.78 4.98 2.35
2.69 5.04 2.35
2.59 5.10 2.35
2.48 5.14 2.35
2.30 5.02 2.27
2.20 5.08 2.28
2.20 5.36 2.38
2.10 5.43 2.39
1.99 5.47 2.39
1.88 5.51 2.39
1.84 5.75 2.48
1.73 5.83 2.49
1.61 5.86 2.49
1.50 5.90 2.49
1.38 5.93 2.49
1.26 5.96 2.49
1.14 5.98 2.49
1.02 6.01 2.49
0.90 6.03 2.49
0.78 6.05 2.49
0.66 6.06 2.49
0.54 6.08 2.49
0.41 6.09 2.49
0.29 6.10 2.49
0.17 6.10 2.49
0.05 6.11 2.49
-0.08 6.11 2.49
-0.20 6.11 2.49
-0.32 6.11 2.49
-0.44 6.10 2.49
-0.57 6.09 2.49
-0.69 6.08 2.49
-0.81 6.07 2.49
-0.93 6.05 2.49
-1.05 6.04 2.49
-1.18 6.01 2.49
-1.30 5.99 2.49
-1.42 5.97 2.49
-1.54 5.94 2.49
-1.66 5.91 2.49
-1.77 5.88 2.49
-1.89 5.84 2.49
-2.01 5.80 2.49
-2.13 5.76 2.49
-2.24 5.72 2.49
-2.36 5.68 2.49
-2.47 5.63 2.49
-2.58 5.58 2.49
-2.70 5.53 2.49
-2.81 5.48 2.49
-2.92 5.42 2.49
-3.03 5.36 2.49
-3.13 5.30 2.49
-3.24 5.24 2.49
-3.35 5.18 2.49
-3.45 5.11 2.49
-3.55 5.04 2.49
-3.65 4.97 2.49
-3.75 4.90 2.49
-3.85 4.82 2.49
-3.95 4.74 2.49
-4.04 4.66 2.49
-4.14 4.58 2.49
-4.23 4.50 2.49
-4.32 4.42 2.49
-4.41 4.33 2.49
-4.49 4.24 2.49
-4.58 4.15 2.49
-4.66 4.06 2.49
-4.74 3.97 2.49
-4.82 3.87 2.49
-4.90 3.77 2.49
-4.98 3.68 2.49
-5.05 3.58 2.49
-5.12 3.47 2.49
-5.19 3.37 2.49
-5.26 3.27 2.49
-5.32 3.16 2.49
-5.38 3.05 2.49
-5.45 2.95 2.49
-5.50 2.84 2.49
-5.56 2.73 2.49
-5.61 2.62 2.49
-5.67 2.50 2.49
-5.72 2.39 2.49
-5.76 2.27 2.49
-5.81 2.16 2.49
-5.85 2.04 2.49
-5.89 1.92 2.49
-5.93 1.81 2.49
-5.96 1.69 2.49
-6.00 1.57 2.49
-6.03 1.45 2.49
-6.05 1.33 2.49
-6.08 1.20 2.49
-6.10 1.08 2.49
-6.12 0.96 2.49
-6.14 0.84 2.49
-6.15 0.71 2.49
-6.14 0.59 2.48
-6.14 0.46 2.48
-6.14 0.34 2.47
-6.14 0.22 2.47
-6.14 0.09 2.47
-6.14 -0.03 2.47
-6.13 -0.15 2.47
-6.13 -0.27 2.47
-6.13 -0.40 2.47
-6.13 -0.52 2.48
-6.13 -0.64 2.48
-6.13 -0.77 2.49
-6.12 -0.89 2.49
-6.11 -1.02 2.49
-6.09 -1.14 2.49
-6.06 -1.26 2.49
-6.03 -1.38 2.49
-6.00 -1.50 2.49
-5.97 -1.62 2.49
-5.94 -1.74 2.49
-5.90 -1.86 2.49
-5.86 -1.98 2.49
-5.82 -2.09 2.49
-5.78 -2.21 2.49
-5.73 -2.32 2.49
-5.68 -2.44 2.49
-5.63 -2.55 2.49
-5.58 -2.66 2.49
-5.52 -2.77 2.49
-5.46 -2.88 2.49
-5.40 -2.99 2.49
-5.34 -3.10 2.49
-5.28 -3.20 2.49
-5.21 -3.31 2.49
-5.14 -3.41 2.49
-5.07 -3.51 2.49
-5.00 -3.61 2.49
-4.92 -3.71 2.49
-4.85 -3.81 2.49
-4.77 -3.90 2.49
-4.69 -4.00 2.49
-4.61 -4.09 2.49
-4.52 -4.18 2.49
-4.44 -4.27 2.49
-4.35 -4.35 2.49
-4.26 -4.44 2.49
-4.17 -4.52 2.49
-4.08 -4.60 2.49
-3.98 -4.68 2.49
-3.89 -4.76 2.49
-3.79 -4.84 2.49
-3.69 -4.91 2.49
-3.59 -4.98 2.49
-3.49 -5.05 2.49
-3.38 -5.12 2.49
-3.28 -5.18 2.49
-3.17 -5.25 2.49
-3.07 -5.31 2.49
-2.96 -5.37 2.49
-2.85 -5.42 2.49
-2.74 -5.48 2.49
-2.63 -5.53 2.49
-2.52 -5.58 2.49
-2.40 -5.63 2.49
-2.29 -5.67 2.49
-2.17 -5.71 2.49
-2.06 -5.75 2.49
-1.94 -5.79 2.49
-1.83 -5.83 2.49
-1.71 -5.86 2.49
-1.59 -5.89 2.49
-1.47 -5.92 2.49
-1.35 -5.95 2.49
-1.23 -5.97 2.49
-1.11 -5.99 2.49
-0.99 -6.01 2.49
-0.87 -6.03 2.49
-0.75 -6.04 2.49
-0.62 -6.06 2.49
-0.50 -6.06 2.49
-0.38 -6.07 2.49
-0.26 -6.08 2.49
-0.14 -6.08 2.49
-0.01 -5.71 2.49
0.10 -5.70 2.49
0.21 -5.70 2.49
0.33 -5.69 2.49
0.44 -5.68 2.49
0.56 -5.67 2.49
0.67 -5.66 2.49
0.78 -5.64 2.49
0.90 -5.62 2.49
1.01 -5.60 2.49
1.12 -5.58 2.49
1.23 -5.55 2.49
1.34 -5.53 2.49
1.45 -5.50 2.49
1.56 -5.46 2.49
1.67 -5.43 2.49
1.78 -5.39 2.49
1.89 -5.36 2.49
1.98 -5.28 2.48
2.01 -5.05 2.39
2.11 -5.01 2.39
2.21 -4.97 2.39
2.31 -4.92 2.39
2.41 -4.87 2.39
2.51 -4.82 2.39
2.60 -4.77 2.39
2.70 -4.71 2.39
2.79 -4.66 2.39
2.88 -4.60 2.39
2.97 -4.54 2.39
3.06 -4.48 2.39
3.15 -4.41 2.39
3.24 -4.35 2.39
3.33 -4.28 2.39
3.41 -4.21 2.39
3.49 -4.14 2.39
3.58 -4.07 2.39
3.66 -4.00 2.39
3.74 -3.92 2.39
3.81 -3.84 2.39
3.89 -3.77 2.39
3.96 -3.69 2.39
4.04 -3.61 2.39
4.11 -3.52 2.39
4.18 -3.44 2.39
4.24 -3.35 2.39
4.31 -3.27 2.39
4.37 -3.18 2.39
4.44 -3.09 2.39
4.50 -3.00 2.39
4.56 -2.91 2.39
4.61 -2.82 2.39
4.67 -2.72 2.39
4.72 -2.63 2.39
4.39 -2.33 2.20
4.41 -2.22 2.18
4.63 -2.22 2.27
4.92 -2.24 2.39
4.96 -2.14 2.39
4.30 -1.75 2.06
4.29 -1.65 2.04
4.29 -1.55 2.02
4.29 -1.45 2.01
4.29 -1.36 1.99
4.29 -1.26 1.98
4.29 -1.17 1.97
4.28 -1.08 1.96
4.38 -1.01 1.99
5.28 -1.10 2.39
5.31 -1.00 2.39
5.32 -0.89 2.39
5.34 -0.78 2.39
5.36 -0.68 2.39
5.37 -0.57 2.39
5.38 -0.46 2.39
5.39 -0.35 2.39
5.39 -0.24 2.39
5.40 -0.13 2.39
5.40 -0.02 2.39
5.40 0.08 2.39
5.40 0.19 2.39
5.39 0.30 2.39
5.38 0.41 2.39
5.38 0.52 2.39
5.37 0.63 2.39
5.35 0.73 2.39
5.34 0.84 2.39
5.32 0.95 2.39
5.30 1.06 2.39
5.28 1.16 2.39
5.25 1.27 2.39
5.23 1.37 2.39
5.20 1.48 2.39
5.17 1.58 2.39
5.14 1.69 2.39
5.10 1.79 2.39
5.07 1.89 2.39
5.03 2.00 2.39
4.99 2.10 2.39
4.95 2.20 2.39
4.90 2.30 2.39
4.86 2.39 2.39
4.81 2.49 2.39
4.76 2.59 2.39
4.71 2.68 2.39
4.65 2.78 2.39
4.60 2.87 2.39
4.54 2.97 2.39
4.48 3.06 2.39
4.42 3.15 2.39
4.35 3.24 2.39
4.29 3.32 2.39
4.22 3.41 2.39
4.15 3.49 2.39
4.08 3.58 2.39
4.01 3.66 2.39
3.94 3.74 2.39
3.86 3.82 2.39
3.79 3.90 2.39
3.71 3.98 2.39
3.63 4.05 2.39
3.55 4.12 2.39
3.46 4.20 2.39
3.38 4.27 2.39
3.30 4.33 2.39
3.21 4.40 2.39
3.12 4.46 2.39
2.88 4.30 2.27
2.80 4.37 2.28
2.79 4.56 2.34
2.71 4.63 2.35
2.62 4.68 2.35
2.52 4.74 2.35
2.34 4.62 2.27
2.25 4.67 2.27
2.20 4.82 2.32
2.17 5.01 2.39
2.07 5.06 2.39
1.97 5.10 2.39
1.87 5.14 2.39
1.84 5.39 2.49
1.73 5.44 2.49
1.62 5.47 2.49
1.51 5.51 2.49
1.40 5.54 2.49
1.29 5.57 2.49
1.18 5.59 2.49
1.07 5.62 2.49
0.96 5.64 2.49
0.84 5.66 2.49
0.73 5.68 2.49
0.62 5.69 2.49
0.50 5.71 2.49
0.39 5.72 2.49
0.27 5.73 2.49
0.16 5.73 2.49
0.04 5.74 2.49
-0.07 5.74 2.49
-0.19 5.74 2.49
-0.30 5.73 2.49
-0.42 5.73 2.49
-0.53 5.72 2.49
-0.65 5.71 2.49
-0.76 5.70 2.49
-0.88 5.68 2.49
-0.99 5.67 2.49
-1.10 5.65 2.49
-1.22 5.63 2.49
-1.33 5.60 2.49
-1.44 5.58 2.49
-1.56 5.55 2.49
-1.67 5.52 2.49
-1.78 5.48 2.49
-1.89 5.45 2.49
-2.00 5.41 2.49
-2.11 5.37 2.49
-2.21 5.33 2.49
-2.32 5.29 2.49
-2.43 5.24 2.49
-2.53 5.19 2.49
-2.64 5.14 2.49
-2.74 5.09 2.49
-2.84 5.03 2.49
-2.94 4.98 2.49
-3.04 4.92 2.49
-3.14 4.86 2.49
-3.24 4.79 2.49
-3.33 4.73 2.49
-3.43 4.66 2.49
-3.52 4.59 2.49
-3.62 4.52 2.49
-3.71 4.45 2.49
-3.80 4.38 2.49
-3.88 4.30 2.49
-3.97 4.22 2.49
-4.05 4.14 2.49
-4.14 4.06 2.49
-4.22 3.98 2.49
-4.30 3.90 2.49
-4.38 3.81 2.49
-4.45 3.72 2.49
-4.53 3.63 2.49
-4.60 3.54 2.49
-4.67 3.45 2.49
-4.74 3.36 2.49
-4.81 3.26 2.49
-4.87 3.16 2.49
-4.93 3.07 2.49
-4.99 2.97 2.49
-5.05 2.87 2.49
-5.11 2.77 2.49
-5.17 2.66 2.49
-5.22 2.56 2.49
-5.27 2.45 2.49
-5.32 2.35 2.49
-5.36 2.24 2.49
-5.41 2.13 2.49
-5.45 2.03 2.49
-5.49 1.92 2.49
-5.53 1.81 2.49
-5.56 1.69 2.49
-5.60 1.58 2.49
-5.63 1.47 2.49
-5.65 1.36 2.49
-5.68 1.24 2.49
-5.70 1.13 2.49
-5.73 1.02 2.49
-5.75 0.90 2.49
-5.76 0.79 2.49
-5.78 0.67 2.49
-5.79 0.55 2.49
-5.80 0.44 2.49
-5.81 0.32 2.49
-5.81 0.21 2.49
-5.81 0.09 2.49
-5.81 -0.03 2.49
-5.81 -0.14 2.49
-5.81 -0.26 2.49
-5.80 -0.38 2.49
-5.79 -0.49 2.49
-5.78 -0.61 2.49
-5.77 -0.72 2.49
-5.75 -0.84 2.49
-5.73 -0.95 2.49
-5.71 -1.07 2.49
-5.69 -1.18 2.49
-5.66 -1.30 2.49
-5.63 -1.41 2.49
-5.60 -1.52 2.49
-5.57 -1.63 2.49
-5.54 -1.74 2.49
-5.50 -1.85 2.49
-5.46 -1.96 2.49
-5.42 -2.07 2.49
-5.38 -2.18 2.49
-5.33 -2.29 2.49
-5.28 -2.39 2.49
-5.23 -2.50 2.49
-5.18 -2.60 2.49
-5.13 -2.70 2.49
-5.07 -2.81 2.49
-5.01 -2.91 2.49
-4.95 -3.01 2.49
-4.89 -3.10 2.49
-4.83 -3.20 2.49
-4.76 -3.30 2.49
-4.69 -3.39 2.49
-4.62 -3.48 2.49
-4.55 -3.57 2.49
-4.48 -3.66 2.49
-4.40 -3.75 2.49
-4.32 -3.84 2.49
-4.25 -3.92 2.49
-4.17 -4.00 2.49
-4.08 -4.09 2.49
-4.00 -4.17 2.49
-3.91 -4.24 2.49
-3.83 -4.32 2.49
-3.74 -4.40 2.49
-3.65 -4.47 2.49
-3.56 -4.54 2.49
-3.46 -4.61 2.49
-3.37 -4.68 2.49
-3.28 -4.74 2.49
-3.18 -4.80 2.49
-3.08 -4.87 2.49
-2.98 -4.92 2.49
-2.88 -4.98 2.49
-2.78 -5.04 2.49
-2.68 -5.09 2.49
-2.57 -5.14 2.49
-2.47 -5.19 2.49
-2.36 -5.24 2.49
-2.26 -5.28 2.49
-2.15 -5.32 2.49
-2.04 -5.37 2.49
-1.93 -5.40 2.49
-1.82 -5.44 2.49
-1.71 -5.47 2.49
-1.60 -5.50 2.49
-1.49 -5.53 2.49
-1.38 -5.56 2.49
-1.27 -5.59 2.49
-1.16 -5.61 2.49
-1.04 -5.63 2.49
-0.93 -5.65 2.49
-0.82 -5.66 2.49
-0.70 -5.68 2.49
-0.59 -5.69 2.49
-0.47 -5.70 2.49
-0.36 -5.70 2.49
-0.24 -5.71 2.49
-0.13 -5.71 2.49
-0.01 -5.37 2.49
0.09 -5.37 2.49
0.20 -5.37 2.49
0.31 -5.36 2.49
0.42 -5.35 2.49
0.52 -5.34 2.49
0.63 -5.33 2.49
0.74 -5.31 2.49
0.84 -5.29 2.49
0.95 -5.28 2.49
1.05 -5.25 2.49
1.16 -5.23 2.49
1.26 -5.20 2.49
1.37 -5.18 2.49
1.47 -5.15 2.49
1.57 -5.11 2.49
1.68 -5.08 2.49
1.78 -5.04 2.49
1.88 -5.01 2.49
1.98 -4.96 2.49
1.99 -4.72 2.39
2.08 -4.68 2.39
2.18 -4.63 2.39
2.27 -4.59 2.39
2.36 -4.54 2.39
2.45 -4.49 2.39
2.54 -4.44 2.39
2.63 -4.39 2.39
2.72 -4.33 2.39
2.80 -4.28 2.39
2.89 -4.22 2.39
2.97 -4.16 2.39
3.05 -4.10 2.39
3.13 -4.03 2.39
3.21 -3.97 2.39
3.29 -3.90 2.39
3.37 -3.83 2.39
3.44 -3.76 2.39
3.52 -3.69 2.39
3.59 -3.62 2.39
3.66 -3.55 2.39
3.73 -3.47 2.39
3.80 -3.40 2.39
3.87 -3.32 2.39
3.93 -3.24 2.39
4.00 -3.16 2.39
4.06 -3.08 2.39
4.12 -3.00 2.39
4.18 -2.91 2.39
4.24 -2.83 2.39
4.29 -2.74 2.39
4.35 -2.65 2.39
4.40 -2.56 2.39
4.45 -2.48 2.39
4.39 -2.33 2.33
4.41 -2.22 2.32
4.59 -2.20 2.39
4.63 -2.11 2.39
4.67 -2.01 2.39
4.71 -1.92 2.39
4.75 -1.83 2.39
4.78 -1.73 2.39
4.82 -1.63 2.39
4.85 -1.53 2.39
4.37 -1.29 2.14
4.56 -1.24 2.22
4.93 -1.24 2.39
4.96 -1.14 2.39
4.98 -1.04 2.39
5.00 -0.94 2.39
5.02 -0.84 2.39
5.03 -0.74 2.39
5.05 -0.64 2.39
5.06 -0.53 2.39
5.07 -0.43 2.39
5.08 -0.33 2.39
5.08 -0.23 2.39
5.08 -0.13 2.39
5.09 -0.02 2.39
5.09 0.08 2.39
5.08 0.18 2.39
5.08 0.28 2.39
5.07 0.39 2.39
5.06 0.49 2.39
5.05 0.59 2.39
5.04 0.69 2.39
5.03 0.79 2.39
5.01 0.89 2.39
4.99 0.99 2.39
4.97 1.10 2.39
4.95 1.20 2.39
4.93 1.29 2.39
4.90 1.39 2.39
4.87 1.49 2.39
4.84 1.59 2.39
4.81 1.69 2.39
4.77 1.78 2.39
4.74 1.88 2.39
4.70 1.98 2.39
4.66 2.07 2.39
4.62 2.16 2.39
4.57 2.26 2.39
4.53 2.35 2.39
4.48 2.44 2.39
4.43 2.53 2.39
4.38 2.62 2.39
4.33 2.71 2.39
4.27 2.79 2.39
4.22 2.88 2.39
4.16 2.96 2.39
4.10 3.05 2.39
4.04 3.13 2.39
3.98 3.21 2.39
3.91 3.29 2.39
3.85 3.37 2.39
3.78 3.45 2.39
3.71 3.52 2.39
3.64 3.60 2.39
3.57 3.67 2.39
3.49 3.74 2.39
3.42 3.82 2.39
3.34 3.88 2.39
3.26 3.95 2.39
3.18 4.02 2.39
3.10 4.08 2.39
2.87 3.93 2.27
2.80 4.01 2.28
2.80 4.18 2.34
2.72 4.25 2.35
2.64 4.31 2.35
2.55 4.36 2.35
2.46 4.41 2.35
2.29 4.31 2.27
2.21 4.37 2.28
2.21 4.58 2.36
2.14 4.68 2.39
2.05 4.72 2.39
1.95 4.76 2.39
1.86 4.81 2.39
1.83 5.05 2.49
1.73 5.09 2.49
1.63 5.12 2.49
1.53 5.15 2.49
1.43 5.19 2.49
1.32 5.22 2.49
1.22 5.24 2.49
1.11 5.27 2.49
1.01 5.29 2.49
0.90 5.31 2.49
0.79 5.33 2.49
0.69 5.35 2.49
0.58 5.36 2.49
0.47 5.37 2.49
0.36 5.38 2.49
0.26 5.39 2.49
0.15 5.40 2.49
0.04 5.40 2.49
-0.07 5.40 2.49
-0.18 5.40 2.49
-0.29 5.40 2.49
-0.39 5.39 2.49
-0.50 5.38 2.49
-0.61 5.38 2.49
-0.72 5.36 2.49
-0.83 5.35 2.49
-0.93 5.33 2.49
-1.04 5.32 2.49
-1.15 5.30 2.49
-1.25 5.27 2.49
-1.36 5.25 2.49
-1.46 5.22 2.49
-1.57 5.19 2.49
-1.67 5.16 2.49
-1.78 5.13 2.49
-1.88 5.09 2.49
-1.98 5.06 2.49
-2.08 5.02 2.49
-2.18 4.97 2.49
-2.28 4.93 2.49
-2.38 4.89 2.49
-2.48 4.84 2.49
-2.58 4.79 2.49
-2.67 4.74 2.49
-2.77 4.68 2.49
-2.86 4.63 2.49
-2.96 4.57 2.49
-3.05 4.51 2.49
-3.14 4.45 2.49
-3.23 4.39 2.49
-3.32 4.32 2.49
-3.40 4.26 2.49
-3.49 4.19 2.49
-3.57 4.12 2.49
-3.65 4.05 2.49
-3.74 3.97 2.49
-3.82 3.90 2.49
-3.89 3.82 2.49
-3.97 3.74 2.49
-4.04 3.67 2.49
-4.12 3.58 2.49
-4.19 3.50 2.49
-4.26 3.42 2.49
-4.33 3.33 2.49
-4.39 3.25 2.49
-4.46 3.16 2.49
-4.52 3.07 2.49
-4.58 2.98 2.49
-4.64 2.88 2.49
-4.70 2.79 2.49
-4.76 2.70 2.49
-4.81 2.60 2.49
-4.86 2.51 2.49
-4.91 2.41 2.49
-4.96 2.31 2.49
-5.00 2.21 2.49
-5.05 2.11 2.49
-5.09 2.01 2.49
-5.13 1.91 2.49
-5.17 1.80 2.49
-5.20 1.70 2.49
-5.23 1.59 2.49
-5.26 1.49 2.49
-5.29 1.38 2.49
-5.32 1.28 2.49
-5.35 1.17 2.49
-5.37 1.06 2.49
-5.39 0.96 2.49
-5.41 0.85 2.49
-5.42 0.74 2.49
-5.44 0.63 2.49
-5.45 0.52 2.49
-5.46 0.41 2.49
-5.46 0.30 2.49
-5.47 0.19 2.49
-5.47 0.08 2.49
-5.47 -0.03 2.49
-5.47 -0.13 2.49
-5.46 -0.24 2.49
-5.46 -0.35 2.49
-5.45 -0.46 2.49
-5.44 -0.57 2.49
-5.43 -0.68 2.49
-5.41 -0.79 2.49
-5.39 -0.90 2.49
-5.37 -1.00 2.49
-5.35 -1.11 2.49
-5.33 -1.22 2.49
-5.30 -1.32 2.49
-5.27 -1.43 2.49
-5.24 -1.54 2.49
-5.21 -1.64 2.49
-5.18 -1.74 2.49
-5.14 -1.85 2.49
-5.10 -1.95 2.49
-5.06 -2.05 2.49
-5.02 -2.15 2.49
-4.97 -2.25 2.49
-4.93 -2.35 2.49
-4.88 -2.45 2.49
-4.83 -2.54 2.49
-4.77 -2.64 2.49
-4.72 -2.73 2.49
-4.66 -2.83 2.49
-4.60 -2.92 2.49
-4.54 -3.01 2.49
-4.48 -3.10 2.49
-4.42 -3.19 2.49
-4.35 -3.28 2.49
-4.28 -3.36 2.49
-4.21 -3.45 2.49
-4.14 -3.53 2.49
-4.07 -3.61 2.49
-4.00 -3.69 2.49
-3.92 -3.77 2.49
-3.84 -3.85 2.49
-3.76 -3.92 2.49
-3.68 -3.99 2.49
-3.60 -4.07 2.49
-3.52 -4.14 2.49
-3.43 -4.21 2.49
-3.35 -4.27 2.49
-3.26 -4.34 2.49
-3.17 -4.40 2.49
-3.08 -4.46 2.49
-2.99 -4.52 2.49
-2.90 -4.58 2.49
-2.81 -4.64 2.49
-2.71 -4.69 2.49
-2.62 -4.74 2.49
-2.52 -4.79 2.49
-2.42 -4.84 2.49
-2.33 -4.89 2.49
-2.23 -4.93 2.49
-2.13 -4.97 2.49
-2.03 -5.01 2.49
-1.92 -5.05 2.49
-1.82 -5.09 2.49
-1.72 -5.12 2.49
-1.62 -5.15 2.49
-1.51 -5.18 2.49
-1.41 -5.21 2.49
-1.30 -5.24 2.49
-1.20 -5.26 2.49
-1.09 -5.28 2.49
-0.98 -5.30 2.49
-0.88 -5.32 2.49
-0.77 -5.33 2.49
-0.66 -5.34 2.49
-0.55 -5.35 2.49
-0.45 -5.36 2.49
-0.34 -5.37 2.49
-0.23 -5.37 2.49
-0.12 -5.37 2.49
-0.01 -5.07 2.49
0.09 -5.07 2.49
0.19 -5.07 2.49
0.29 -5.06 2.49
0.39 -5.05 2.49
0.49 -5.04 2.49
0.59 -5.03 2.49
0.70 -5.01 2.49
0.80 -5.00 2.49
0.90 -4.98 2.49
0.99 -4.96 2.49
1.09 -4.94 2.49
1.19 -4.91 2.49
1.29 -4.89 2.49
1.39 -4.86 2.49
1.49 -4.83 2.49
1.58 -4.80 2.49
1.68 -4.76 2.49
1.77 -4.73 2.49
1.87 -4.69 2.49
1.96 -4.65 2.49
1.98 -4.44 2.40
2.06 -4.37 2.39
2.16 -4.36 2.41
2.23 -4.29 2.39
2.31 -4.24 2.39
2.40 -4.19 2.39
2.48 -4.14 2.39
2.56 -4.09 2.39
2.64 -4.04 2.39
2.72 -3.98 2.39
2.80 -3.92 2.39
2.88 -3.87 2.39
2.96 -3.81 2.39
3.03 -3.75 2.39
3.11 -3.68 2.39
3.18 -3.62 2.39
3.25 -3.55 2.39
3.32 -3.49 2.39
3.39 -3.42 2.39
3.46 -3.35 2.39
3.52 -3.28 2.39
3.59 -3.21 2.39
3.65 -3.13 2.39
3.71 -3.06 2.39
3.77 -2.98 2.39
3.83 -2.91 2.39
3.89 -2.83 2.39
3.95 -2.75 2.39
4.00 -2.67 2.39
4.05 -2.59 2.39
4.10 -2.50 2.39
4.15 -2.42 2.39
4.20 -2.34 2.39
4.25 -2.25 2.39
4.29 -2.17 2.39
4.33 -2.08 2.39
4.37 -1.99 2.39
4.41 -1.90 2.39
4.45 -1.81 2.39
4.48 -1.72 2.39
4.52 -1.63 2.39
4.55 -1.54 2.39
4.58 -1.45 2.39
4.37 -1.29 2.27
4.56 -1.24 2.35
4.66 -1.17 2.39
4.68 -1.08 2.39
4.70 -0.98 2.39
4.72 -0.89 2.39
4.74 -0.79 2.39
4.75 -0.70 2.39
4.76 -0.60 2.39
4.78 -0.50 2.39
4.78 -0.41 2.39
4.79 -0.31 2.39
4.80 -0.22 2.39
4.80 -0.12 2.39
4.80 -0.02 2.39
4.80 0.07 2.39
4.80 0.17 2.39
4.80 0.27 2.39
4.79 0.36 2.39
4.78 0.46 2.39
4.77 0.56 2.39
4.76 0.65 2.39
4.75 0.75 2.39
4.73 0.84 2.39
4.71 0.94 2.39
4.69 1.03 2.39
4.67 1.13 2.39
4.65 1.22 2.39
4.62 1.32 2.39
4.60 1.41 2.39
4.57 1.50 2.39
4.54 1.59 2.39
4.51 1.68 2.39
4.47 1.78 2.39
4.44 1.87 2.39
4.40 1.95 2.39
4.36 2.04 2.39
4.32 2.13 2.39
4.27 2.22 2.39
4.23 2.30 2.39
4.18 2.39 2.39
4.14 2.47 2.39
4.09 2.56 2.39
4.03 2.64 2.39
3.98 2.72 2.39
3.93 2.80 2.39
3.87 2.88 2.39
3.81 2.96 2.39
3.75 3.03 2.39
3.69 3.11 2.39
3.63 3.18 2.39
3.57 3.26 2.39
3.50 3.33 2.39
3.43 3.40 2.39
3.37 3.47 2.39
3.30 3.54 2.39
3.22 3.60 2.39
3.15 3.67 2.39
2.92 3.54 2.27
2.85 3.60 2.27
2.81 3.69 2.29
2.80 3.84 2.35
2.73 3.90 2.35
2.65 3.96 2.35
2.57 4.01 2.35
2.49 4.07 2.35
2.32 3.97 2.27
2.24 4.02 2.27
2.21 4.16 2.32
2.19 4.33 2.39
2.11 4.37 2.39
2.02 4.41 2.39
1.93 4.46 2.39
1.86 4.54 2.41
1.83 4.73 2.49
1.73 4.76 2.49
1.64 4.80 2.49
1.54 4.83 2.49
1.44 4.86 2.49
1.34 4.89 2.49
1.25 4.92 2.49
1.15 4.95 2.49
1.05 4.97 2.49
0.95 4.99 2.49
0.85 5.01 2.49
0.75 5.03 2.49
0.65 5.04 2.49
0.55 5.06 2.49
0.44 5.07 2.49
0.34 5.08 2.49
0.24 5.09 2.49
0.14 5.09 2.49
0.04 5.10 2.49
-0.07 5.10 2.49
-0.17 5.10 2.49
-0.27 5.09 2.49
-0.37 5.09 2.49
-0.47 5.08 2.49
-0.58 5.07 2.49
-0.68 5.06 2.49
-0.78 5.05 2.49
-0.88 5.03 2.49
-0.98 5.01 2.49
-1.08 5.00 2.49
-1.18 4.97 2.49
-1.28 4.95 2.49
-1.38 4.93 2.49
-1.48 4.90 2.49
-1.58 4.87 2.49
-1.68 4.84 2.49
-1.77 4.80 2.49
-1.87 4.77 2.49
-1.97 4.73 2.49
-2.06 4.69 2.49
-2.16 4.65 2.49
-2.25 4.61 2.49
-2.34 4.56 2.49
-2.43 4.52 2.49
-2.52 4.47 2.49
-2.61 4.42 2.49
-2.70 4.37 2.49
-2.79 4.31 2.49
-2.88 4.26 2.49
-2.96 4.20 2.49
-3.05 4.14 2.49
-3.13 4.08 2.49
-3.21 4.02 2.49
-3.29 3.95 2.49
-3.37 3.88 2.49
-3.45 3.82 2.49
-3.52 3.75 2.49
-3.60 3.68 2.49
-3.67 3.61 2.49
-3.74 3.53 2.49
-3.82 3.46 2.49
-3.88 3.38 2.49
-3.95 3.30 2.49
-4.02 3.22 2.49
-4.08 3.14 2.49
-4.14 3.06 2.49
-4.21 2.98 2.49
-4.27 2.89 2.49
-4.32 2.81 2.49
-4.38 2.72 2.49
-4.43 2.63 2.49
-4.48 2.54 2.49
-4.54 2.45 2.49
-4.58 2.36 2.49
-4.63 2.27 2.49
-4.68 2.18 2.49
-4.72 2.08 2.49
-4.76 1.99 2.49
-4.80 1.89 2.49
-4.84 1.80 2.49
-4.87 1.70 2.49
-4.90 1.60 2.49
-4.94 1.50 2.49
-4.97 1.40 2.49
-4.99 1.31 2.49
-5.02 1.20 2.49
-5.04 1.10 2.49
-5.06 1.00 2.49
-5.08 0.90 2.49
-5.10 0.80 2.49
-5.11 0.70 2.49
-5.13 0.60 2.49
-5.14 0.49 2.49
-5.15 0.39 2.49
-5.15 0.29 2.49
-5.16 0.18 2.49
-5.16 0.08 2.49
-5.16 -0.02 2.49
-5.16 -0.13 2.49
-5.15 -0.23 2.49
-5.15 -0.33 2.49
-5.14 -0.44 2.49
-5.13 -0.54 2.49
-5.12 -0.64 2.49
-5.10 -0.74 2.49
-5.09 -0.85 2.49
-5.07 -0.95 2.49
-5.05 -1.05 2.49
-5.03 -1.15 2.49
-5.00 -1.25 2.49
-4.97 -1.35 2.49
-4.95 -1.45 2.49
-4.92 -1.55 2.49
-4.88 -1.64 2.49
-4.85 -1.74 2.49
-4.81 -1.84 2.49
-4.77 -1.93 2.49
-4.73 -2.03 2.49
-4.69 -2.12 2.49
-4.65 -2.22 2.49
-4.60 -2.31 2.49
-4.55 -2.40 2.49
-4.50 -2.49 2.49
-4.45 -2.58 2.49
-4.40 -2.67 2.49
-4.34 -2.75 2.49
-4.28 -2.84 2.49
-4.23 -2.92 2.49
-4.17 -3.01 2.49
-4.10 -3.09 2.49
-4.04 -3.17 2.49
-3.98 -3.25 2.49
-3.91 -3.33 2.49
-3.84 -3.41 2.49
-3.77 -3.48 2.49
-3.70 -3.55 2.49
-3.63 -3.63 2.49
-3.55 -3.70 2.49
-3.48 -3.77 2.49
-3.40 -3.84 2.49
-3.32 -3.90 2.49
-3.24 -3.97 2.49
-3.16 -4.03 2.49
-3.08 -4.09 2.49
-2.99 -4.15 2.49
-2.91 -4.21 2.49
-2.82 -4.27 2.49
-2.74 -4.32 2.49
-2.65 -4.37 2.49
-2.56 -4.42 2.49
-2.47 -4.47 2.49
-2.38 -4.52 2.49
-2.29 -4.57 2.49
-2.19 -4.61 2.49
-2.10 -4.65 2.49
-2.01 -4.69 2.49
-1.91 -4.73 2.49
-1.82 -4.76 2.49
-1.72 -4.80 2.49
-1.62 -4.83 2.49
-1.52 -4.86 2.49
-1.43 -4.89 2.49
-1.33 -4.92 2.49
-1.23 -4.94 2.49
-1.13 -4.96 2.49
-1.03 -4.98 2.49
-0.93 -5.00 2.49
-0.83 -5.02 2.49
-0.73 -5.03 2.49
-0.63 -5.04 2.49
-0.52 -5.05 2.49
-0.42 -5.06 2.49
-0.32 -5.07 2.49
-0.22 -5.07 2.49
-0.12 -5.07 2.49
-0.01 -4.80 2.49
0.08 -4.79 2.49
0.18 -4.79 2.49
0.27 -4.78 2.49
0.37 -4.78 2.49
0.47 -4.77 2.49
0.56 -4.76 2.49
0.66 -4.74 2.49
0.75 -4.73 2.49
0.85 -4.71 2.49
0.94 -4.69 2.49
1.03 -4.67 2.49
1.13 -4.65 2.49
1.22 -4.62 2.49
1.31 -4.59 2.49
1.40 -4.57 2.49
1.50 -4.54 2.49
1.59 -4.50 2.49
1.68 -4.47 2.49
1.76 -4.43 2.49
1.85 -4.40 2.49
1.94 -4.36 2.49
1.97 -4.19 2.42
2.03 -4.10 2.39
2.11 -4.05 2.39
2.19 -4.01 2.39
2.27 -3.96 2.39
2.35 -3.92 2.39
2.42 -3.87 2.39
2.50 -3.82 2.39
2.58 -3.77 2.39
2.65 -3.71 2.39
2.72 -3.66 2.39
2.80 -3.60 2.39
2.87 -3.54 2.39
2.94 -3.48 2.39
3.01 -3.42 2.39
3.08 -3.36 2.39
3.14 -3.30 2.39
3.21 -3.23 2.39
3.27 -3.17 2.39
3.33 -3.10 2.39
3.39 -3.03 2.39
3.45 -2.96 2.39
3.51 -2.89 2.39
3.57 -2.82 2.39
3.63 -2.75 2.39
3.68 -2.68 2.39
3.73 -2.60 2.39
3.78 -2.52 2.39
3.83 -2.45 2.39
3.88 -2.37 2.39
3.93 -2.29 2.39
3.97 -2.21 2.39
4.02 -2.13 2.39
4.06 -2.05 2.39
4.10 -1.97 2.39
4.14 -1.88 2.39
4.17 -1.80 2.39
4.21 -1.72 2.39
4.24 -1.63 2.39
4.27 -1.54 2.39
4.30 -1.46 2.39
4.33 -1.37 2.39
4.36 -1.28 2.39
4.38 -1.20 2.39
4.41 -1.11 2.39
4.43 -1.02 2.39
4.45 -0.93 2.39
4.46 -0.84 2.39
4.48 -0.75 2.39
4.49 -0.66 2.39
4.51 -0.57 2.39
4.52 -0.48 2.39
4.53 -0.39 2.39
4.53 -0.29 2.39
4.54 -0.20 2.39
4.54 -0.11 2.39
4.54 -0.02 2.39
4.54 0.07 2.39
4.54 0.16 2.39
4.54 0.25 2.39
4.53 0.35 2.39
4.52 0.44 2.39
4.51 0.53 2.39
4.50 0.62 2.39
4.49 0.71 2.39
4.48 0.80 2.39
4.46 0.89 2.39
4.44 0.98 2.39
4.42 1.07 2.39
4.40 1.16 2.39
4.37 1.25 2.39
4.35 1.33 2.39
4.32 1.42 2.39
4.29 1.51 2.39
4.26 1.59 2.39
4.23 1.68 2.39
4.20 1.76 2.39
4.16 1.85 2.39
4.12 1.93 2.39
4.08 2.02 2.39
4.04 2.10 2.39
4.00 2.18 2.39
3.96 2.26 2.39
3.91 2.34 2.39
3.86 2.42 2.39
3.82 2.50 2.39
3.77 2.57 2.39
3.71 2.65 2.39
3.66 2.72 2.39
3.61 2.80 2.39
3.55 2.87 2.39
3.49 2.94 2.39
3.43 3.01 2.39
3.37 3.08 2.39
3.31 3.15 2.39
3.25 3.21 2.39
3.18 3.28 2.39
3.12 3.34 2.39
2.89 3.23 2.27
2.83 3.29 2.27
2.81 3.41 2.31
2.79 3.53 2.35
2.72 3.58 2.35
2.65 3.64 2.35
2.58 3.69 2.35
2.50 3.75 2.35
2.34 3.66 2.27
2.27 3.71 2.27
2.22 3.79 2.29
2.22 3.97 2.37
2.15 4.05 2.39
2.07 4.09 2.39
1.99 4.13 2.39
1.91 4.18 2.39
1.86 4.29 2.43
1.81 4.43 2.49
1.73 4.47 2.49
1.64 4.51 2.49
1.55 4.54 2.49
1.45 4.57 2.49
1.36 4.60 2.49
1.27 4.63 2.49
1.18 4.65 2.49
1.08 4.68 2.49
0.99 4.70 2.49
0.90 4.72 2.49
0.80 4.74 2.49
0.71 4.76 2.49
0.61 4.77 2.49
0.52 4.78 2.49
0.42 4.79 2.49
0.32 4.80 2.49
0.23 4.81 2.49
0.13 4.81 2.49
0.03 4.82 2.49
-0.06 4.82 2.49
-0.16 4.82 2.49
-0.26 4.81 2.49
-0.35 4.81 2.49
-0.45 4.80 2.49
-0.55 4.79 2.49
-0.64 4.78 2.49
-0.74 4.77 2.49
-0.83 4.76 2.49
-0.93 4.74 2.49
-1.02 4.72 2.49
-1.12 4.70 2.49
-1.21 4.68 2.49
-1.31 4.66 2.49
-1.40 4.63 2.49
-1.49 4.60 2.49
-1.59 4.57 2.49
-1.68 4.54 2.49
-1.77 4.51 2.49
-1.86 4.47 2.49
-1.95 4.44 2.49
-2.04 4.40 2.49
-2.13 4.36 2.49
-2.21 4.31 2.49
-2.30 4.27 2.49
-2.39 4.22 2.49
-2.47 4.18 2.49
-2.55 4.13 2.49
-2.64 4.07 2.49
-2.72 4.02 2.49
-2.80 3.97 2.49
-2.88 3.91 2.49
-2.96 3.85 2.49
-3.03 3.79 2.49
-3.11 3.73 2.49
-3.19 3.67 2.49
-3.26 3.61 2.49
-3.33 3.54 2.49
-3.40 3.48 2.49
-3.47 3.41 2.49
-3.54 3.34 2.49
-3.61 3.27 2.49
-3.67 3.19 2.49
-3.74 3.12 2.49
-3.80 3.05 2.49
-3.86 2.97 2.49
-3.92 2.89 2.49
-3.98 2.81 2.49
-4.03 2.73 2.49
-4.09 2.65 2.49
-4.14 2.57 2.49
-4.19 2.49 2.49
-4.24 2.40 2.49
-4.29 2.32 2.49
-4.33 2.23 2.49
-4.38 2.15 2.49
-4.42 2.06 2.49
-4.46 1.97 2.49
-4.50 1.88 2.49
-4.54 1.79 2.49
-4.57 1.70 2.49
-4.60 1.61 2.49
-4.64 1.51 2.49
-4.67 1.42 2.49
-4.69 1.33 2.49
-4.72 1.23 2.49
-4.74 1.14 2.49
-4.76 1.04 2.49
-4.78 0.95 2.49
-4.80 0.85 2.49
-4.82 0.76 2.49
-4.83 0.66 2.49
-4.84 0.56 2.49
-4.86 0.47 2.49
-4.86 0.37 2.49
-4.87 0.27 2.49
-4.87 0.17 2.49
-4.88 0.08 2.49
-4.88 -0.02 2.49
-4.87 -0.12 2.49
-4.87 -0.22 2.49
-4.87 -0.31 2.49
-4.86 -0.41 2.49
-4.85 -0.51 2.49
-4.84 -0.61 2.49
-4.82 -0.70 2.49
-4.81 -0.80 2.49
-4.79 -0.89 2.49
-4.77 -0.99 2.49
-4.75 -1.09 2.49
-4.73 -1.18 2.49
-4.70 -1.27 2.49
-4.67 -1.37 2.49
-4.65 -1.46 2.49
-4.61 -1.55 2.49
-4.58 -1.65 2.49
-4.55 -1.74 2.49
-4.51 -1.83 2.49
-4.47 -1.92 2.49
-4.43 -2.01 2.49
-4.39 -2.09 2.49
-4.35 -2.18 2.49
-4.30 -2.27 2.49
-4.26 -2.35 2.49
-4.21 -2.44 2.49
-4.16 -2.52 2.49
-4.10 -2.60 2.49
-4.05 -2.68 2.49
-4.00 -2.76 2.49
-3.94 -2.84 2.49
-3.88 -2.92 2.49
-3.82 -3.00 2.49
-3.76 -3.07 2.49
-3.69 -3.15 2.49
-3.63 -3.22 2.49
-3.56 -3.29 2.49
-3.50 -3.36 2.49
-3.43 -3.43 2.49
-3.36 -3.50 2.49
-3.29 -3.56 2.49
-3.21 -3.63 2.49
-3.14 -3.69 2.49
-3.06 -3.75 2.49
-2.99 -3.81 2.49
-2.91 -3.87 2.49
-2.83 -3.92 2.49
-2.75 -3.98 2.49
-2.67 -4.03 2.49
-2.59 -4.08 2.49
-2.50 -4.13 2.49
-2.42 -4.18 2.49
-2.34 -4.23 2.49
-2.25 -4.27 2.49
-2.16 -4.32 2.49
-2.08 -4.36 2.49
-1.99 -4.40 2.49
-1.90 -4.43 2.49
-1.81 -4.47 2.49
-1.72 -4.50 2.49
-1.63 -4.54 2.49
-1.53 -4.57 2.49
-1.44 -4.60 2.49
-1.35 -4.62 2.49
-1.26 -4.65 2.49
-1.16 -4.67 2.49
-1.07 -4.69 2.49
-0.97 -4.71 2.49
-0.88 -4.73 2.49
-0.78 -4.74 2.49
-0.69 -4.76 2.49
-0.59 -4.77 2.49
-0.50 -4.78 2.49
-0.40 -4.79 2.49
-0.30 -4.79 2.49
-0.21 -4.79 2.49
-0.11 -4.80 2.49
-0.01 -4.54 2.49
0.08 -4.54 2.49
0.17 -4.54 2.49
0.26 -4.53 2.49
0.35 -4.52 2.49
0.44 -4.52 2.49
0.53 -4.50 2.49
0.62 -4.49 2.49
0.71 -4.48 2.49
0.80 -4.46 2.49
0.89 -4.44 2.49
0.98 -4.42 2.49
1.07 -4.40 2.49
1.16 -4.38 2.49
1.24 -4.35 2.49
1.33 -4.33 2.49
1.42 -4.30 2.49
1.50 -4.27 2.49
1.59 -4.23 2.49
1.67 -4.20 2.49
1.75 -4.16 2.49
1.84 -4.13 2.49
1.92 -4.09 2.49
1.96 -3.97 2.45
2.00 -3.84 2.39
2.07 -3.80 2.39
2.15 -3.76 2.40
2.22 -3.71 2.39
2.30 -3.67 2.39
2.37 -3.62 2.39
2.44 -3.57 2.39
2.51 -3.52 2.39
2.58 -3.47 2.39
2.65 -3.41 2.39
2.72 -3.36 2.39
2.78 -3.30 2.39
2.85 -3.24 2.39
2.91 -3.19 2.39
2.98 -3.13 2.39
3.04 -3.07 2.39
3.10 -3.00 2.39
3.16 -2.94 2.39
3.22 -2.87 2.39
3.27 -2.81 2.39
3.33 -2.74 2.39
3.38 -2.67 2.39
3.44 -2.61 2.39
3.49 -2.54 2.39
3.54 -2.46 2.39
3.58 -2.39 2.39
3.63 -2.32 2.39
3.68 -2.25 2.39
3.72 -2.17 2.39
3.76 -2.10 2.39
3.81 -2.02 2.39
3.84 -1.94 2.39
3.88 -1.86 2.39
3.92 -1.79 2.39
3.95 -1.71 2.39
3.99 -1.63 2.39
4.02 -1.55 2.39
4.05 -1.46 2.39
4.08 -1.38 2.39
4.10 -1.30 2.39
4.13 -1.22 2.39
4.15 -1.13 2.39
4.17 -1.05 2.39
4.19 -0.96 2.39
4.21 -0.88 2.39
4.23 -0.80 2.39
4.25 -0.71 2.39
4.26 -0.62 2.39
4.27 -0.54 2.39
4.28 -0.45 2.39
4.29 -0.37 2.39
4.30 -0.28 2.39
4.30 -0.19 2.39
4.30 -0.11 2.39
4.31 -0.02 2.39
4.30 0.07 2.39
4.30 0.15 2.39
4.30 0.24 2.39
4.29 0.33 2.39
4.29 0.41 2.39
4.28 0.50 2.39
4.27 0.59 2.39
4.25 0.67 2.39
4.24 0.76 2.39
4.22 0.84 2.39
4.21 0.93 2.39
4.19 1.01 2.39
4.17 1.10 2.39
4.15 1.18 2.39
4.12 1.26 2.39
4.10 1.35 2.39
4.07 1.43 2.39
4.04 1.51 2.39
4.01 1.59 2.39
3.98 1.67 2.39
3.94 1.75 2.39
3.91 1.83 2.39
3.87 1.91 2.39
3.83 1.99 2.39
3.79 2.07 2.39
3.75 2.14 2.39
3.71 2.22 2.39
3.66 2.29 2.39
3.62 2.36 2.39
3.57 2.44 2.39
3.52 2.51 2.39
3.47 2.58 2.39
3.42 2.65 2.39
3.36 2.72 2.39
3.31 2.79 2.39
3.25 2.85 2.39
3.19 2.92 2.39
3.14 2.98 2.39
2.92 2.89 2.27
2.86 2.95 2.27
2.82 3.02 2.28
2.81 3.14 2.33
2.78 3.23 2.35
2.71 3.29 2.35
2.65 3.34 2.35
2.58 3.40 2.35
2.51 3.45 2.35
2.36 3.38 2.27
2.29 3.42 2.27
2.23 3.48 2.28
2.22 3.63 2.34
2.19 3.75 2.39
2.12 3.79 2.39
2.05 3.86 2.40
1.96 3.88 2.39
1.89 3.92 2.39
1.86 4.07 2.46
1.80 4.16 2.49
1.72 4.20 2.49
1.63 4.24 2.49
1.55 4.27 2.49
1.46 4.30 2.49
1.38 4.33 2.49
1.29 4.36 2.49
1.20 4.38 2.49
1.11 4.41 2.49
1.03 4.43 2.49
0.94 4.45 2.49
0.85 4.47 2.49
0.76 4.49 2.49
0.67 4.50 2.49
0.58 4.52 2.49
0.49 4.53 2.49
0.40 4.54 2.49
0.31 4.55 2.49
0.21 4.56 2.49
0.12 4.56 2.49
0.03 4.56 2.49
-0.06 4.56 2.49
-0.15 4.56 2.49
-0.24 4.56 2.49
-0.34 4.56 2.49
-0.43 4.55 2.49
-0.52 4.54 2.49
-0.61 4.53 2.49
-0.70 4.52 2.49
-0.79 4.51 2.49
-0.88 4.49 2.49
-0.97 4.47 2.49
-1.06 4.45 2.49
-1.15 4.43 2.49
-1.24 4.41 2.49
-1.33 4.38 2.49
-1.42 4.36 2.49
-1.50 4.33 2.49
-1.59 4.30 2.49
-1.68 4.27 2.49
-1.76 4.24 2.49
-1.85 4.20 2.49
-1.93 4.16 2.49
-2.01 4.12 2.49
-2.10 4.08 2.49
-2.18 4.04 2.49
-2.26 4.00 2.49
-2.34 3.95 2.49
-2.42 3.91 2.49
-2.50 3.86 2.49
-2.58 3.81 2.49
-2.65 3.76 2.49
-2.73 3.70 2.49
-2.80 3.65 2.49
-2.87 3.59 2.49
-2.95 3.54 2.49
-3.02 3.48 2.49
-3.09 3.42 2.49
-3.15 3.35 2.49
-3.22 3.29 2.49
-3.29 3.23 2.49
-3.35 3.16 2.49
-3.41 3.09 2.49
-3.48 3.02 2.49
-3.54 2.95 2.49
-3.60 2.88 2.49
-3.65 2.81 2.49
-3.71 2.74 2.49
-3.76 2.66 2.49
-3.82 2.59 2.49
-3.87 2.51 2.49
-3.92 2.43 2.49
-3.97 2.36 2.49
-4.01 2.28 2.49
-4.06 2.19 2.49
-4.10 2.11 2.49
-4.14 2.03 2.49
-4.18 1.95 2.49
-4.22 1.86 2.49
-4.26 1.78 2.49
-4.29 1.69 2.49
-4.33 1.61 2.49
-4.36 1.52 2.49
-4.39 1.43 2.49
-4.42 1.35 2.49
-4.44 1.26 2.49
-4.47 1.17 2.49
-4.49 1.08 2.49
-4.51 0.99 2.49
-4.53 0.90 2.49
-4.55 0.81 2.49
-4.56 0.72 2.49
-4.58 0.62 2.49
-4.59 0.53 2.49
-4.60 0.44 2.49
-4.60 0.35 2.49
-4.61 0.26 2.49
-4.61 0.16 2.49
-4.62 0.07 2.49
-4.62 -0.02 2.49
-4.62 -0.11 2.49
-4.61 -0.21 2.49
-4.61 -0.30 2.49
-4.60 -0.39 2.49
-4.59 -0.48 2.49
-4.58 -0.57 2.49
-4.57 -0.66 2.49
-4.55 -0.76 2.49
-4.54 -0.85 2.49
-4.52 -0.94 2.49
-4.50 -1.03 2.49
-4.48 -1.12 2.49
-4.45 -1.21 2.49
-4.43 -1.30 2.49
-4.40 -1.38 2.49
-4.37 -1.47 2.49
-4.34 -1.56 2.49
-4.31 -1.64 2.49
-4.27 -1.73 2.49
-4.24 -1.81 2.49
-4.20 -1.90 2.49
-4.16 -1.98 2.49
-4.12 -2.06 2.49
-4.07 -2.15 2.49
-4.03 -2.23 2.49
-3.98 -2.31 2.49
-3.94 -2.39 2.49
-3.89 -2.46 2.49
-3.84 -2.54 2.49
-3.78 -2.62 2.49
-3.73 -2.69 2.49
-3.67 -2.76 2.49
-3.62 -2.84 2.49
-3.56 -2.91 2.49
-3.50 -2.98 2.49
-3.44 -3.05 2.49
-3.38 -3.11 2.49
-3.31 -3.18 2.49
-3.25 -3.25 2.49
-3.18 -3.31 2.49
-3.11 -3.37 2.49
-3.04 -3.43 2.49
-2.97 -3.49 2.49
-2.90 -3.55 2.49
-2.83 -3.61 2.49
-2.76 -3.66 2.49
-2.68 -3.72 2.49
-2.61 -3.77 2.49
-2.53 -3.82 2.49
-2.45 -3.87 2.49
-2.37 -3.91 2.49
-2.29 -3.96 2.49
-2.21 -4.00 2.49
-2.13 -4.05 2.49
-2.05 -4.09 2.49
-1.97 -4.13 2.49
-1.88 -4.16 2.49
-1.80 -4.20 2.49
-1.71 -4.23 2.49
-1.63 -4.27 2.49
-1.54 -4.30 2.49
-1.45 -4.33 2.49
-1.37 -4.35 2.49
-1.28 -4.38 2.49
-1.19 -4.40 2.49
-1.10 -4.42 2.49
-1.01 -4.44 2.49
-0.92 -4.46 2.49
-0.83 -4.48 2.49
-0.74 -4.49 2.49
-0.65 -4.51 2.49
-0.56 -4.52 2.49
-0.47 -4.53 2.49
-0.38 -4.53 2.49
-0.29 -4.54 2.49
-0.20 -4.54 2.49
-0.11 -4.54 2.49
-0.01 -4.31 2.49
0.07 -4.31 2.49
0.16 -4.30 2.49
0.24 -4.30 2.49
0.33 -4.29 2.49
0.42 -4.28 2.49
0.50 -4.27 2.49
0.59 -4.26 2.49
0.67 -4.25 2.49
0.76 -4.23 2.49
0.84 -4.22 2.49
0.93 -4.20 2.49
1.01 -4.18 2.49
1.10 -4.15 2.49
1.18 -4.13 2.49
1.26 -4.10 2.49
1.34 -4.08 2.49
1.42 -4.05 2.49
1.50 -4.02 2.49
1.58 -3.99 2.49
1.66 -3.95 2.49
1.74 -3.92 2.49
1.82 -3.88 2.49
1.90 -3.84 2.49
1.96 -3.77 2.48
1.97 -3.61 2.39
2.04 -3.56 2.39
2.11 -3.52 2.39
2.18 -3.48 2.39
2.25 -3.43 2.39
2.32 -3.39 2.39
2.38 -3.34 2.39
2.45 -3.29 2.39
2.51 -3.24 2.39
2.58 -3.19 2.39
2.64 -3.13 2.39
2.70 -3.08 2.39
2.76 -3.02 2.39
2.82 -2.97 2.39
2.88 -2.91 2.39
2.94 -2.85 2.39
3.00 -2.79 2.39
3.05 -2.73 2.39
3.11 -2.67 2.39
3.16 -2.60 2.39
3.21 -2.54 2.39
3.26 -2.47 2.39
3.31 -2.41 2.39
3.36 -2.34 2.39
3.40 -2.27 2.39
3.45 -2.20 2.39
3.49 -2.13 2.39
3.53 -2.06 2.39
3.57 -1.99 2.39
3.61 -1.92 2.39
3.65 -1.84 2.39
3.68 -1.77 2.39
3.72 -1.69 2.39
3.75 -1.62 2.39
3.78 -1.54 2.39
3.81 -1.47 2.39
3.84 -1.39 2.39
3.87 -1.31 2.39
3.89 -1.23 2.39
3.92 -1.15 2.39
3.94 -1.08 2.39
3.96 -1.00 2.39
3.98 -0.92 2.39
4.00 -0.84 2.39
4.01 -0.75 2.39
4.03 -0.67 2.39
4.04 -0.59 2.39
4.05 -0.51 2.39
4.06 -0.43 2.39
4.07 -0.35 2.39
4.08 -0.27 2.39
4.08 -0.18 2.39
4.08 -0.10 2.39
4.09 -0.02 2.39
4.09 0.06 2.39
4.08 0.15 2.39
4.08 0.23 2.39
4.07 0.31 2.39
4.07 0.39 2.39
4.06 0.47 2.39
4.05 0.56 2.39
4.04 0.64 2.39
4.02 0.72 2.39
4.01 0.80 2.39
3.99 0.88 2.39
3.97 0.96 2.39
3.95 1.04 2.39
3.93 1.12 2.39
3.91 1.20 2.39
3.89 1.28 2.39
3.86 1.36 2.39
3.83 1.43 2.39
3.80 1.51 2.39
3.77 1.59 2.39
3.74 1.66 2.39
3.71 1.74 2.39
3.67 1.81 2.39
3.64 1.89 2.39
3.60 1.96 2.39
3.56 2.03 2.39
3.52 2.10 2.39
3.47 2.17 2.39
3.43 2.24 2.39
3.38 2.31 2.39
3.34 2.38 2.39
3.29 2.45 2.39
3.24 2.52 2.39
3.19 2.58 2.39
3.14 2.64 2.39
2.93 2.57 2.27
2.88 2.63 2.27
2.83 2.69 2.27
2.82 2.79 2.31
2.81 2.90 2.35
2.75 2.96 2.35
2.70 3.01 2.35
2.63 3.07 2.35
2.57 3.12 2.35
2.51 3.17 2.35
2.36 3.11 2.27
2.30 3.16 2.27
2.24 3.21 2.27
2.22 3.33 2.32
2.22 3.47 2.39
2.15 3.51 2.39
2.08 3.56 2.39
2.01 3.60 2.39
1.93 3.64 2.39
1.87 3.70 2.40
1.86 3.87 2.49
1.79 3.91 2.49
1.71 3.95 2.49
1.63 3.99 2.49
1.55 4.02 2.49
1.47 4.05 2.49
1.39 4.08 2.49
1.31 4.11 2.49
1.22 4.13 2.49
1.14 4.16 2.49
1.06 4.18 2.49
