ply
format ascii 1.0
element vertex 2945
property float32 x
property float32 y
property float32 z
end_header
10.70 -13.11 3.53
11.08 -13.04 3.56
11.53 -13.03 3.62
6.10 -6.62 1.87
12.63 -13.16 3.79
13.19 -13.21 3.87
14.01 -13.48 4.03
15.15 -14.00 4.27
28.14 -24.97 7.79
29.07 -24.78 7.90
29.97 -24.53 8.00
6.13 -4.81 1.61
6.12 -4.61 1.58
6.12 -4.42 1.56
6.14 -4.25 1.54
35.04 -23.24 8.65
36.28 -23.02 8.83
37.94 -23.02 9.12
38.94 -22.57 9.24
39.94 -22.10 9.36
40.33 -21.27 9.35
40.82 -20.49 9.35
41.39 -19.75 9.39
42.12 -19.07 9.46
42.89 -18.39 9.54
44.13 -17.89 9.72
43.22 -16.52 9.44
44.48 -15.98 9.64
39.68 22.54 9.20
39.68 23.60 9.31
36.24 22.55 8.60
34.71 22.58 8.35
34.70 23.57 8.46
6.22 4.41 1.54
6.20 4.58 1.56
29.61 22.83 7.55
29.62 23.80 7.67
6.20 5.41 1.66
24.95 22.65 6.81
6.21 5.87 1.73
24.46 24.06 6.94
18.03 20.01 5.45
2.54 2.93 0.79
2.47 2.97 0.78
15.72 19.71 5.11
15.07 19.68 5.03
14.43 19.65 4.95
13.82 19.63 4.87
6.24 9.26 2.27
10.54 16.33 3.95
6.18 10.00 2.39
5.97 10.11 2.39
5.76 10.23 2.39
5.55 10.33 2.39
5.34 10.44 2.39
5.13 10.53 2.39
4.91 10.63 2.39
4.70 10.72 2.39
4.48 10.80 2.39
4.26 10.88 2.39
4.03 10.96 2.39
3.81 11.03 2.39
3.59 11.09 2.39
3.36 11.15 2.39
3.13 11.21 2.39
2.91 11.26 2.39
2.68 11.31 2.39
2.46 11.42 2.40
2.27 11.68 2.45
2.07 11.92 2.49
1.83 11.94 2.49
1.59 11.97 2.49
1.35 11.99 2.49
1.11 12.00 2.49
0.87 12.01 2.49
0.63 12.02 2.49
0.38 12.02 2.49
0.14 12.01 2.49
-0.10 12.00 2.49
-0.34 11.99 2.49
-0.58 11.97 2.49
-0.82 11.94 2.49
-1.06 11.91 2.49
-1.29 11.88 2.49
-1.53 11.84 2.49
-1.77 11.79 2.49
-2.00 11.74 2.49
-2.23 11.69 2.49
-2.46 11.63 2.49
-2.70 11.57 2.49
-2.92 11.50 2.49
-3.15 11.43 2.49
-3.38 11.36 2.49
-3.60 11.27 2.49
-3.82 11.19 2.49
-4.04 11.10 2.49
-4.26 11.01 2.49
-4.48 10.91 2.49
-4.69 10.81 2.49
-4.90 10.70 2.49
-5.11 10.59 2.49
-5.32 10.47 2.49
-5.52 10.36 2.49
-5.72 10.23 2.49
-5.79 9.88 2.44
-5.86 9.56 2.39
-6.05 9.44 2.39
-6.23 9.30 2.39
-6.41 9.17 2.39
-6.59 9.03 2.39
-6.76 8.89 2.39
-6.93 8.74 2.39
-7.10 8.59 2.39
-7.27 8.44 2.39
-7.43 8.29 2.39
-7.59 8.13 2.39
-7.74 7.97 2.39
-7.89 7.80 2.39
-8.04 7.64 2.39
-8.19 7.47 2.39
-8.33 7.30 2.39
-8.47 7.12 2.39
-8.60 6.94 2.39
-8.73 6.76 2.39
-8.86 6.58 2.39
-8.98 6.40 2.39
-9.10 6.21 2.39
-9.22 6.02 2.39
-9.33 5.83 2.39
-9.44 5.64 2.39
-9.54 5.44 2.39
-9.64 5.25 2.39
-9.74 5.05 2.39
-9.69 4.78 2.36
-9.71 4.55 2.34
-9.69 4.30 2.32
-9.69 4.07 2.30
-9.70 3.85 2.28
-9.70 3.62 2.26
-9.70 3.40 2.25
-9.70 3.19 2.24
-9.70 2.97 2.22
-9.70 2.76 2.21
-9.71 2.55 2.20
-9.71 2.35 2.19
-9.71 2.14 2.18
-9.71 1.94 2.18
-9.71 1.73 2.17
-9.71 1.53 2.16
-9.72 1.33 2.16
-9.72 1.14 2.15
-9.72 0.94 2.15
-9.72 0.74 2.15
-9.83 0.55 2.17
-9.72 0.35 2.15
-9.73 0.15 2.15
-9.73 -0.04 2.15
-9.73 -0.24 2.15
-9.73 -0.43 2.15
-9.73 -0.63 2.15
-9.73 -0.83 2.16
-9.74 -1.02 2.16
-9.74 -1.22 2.17
-9.74 -1.42 2.18
-9.74 -1.62 2.18
-9.74 -1.83 2.19
-9.74 -2.03 2.20
-9.74 -2.24 2.21
-9.45 -2.37 2.16
-10.49 -2.86 2.41
-10.43 -3.07 2.41
-10.37 -3.27 2.41
-10.30 -3.48 2.41
-10.23 -3.69 2.41
-10.15 -3.89 2.41
-10.07 -4.10 2.41
-9.92 -4.27 2.39
-9.83 -4.47 2.39
-9.74 -4.67 2.39
-9.64 -4.86 2.39
-9.55 -5.05 2.39
-9.44 -5.25 2.39
-9.34 -5.44 2.39
-9.23 -5.62 2.39
-9.11 -5.81 2.39
-9.00 -5.99 2.39
-8.88 -6.17 2.39
-8.75 -6.35 2.39
-8.62 -6.53 2.39
-8.49 -6.70 2.39
-8.36 -6.87 2.39
-8.22 -7.04 2.39
-8.08 -7.21 2.39
-7.94 -7.37 2.39
-7.79 -7.53 2.39
-7.64 -7.69 2.39
-7.49 -7.84 2.39
-7.33 -8.00 2.39
-7.17 -8.15 2.39
-7.01 -8.29 2.39
-6.84 -8.43 2.39
-6.67 -8.57 2.39
-6.50 -8.71 2.39
-6.33 -8.84 2.39
-6.15 -8.97 2.39
-5.98 -9.10 2.39
-5.95 -9.46 2.45
-5.85 -9.75 2.49
-5.66 -9.87 2.49
-5.46 -9.99 2.49
-5.26 -10.10 2.49
-5.06 -10.21 2.49
-4.86 -10.32 2.49
-4.65 -10.42 2.49
-4.45 -10.52 2.49
-4.24 -10.61 2.49
-4.03 -10.70 2.49
-3.81 -10.79 2.49
-3.60 -10.87 2.49
-3.38 -10.95 2.49
-3.16 -11.02 2.49
-2.94 -11.09 2.49
-2.72 -11.15 2.49
-2.50 -11.22 2.49
-2.27 -11.27 2.49
-2.05 -11.32 2.49
-1.82 -11.37 2.49
-1.59 -11.41 2.49
-1.37 -11.45 2.49
-1.14 -11.49 2.49
-0.91 -11.52 2.49
-0.67 -11.54 2.49
-0.44 -11.56 2.49
-0.21 -11.58 2.49
0.02 -10.44 2.49
0.23 -10.45 2.49
0.44 -10.45 2.49
0.65 -10.45 2.49
0.86 -10.44 2.49
1.07 -10.43 2.49
1.28 -10.42 2.49
1.49 -10.40 2.49
1.70 -10.37 2.49
1.91 -10.34 2.49
2.10 -10.18 2.46
2.23 -9.85 2.39
2.43 -9.81 2.39
2.50 -9.27 2.27
2.74 -9.41 2.31
2.94 -9.41 2.32
3.06 -9.13 2.27
3.42 -9.56 2.39
3.61 -9.50 2.39
3.81 -9.43 2.39
4.00 -9.36 2.39
4.19 -9.29 2.39
4.38 -9.21 2.39
4.57 -9.13 2.39
4.75 -9.04 2.39
4.94 -8.95 2.39
5.12 -8.86 2.39
5.30 -8.76 2.39
5.48 -8.66 2.39
5.66 -8.56 2.39
5.83 -8.45 2.39
6.01 -8.34 2.39
7.04 -9.37 2.73
7.16 -9.14 2.70
7.27 -8.91 2.67
9.71 -11.42 3.48
10.12 -11.42 3.53
6.10 -6.62 2.08
10.95 -11.41 3.66
11.40 -11.41 3.73
11.89 -11.44 3.81
12.41 -11.46 3.90
12.94 -11.48 3.99
13.53 -11.52 4.09
14.31 -11.71 4.26
15.17 -11.91 4.44
6.12 -4.61 1.76
29.60 -21.38 8.39
30.70 -21.25 8.57
31.78 -21.07 8.75
33.02 -20.95 8.96
34.26 -20.78 9.18
35.53 -20.59 9.40
36.59 -20.24 9.56
37.72 -19.88 9.74
6.13 -3.08 1.57
6.13 -2.93 1.55
6.14 -2.78 1.54
41.15 -17.64 10.21
42.16 -17.08 10.36
42.72 -16.32 10.41
43.24 -15.53 10.45
48.59 3.70 10.99
47.39 7.46 10.81
47.67 8.48 10.91
6.19 2.89 1.54
6.18 3.04 1.55
6.18 3.19 1.57
6.19 3.35 1.58
6.19 3.52 1.60
39.67 23.60 10.39
36.24 22.55 9.61
34.71 22.58 9.32
34.69 23.57 9.45
30.56 22.60 8.56
6.20 4.78 1.77
29.62 23.80 8.57
6.20 5.41 1.86
24.95 22.65 7.60
24.45 23.10 7.59
24.46 24.05 7.75
6.22 6.90 2.10
2.54 2.93 0.88
2.47 2.97 0.87
6.23 7.81 2.26
29.12 38.03 10.84
6.25 8.51 2.39
6.07 8.62 2.39
5.90 8.74 2.39
5.72 8.85 2.39
5.54 8.96 2.39
5.35 9.06 2.39
5.17 9.16 2.39
4.98 9.26 2.39
4.79 9.35 2.39
4.60 9.44 2.39
4.41 9.53 2.39
4.21 9.61 2.39
4.02 9.68 2.39
3.82 9.76 2.39
3.62 9.82 2.39
3.25 9.39 2.27
3.17 9.78 2.35
2.97 9.84 2.35
2.67 9.54 2.27
2.61 10.10 2.39
2.40 10.15 2.39
2.27 10.49 2.46
2.08 10.66 2.49
1.86 10.69 2.49
1.65 10.72 2.49
1.43 10.74 2.49
1.21 10.76 2.49
1.00 10.77 2.49
0.78 10.78 2.49
0.56 10.79 2.49
0.35 10.79 2.49
0.13 10.78 2.49
-0.09 10.78 2.49
-0.30 10.76 2.49
-0.52 10.75 2.49
-0.73 10.73 2.49
-0.95 10.70 2.49
-1.16 10.67 2.49
-1.37 10.64 2.49
-1.58 10.60 2.49
-1.79 10.55 2.49
-2.00 10.51 2.49
-2.21 10.46 2.49
-2.42 10.40 2.49
-2.63 10.34 2.49
-2.83 10.28 2.49
-3.03 10.21 2.49
-3.24 10.14 2.49
-3.44 10.06 2.49
-3.63 9.98 2.49
-3.83 9.90 2.49
-4.02 9.81 2.49
-4.22 9.72 2.49
-4.41 9.63 2.49
-4.60 9.53 2.49
-4.78 9.43 2.49
-4.97 9.32 2.49
-5.15 9.21 2.49
-5.33 9.10 2.49
-5.50 8.98 2.49
-5.68 8.86 2.49
-5.80 8.66 2.47
-5.81 8.31 2.41
-5.93 8.13 2.39
-6.09 8.00 2.39
-6.24 7.87 2.39
-6.39 7.74 2.39
-6.54 7.60 2.39
-6.69 7.47 2.39
-6.83 7.32 2.39
-6.97 7.18 2.39
-7.11 7.03 2.39
-7.24 6.88 2.39
-7.37 6.73 2.39
-7.50 6.58 2.39
-7.63 6.42 2.39
-7.75 6.26 2.39
-7.87 6.10 2.39
-7.98 5.93 2.39
-8.09 5.77 2.39
-8.20 5.60 2.39
-8.31 5.43 2.39
-8.41 5.26 2.39
-8.51 5.09 2.39
-8.60 4.91 2.39
-8.69 4.73 2.39
-8.78 4.56 2.39
-8.87 4.38 2.39
-8.95 4.19 2.39
-9.02 4.01 2.39
-9.10 3.83 2.39
-9.17 3.64 2.39
-9.23 3.45 2.39
-9.30 3.26 2.39
-9.35 3.08 2.39
-9.41 2.89 2.39
-9.46 2.69 2.39
-9.51 2.50 2.39
-9.55 2.31 2.39
-9.59 2.12 2.39
-9.63 1.92 2.39
-9.66 1.73 2.39
-9.69 1.53 2.39
-9.71 1.34 2.39
-9.73 1.14 2.39
-9.75 0.94 2.39
-9.77 0.75 2.39
-9.77 0.55 2.39
-9.78 0.35 2.39
-9.78 0.16 2.39
-9.78 -0.04 2.39
-9.77 -0.24 2.39
-9.77 -0.43 2.39
-9.75 -0.63 2.39
-9.73 -0.83 2.39
-9.71 -1.02 2.39
-9.69 -1.22 2.39
-9.66 -1.41 2.39
-9.63 -1.60 2.39
-9.59 -1.80 2.39
-9.55 -1.99 2.39
-9.51 -2.18 2.39
-9.46 -2.37 2.39
-9.41 -2.56 2.39
-9.36 -2.75 2.39
-9.30 -2.94 2.39
-9.24 -3.12 2.39
-9.17 -3.31 2.39
-9.11 -3.49 2.39
-9.03 -3.68 2.39
-8.96 -3.86 2.39
-8.88 -4.04 2.39
-8.80 -4.21 2.39
-8.71 -4.39 2.39
-8.62 -4.57 2.39
-8.53 -4.74 2.39
-8.43 -4.91 2.39
-8.33 -5.08 2.39
-8.23 -5.25 2.39
-8.12 -5.41 2.39
-8.01 -5.57 2.39
-7.90 -5.74 2.39
-7.79 -5.89 2.39
-7.67 -6.05 2.39
-7.55 -6.21 2.39
-7.42 -6.36 2.39
-7.30 -6.51 2.39
-7.16 -6.66 2.39
-7.03 -6.80 2.39
-6.90 -6.94 2.39
-6.76 -7.08 2.39
-6.62 -7.22 2.39
-6.47 -7.35 2.39
-6.32 -7.49 2.39
-6.18 -7.61 2.39
-6.02 -7.74 2.39
-5.94 -7.96 2.42
-5.94 -8.30 2.48
-5.79 -8.45 2.49
-5.62 -8.57 2.49
-5.45 -8.68 2.49
-5.28 -8.80 2.49
-5.10 -8.90 2.49
-4.93 -9.01 2.49
-4.75 -9.11 2.49
-4.57 -9.21 2.49
-4.38 -9.31 2.49
-4.20 -9.40 2.49
-4.01 -9.49 2.49
-3.82 -9.57 2.49
-3.63 -9.65 2.49
-3.44 -9.73 2.49
-3.24 -9.80 2.49
-3.05 -9.87 2.49
-2.85 -9.94 2.49
-2.65 -10.00 2.49
-2.45 -10.06 2.49
-2.25 -10.11 2.49
-2.05 -10.16 2.49
-1.84 -10.21 2.49
-1.64 -10.25 2.49
-1.43 -10.29 2.49
-1.23 -10.32 2.49
-1.02 -10.35 2.49
-0.81 -10.38 2.49
-0.61 -10.40 2.49
-0.40 -10.42 2.49
-0.19 -10.43 2.49
0.02 -9.49 2.49
0.21 -9.50 2.49
0.40 -9.50 2.49
0.59 -9.49 2.49
0.79 -9.49 2.49
0.98 -9.48 2.49
1.17 -9.46 2.49
1.36 -9.44 2.49
1.55 -9.42 2.49
1.74 -9.40 2.49
1.93 -9.37 2.49
2.10 -9.26 2.47
2.21 -8.91 2.39
2.39 -8.87 2.39
2.47 -8.47 2.29
2.71 -8.64 2.35
2.88 -8.59 2.35
3.05 -8.52 2.35
3.12 -8.18 2.27
3.46 -8.56 2.39
3.63 -8.50 2.39
3.80 -8.43 2.39
3.98 -8.36 2.39
4.15 -8.28 2.39
4.31 -8.20 2.39
4.48 -8.12 2.39
4.65 -8.04 2.39
4.81 -7.95 2.39
4.97 -7.86 2.39
5.13 -7.76 2.39
5.29 -7.66 2.39
5.45 -7.56 2.39
5.61 -7.45 2.39
5.76 -7.35 2.39
5.91 -7.23 2.39
6.06 -7.12 2.39
7.07 -7.99 2.73
6.10 -6.62 2.30
6.12 -6.37 2.25
10.06 -10.07 3.63
10.50 -10.09 3.71
10.94 -10.10 3.79
11.34 -10.05 3.85
6.12 -5.21 2.04
12.25 -10.02 4.02
12.73 -9.99 4.11
6.12 -4.61 1.94
13.85 -10.00 4.33
14.57 -10.08 4.49
15.33 -10.16 4.66
16.56 -10.50 4.96
18.34 -11.12 5.42
29.36 -17.01 8.57
31.50 -17.41 9.09
6.14 -3.23 1.75
36.09 -18.10 10.18
37.53 -17.89 10.48
38.72 -17.51 10.70
6.14 -2.63 1.68
40.54 -16.42 11.01
6.15 -2.35 1.65
42.56 -15.28 11.37
23.59 -7.94 6.25
23.15 -7.28 6.09
22.98 -6.72 6.01
23.24 -6.30 6.04
6.15 -1.27 1.57
6.15 -1.15 1.57
6.15 -1.02 1.56
6.15 -0.89 1.55
6.15 -0.77 1.55
6.15 -0.64 1.55
6.15 -0.52 1.54
6.16 -0.40 1.54
6.16 -0.27 1.54
6.16 -0.15 1.54
6.16 -0.03 1.54
6.16 0.10 1.54
6.16 0.22 1.54
6.16 0.35 1.54
6.16 0.47 1.54
6.16 0.59 1.54
6.16 0.72 1.55
6.17 0.84 1.55
6.17 0.97 1.55
6.17 1.10 1.56
6.17 1.23 1.57
6.17 1.35 1.57
6.18 1.49 1.58
42.75 11.20 11.00
46.37 13.15 11.99
43.30 13.22 11.26
43.79 14.33 11.46
42.52 14.86 11.21
41.50 15.45 11.02
38.23 15.11 10.23
40.70 17.04 10.98
38.96 17.23 10.60
6.21 2.89 1.70
43.15 21.19 11.96
42.69 22.04 11.96
6.19 3.35 1.75
38.43 21.83 11.00
37.10 22.07 10.75
36.16 22.50 10.60
34.71 22.57 10.31
34.69 23.57 10.44
38.21 27.09 11.67
30.56 22.60 9.47
29.61 22.83 9.32
29.62 23.79 9.47
36.54 30.57 11.88
6.20 5.41 2.05
24.96 22.64 8.41
24.45 23.10 8.39
24.46 24.05 8.56
6.22 6.63 2.27
20.45 22.68 7.63
2.54 2.93 0.97
2.47 2.97 0.97
5.96 7.47 2.39
5.81 7.58 2.39
5.65 7.70 2.39
5.50 7.80 2.39
5.34 7.91 2.39
5.17 8.01 2.39
5.01 8.11 2.39
4.84 8.20 2.39
4.68 8.30 2.39
4.51 8.38 2.39
4.34 8.47 2.39
4.16 8.55 2.39
3.99 8.62 2.39
3.81 8.70 2.39
3.64 8.77 2.39
3.28 8.38 2.27
3.19 8.67 2.33
3.05 8.81 2.35
2.87 8.86 2.35
2.61 8.64 2.28
2.55 9.11 2.39
2.36 9.15 2.39
2.26 9.52 2.48
2.08 9.62 2.49
1.88 9.66 2.49
1.69 9.69 2.49
1.49 9.71 2.49
1.30 9.73 2.49
1.10 9.75 2.49
0.91 9.76 2.49
0.71 9.77 2.49
0.51 9.78 2.49
0.32 9.78 2.49
0.12 9.78 2.49
-0.08 9.77 2.49
-0.27 9.76 2.49
-0.47 9.74 2.49
-0.66 9.73 2.49
-0.86 9.70 2.49
-1.05 9.68 2.49
-1.24 9.65 2.49
-1.43 9.61 2.49
-1.63 9.57 2.49
-1.82 9.53 2.49
-2.01 9.49 2.49
-2.19 9.44 2.49
-2.38 9.38 2.49
-2.57 9.33 2.49
-2.75 9.27 2.49
-2.93 9.20 2.49
-3.12 9.13 2.49
-3.30 9.06 2.49
-3.47 8.99 2.49
-3.65 8.91 2.49
-3.83 8.83 2.49
-4.00 8.74 2.49
-4.17 8.65 2.49
-4.34 8.56 2.49
-4.51 8.46 2.49
-4.67 8.37 2.49
-4.84 8.26 2.49
-5.00 8.16 2.49
-5.16 8.05 2.49
-5.31 7.94 2.49
-5.47 7.82 2.49
-5.62 7.71 2.49
-5.77 7.59 2.49
-5.81 7.33 2.45
-5.82 7.05 2.40
-5.94 6.91 2.39
-6.08 6.79 2.39
-6.21 6.66 2.39
-6.34 6.53 2.39
-6.46 6.39 2.39
-6.58 6.26 2.39
-6.70 6.12 2.39
-6.82 5.98 2.39
-6.93 5.84 2.39
-7.04 5.69 2.39
-7.15 5.55 2.39
-7.26 5.40 2.39
-7.36 5.25 2.39
-7.46 5.10 2.39
-7.56 4.94 2.39
-7.65 4.79 2.39
-7.74 4.63 2.39
-7.83 4.47 2.39
-7.91 4.31 2.39
-7.99 4.15 2.39
-8.07 3.98 2.39
-8.14 3.82 2.39
-8.21 3.65 2.39
-8.28 3.48 2.39
-8.34 3.31 2.39
-8.40 3.14 2.39
-8.46 2.97 2.39
-8.51 2.80 2.39
-8.56 2.63 2.39
-8.61 2.45 2.39
-8.65 2.28 2.39
-8.69 2.10 2.39
-8.73 1.93 2.39
-8.76 1.75 2.39
-8.79 1.57 2.39
-8.82 1.40 2.39
-8.84 1.22 2.39
-8.86 1.04 2.39
-8.88 0.86 2.39
-8.89 0.68 2.39
-8.90 0.50 2.39
-8.91 0.32 2.39
-8.91 0.14 2.39
-8.91 -0.04 2.39
-8.90 -0.22 2.39
-8.89 -0.39 2.39
-8.88 -0.57 2.39
-8.87 -0.75 2.39
-8.85 -0.93 2.39
-8.82 -1.11 2.39
-8.80 -1.28 2.39
-8.77 -1.46 2.39
-8.74 -1.64 2.39
-8.70 -1.81 2.39
-8.66 -1.99 2.39
-8.62 -2.16 2.39
-8.57 -2.33 2.39
-8.52 -2.50 2.39
-8.47 -2.68 2.39
-8.41 -2.85 2.39
-8.36 -3.01 2.39
-8.29 -3.18 2.39
-8.23 -3.35 2.39
-8.16 -3.51 2.39
-8.09 -3.68 2.39
-8.01 -3.84 2.39
-7.93 -4.00 2.39
-7.85 -4.16 2.39
-7.77 -4.32 2.39
-7.68 -4.47 2.39
-7.59 -4.63 2.39
-7.49 -4.78 2.39
-7.40 -4.93 2.39
-7.30 -5.08 2.39
-7.20 -5.22 2.39
-7.09 -5.37 2.39
-6.98 -5.51 2.39
-6.87 -5.65 2.39
-6.76 -5.79 2.39
-6.64 -5.93 2.39
-6.52 -6.06 2.39
-6.40 -6.19 2.39
-6.28 -6.32 2.39
-6.15 -6.45 2.39
-6.02 -6.57 2.39
-5.93 -6.74 2.41
-5.93 -7.01 2.46
-5.86 -7.23 2.49
-5.72 -7.35 2.49
-5.57 -7.47 2.49
-5.42 -7.58 2.49
-5.27 -7.69 2.49
-5.12 -7.80 2.49
-4.96 -7.90 2.49
-4.80 -8.01 2.49
-4.65 -8.11 2.49
-4.48 -8.20 2.49
-4.32 -8.29 2.49
-4.15 -8.38 2.49
-3.99 -8.47 2.49
-3.82 -8.55 2.49
-3.65 -8.63 2.49
-3.47 -8.71 2.49
-3.30 -8.78 2.49
-3.13 -8.85 2.49
-2.95 -8.92 2.49
-2.77 -8.98 2.49
-2.59 -9.04 2.49
-2.41 -9.10 2.49
-2.23 -9.15 2.49
-2.04 -9.20 2.49
-1.86 -9.24 2.49
-1.68 -9.28 2.49
-1.49 -9.32 2.49
-1.30 -9.36 2.49
-1.12 -9.39 2.49
-0.93 -9.41 2.49
-0.74 -9.44 2.49
-0.55 -9.46 2.49
-0.36 -9.47 2.49
-0.17 -9.48 2.49
0.02 -8.69 2.49
0.20 -8.69 2.49
0.37 -8.69 2.49
0.55 -8.69 2.49
0.72 -8.68 2.49
0.90 -8.67 2.49
1.07 -8.66 2.49
1.25 -8.64 2.49
1.42 -8.62 2.49
1.59 -8.60 2.49
1.77 -8.57 2.49
1.94 -8.54 2.49
2.11 -8.49 2.49
2.19 -8.12 2.39
2.36 -8.08 2.39
2.47 -7.88 2.35
2.54 -7.58 2.27
2.80 -7.81 2.35
2.95 -7.76 2.35
3.06 -7.57 2.31
3.15 -7.37 2.27
3.48 -7.71 2.39
3.64 -7.64 2.39
3.79 -7.57 2.39
3.95 -7.50 2.39
4.10 -7.42 2.39
4.25 -7.35 2.39
4.40 -7.26 2.39
4.55 -7.18 2.39
4.70 -7.09 2.39
4.84 -7.00 2.39
4.98 -6.91 2.39
5.12 -6.81 2.39
5.26 -6.71 2.39
5.40 -6.61 2.39
5.54 -6.50 2.39
5.67 -6.40 2.39
5.80 -6.29 2.39
5.93 -6.17 2.39
6.06 -6.06 2.39
6.88 -6.62 2.66
7.07 -6.52 2.68
6.12 -5.43 2.28
10.44 -8.88 3.81
10.84 -8.86 3.89
11.26 -8.83 3.98
6.12 -4.61 2.13
12.16 -8.78 4.16
12.61 -8.72 4.25
13.06 -8.65 4.34
6.13 -3.89 2.01
14.22 -8.62 4.60
14.89 -8.62 4.76
15.63 -8.63 4.94
16.64 -8.76 5.20
17.87 -8.96 5.52
19.63 -9.36 6.01
22.05 -9.97 6.68
6.14 -2.63 1.84
25.71 -10.40 7.65
22.41 -8.55 6.61
22.48 -8.07 6.58
22.69 -7.63 6.59
22.62 -7.11 6.52
22.62 -6.61 6.48
22.86 -6.19 6.51
23.99 -5.98 6.79
6.16 -1.15 1.72
6.15 -0.64 1.70
6.16 -0.27 1.69
47.90 -1.15 13.11
47.40 -0.19 12.97
46.12 0.74 12.62
45.58 1.64 12.47
45.08 2.53 12.34
44.90 3.42 12.31
44.71 4.31 12.27
42.60 4.97 11.72
42.79 5.86 11.80
39.73 6.25 10.98
39.95 7.11 11.08
40.38 8.03 11.24
6.17 1.36 1.72
42.13 10.14 11.83
38.69 10.14 10.92
44.14 12.51 12.52
43.83 13.38 12.51
6.18 2.02 1.77
37.99 13.28 10.98
38.04 14.16 11.07
37.25 14.72 10.93
6.19 2.59 1.83
36.79 16.27 10.98
39.28 18.32 11.83
34.69 17.04 10.55
37.41 19.31 11.49
6.19 3.35 1.92
35.57 20.20 11.16
37.24 22.15 11.83
34.67 21.57 11.15
6.20 4.03 2.02
34.45 23.40 11.37
34.12 24.19 11.42
30.56 22.60 10.38
29.61 22.82 10.21
29.62 23.79 10.38
6.21 5.19 2.21
6.20 5.40 2.25
24.96 22.64 9.22
24.45 23.09 9.20
6.23 6.12 2.39
6.10 6.25 2.39
5.98 6.36 2.39
5.85 6.48 2.39
2.54 2.93 1.06
2.47 2.97 1.06
5.44 6.81 2.39
5.30 6.92 2.39
5.16 7.02 2.39
5.02 7.12 2.39
4.87 7.22 2.39
4.72 7.31 2.39
4.57 7.40 2.39
4.42 7.48 2.39
4.27 7.57 2.39
4.11 7.65 2.39
3.96 7.73 2.39
3.80 7.80 2.39
3.64 7.87 2.39
3.30 7.53 2.27
3.19 7.68 2.29
3.11 7.93 2.35
2.94 7.99 2.35
2.69 7.76 2.27
2.60 8.03 2.34
2.50 8.27 2.39
2.33 8.31 2.39
2.25 8.70 2.49
2.08 8.75 2.49
1.90 8.79 2.49
1.72 8.82 2.49
1.54 8.85 2.49
1.37 8.87 2.49
1.19 8.89 2.49
1.01 8.90 2.49
0.83 8.92 2.49
0.65 8.93 2.49
0.47 8.93 2.49
0.29 8.93 2.49
0.11 8.93 2.49
-0.07 8.93 2.49
-0.25 8.92 2.49
-0.42 8.90 2.49
-0.60 8.89 2.49
-0.78 8.87 2.49
-0.96 8.84 2.49
-1.13 8.82 2.49
-1.31 8.79 2.49
-1.48 8.75 2.49
-1.66 8.71 2.49
-1.83 8.67 2.49
-2.00 8.63 2.49
-2.17 8.58 2.49
-2.34 8.53 2.49
-2.51 8.47 2.49
-2.68 8.41 2.49
-2.85 8.35 2.49
-3.01 8.29 2.49
-3.18 8.22 2.49
-3.34 8.15 2.49
-3.50 8.07 2.49
-3.66 8.00 2.49
-3.81 7.92 2.49
-3.97 7.83 2.49
-4.12 7.74 2.49
-4.27 7.65 2.49
-4.42 7.56 2.49
-4.57 7.47 2.49
-4.72 7.37 2.49
-4.86 7.27 2.49
-5.00 7.16 2.49
-5.14 7.06 2.49
-5.28 6.95 2.49
-5.41 6.83 2.49
-5.54 6.72 2.49
-5.67 6.60 2.49
-5.80 6.48 2.49
-5.82 6.24 2.45
-5.83 6.01 2.40
-5.91 5.86 2.39
-6.03 5.74 2.39
-6.14 5.61 2.39
-6.24 5.48 2.39
-6.35 5.35 2.39
-6.45 5.22 2.39
-6.55 5.08 2.39
-6.65 4.95 2.39
-6.74 4.81 2.39
-6.83 4.67 2.39
-6.92 4.53 2.39
-7.01 4.39 2.39
-7.09 4.24 2.39
-7.17 4.10 2.39
-7.25 3.95 2.39
-7.32 3.80 2.39
-7.39 3.65 2.39
-7.46 3.50 2.39
-7.52 3.35 2.39
-7.59 3.19 2.39
-7.64 3.04 2.39
-7.70 2.88 2.39
-7.75 2.73 2.39
-7.80 2.57 2.39
-7.85 2.41 2.39
-7.89 2.25 2.39
-7.93 2.09 2.39
-7.97 1.93 2.39
-8.00 1.77 2.39
-8.03 1.61 2.39
-8.06 1.44 2.39
-8.09 1.28 2.39
-8.11 1.12 2.39
-8.13 0.95 2.39
-8.14 0.79 2.39
-8.15 0.62 2.39
-8.16 0.46 2.39
-8.17 0.30 2.39
-8.17 0.13 2.39
-8.17 -0.03 2.39
-8.16 -0.20 2.39
-8.15 -0.36 2.39
-8.14 -0.52 2.39
-8.13 -0.69 2.39
-8.11 -0.85 2.39
-8.09 -1.01 2.39
-8.07 -1.18 2.39
-8.04 -1.34 2.39
-8.01 -1.50 2.39
-7.98 -1.66 2.39
-7.94 -1.82 2.39
-7.90 -1.98 2.39
-7.86 -2.14 2.39
-7.82 -2.30 2.39
-7.77 -2.45 2.39
-7.72 -2.61 2.39
-7.66 -2.76 2.39
-7.61 -2.92 2.39
-7.55 -3.07 2.39
-7.48 -3.22 2.39
-7.42 -3.37 2.39
-7.35 -3.52 2.39
-7.28 -3.67 2.39
-7.20 -3.81 2.39
-7.12 -3.96 2.39
-7.04 -4.10 2.39
-6.96 -4.24 2.39
-6.87 -4.38 2.39
-6.78 -4.52 2.39
-6.69 -4.66 2.39
-6.60 -4.79 2.39
-6.50 -4.92 2.39
-6.40 -5.05 2.39
-6.30 -5.18 2.39
-6.20 -5.31 2.39
-6.09 -5.44 2.39
-5.98 -5.56 2.39
-5.92 -5.73 2.41
-5.92 -5.96 2.46
-5.88 -6.17 2.49
-5.76 -6.29 2.49
-5.63 -6.41 2.49
-5.51 -6.52 2.49
-5.38 -6.63 2.49
-5.24 -6.74 2.49
-5.11 -6.85 2.49
-4.97 -6.95 2.49
-4.83 -7.05 2.49
-4.69 -7.15 2.49
-4.55 -7.25 2.49
-4.40 -7.34 2.49
-4.26 -7.43 2.49
-4.11 -7.52 2.49
-3.96 -7.60 2.49
-3.81 -7.68 2.49
-3.65 -7.76 2.49
-3.50 -7.84 2.49
-3.34 -7.91 2.49
-3.18 -7.98 2.49
-3.02 -8.05 2.49
-2.86 -8.11 2.49
-2.70 -8.17 2.49
-2.54 -8.23 2.49
-2.37 -8.28 2.49
-2.21 -8.33 2.49
-2.04 -8.38 2.49
-1.87 -8.42 2.49
-1.70 -8.47 2.49
-1.53 -8.50 2.49
-1.36 -8.54 2.49
-1.19 -8.57 2.49
-1.02 -8.60 2.49
-0.85 -8.62 2.49
-0.67 -8.64 2.49
-0.50 -8.66 2.49
-0.33 -8.67 2.49
-0.15 -8.68 2.49
0.02 -8.01 2.49
0.18 -8.01 2.49
0.34 -8.01 2.49
0.51 -8.01 2.49
0.67 -8.00 2.49
0.83 -7.99 2.49
0.99 -7.98 2.49
1.15 -7.96 2.49
1.31 -7.94 2.49
1.47 -7.92 2.49
1.63 -7.89 2.49
1.79 -7.86 2.49
1.95 -7.83 2.49
2.11 -7.79 2.49
2.17 -7.44 2.39
2.32 -7.40 2.39
2.47 -7.35 2.39
2.49 -6.94 2.27
2.72 -7.14 2.35
2.87 -7.09 2.35
3.01 -7.03 2.35
3.07 -6.79 2.29
3.18 -6.67 2.27
3.49 -6.97 2.39
3.63 -6.90 2.39
3.77 -6.83 2.39
3.91 -6.76 2.39
4.05 -6.68 2.39
4.19 -6.60 2.39
4.32 -6.52 2.39
4.45 -6.44 2.39
4.59 -6.35 2.39
4.71 -6.26 2.39
4.84 -6.17 2.39
4.97 -6.08 2.39
5.09 -5.98 2.39
5.22 -5.88 2.39
5.34 -5.78 2.39
5.45 -5.68 2.39
5.57 -5.57 2.39
5.68 -5.46 2.39
5.80 -5.35 2.39
5.91 -5.23 2.39
6.01 -5.12 2.39
6.12 -5.00 2.39
7.14 -5.60 2.75
6.12 -4.60 2.31
10.62 -7.66 3.96
6.14 -4.24 2.25
11.53 -7.63 4.17
11.95 -7.57 4.26
12.38 -7.50 4.36
12.83 -7.42 4.46
13.29 -7.34 4.57
13.83 -7.28 4.70
14.44 -7.23 4.86
15.06 -7.18 5.01
15.84 -7.16 5.22
6.14 -2.63 2.00
17.77 -7.19 5.75
19.05 -7.27 6.12
20.65 -7.41 6.58
22.35 -7.51 7.07
22.49 -7.06 7.06
22.62 -6.61 7.06
22.92 -6.20 7.11
6.15 -1.53 1.90
43.40 -9.90 13.31
6.15 -0.64 1.85
47.37 -3.99 14.18
47.21 -3.03 14.11
46.59 -2.05 13.90
30.68 -0.74 9.14
45.19 -0.18 13.47
44.53 0.72 13.27
6.17 0.22 1.84
6.17 0.35 1.84
38.98 2.97 11.64
38.77 3.74 11.59
42.94 5.01 12.86
42.86 5.87 12.87
39.87 6.28 12.01
42.71 7.61 12.90
42.57 8.46 12.91
6.17 1.36 1.88
35.25 8.49 10.78
38.60 10.12 11.86
41.61 11.80 12.86
41.12 12.56 12.78
40.59 13.29 12.69
39.99 13.98 12.59
37.76 14.06 11.98
36.71 14.51 11.73
6.19 2.59 1.99
33.56 14.84 10.91
37.50 17.49 12.30
33.99 16.69 11.25
33.83 17.46 11.32
6.19 3.35 2.09
35.61 20.23 12.18
6.20 3.68 2.14
34.77 21.63 12.18
34.37 22.35 12.19
30.19 20.50 10.85
6.20 4.40 2.26
30.25 22.36 11.19
29.38 22.64 11.04
29.38 23.60 11.22
6.16 5.15 2.39
6.05 5.27 2.39
5.94 5.39 2.39
5.83 5.51 2.39
5.72 5.62 2.39
5.61 5.73 2.39
5.49 5.84 2.39
5.37 5.95 2.39
2.54 2.93 1.16
2.47 2.97 1.15
5.00 6.26 2.39
4.87 6.35 2.39
4.74 6.45 2.39
4.61 6.54 2.39
4.47 6.63 2.39
4.34 6.71 2.39
4.20 6.79 2.39
4.06 6.87 2.39
3.92 6.95 2.39
3.78 7.03 2.39
3.64 7.10 2.39
3.49 7.16 2.39
3.18 6.88 2.27
3.15 7.17 2.35
3.00 7.23 2.35
2.86 7.29 2.35
2.61 7.08 2.27
2.60 7.51 2.39
2.45 7.56 2.39
2.30 7.60 2.39
2.23 7.97 2.49
2.07 8.01 2.49
1.91 8.04 2.49
1.75 8.08 2.49
1.59 8.10 2.49
1.42 8.13 2.49
1.26 8.15 2.49
1.09 8.17 2.49
0.93 8.19 2.49
0.76 8.20 2.49
0.60 8.21 2.49
0.43 8.21 2.49
0.27 8.21 2.49
0.10 8.21 2.49
-0.06 8.21 2.49
-0.22 8.20 2.49
-0.39 8.19 2.49
-0.55 8.17 2.49
-0.72 8.16 2.49
-0.88 8.13 2.49
-1.04 8.11 2.49
-1.20 8.08 2.49
-1.36 8.05 2.49
-1.52 8.02 2.49
-1.68 7.98 2.49
-1.84 7.94 2.49
-2.00 7.89 2.49
-2.16 7.85 2.49
-2.31 7.80 2.49
-2.47 7.74 2.49
-2.62 7.69 2.49
-2.77 7.63 2.49
-2.92 7.57 2.49
-3.07 7.50 2.49
-3.22 7.43 2.49
-3.36 7.36 2.49
-3.51 7.29 2.49
-3.65 7.21 2.49
-3.79 7.13 2.49
-3.93 7.05 2.49
-4.07 6.96 2.49
-4.21 6.88 2.49
-4.34 6.79 2.49
-4.47 6.69 2.49
-4.60 6.60 2.49
-4.73 6.50 2.49
-4.86 6.40 2.49
-4.98 6.30 2.49
-5.11 6.19 2.49
-5.23 6.08 2.49
-5.34 5.97 2.49
-5.46 5.86 2.49
-5.57 5.75 2.49
-5.68 5.63 2.49
-5.79 5.51 2.49
-5.82 5.32 2.46
-5.83 5.12 2.42
-5.85 4.93 2.39
-5.94 4.81 2.39
-6.04 4.69 2.39
-6.12 4.56 2.39
-6.21 4.43 2.39
-6.30 4.30 2.39
-6.38 4.17 2.39
-6.46 4.04 2.39
-6.53 3.91 2.39
-6.61 3.78 2.39
-6.68 3.64 2.39
-6.75 3.50 2.39
-6.81 3.37 2.39
-6.88 3.23 2.39
-6.94 3.09 2.39
-6.99 2.94 2.39
-7.05 2.80 2.39
-7.10 2.66 2.39
-7.15 2.51 2.39
-7.19 2.37 2.39
-7.24 2.22 2.39
-7.28 2.08 2.39
-7.31 1.93 2.39
-7.35 1.78 2.39
-7.38 1.63 2.39
-7.41 1.48 2.39
-7.44 1.33 2.39
-7.46 1.18 2.39
-7.48 1.03 2.39
-7.49 0.88 2.39
-7.51 0.73 2.39
-7.52 0.58 2.39
-7.53 0.43 2.39
-7.53 0.27 2.39
-7.53 0.12 2.39
-7.53 -0.03 2.39
-7.53 -0.18 2.39
-7.52 -0.33 2.39
-7.51 -0.48 2.39
-7.50 -0.63 2.39
-7.48 -0.79 2.39
-7.47 -0.94 2.39
-7.44 -1.09 2.39
-7.42 -1.24 2.39
-7.39 -1.38 2.39
-7.36 -1.53 2.39
-7.33 -1.68 2.39
-7.29 -1.83 2.39
-7.25 -1.97 2.39
-7.21 -2.12 2.39
-7.17 -2.26 2.39
-7.12 -2.41 2.39
-7.07 -2.55 2.39
-7.02 -2.69 2.39
-6.96 -2.83 2.39
-6.90 -2.97 2.39
-6.84 -3.11 2.39
-6.78 -3.25 2.39
-6.71 -3.38 2.39
-6.64 -3.52 2.39
-6.57 -3.65 2.39
-6.50 -3.78 2.39
-6.42 -3.91 2.39
-6.34 -4.04 2.39
-6.26 -4.17 2.39
-6.17 -4.30 2.39
-6.09 -4.42 2.39
-6.00 -4.54 2.39
-5.92 -4.67 2.39
-5.91 -4.86 2.43
-5.91 -5.06 2.47
-5.86 -5.23 2.49
-5.76 -5.35 2.49
-5.65 -5.47 2.49
-5.54 -5.58 2.49
-5.43 -5.69 2.49
-5.31 -5.80 2.49
-5.20 -5.91 2.49
-5.08 -6.01 2.49
-4.96 -6.12 2.49
-4.83 -6.22 2.49
-4.71 -6.32 2.49
-4.58 -6.41 2.49
-4.46 -6.50 2.49
-4.33 -6.60 2.49
-4.19 -6.68 2.49
-4.06 -6.77 2.49
-3.92 -6.85 2.49
-3.79 -6.93 2.49
-3.65 -7.01 2.49
-3.51 -7.09 2.49
-3.37 -7.16 2.49
-3.22 -7.23 2.49
-3.08 -7.29 2.49
-2.93 -7.36 2.49
-2.79 -7.42 2.49
-2.64 -7.48 2.49
-2.49 -7.53 2.49
-2.34 -7.59 2.49
-2.18 -7.63 2.49
-2.03 -7.68 2.49
-1.88 -7.72 2.49
-1.72 -7.77 2.49
-1.57 -7.80 2.49
-1.41 -7.84 2.49
-1.25 -7.87 2.49
-1.10 -7.90 2.49
-0.94 -7.92 2.49
-0.78 -7.94 2.49
-0.62 -7.96 2.49
-0.46 -7.98 2.49
-0.30 -7.99 2.49
-0.14 -8.00 2.49
0.02 -7.41 2.49
0.17 -7.42 2.49
0.32 -7.42 2.49
0.47 -7.41 2.49
0.62 -7.41 2.49
0.77 -7.40 2.49
0.92 -7.38 2.49
1.07 -7.37 2.49
1.21 -7.35 2.49
1.36 -7.33 2.49
1.51 -7.30 2.49
1.66 -7.28 2.49
1.80 -7.25 2.49
1.95 -7.21 2.49
2.10 -7.18 2.49
2.15 -6.84 2.39
2.29 -6.80 2.39
2.42 -6.76 2.39
2.48 -6.51 2.32
2.56 -6.33 2.27
2.79 -6.51 2.35
2.92 -6.45 2.35
3.05 -6.40 2.35
3.08 -6.13 2.28
3.19 -6.06 2.27
3.49 -6.32 2.39
3.62 -6.25 2.39
3.75 -6.18 2.39
3.87 -6.11 2.39
4.00 -6.03 2.39
4.12 -5.96 2.39
4.24 -5.88 2.39
4.36 -5.79 2.39
4.48 -5.71 2.39
4.60 -5.62 2.39
4.71 -5.53 2.39
4.82 -5.44 2.39
4.93 -5.34 2.39
5.04 -5.25 2.39
5.15 -5.15 2.39
5.26 -5.05 2.39
5.36 -4.94 2.39
5.46 -4.84 2.39
5.56 -4.73 2.39
5.66 -4.62 2.39
5.75 -4.51 2.39
5.84 -4.39 2.39
5.93 -4.28 2.39
6.02 -4.16 2.39
6.11 -4.04 2.39
7.21 -4.56 2.78
7.29 -4.42 2.78
11.41 -6.60 4.30
11.80 -6.51 4.39
6.14 -3.23 2.26
12.60 -6.31 4.59
13.01 -6.20 4.69
6.15 -2.78 2.19
6.14 -2.63 2.17
14.49 -5.86 5.08
15.05 -5.74 5.23
6.15 -2.20 2.12
16.58 -5.57 5.67
17.52 -5.50 5.95
18.63 -5.44 6.29
19.93 -5.39 6.69
21.57 -5.37 7.20
23.10 -5.26 7.67
6.16 -1.27 2.03
26.58 -4.95 8.75
23.26 -3.85 7.62
23.04 -3.34 7.53
23.21 -2.89 7.56
6.15 -0.64 2.00
46.29 -3.89 15.00
45.84 -2.93 14.83
45.29 -1.99 14.63
30.27 -0.72 9.77
30.84 -0.12 9.95
6.17 0.10 1.99
31.37 1.14 10.12
42.02 2.36 13.57
35.22 2.69 11.39
6.17 0.60 2.00
40.89 4.77 13.27
40.72 5.58 13.24
40.50 6.38 13.21
40.31 7.18 13.19
40.07 7.97 13.16
6.17 1.36 2.03
35.40 8.53 11.73
39.21 10.28 13.05
38.79 11.00 12.98
6.18 1.89 2.08
37.86 12.39 12.82
37.43 13.09 12.76
37.00 13.77 12.71
36.60 14.46 12.67
33.59 14.06 11.72
35.75 15.81 12.58
35.33 16.48 12.55
34.89 17.13 12.51
34.49 17.80 12.49
6.19 3.35 2.26
33.65 19.11 12.46
33.17 19.73 12.43
32.77 20.38 12.43
6.22 4.05 2.39
6.14 4.17 2.39
6.05 4.29 2.39
5.97 4.41 2.39
5.88 4.53 2.39
5.78 4.64 2.39
5.69 4.76 2.39
5.59 4.87 2.39
5.49 4.98 2.39
5.39 5.09 2.39
5.28 5.19 2.39
5.18 5.30 2.39
5.07 5.40 2.39
4.96 5.50 2.39
2.54 2.93 1.25
2.47 2.97 1.25
4.62 5.78 2.39
4.50 5.87 2.39
4.38 5.95 2.39
4.26 6.04 2.39
4.13 6.12 2.39
4.01 6.20 2.39
3.88 6.28 2.39
3.75 6.35 2.39
3.62 6.42 2.39
3.49 6.49 2.39
3.19 6.22 2.27
3.17 6.50 2.35
3.04 6.57 2.35
2.91 6.63 2.35
2.68 6.45 2.27
2.59 6.61 2.31
2.54 6.89 2.39
2.40 6.94 2.39
2.26 6.98 2.39
2.21 7.33 2.49
2.07 7.36 2.49
1.92 7.40 2.49
1.77 7.43 2.49
1.62 7.46 2.49
1.47 7.49 2.49
1.32 7.51 2.49
1.16 7.53 2.49
1.01 7.55 2.49
0.86 7.57 2.49
0.71 7.58 2.49
0.56 7.59 2.49
0.40 7.59 2.49
0.25 7.59 2.49
0.10 7.59 2.49
-0.05 7.59 2.49
-0.21 7.58 2.49
-0.36 7.57 2.49
-0.51 7.56 2.49
-0.66 7.54 2.49
-0.81 7.52 2.49
-0.96 7.50 2.49
-1.11 7.47 2.49
-1.26 7.45 2.49
-1.41 7.41 2.49
-1.55 7.38 2.49
-1.70 7.34 2.49
-1.85 7.30 2.49
-1.99 7.26 2.49
-2.14 7.21 2.49
-2.28 7.16 2.49
-2.42 7.11 2.49
-2.56 7.06 2.49
-2.70 7.00 2.49
-2.84 6.94 2.49
-2.98 6.88 2.49
-3.11 6.81 2.49
-3.25 6.74 2.49
-3.38 6.67 2.49
-3.51 6.60 2.49
-3.64 6.52 2.49
-3.77 6.45 2.49
-3.89 6.37 2.49
-4.02 6.28 2.49
-4.14 6.20 2.49
-4.26 6.11 2.49
-4.38 6.02 2.49
-4.50 5.92 2.49
-4.61 5.83 2.49
-4.73 5.73 2.49
-4.84 5.63 2.49
-4.95 5.53 2.49
-5.05 5.43 2.49
-5.16 5.32 2.49
-5.26 5.21 2.49
-5.36 5.10 2.49
-5.46 4.99 2.49
-5.56 4.88 2.49
-5.65 4.76 2.49
-5.74 4.65 2.49
-5.83 4.53 2.49
-5.83 4.34 2.46
-5.84 4.17 2.42
-5.85 4.00 2.40
-5.91 3.87 2.39
-5.98 3.75 2.39
-6.05 3.62 2.39
-6.12 3.50 2.39
-6.19 3.37 2.39
-6.25 3.25 2.39
-6.31 3.12 2.39
-6.37 2.99 2.39
-6.43 2.86 2.39
-6.48 2.73 2.39
-6.53 2.60 2.39
-6.58 2.46 2.39
-6.62 2.33 2.39
-6.67 2.20 2.39
-6.71 2.06 2.39
-6.74 1.92 2.39
-6.78 1.79 2.39
-6.81 1.65 2.39
-6.84 1.51 2.39
-6.87 1.37 2.39
-6.89 1.24 2.39
-6.91 1.10 2.39
-6.93 0.96 2.39
-6.95 0.82 2.39
-6.96 0.68 2.39
-6.97 0.54 2.39
-6.98 0.40 2.39
-6.98 0.25 2.39
-6.98 0.11 2.39
-6.98 -0.03 2.39
-6.98 -0.17 2.39
-6.97 -0.31 2.39
-6.96 -0.45 2.39
-6.95 -0.59 2.39
-6.94 -0.73 2.39
-6.92 -0.87 2.39
-6.90 -1.01 2.39
-6.88 -1.14 2.39
-6.85 -1.28 2.39
-6.83 -1.42 2.39
-6.79 -1.56 2.39
-6.76 -1.69 2.39
-6.73 -1.83 2.39
-6.69 -1.96 2.39
-6.65 -2.10 2.39
-6.60 -2.23 2.39
-6.56 -2.36 2.39
-6.51 -2.50 2.39
-6.45 -2.63 2.39
-6.40 -2.76 2.39
-6.34 -2.88 2.39
-6.28 -3.01 2.39
-6.22 -3.14 2.39
-6.16 -3.26 2.39
-6.11 -3.39 2.40
-6.02 -3.51 2.39
-5.95 -3.63 2.39
-5.91 -3.77 2.40
-5.90 -3.93 2.43
-5.90 -4.11 2.46
-5.89 -4.28 2.49
-5.80 -4.39 2.49
-5.71 -4.51 2.49
-5.62 -4.63 2.49
-5.53 -4.74 2.49
-5.43 -4.85 2.49
-5.34 -4.96 2.49
-5.24 -5.07 2.49
-5.13 -5.17 2.49
-5.03 -5.28 2.49
-4.92 -5.38 2.49
-4.82 -5.48 2.49
-4.71 -5.57 2.49
-4.59 -5.67 2.49
-4.48 -5.76 2.49
-4.37 -5.85 2.49
-4.25 -5.94 2.49
-4.13 -6.03 2.49
-4.01 -6.11 2.49
-3.89 -6.19 2.49
-3.76 -6.27 2.49
-3.64 -6.35 2.49
-3.51 -6.43 2.49
-3.38 -6.50 2.49
-3.25 -6.57 2.49
-3.12 -6.63 2.49
-2.99 -6.70 2.49
-2.85 -6.76 2.49
-2.72 -6.82 2.49
-2.58 -6.88 2.49
-2.44 -6.93 2.49
-2.30 -6.98 2.49
-2.16 -7.03 2.49
-2.02 -7.07 2.49
-1.88 -7.12 2.49
-1.74 -7.16 2.49
-1.60 -7.19 2.49
-1.45 -7.23 2.49
-1.31 -7.26 2.49
-1.16 -7.29 2.49
-1.01 -7.31 2.49
-0.87 -7.34 2.49
-0.72 -7.36 2.49
-0.57 -7.37 2.49
-0.42 -7.39 2.49
-0.28 -7.40 2.49
-0.13 -7.41 2.49
0.02 -6.90 2.49
0.16 -6.90 2.49
0.30 -6.90 2.49
0.44 -6.89 2.49
0.58 -6.89 2.49
0.72 -6.88 2.49
0.85 -6.87 2.49
0.99 -6.85 2.49
1.13 -6.83 2.49
1.27 -6.81 2.49
1.41 -6.79 2.49
1.54 -6.77 2.49
1.68 -6.74 2.49
1.82 -6.71 2.49
1.95 -6.67 2.49
2.09 -6.64 2.49
2.14 -6.35 2.40
2.26 -6.28 2.39
2.38 -6.24 2.39
2.49 -6.14 2.37
2.50 -5.84 2.27
2.62 -5.79 2.27
2.84 -5.95 2.35
2.96 -5.89 2.35
3.07 -5.82 2.35
3.09 -5.58 2.27
3.19 -5.51 2.27
3.48 -5.74 2.39
3.60 -5.67 2.39
3.72 -5.60 2.39
3.83 -5.53 2.39
3.94 -5.46 2.39
4.05 -5.38 2.39
4.16 -5.30 2.39
4.27 -5.22 2.39
4.38 -5.14 2.39
4.48 -5.05 2.39
4.58 -4.96 2.39
4.69 -4.87 2.39
4.79 -4.78 2.39
4.88 -4.69 2.39
4.98 -4.59 2.39
5.07 -4.49 2.39
5.16 -4.39 2.39
5.25 -4.29 2.39
5.34 -4.18 2.39
5.43 -4.08 2.39
5.51 -3.97 2.39
5.59 -3.86 2.39
5.67 -3.75 2.39
5.75 -3.64 2.39
5.82 -3.52 2.39
5.90 -3.41 2.39
5.97 -3.29 2.39
6.03 -3.17 2.39
6.10 -3.05 2.39
6.16 -2.93 2.39
7.27 -3.28 2.79
6.14 -2.62 2.34
12.63 -5.11 4.77
13.00 -4.95 4.87
13.38 -4.79 4.97
6.15 -2.07 2.27
6.15 -1.93 2.25
14.84 -4.33 5.40
15.34 -4.15 5.55
16.03 -3.99 5.76
16.82 -3.83 6.02
17.68 -3.66 6.30
18.74 -3.48 6.64
19.99 -3.31 7.06
6.16 -0.89 2.17
23.11 -2.88 8.11
6.15 -0.64 2.15
26.95 -2.26 9.41
29.75 -1.90 10.37
6.16 -0.27 2.15
24.36 -0.58 8.47
24.03 -0.09 8.35
24.13 0.39 8.39
30.02 1.09 10.44
30.15 1.70 10.49
15.60 1.19 5.43
15.42 1.49 5.38
15.33 1.79 5.36
15.27 2.09 5.35
16.31 2.57 5.73
6.17 1.10 2.18
20.54 4.09 7.27
6.17 1.36 2.19
6.18 1.49 2.21
36.49 9.57 13.09
36.23 10.28 13.07
35.88 10.96 13.02
6.18 2.02 2.26
6.18 2.16 2.27
34.71 12.92 12.85
34.36 13.58 12.82
34.03 14.24 12.80
33.63 14.88 12.76
33.19 15.48 12.70
6.18 3.04 2.39
6.12 3.16 2.39
6.06 3.28 2.39
5.99 3.40 2.39
5.92 3.52 2.39
5.85 3.64 2.39
5.77 3.75 2.39
5.70 3.87 2.39
5.62 3.98 2.39
5.54 4.09 2.39
5.45 4.20 2.39
5.37 4.31 2.39
5.28 4.41 2.39
5.19 4.52 2.39
5.09 4.62 2.39
5.00 4.72 2.39
4.90 4.82 2.39
4.80 4.91 2.39
4.70 5.01 2.39
4.60 5.10 2.39
2.52 2.90 1.34
2.45 2.95 1.33
4.28 5.36 2.39
4.17 5.44 2.39
4.06 5.53 2.39
3.95 5.60 2.39
3.84 5.68 2.39
3.72 5.75 2.39
3.60 5.82 2.39
3.49 5.89 2.39
3.19 5.66 2.27
3.17 5.89 2.34
3.07 5.98 2.35
2.95 6.04 2.35
2.83 6.10 2.35
2.61 5.94 2.27
2.59 6.22 2.36
2.49 6.35 2.39
2.36 6.40 2.39
2.24 6.46 2.40
2.19 6.76 2.49
2.06 6.80 2.49
1.92 6.84 2.49
1.78 6.87 2.49
1.64 6.90 2.49
1.50 6.93 2.49
1.36 6.96 2.49
1.22 6.98 2.49
1.08 7.00 2.49
0.94 7.01 2.49
0.80 7.03 2.49
0.66 7.04 2.49
0.52 7.05 2.49
0.38 7.05 2.49
0.23 7.05 2.49
0.09 7.05 2.49
-0.05 7.05 2.49
-0.19 7.04 2.49
-0.33 7.03 2.49
-0.47 7.02 2.49
-0.61 7.01 2.49
-0.75 6.99 2.49
-0.89 6.97 2.49
-1.03 6.95 2.49
-1.17 6.92 2.49
-1.31 6.89 2.49
-1.44 6.86 2.49
-1.58 6.82 2.49
-1.72 6.79 2.49
-1.85 6.75 2.49
-1.98 6.70 2.49
-2.12 6.66 2.49
-2.25 6.61 2.49
-2.38 6.56 2.49
-2.51 6.51 2.49
-2.64 6.45 2.49
-2.76 6.39 2.49
-2.89 6.33 2.49
-3.02 6.27 2.49
-3.14 6.21 2.49
-3.26 6.14 2.49
-3.38 6.07 2.49
-3.50 5.99 2.49
-3.62 5.92 2.49
-3.73 5.84 2.49
-3.85 5.76 2.49
-3.96 5.68 2.49
-4.07 5.60 2.49
-4.18 5.51 2.49
-4.29 5.42 2.49
-4.39 5.33 2.49
-4.50 5.24 2.49
-4.60 5.15 2.49
-4.70 5.05 2.49
-4.80 4.95 2.49
-4.89 4.85 2.49
-4.99 4.75 2.49
-5.08 4.65 2.49
-5.17 4.54 2.49
-5.26 4.43 2.49
-5.34 4.32 2.49
-5.42 4.21 2.49
-5.50 4.10 2.49
-5.58 3.99 2.49
-5.66 3.87 2.49
-5.73 3.76 2.49
-5.81 3.64 2.49
-5.84 3.50 2.48
-5.84 3.34 2.45
-5.84 3.19 2.43
-5.85 3.04 2.40
-5.87 2.90 2.39
-5.93 2.78 2.39
-5.98 2.66 2.39
-6.03 2.54 2.39
-6.08 2.42 2.39
-6.12 2.30 2.39
-6.16 2.17 2.39
-6.20 2.05 2.39
-6.24 1.92 2.39
-6.28 1.79 2.39
-6.31 1.67 2.39
-6.34 1.54 2.39
-6.37 1.41 2.39
-6.39 1.28 2.39
-6.42 1.15 2.39
-6.43 1.02 2.39
-6.45 0.89 2.39
-6.47 0.76 2.39
-6.48 0.63 2.39
-6.49 0.50 2.39
-6.50 0.37 2.39
-6.50 0.24 2.39
-6.50 0.11 2.39
-6.50 -0.02 2.39
-6.50 -0.16 2.39
-6.49 -0.29 2.39
-6.48 -0.42 2.39
-6.47 -0.55 2.39
-6.46 -0.68 2.39
-6.44 -0.81 2.39
-6.43 -0.94 2.39
-6.40 -1.07 2.39
-6.38 -1.19 2.39
-6.36 -1.32 2.39
-6.33 -1.45 2.39
-6.30 -1.58 2.39
-6.26 -1.70 2.39
-6.23 -1.83 2.39
-6.19 -1.95 2.39
-6.15 -2.08 2.39
-6.10 -2.20 2.39
-6.06 -2.32 2.39
-6.01 -2.45 2.39
-5.96 -2.57 2.39
-5.91 -2.69 2.39
-5.90 -2.83 2.41
-5.89 -2.97 2.43
-5.89 -3.12 2.46
-5.89 -3.28 2.48
-5.85 -3.41 2.49
-5.78 -3.53 2.49
-5.71 -3.64 2.49
-5.64 -3.76 2.49
-5.56 -3.87 2.49
-5.48 -3.98 2.49
-5.40 -4.09 2.49
-5.32 -4.20 2.49
-5.23 -4.31 2.49
-5.15 -4.41 2.49
-5.06 -4.52 2.49
-4.97 -4.62 2.49
-4.87 -4.72 2.49
-4.78 -4.82 2.49
-4.68 -4.91 2.49
-4.58 -5.01 2.49
-4.48 -5.10 2.49
-4.38 -5.19 2.49
-4.28 -5.28 2.49
-4.17 -5.37 2.49
-4.06 -5.45 2.49
-3.95 -5.53 2.49
-3.84 -5.61 2.49
-3.73 -5.69 2.49
-3.62 -5.77 2.49
-3.50 -5.84 2.49
-3.38 -5.91 2.49
-3.26 -5.98 2.49
-3.15 -6.05 2.49
-3.02 -6.11 2.49
-2.90 -6.17 2.49
-2.78 -6.23 2.49
-2.65 -6.29 2.49
-2.53 -6.35 2.49
-2.40 -6.40 2.49
-2.27 -6.45 2.49
-2.14 -6.50 2.49
-2.01 -6.54 2.49
-1.88 -6.58 2.49
-1.75 -6.62 2.49
-1.62 -6.66 2.49
-1.48 -6.69 2.49
-1.35 -6.73 2.49
-1.21 -6.75 2.49
-1.08 -6.78 2.49
-0.94 -6.80 2.49
-0.81 -6.83 2.49
-0.67 -6.84 2.49
-0.53 -6.86 2.49
-0.39 -6.87 2.49
-0.26 -6.88 2.49
-0.12 -6.89 2.49
0.02 -6.44 2.49
0.15 -6.44 2.49
0.28 -6.44 2.49
0.41 -6.44 2.49
0.54 -6.43 2.49
0.67 -6.42 2.49
0.80 -6.41 2.49
0.93 -6.40 2.49
1.06 -6.38 2.49
1.19 -6.36 2.49
1.31 -6.34 2.49
1.44 -6.31 2.49
1.57 -6.29 2.49
1.70 -6.26 2.49
1.82 -6.23 2.49
1.95 -6.19 2.49
2.07 -6.16 2.49
2.13 -5.94 2.42
2.23 -5.82 2.39
2.34 -5.78 2.39
2.46 -5.74 2.39
2.49 -5.50 2.31
2.55 -5.35 2.27
2.76 -5.50 2.35
2.87 -5.44 2.35
2.98 -5.39 2.35
3.08 -5.31 2.34
3.09 -5.09 2.27
3.19 -5.02 2.27
3.47 -5.23 2.39
3.57 -5.16 2.39
3.68 -5.09 2.39
3.78 -5.02 2.39
3.88 -4.94 2.39
3.98 -4.87 2.39
4.08 -4.79 2.39
4.18 -4.71 2.39
4.28 -4.63 2.39
4.37 -4.54 2.39
4.46 -4.46 2.39
4.55 -4.37 2.39
4.64 -4.28 2.39
4.73 -4.19 2.39
4.82 -4.09 2.39
4.90 -4.00 2.39
4.98 -3.90 2.39
5.06 -3.80 2.39
5.14 -3.70 2.39
5.21 -3.60 2.39
5.29 -3.50 2.39
5.36 -3.39 2.39
5.43 -3.29 2.39
5.50 -3.18 2.39
5.56 -3.07 2.39
5.62 -2.96 2.39
5.68 -2.85 2.39
5.74 -2.73 2.39
5.80 -2.62 2.39
5.85 -2.50 2.39
5.90 -2.39 2.39
5.95 -2.27 2.39
6.00 -2.15 2.39
6.04 -2.03 2.39
6.09 -1.91 2.39
6.12 -1.79 2.39
6.16 -1.66 2.39
7.23 -1.80 2.79
7.30 -1.66 2.80
7.36 -1.52 2.81
14.77 -2.75 5.62
15.22 -2.52 5.77
15.76 -2.28 5.95
16.42 -2.04 6.18
6.15 -0.64 2.31
17.91 -1.50 6.71
18.93 -1.21 7.08
20.21 -0.88 7.55
21.59 -0.51 8.06
23.19 -0.09 8.65
24.00 0.39 8.95
26.55 0.97 9.91
15.73 0.89 5.87
15.48 1.18 5.79
14.97 1.45 5.61
14.99 1.75 5.63
14.86 2.04 5.59
14.81 2.33 5.59
15.38 2.74 5.82
33.40 6.64 12.69
6.17 1.36 2.35
33.13 7.98 12.69
6.21 1.63 2.39
6.18 1.75 2.39
6.14 1.87 2.39
6.10 2.00 2.39
6.06 2.12 2.39
6.02 2.24 2.39
5.97 2.36 2.39
5.92 2.48 2.39
5.87 2.60 2.39
5.82 2.71 2.39
5.76 2.83 2.39
5.70 2.94 2.39
5.64 3.06 2.39
5.58 3.17 2.39
5.52 3.28 2.39
5.45 3.39 2.39
5.38 3.50 2.39
5.31 3.60 2.39
5.23 3.71 2.39
5.16 3.81 2.39
5.08 3.91 2.39
5.00 4.01 2.39
4.92 4.11 2.39
4.83 4.21 2.39
4.75 4.30 2.39
4.66 4.40 2.39
4.57 4.49 2.39
4.48 4.58 2.39
4.38 4.67 2.39
4.29 4.75 2.39
2.52 2.90 1.44
2.45 2.95 1.43
3.99 5.00 2.39
3.89 5.07 2.39
3.79 5.15 2.39
3.68 5.22 2.39
3.58 5.29 2.39
3.47 5.36 2.39
3.24 5.24 2.31
3.10 5.24 2.28
2.98 5.27 2.27
2.87 5.33 2.27
2.76 5.38 2.27
2.65 5.43 2.27
2.58 5.57 2.30
2.56 5.83 2.39
2.44 5.88 2.39
2.32 5.92 2.39
2.23 6.04 2.42
2.17 6.26 2.49
2.05 6.30 2.49
1.92 6.34 2.49
1.79 6.37 2.49
1.66 6.41 2.49
1.53 6.43 2.49
1.40 6.46 2.49
1.27 6.48 2.49
1.14 6.51 2.49
1.01 6.52 2.49
0.88 6.54 2.49
0.75 6.55 2.49
0.62 6.56 2.49
0.48 6.57 2.49
0.35 6.58 2.49
0.22 6.58 2.49
0.09 6.58 2.49
-0.04 6.57 2.49
-0.18 6.57 2.49
-0.31 6.56 2.49
-0.44 6.55 2.49
-0.57 6.54 2.49
-0.70 6.52 2.49
-0.83 6.50 2.49
-0.96 6.48 2.49
-1.09 6.45 2.49
-1.22 6.43 2.49
-1.34 6.40 2.49
-1.47 6.37 2.49
-1.60 6.33 2.49
-1.72 6.30 2.49
-1.85 6.26 2.49
-1.97 6.21 2.49
-2.10 6.17 2.49
-2.22 6.12 2.49
-2.34 6.07 2.49
-2.46 6.02 2.49
-2.58 5.97 2.49
-2.70 5.91 2.49
-2.81 5.85 2.49
-2.93 5.79 2.49
-3.04 5.73 2.49
-3.15 5.66 2.49
-3.27 5.60 2.49
-3.38 5.53 2.49
-3.48 5.45 2.49
-3.59 5.38 2.49
-3.70 5.30 2.49
-3.80 5.23 2.49
-3.90 5.15 2.49
-4.00 5.06 2.49
-4.10 4.98 2.49
-4.20 4.89 2.49
-4.29 4.80 2.49
-4.39 4.72 2.49
-4.48 4.62 2.49
-4.57 4.53 2.49
-4.66 4.44 2.49
-4.74 4.34 2.49
-4.83 4.24 2.49
-4.91 4.14 2.49
-4.99 4.04 2.49
-5.06 3.94 2.49
-5.14 3.83 2.49
-5.21 3.73 2.49
-5.29 3.62 2.49
-5.35 3.51 2.49
-5.42 3.40 2.49
-5.49 3.29 2.49
-5.55 3.18 2.49
-5.61 3.06 2.49
-5.67 2.95 2.49
-5.72 2.83 2.49
-5.78 2.71 2.49
-5.83 2.60 2.49
-5.85 2.47 2.48
-5.85 2.33 2.46
-5.85 2.19 2.44
-5.85 2.06 2.43
-5.86 1.93 2.42
-5.86 1.80 2.40
-5.87 1.68 2.39
-5.90 1.56 2.39
-5.92 1.44 2.39
-5.95 1.32 2.39
-5.97 1.20 2.39
-5.99 1.08 2.39
-6.01 0.95 2.39
-6.03 0.83 2.39
-6.04 0.71 2.39
-6.07 0.59 2.40
-6.08 0.47 2.40
-6.08 0.35 2.39
-6.08 0.22 2.39
-6.08 0.10 2.39
-6.08 -0.02 2.39
-6.08 -0.14 2.39
-6.08 -0.27 2.40
-6.08 -0.39 2.40
-6.05 -0.51 2.39
-6.04 -0.63 2.39
-6.02 -0.75 2.39
-6.01 -0.87 2.39
-5.99 -1.00 2.39
-5.96 -1.12 2.39
-5.94 -1.24 2.39
-5.91 -1.35 2.39
-5.89 -1.48 2.39
-5.89 -1.60 2.41
-5.89 -1.73 2.42
-5.88 -1.86 2.43
-5.88 -1.99 2.45
-5.88 -2.12 2.47
-5.89 -2.26 2.48
-5.86 -2.38 2.49
-5.81 -2.50 2.49
-5.76 -2.62 2.49
-5.70 -2.73 2.49
-5.65 -2.85 2.49
-5.59 -2.96 2.49
-5.53 -3.07 2.49
-5.47 -3.18 2.49
-5.40 -3.29 2.49
-5.34 -3.40 2.49
-5.27 -3.51 2.49
-5.20 -3.62 2.49
-5.12 -3.72 2.49
-5.05 -3.82 2.49
-4.97 -3.93 2.49
-4.89 -4.03 2.49
-4.81 -4.12 2.49
-4.73 -4.22 2.49
-4.64 -4.32 2.49
-4.55 -4.41 2.49
-4.47 -4.50 2.49
-4.37 -4.59 2.49
-4.28 -4.68 2.49
-4.19 -4.77 2.49
-4.09 -4.85 2.49
-4.00 -4.93 2.49
-3.90 -5.01 2.49
-3.80 -5.09 2.49
-3.69 -5.17 2.49
-3.59 -5.24 2.49
-3.48 -5.32 2.49
-3.38 -5.39 2.49
-3.27 -5.46 2.49
-3.16 -5.52 2.49
-3.05 -5.59 2.49
-2.94 -5.65 2.49
-2.82 -5.71 2.49
-2.71 -5.77 2.49
-2.59 -5.82 2.49
-2.48 -5.88 2.49
-2.36 -5.93 2.49
-2.24 -5.98 2.49
-2.12 -6.02 2.49
-2.00 -6.07 2.49
-1.88 -6.11 2.49
-1.76 -6.15 2.49
-1.63 -6.19 2.49
-1.51 -6.22 2.49
-1.38 -6.25 2.49
-1.26 -6.28 2.49
-1.13 -6.31 2.49
-1.01 -6.33 2.49
-0.88 -6.36 2.49
-0.75 -6.37 2.49
-0.62 -6.39 2.49
-0.49 -6.41 2.49
-0.37 -6.42 2.49
-0.24 -6.43 2.49
-0.11 -6.43 2.49
0.02 -6.03 2.49
0.14 -6.03 2.49
0.26 -6.03 2.49
0.39 -6.03 2.49
0.51 -6.02 2.49
0.63 -6.01 2.49
0.75 -6.00 2.49
0.87 -5.99 2.49
0.99 -5.97 2.49
1.11 -5.96 2.49
1.23 -5.94 2.49
1.35 -5.91 2.49
1.47 -5.89 2.49
1.59 -5.86 2.49
1.71 -5.83 2.49
1.83 -5.80 2.49
1.94 -5.76 2.49
2.06 -5.73 2.49
2.13 -5.58 2.45
2.20 -5.41 2.39
2.32 -5.41 2.41
2.41 -5.33 2.39
2.49 -5.22 2.36
2.50 -4.98 2.27
2.59 -4.92 2.27
2.69 -4.87 2.27
2.79 -4.81 2.27
2.89 -4.76 2.27
2.99 -4.71 2.27
3.11 -4.69 2.29
3.35 -4.83 2.39
3.44 -4.76 2.39
3.54 -4.70 2.39
3.64 -4.63 2.39
3.73 -4.56 2.39
3.82 -4.48 2.39
3.91 -4.41 2.39
4.00 -4.33 2.39
4.09 -4.25 2.39
4.18 -4.17 2.39
4.26 -4.09 2.39
4.35 -4.00 2.39
4.43 -3.92 2.39
4.51 -3.83 2.39
4.59 -3.74 2.39
4.66 -3.65 2.39
4.74 -3.56 2.39
4.81 -3.46 2.39
4.88 -3.37 2.39
4.95 -3.27 2.39
5.02 -3.17 2.39
5.08 -3.07 2.39
5.14 -2.97 2.39
5.20 -2.87 2.39
5.26 -2.77 2.39
5.32 -2.66 2.39
5.37 -2.55 2.39
5.43 -2.45 2.39
5.48 -2.34 2.39
5.52 -2.23 2.39
5.57 -2.12 2.39
5.61 -2.01 2.39
5.65 -1.90 2.39
5.69 -1.78 2.39
5.73 -1.67 2.39
5.76 -1.56 2.39
5.80 -1.44 2.39
5.82 -1.32 2.39
5.85 -1.21 2.39
5.88 -1.09 2.39
5.90 -0.97 2.39
5.92 -0.86 2.39
5.94 -0.74 2.39
5.95 -0.62 2.39
5.96 -0.50 2.39
5.97 -0.38 2.39
5.98 -0.26 2.39
5.99 -0.14 2.39
5.99 -0.02 2.39
5.99 0.10 2.39
5.99 0.22 2.39
5.98 0.34 2.39
5.98 0.46 2.39
5.97 0.58 2.39
5.96 0.70 2.39
5.94 0.82 2.39
5.93 0.93 2.39
5.91 1.05 2.39
5.88 1.17 2.39
5.86 1.29 2.39
5.83 1.41 2.39
5.81 1.52 2.39
5.77 1.64 2.39
5.74 1.75 2.39
5.70 1.87 2.39
5.67 1.98 2.39
5.63 2.09 2.39
5.58 2.21 2.39
5.54 2.32 2.39
5.49 2.43 2.39
5.44 2.54 2.39
5.39 2.65 2.39
5.33 2.75 2.39
5.28 2.86 2.39
5.22 2.96 2.39
5.16 3.07 2.39
5.10 3.17 2.39
5.03 3.27 2.39
4.96 3.37 2.39
4.89 3.47 2.39
4.82 3.56 2.39
4.75 3.66 2.39
4.68 3.75 2.39
4.60 3.85 2.39
4.52 3.94 2.39
4.44 4.02 2.39
4.36 4.11 2.39
4.27 4.20 2.39
4.19 4.28 2.39
4.10 4.36 2.39
4.01 4.44 2.39
2.52 2.90 1.53
2.45 2.94 1.53
3.73 4.67 2.39
3.64 4.74 2.39
3.54 4.81 2.39
3.44 4.88 2.39
3.35 4.95 2.39
3.24 5.01 2.39
3.14 5.08 2.39
3.04 5.14 2.39
2.94 5.19 2.39
2.83 5.25 2.39
2.69 5.25 2.36
2.58 5.28 2.36
2.51 5.40 2.39
2.41 5.49 2.41
2.29 5.50 2.39
2.23 5.67 2.45
2.15 5.82 2.49
2.03 5.86 2.49
1.92 5.90 2.49
1.80 5.93 2.49
1.68 5.96 2.49
1.56 5.99 2.49
1.44 6.02 2.49
1.31 6.05 2.49
1.19 6.07 2.49
1.07 6.09 2.49
0.95 6.10 2.49
0.82 6.12 2.49
0.70 6.13 2.49
0.58 6.14 2.49
0.45 6.15 2.49
0.33 6.15 2.49
0.21 6.16 2.49
0.08 6.16 2.49
-0.04 6.15 2.49
-0.16 6.15 2.49
-0.29 6.14 2.49
-0.41 6.13 2.49
-0.53 6.12 2.49
-0.65 6.10 2.49
-0.78 6.08 2.49
-0.90 6.06 2.49
-1.02 6.04 2.49
-1.14 6.02 2.49
-1.26 5.99 2.49
-1.38 5.96 2.49
-1.50 5.93 2.49
-1.61 5.89 2.49
-1.73 5.86 2.49
-1.85 5.82 2.49
-1.96 5.78 2.49
-2.08 5.73 2.49
-2.19 5.69 2.49
-2.30 5.64 2.49
-2.41 5.59 2.49
-2.52 5.54 2.49
-2.63 5.48 2.49
-2.74 5.42 2.49
-2.85 5.37 2.49
-2.95 5.30 2.49
-3.06 5.24 2.49
-3.16 5.18 2.49
-3.26 5.11 2.49
-3.36 5.04 2.49
-3.46 4.97 2.49
-3.56 4.90 2.49
-3.65 4.82 2.49
-3.75 4.74 2.49
-3.84 4.66 2.49
-3.93 4.58 2.49
-4.02 4.50 2.49
-4.11 4.42 2.49
-4.19 4.33 2.49
-4.28 4.25 2.49
-4.36 4.16 2.49
-4.44 4.07 2.49
-4.52 3.97 2.49
-4.60 3.88 2.49
-4.67 3.79 2.49
-4.74 3.69 2.49
-4.82 3.59 2.49
-4.88 3.49 2.49
-4.95 3.39 2.49
-5.02 3.29 2.49
-5.08 3.19 2.49
-5.14 3.08 2.49
-5.20 2.98 2.49
-5.26 2.87 2.49
-5.31 2.76 2.49
-5.36 2.65 2.49
-5.41 2.54 2.49
-5.46 2.43 2.49
-5.51 2.32 2.49
-5.55 2.21 2.49
-5.59 2.10 2.49
-5.63 1.98 2.49
-5.67 1.87 2.49
-5.70 1.75 2.49
-5.73 1.64 2.49
-5.76 1.52 2.49
-5.79 1.41 2.49
-5.82 1.29 2.49
-5.84 1.17 2.49
-5.86 1.05 2.49
-5.86 0.93 2.49
-5.86 0.81 2.48
-5.86 0.69 2.47
-5.86 0.57 2.47
-5.86 0.45 2.47
-5.86 0.33 2.46
-5.87 0.22 2.46
-5.87 0.10 2.46
-5.87 -0.02 2.46
-5.87 -0.14 2.46
-5.87 -0.26 2.47
-5.87 -0.38 2.47
-5.87 -0.50 2.47
-5.87 -0.61 2.48
-5.87 -0.73 2.49
-5.87 -0.86 2.49
-5.85 -0.97 2.49
-5.83 -1.09 2.49
-5.81 -1.21 2.49
-5.78 -1.32 2.49
-5.75 -1.44 2.49
-5.72 -1.56 2.49
-5.69 -1.67 2.49
-5.66 -1.79 2.49
-5.62 -1.90 2.49
-5.58 -2.01 2.49
-5.54 -2.12 2.49
-5.49 -2.24 2.49
-5.45 -2.35 2.49
-5.40 -2.45 2.49
-5.35 -2.56 2.49
-5.30 -2.67 2.49
-5.24 -2.78 2.49
-5.18 -2.88 2.49
-5.13 -2.99 2.49
-5.07 -3.09 2.49
-5.00 -3.19 2.49
-4.94 -3.29 2.49
-4.87 -3.39 2.49
-4.80 -3.49 2.49
-4.73 -3.59 2.49
-4.66 -3.68 2.49
-4.58 -3.77 2.49
-4.51 -3.87 2.49
-4.43 -3.96 2.49
-4.35 -4.05 2.49
-4.27 -4.13 2.49
-4.19 -4.22 2.49
-4.10 -4.30 2.49
-4.01 -4.39 2.49
-3.93 -4.47 2.49
-3.84 -4.55 2.49
-3.74 -4.62 2.49
-3.65 -4.70 2.49
-3.56 -4.77 2.49
-3.46 -4.85 2.49
-3.36 -4.92 2.49
-3.27 -4.98 2.49
-3.17 -5.05 2.49
-3.06 -5.12 2.49
-2.96 -5.18 2.49
-2.86 -5.24 2.49
-2.75 -5.30 2.49
-2.65 -5.35 2.49
-2.54 -5.41 2.49
-2.43 -5.46 2.49
-2.32 -5.51 2.49
-2.21 -5.56 2.49
-2.10 -5.60 2.49
-1.99 -5.65 2.49
-1.87 -5.69 2.49
-1.76 -5.73 2.49
-1.64 -5.76 2.49
-1.53 -5.80 2.49
-1.41 -5.83 2.49
-1.30 -5.86 2.49
-1.18 -5.89 2.49
-1.06 -5.91 2.49
-0.94 -5.93 2.49
-0.82 -5.95 2.49
-0.70 -5.97 2.49
-0.58 -5.99 2.49
-0.46 -6.00 2.49
-0.34 -6.01 2.49
-0.22 -6.02 2.49
-0.10 -6.03 2.49
0.02 -5.67 2.49
0.14 -5.67 2.49
0.25 -5.67 2.49
0.36 -5.66 2.49
0.48 -5.66 2.49
0.59 -5.65 2.49
0.71 -5.64 2.49
0.82 -5.63 2.49
0.93 -5.61 2.49
1.05 -5.60 2.49
1.16 -5.58 2.49
1.27 -5.55 2.49
1.38 -5.53 2.49
1.49 -5.50 2.49
1.61 -5.48 2.49
1.72 -5.45 2.49
1.83 -5.41 2.49
1.94 -5.38 2.49
2.04 -5.34 2.49
2.14 -5.26 2.47
2.17 -5.04 2.39
2.27 -5.00 2.39
2.37 -4.96 2.39
2.47 -4.91 2.39
2.50 -4.73 2.32
2.60 -4.69 2.33
2.72 -4.69 2.35
2.85 -4.69 2.38
2.96 -4.65 2.39
3.05 -4.59 2.39
3.14 -4.53 2.39
3.24 -4.47 2.39
3.33 -4.41 2.39
3.42 -4.34 2.39
3.50 -4.28 2.39
3.59 -4.21 2.39
3.68 -4.14 2.39
3.76 -4.06 2.39
3.84 -3.99 2.39
3.92 -3.91 2.39
4.00 -3.84 2.39
4.08 -3.76 2.39
4.16 -3.68 2.39
4.23 -3.59 2.39
4.31 -3.51 2.39
4.38 -3.42 2.39
4.45 -3.34 2.39
4.51 -3.25 2.39
4.58 -3.16 2.39
4.64 -3.07 2.39
4.71 -2.98 2.39
4.77 -2.88 2.39
4.83 -2.79 2.39
4.88 -2.69 2.39
4.94 -2.59 2.39
4.99 -2.50 2.39
5.04 -2.40 2.39
5.09 -2.30 2.39
5.14 -2.19 2.39
5.18 -2.09 2.39
5.23 -1.99 2.39
5.27 -1.88 2.39
5.30 -1.78 2.39
5.34 -1.67 2.39
5.38 -1.57 2.39
5.41 -1.46 2.39
5.44 -1.35 2.39
5.46 -1.24 2.39
5.49 -1.13 2.39
5.51 -1.02 2.39
5.53 -0.91 2.39
5.55 -0.80 2.39
5.57 -0.69 2.39
5.58 -0.58 2.39
5.60 -0.47 2.39
5.60 -0.36 2.39
5.61 -0.24 2.39
5.62 -0.13 2.39
5.62 -0.02 2.39
5.62 0.09 2.39
5.62 0.21 2.39
5.61 0.32 2.39
5.61 0.43 2.39
5.60 0.54 2.39
5.59 0.65 2.39
5.57 0.77 2.39
5.56 0.88 2.39
5.54 0.99 2.39
5.52 1.10 2.39
5.50 1.21 2.39
5.47 1.32 2.39
5.45 1.43 2.39
5.42 1.54 2.39
5.38 1.64 2.39
5.35 1.75 2.39
5.31 1.86 2.39
5.28 1.96 2.39
5.24 2.07 2.39
5.19 2.17 2.39
5.15 2.28 2.39
5.10 2.38 2.39
5.05 2.48 2.39
5.00 2.58 2.39
4.95 2.68 2.39
4.90 2.78 2.39
4.84 2.88 2.39
4.78 2.97 2.39
4.72 3.07 2.39
4.66 3.16 2.39
4.59 3.25 2.39
4.52 3.34 2.39
4.46 3.43 2.39
4.39 3.52 2.39
4.31 3.61 2.39
4.24 3.69 2.39
4.17 3.77 2.39
4.09 3.86 2.39
4.01 3.94 2.39
3.93 4.02 2.39
3.85 4.09 2.39
3.76 4.17 2.39
2.52 2.90 1.64
2.45 2.94 1.63
3.50 4.38 2.39
3.42 4.45 2.39
3.32 4.52 2.39
3.23 4.58 2.39
3.14 4.64 2.39
3.04 4.70 2.39
2.95 4.76 2.39
2.85 4.82 2.39
2.75 4.87 2.39
2.66 4.93 2.39
2.56 4.98 2.39
2.45 5.02 2.39
2.35 5.07 2.39
2.25 5.12 2.39
2.22 5.34 2.48
2.13 5.42 2.49
2.02 5.46 2.49
1.91 5.50 2.49
1.80 5.53 2.49
1.69 5.57 2.49
1.57 5.60 2.49
1.46 5.62 2.49
1.35 5.65 2.49
1.23 5.67 2.49
1.12 5.69 2.49
1.01 5.71 2.49
0.89 5.73 2.49
0.77 5.74 2.49
0.66 5.75 2.49
0.54 5.76 2.49
0.43 5.77 2.49
0.31 5.78 2.49
0.20 5.78 2.49
0.08 5.78 2.49
-0.04 5.78 2.49
-0.15 5.77 2.49
-0.27 5.76 2.49
-0.38 5.75 2.49
-0.50 5.74 2.49
-0.61 5.73 2.49
-0.73 5.71 2.49
-0.84 5.69 2.49
-0.95 5.67 2.49
-1.07 5.65 2.49
-1.18 5.62 2.49
-1.29 5.60 2.49
-1.40 5.57 2.49
-1.51 5.53 2.49
-1.62 5.50 2.49
-1.73 5.46 2.49
-1.84 5.43 2.49
-1.95 5.38 2.49
-2.05 5.34 2.49
-2.16 5.30 2.49
-2.27 5.25 2.49
-2.37 5.20 2.49
-2.47 5.15 2.49
-2.57 5.10 2.49
-2.67 5.04 2.49
-2.77 4.98 2.49
-2.87 4.92 2.49
-2.97 4.86 2.49
-3.06 4.80 2.49
-3.16 4.73 2.49
-3.25 4.67 2.49
-3.34 4.60 2.49
-3.43 4.53 2.49
-3.52 4.46 2.49
-3.61 4.38 2.49
-3.69 4.31 2.49
-3.78 4.23 2.49
-3.86 4.15 2.49
-3.94 4.07 2.49
-4.02 3.99 2.49
-4.10 3.91 2.49
-4.17 3.82 2.49
-4.25 3.73 2.49
-4.32 3.65 2.49
-4.39 3.56 2.49
-4.46 3.47 2.49
-4.52 3.38 2.49
-4.59 3.28 2.49
-4.65 3.19 2.49
-4.71 3.09 2.49
-4.77 3.00 2.49
-4.83 2.90 2.49
-4.89 2.80 2.49
-4.94 2.70 2.49
-4.99 2.60 2.49
-5.04 2.50 2.49
-5.09 2.39 2.49
-5.13 2.29 2.49
-5.18 2.18 2.49
-5.22 2.08 2.49
-5.26 1.97 2.49
-5.29 1.87 2.49
-5.33 1.76 2.49
-5.36 1.65 2.49
-5.39 1.54 2.49
-5.42 1.43 2.49
-5.44 1.32 2.49
-5.47 1.21 2.49
-5.49 1.10 2.49
-5.51 0.99 2.49
-5.53 0.88 2.49
-5.54 0.77 2.49
-5.55 0.66 2.49
-5.57 0.54 2.49
-5.57 0.43 2.49
-5.58 0.32 2.49
-5.58 0.21 2.49
-5.59 0.09 2.49
-5.59 -0.02 2.49
-5.58 -0.13 2.49
-5.58 -0.24 2.49
-5.57 -0.36 2.49
-5.56 -0.47 2.49
-5.55 -0.58 2.49
-5.54 -0.69 2.49
-5.52 -0.80 2.49
-5.50 -0.91 2.49
-5.48 -1.03 2.49
-5.46 -1.14 2.49
-5.44 -1.25 2.49
-5.41 -1.35 2.49
-5.38 -1.46 2.49
-5.35 -1.57 2.49
-5.32 -1.68 2.49
-5.28 -1.79 2.49
-5.25 -1.89 2.49
-5.21 -2.00 2.49
-5.16 -2.10 2.49
-5.12 -2.21 2.49
-5.08 -2.31 2.49
-5.03 -2.41 2.49
-4.98 -2.51 2.49
-4.93 -2.61 2.49
-4.87 -2.71 2.49
