ply
format ascii 1.0
element vertex 2983
property float32 x
property float32 y
property float32 z
end_header
1.90 -8.47 2.49
2.05 -8.35 2.47
2.14 -8.04 2.39
2.30 -7.99 2.39
2.46 -7.94 2.39
2.62 -7.89 2.39
2.78 -7.83 2.39
2.94 -7.78 2.39
3.09 -7.72 2.39
3.25 -7.65 2.39
3.40 -7.58 2.39
3.55 -7.51 2.39
3.70 -7.44 2.39
3.85 -7.36 2.39
4.00 -7.29 2.39
4.14 -7.20 2.39
4.29 -7.12 2.39
4.43 -7.03 2.39
4.57 -6.94 2.39
4.71 -6.85 2.39
4.50 -6.27 2.22
4.67 -6.24 2.24
5.11 -6.55 2.39
4.42 -5.44 2.02
4.42 -5.22 1.97
4.44 -5.03 1.93
4.62 -5.03 1.96
4.81 -5.03 2.00
5.86 -5.89 2.39
5.98 -5.77 2.39
6.06 -5.61 2.37
7.01 -6.24 2.70
7.09 -6.06 2.68
6.06 -4.97 2.25
7.22 -5.69 2.64
8.70 -6.57 3.13
9.39 -6.80 3.33
9.57 -6.65 3.35
9.76 -6.49 3.37
9.94 -6.32 3.38
6.05 -3.68 2.03
10.29 -5.98 3.42
10.46 -5.80 3.44
10.63 -5.62 3.45
10.80 -5.43 3.47
10.96 -5.24 3.49
11.13 -5.05 3.51
11.28 -4.85 3.52
11.53 -4.68 3.57
11.82 -4.53 3.63
12.11 -4.36 3.69
12.40 -4.19 3.75
12.70 -4.00 3.82
12.99 -3.81 3.88
6.06 -1.65 1.80
13.77 -3.45 4.07
14.34 -3.28 4.21
14.92 -3.10 4.36
15.84 -2.96 4.61
27.81 -4.62 8.07
27.95 -4.07 8.08
28.05 -3.51 8.09
28.10 -2.95 8.08
28.68 -2.43 8.23
29.45 -1.90 8.44
22.95 0.37 6.56
22.66 0.82 6.47
6.07 0.34 1.74
22.74 1.74 6.51
22.54 2.18 6.46
22.70 2.66 6.52
47.58 6.54 13.70
46.99 7.42 13.56
46.25 8.26 13.39
45.45 9.06 13.21
44.84 9.88 13.08
44.22 10.68 12.95
6.08 1.60 1.79
43.41 12.35 12.84
39.04 11.96 11.62
38.55 12.66 11.54
42.74 15.00 12.88
6.08 2.27 1.84
42.36 16.80 12.95
42.10 17.68 12.97
41.79 18.55 12.98
36.65 17.16 11.49
35.33 17.41 11.18
6.10 3.16 1.95
39.64 21.55 12.80
38.96 22.21 12.71
6.09 3.64 2.01
37.71 23.55 12.60
16.75 10.93 5.67
16.47 11.23 5.64
6.09 4.33 2.11
35.38 26.26 12.47
34.80 26.93 12.45
34.26 27.63 12.45
6.10 5.13 2.25
27.88 24.39 10.47
32.52 29.63 12.43
7.15 6.78 2.78
6.03 5.95 2.39
5.91 6.07 2.39
5.79 6.19 2.39
5.66 6.31 2.39
5.54 6.42 2.39
5.41 6.53 2.39
5.28 6.64 2.39
5.14 6.75 2.39
5.01 6.85 2.39
4.87 6.95 2.39
4.73 7.05 2.39
4.59 7.15 2.39
4.45 7.24 2.39
4.30 7.33 2.39
4.16 7.42 2.39
4.01 7.50 2.39
3.86 7.58 2.39
3.71 7.66 2.39
3.55 7.74 2.39
3.40 7.81 2.39
3.08 7.48 2.27
3.03 7.81 2.35
2.88 7.87 2.35
2.72 7.93 2.35
2.48 7.74 2.28
2.44 8.17 2.39
2.28 8.22 2.39
2.13 8.35 2.41
2.03 8.67 2.49
1.86 8.71 2.49
1.68 8.75 2.49
1.51 8.78 2.49
1.33 8.81 2.49
1.15 8.84 2.49
0.98 8.86 2.49
0.80 8.88 2.49
0.62 8.90 2.49
0.44 8.91 2.49
0.26 8.92 2.49
0.08 8.93 2.49
-0.10 8.93 2.49
-0.27 8.93 2.49
-0.45 8.92 2.49
-0.63 8.91 2.49
-0.81 8.90 2.49
-0.99 8.88 2.49
-1.17 8.86 2.49
-1.35 8.84 2.49
-1.52 8.81 2.49
-1.70 8.78 2.49
-1.87 8.74 2.49
-2.05 8.70 2.49
-2.22 8.66 2.49
-2.40 8.62 2.49
-2.57 8.57 2.49
-2.74 8.52 2.49
-2.91 8.46 2.49
-3.08 8.40 2.49
-3.25 8.34 2.49
-3.42 8.27 2.49
-3.58 8.20 2.49
-3.75 8.13 2.49
-3.91 8.05 2.49
-4.07 7.97 2.49
-4.23 7.89 2.49
-4.39 7.80 2.49
-4.54 7.72 2.49
-4.70 7.62 2.49
-4.85 7.53 2.49
-5.00 7.43 2.49
-5.15 7.33 2.49
-5.29 7.22 2.49
-5.44 7.11 2.49
-5.58 7.00 2.49
-5.72 6.89 2.49
-5.85 6.77 2.49
-5.93 6.59 2.47
-5.94 6.34 2.42
-5.99 6.14 2.39
-6.11 6.02 2.39
-6.23 5.90 2.39
-6.35 5.77 2.39
-6.46 5.64 2.39
-6.57 5.51 2.39
-6.68 5.38 2.39
-6.79 5.24 2.39
-6.89 5.11 2.39
-6.99 4.97 2.39
-7.09 4.82 2.39
-7.18 4.68 2.39
-7.27 4.53 2.39
-7.36 4.39 2.39
-7.45 4.24 2.39
-7.53 4.09 2.39
-7.61 3.94 2.39
-7.69 3.78 2.39
-7.76 3.63 2.39
-7.83 3.47 2.39
-7.89 3.31 2.39
-7.96 3.15 2.39
-8.02 2.99 2.39
-8.07 2.83 2.39
-8.13 2.67 2.39
-8.18 2.50 2.39
-8.23 2.34 2.39
-8.27 2.17 2.39
-8.31 2.00 2.39
-8.35 1.84 2.39
-8.38 1.67 2.39
-8.41 1.50 2.39
-8.44 1.33 2.39
-8.46 1.16 2.39
-8.48 0.99 2.39
-8.49 0.82 2.39
-8.51 0.65 2.39
-8.52 0.48 2.39
-8.52 0.31 2.39
-8.52 0.14 2.39
-8.52 -0.03 2.39
-8.52 -0.21 2.39
-8.51 -0.38 2.39
-8.50 -0.55 2.39
-8.48 -0.72 2.39
-8.46 -0.89 2.39
-8.44 -1.06 2.39
-8.42 -1.22 2.39
-8.39 -1.39 2.39
-8.36 -1.56 2.39
-8.32 -1.73 2.39
-8.28 -1.89 2.39
-8.24 -2.06 2.39
-8.19 -2.22 2.39
-8.14 -2.39 2.39
-8.09 -2.55 2.39
-8.04 -2.71 2.39
-7.98 -2.87 2.39
-7.92 -3.03 2.39
-7.85 -3.18 2.39
-7.78 -3.34 2.39
-7.71 -3.49 2.39
-7.64 -3.65 2.39
-7.56 -3.80 2.39
-7.48 -3.95 2.39
-7.40 -4.10 2.39
-7.31 -4.24 2.39
-7.22 -4.39 2.39
-7.13 -4.53 2.39
-7.04 -4.67 2.39
-6.94 -4.81 2.39
-6.84 -4.95 2.39
-6.74 -5.08 2.39
-6.63 -5.21 2.39
-6.52 -5.34 2.39
-6.25 -5.33 2.33
-6.08 -5.40 2.31
-6.20 -5.73 2.40
-6.07 -5.84 2.39
-5.99 -6.01 2.41
-5.99 -6.25 2.46
-5.94 -6.46 2.49
-5.81 -6.57 2.49
-5.68 -6.69 2.49
-5.54 -6.80 2.49
-5.40 -6.91 2.49
-5.26 -7.01 2.49
-5.11 -7.11 2.49
-4.97 -7.21 2.49
-4.82 -7.31 2.49
-4.67 -7.40 2.49
-4.52 -7.49 2.49
-4.37 -7.58 2.49
-4.21 -7.66 2.49
-4.06 -7.74 2.49
-3.90 -7.82 2.49
-3.74 -7.90 2.49
-3.58 -7.97 2.49
-3.42 -8.03 2.49
-3.26 -8.10 2.49
-3.09 -8.16 2.49
-2.93 -8.22 2.49
-2.76 -8.27 2.49
-2.59 -8.33 2.49
-2.43 -8.37 2.49
-2.26 -8.42 2.49
-2.09 -8.46 2.49
-1.92 -8.50 2.49
-1.74 -8.53 2.49
-1.57 -8.57 2.49
-1.40 -8.59 2.49
-1.23 -8.62 2.49
-1.05 -8.64 2.49
-0.88 -8.66 2.49
-0.70 -8.67 2.49
-0.53 -8.68 2.49
-0.36 -8.69 2.49
-0.18 -8.69 2.49
-0.01 -8.01 2.49
0.15 -8.00 2.49
0.32 -8.00 2.49
0.48 -7.99 2.49
0.64 -7.98 2.49
0.80 -7.96 2.49
0.96 -7.94 2.49
1.12 -7.92 2.49
1.27 -7.90 2.49
1.43 -7.87 2.49
1.59 -7.84 2.49
1.75 -7.80 2.49
1.90 -7.76 2.49
2.05 -7.69 2.48
2.12 -7.36 2.39
2.27 -7.32 2.39
2.42 -7.27 2.39
2.56 -7.22 2.39
2.71 -7.17 2.39
2.85 -7.11 2.39
2.99 -7.05 2.39
3.13 -6.99 2.39
3.27 -6.92 2.39
3.41 -6.86 2.39
3.55 -6.79 2.39
3.68 -6.71 2.39
3.82 -6.64 2.39
3.95 -6.56 2.39
4.08 -6.48 2.39
4.21 -6.39 2.39
4.34 -6.31 2.39
4.46 -6.22 2.39
4.59 -6.13 2.39
4.71 -6.04 2.39
4.83 -5.94 2.39
4.51 -5.32 2.18
4.64 -5.26 2.19
5.18 -5.64 2.39
5.29 -5.53 2.39
5.40 -5.43 2.39
5.51 -5.32 2.39
5.62 -5.21 2.39
5.72 -5.09 2.39
5.82 -4.98 2.39
5.92 -4.86 2.39
6.02 -4.74 2.39
6.94 -5.24 2.71
7.00 -5.07 2.70
7.06 -4.90 2.68
6.05 -4.02 2.27
7.17 -4.56 2.65
6.05 -3.68 2.21
9.31 -5.41 3.36
6.06 -3.36 2.16
9.60 -5.08 3.39
9.75 -4.90 3.40
9.89 -4.73 3.42
10.07 -4.57 3.44
10.24 -4.40 3.47
10.40 -4.22 3.50
6.06 -2.32 2.02
10.73 -3.86 3.55
10.89 -3.68 3.58
11.05 -3.48 3.61
11.21 -3.29 3.63
6.06 -1.64 1.95
11.60 -2.90 3.72
11.84 -2.71 3.78
12.10 -2.51 3.84
12.37 -2.31 3.91
12.63 -2.10 3.98
12.89 -1.88 4.05
13.15 -1.65 4.12
13.44 -1.41 4.20
13.86 -1.17 4.32
14.29 -0.92 4.45
14.76 -0.65 4.59
15.34 -0.37 4.76
16.70 -0.07 5.18
21.74 0.35 6.74
22.31 0.81 6.92
6.07 0.34 1.88
22.44 1.72 6.97
22.54 2.18 7.02
22.67 2.65 7.07
34.03 4.68 10.64
45.58 7.20 14.29
44.99 8.04 14.15
44.21 8.82 13.95
23.45 5.17 7.43
23.19 5.60 7.38
23.27 6.12 7.44
30.42 8.66 9.78
31.22 9.57 10.09
31.38 10.31 10.20
30.50 10.70 9.98
6.08 2.27 2.00
39.86 15.81 13.24
39.43 16.57 13.20
39.03 17.33 13.17
6.09 2.85 2.07
38.12 18.79 13.10
37.62 19.49 13.06
37.02 20.13 12.98
36.46 20.79 12.93
20.52 12.25 7.36
15.82 9.88 5.74
15.45 10.09 5.68
6.09 4.15 2.27
6.09 4.33 2.30
14.79 10.98 5.66
7.15 5.54 2.78
6.06 4.88 2.39
5.96 5.01 2.39
5.86 5.13 2.39
5.76 5.25 2.39
5.65 5.36 2.39
5.54 5.48 2.39
5.43 5.59 2.39
5.32 5.70 2.39
5.21 5.80 2.39
5.09 5.91 2.39
4.97 6.01 2.39
4.85 6.11 2.39
4.73 6.21 2.39
4.61 6.31 2.39
4.48 6.40 2.39
4.35 6.49 2.39
4.22 6.58 2.39
4.09 6.66 2.39
3.96 6.75 2.39
3.82 6.83 2.39
3.69 6.90 2.39
3.55 6.98 2.39
3.41 7.05 2.39
3.10 6.76 2.27
3.06 7.04 2.34
2.93 7.13 2.35
2.79 7.19 2.35
2.55 6.99 2.27
2.48 7.23 2.33
2.39 7.47 2.39
2.24 7.52 2.39
2.12 7.68 2.43
2.03 7.93 2.49
1.87 7.97 2.49
1.71 8.01 2.49
1.55 8.05 2.49
1.38 8.08 2.49
1.22 8.11 2.49
1.06 8.13 2.49
0.90 8.15 2.49
0.73 8.17 2.49
0.57 8.18 2.49
0.41 8.20 2.49
0.24 8.20 2.49
0.08 8.21 2.49
-0.09 8.21 2.49
-0.25 8.21 2.49
-0.42 8.20 2.49
-0.58 8.19 2.49
-0.75 8.18 2.49
-0.91 8.17 2.49
-1.07 8.15 2.49
-1.24 8.12 2.49
-1.40 8.10 2.49
-1.56 8.07 2.49
-1.72 8.04 2.49
-1.89 8.00 2.49
-2.05 7.97 2.49
-2.21 7.92 2.49
-2.36 7.88 2.49
-2.52 7.83 2.49
-2.68 7.78 2.49
-2.83 7.72 2.49
-2.99 7.67 2.49
-3.14 7.61 2.49
-3.29 7.54 2.49
-3.44 7.47 2.49
-3.59 7.40 2.49
-3.74 7.33 2.49
-3.89 7.25 2.49
-4.03 7.18 2.49
-4.18 7.09 2.49
-4.32 7.01 2.49
-4.46 6.92 2.49
-4.59 6.83 2.49
-4.73 6.74 2.49
-4.86 6.64 2.49
-5.00 6.54 2.49
-5.13 6.44 2.49
-5.25 6.34 2.49
-5.38 6.23 2.49
-5.50 6.12 2.49
-5.63 6.01 2.49
-5.74 5.89 2.49
-5.86 5.78 2.49
-5.93 5.62 2.48
-5.94 5.40 2.43
-5.95 5.20 2.39
-6.04 5.07 2.39
-6.15 4.95 2.39
-6.24 4.82 2.39
-6.33 4.69 2.39
-6.43 4.57 2.39
-6.52 4.44 2.39
-6.60 4.30 2.39
-6.69 4.17 2.39
-6.77 4.03 2.39
-6.85 3.90 2.39
-6.92 3.76 2.39
-7.00 3.62 2.39
-7.07 3.48 2.39
-7.13 3.33 2.39
-7.20 3.19 2.39
-7.26 3.04 2.39
-7.32 2.90 2.39
-7.37 2.75 2.39
-7.43 2.60 2.39
-7.47 2.45 2.39
-7.52 2.30 2.39
-7.56 2.15 2.39
-7.60 2.00 2.39
-7.64 1.84 2.39
-7.67 1.69 2.39
-7.71 1.53 2.39
-7.73 1.38 2.39
-7.76 1.22 2.39
-7.78 1.07 2.39
-7.80 0.91 2.39
-7.81 0.75 2.39
-7.82 0.60 2.39
-7.83 0.44 2.39
-7.84 0.28 2.39
-7.84 0.13 2.39
-7.84 -0.03 2.39
-7.83 -0.19 2.39
-7.83 -0.35 2.39
-7.82 -0.50 2.39
-7.80 -0.66 2.39
-7.79 -0.81 2.39
-7.77 -0.97 2.39
-7.74 -1.13 2.39
-7.72 -1.28 2.39
-7.69 -1.43 2.39
-7.65 -1.59 2.39
-7.62 -1.74 2.39
-7.58 -1.89 2.39
-7.54 -2.04 2.39
-7.49 -2.19 2.39
-7.45 -2.34 2.39
-7.40 -2.49 2.39
-7.34 -2.64 2.39
-7.29 -2.78 2.39
-7.23 -2.93 2.39
-7.16 -3.07 2.39
-7.10 -3.22 2.39
-7.03 -3.36 2.39
-6.96 -3.50 2.39
-6.89 -3.63 2.39
-6.81 -3.77 2.39
-6.73 -3.90 2.39
-6.65 -4.04 2.39
-6.56 -4.17 2.39
-6.48 -4.30 2.39
-6.39 -4.43 2.39
-6.30 -4.55 2.39
-6.20 -4.68 2.39
-6.10 -4.80 2.39
-6.00 -4.92 2.39
-5.99 -5.11 2.42
-5.98 -5.32 2.47
-5.94 -5.49 2.49
-5.83 -5.61 2.49
-5.71 -5.72 2.49
-5.59 -5.84 2.49
-5.47 -5.94 2.49
-5.35 -6.05 2.49
-5.23 -6.16 2.49
-5.10 -6.26 2.49
-4.97 -6.36 2.49
-4.84 -6.45 2.49
-4.71 -6.55 2.49
-4.58 -6.64 2.49
-4.44 -6.73 2.49
-4.30 -6.81 2.49
-4.16 -6.90 2.49
-4.02 -6.98 2.49
-3.88 -7.06 2.49
-3.74 -7.13 2.49
-3.59 -7.20 2.49
-3.45 -7.27 2.49
-3.30 -7.34 2.49
-3.15 -7.40 2.49
-3.00 -7.46 2.49
-2.85 -7.52 2.49
-2.70 -7.57 2.49
-2.54 -7.62 2.49
-2.39 -7.67 2.49
-2.24 -7.71 2.49
-2.08 -7.75 2.49
-1.92 -7.79 2.49
-1.77 -7.83 2.49
-1.61 -7.86 2.49
-1.45 -7.89 2.49
-1.29 -7.91 2.49
-1.13 -7.94 2.49
-0.97 -7.96 2.49
-0.81 -7.97 2.49
-0.65 -7.99 2.49
-0.49 -8.00 2.49
-0.33 -8.00 2.49
-0.17 -8.01 2.49
-0.01 -7.41 2.49
0.14 -7.41 2.49
0.29 -7.41 2.49
0.44 -7.40 2.49
0.59 -7.39 2.49
0.74 -7.37 2.49
0.89 -7.35 2.49
1.03 -7.33 2.49
1.18 -7.31 2.49
1.33 -7.29 2.49
1.47 -7.26 2.49
1.62 -7.22 2.49
1.76 -7.19 2.49
1.91 -7.15 2.49
2.05 -7.11 2.49
2.10 -6.78 2.39
2.25 -6.76 2.40
2.37 -6.69 2.39
2.51 -6.64 2.39
2.64 -6.58 2.39
2.77 -6.53 2.39
2.90 -6.47 2.39
3.03 -6.41 2.39
3.16 -6.35 2.39
3.28 -6.28 2.39
3.41 -6.22 2.39
3.53 -6.15 2.39
3.66 -6.07 2.39
3.78 -6.00 2.39
3.90 -5.92 2.39
4.02 -5.84 2.39
4.13 -5.76 2.39
4.25 -5.68 2.39
4.36 -5.59 2.39
4.47 -5.50 2.39
4.51 -5.32 2.35
4.64 -5.26 2.37
4.80 -5.22 2.39
4.90 -5.13 2.39
5.00 -5.03 2.39
5.10 -4.92 2.39
5.20 -4.82 2.39
5.30 -4.72 2.39
5.39 -4.61 2.39
5.48 -4.50 2.39
5.57 -4.39 2.39
5.66 -4.28 2.39
5.75 -4.16 2.39
5.83 -4.05 2.39
4.65 -3.09 1.88
4.71 -3.00 1.88
4.77 -2.90 1.88
4.83 -2.81 1.88
4.89 -2.71 1.88
7.06 -3.73 2.69
7.10 -3.57 2.68
6.06 -2.90 2.26
7.18 -3.26 2.65
7.22 -3.10 2.64
7.26 -2.95 2.63
9.45 -3.62 3.40
9.58 -3.45 3.42
9.70 -3.27 3.44
9.83 -3.10 3.46
9.94 -2.91 3.48
6.06 -1.64 2.11
10.23 -2.56 3.54
10.41 -2.38 3.59
10.59 -2.20 3.63
6.07 -1.13 2.07
10.94 -1.82 3.72
11.11 -1.62 3.77
11.28 -1.41 3.82
11.47 -1.20 3.87
11.66 -0.98 3.92
11.85 -0.76 3.98
6.07 -0.27 2.04
12.30 -0.29 4.13
12.54 -0.05 4.20
12.77 0.21 4.28
13.00 0.47 4.36
6.07 0.34 2.04
13.50 1.03 4.53
13.88 1.35 4.67
14.31 1.68 4.82
14.74 2.03 4.98
15.17 2.40 5.14
15.91 2.85 5.41
17.18 3.43 5.86
23.23 5.13 7.95
23.04 5.57 7.92
23.00 6.05 7.95
30.10 8.57 10.45
31.08 9.53 10.85
6.08 2.00 2.14
24.16 8.48 8.54
6.08 2.27 2.16
24.20 9.60 8.68
36.44 15.32 13.18
36.05 16.01 13.15
35.60 16.68 13.10
6.09 3.00 2.26
34.58 17.92 12.97
7.27 3.96 2.76
7.22 4.12 2.77
7.17 4.28 2.78
6.09 3.81 2.39
6.02 3.93 2.39
5.94 4.05 2.39
5.86 4.17 2.39
5.78 4.29 2.39
5.69 4.41 2.39
5.60 4.52 2.39
5.51 4.63 2.39
5.42 4.74 2.39
5.32 4.85 2.39
5.23 4.96 2.39
5.13 5.07 2.39
5.03 5.17 2.39
4.92 5.27 2.39
4.82 5.37 2.39
4.71 5.47 2.39
4.60 5.56 2.39
4.49 5.65 2.39
4.38 5.75 2.39
4.26 5.83 2.39
4.15 5.92 2.39
4.03 6.00 2.39
3.91 6.08 2.39
3.78 6.16 2.39
3.66 6.24 2.39
3.54 6.31 2.39
3.41 6.38 2.39
3.11 6.12 2.27
3.06 6.33 2.32
2.97 6.47 2.35
2.84 6.53 2.35
2.71 6.59 2.35
2.49 6.41 2.27
2.47 6.78 2.38
2.35 6.86 2.39
2.21 6.91 2.39
2.12 7.10 2.44
2.02 7.30 2.49
1.87 7.34 2.49
1.73 7.37 2.49
1.58 7.41 2.49
1.43 7.44 2.49
1.28 7.47 2.49
1.13 7.50 2.49
0.98 7.52 2.49
0.83 7.54 2.49
0.68 7.55 2.49
0.53 7.57 2.49
0.37 7.58 2.49
0.22 7.58 2.49
0.07 7.59 2.49
-0.08 7.59 2.49
-0.23 7.59 2.49
-0.39 7.58 2.49
-0.54 7.58 2.49
-0.69 7.56 2.49
-0.84 7.55 2.49
-0.99 7.53 2.49
-1.14 7.51 2.49
-1.29 7.49 2.49
-1.44 7.46 2.49
-1.59 7.43 2.49
-1.74 7.40 2.49
-1.89 7.36 2.49
-2.04 7.32 2.49
-2.19 7.28 2.49
-2.33 7.24 2.49
-2.48 7.19 2.49
-2.62 7.14 2.49
-2.76 7.09 2.49
-2.90 7.03 2.49
-3.04 6.97 2.49
-3.18 6.91 2.49
-3.32 6.84 2.49
-3.46 6.78 2.49
-3.59 6.71 2.49
-3.73 6.63 2.49
-3.86 6.56 2.49
-3.99 6.48 2.49
-4.12 6.40 2.49
-4.25 6.31 2.49
-4.37 6.23 2.49
-4.50 6.14 2.49
-4.62 6.05 2.49
-4.74 5.95 2.49
-4.86 5.86 2.49
-4.97 5.76 2.49
-5.09 5.66 2.49
-5.20 5.55 2.49
-5.31 5.45 2.49
-5.42 5.34 2.49
-5.52 5.23 2.49
-5.63 5.12 2.49
-5.73 5.00 2.49
-5.83 4.89 2.49
-5.92 4.77 2.49
-5.94 4.59 2.46
-5.94 4.40 2.43
-5.95 4.23 2.39
-6.02 4.10 2.39
-6.10 3.98 2.39
-6.18 3.86 2.39
-6.26 3.73 2.39
-6.33 3.60 2.39
-6.40 3.48 2.39
-6.47 3.35 2.39
-6.53 3.22 2.39
-6.60 3.08 2.39
-6.65 2.95 2.39
-6.71 2.82 2.39
-6.77 2.68 2.39
-6.82 2.54 2.39
-6.87 2.41 2.39
-6.91 2.27 2.39
-6.95 2.13 2.39
-6.99 1.99 2.39
-7.03 1.85 2.39
-7.07 1.71 2.39
-7.10 1.56 2.39
-7.13 1.42 2.39
-7.15 1.28 2.39
-7.17 1.13 2.39
-7.19 0.99 2.39
-7.21 0.84 2.39
-7.22 0.70 2.39
-7.23 0.55 2.39
-7.24 0.41 2.39
-7.25 0.26 2.39
-7.25 0.12 2.39
-7.25 -0.03 2.39
-7.25 -0.17 2.39
-7.24 -0.32 2.39
-7.23 -0.46 2.39
-7.22 -0.61 2.39
-7.20 -0.75 2.39
-7.18 -0.90 2.39
-7.16 -1.04 2.39
-7.14 -1.18 2.39
-7.11 -1.33 2.39
-7.08 -1.47 2.39
-7.05 -1.61 2.39
-7.01 -1.75 2.39
-6.97 -1.89 2.39
-6.93 -2.03 2.39
-6.89 -2.17 2.39
-6.84 -2.30 2.39
-6.79 -2.44 2.39
-6.74 -2.58 2.39
-6.69 -2.71 2.39
-6.63 -2.84 2.39
-6.57 -2.97 2.39
-6.50 -3.10 2.39
-6.44 -3.23 2.39
-6.37 -3.36 2.39
-6.30 -3.49 2.39
-6.23 -3.61 2.39
-6.15 -3.73 2.39
-6.07 -3.86 2.39
-5.99 -3.98 2.39
-5.98 -4.15 2.42
-5.98 -4.32 2.45
-5.98 -4.51 2.49
-5.89 -4.63 2.49
-5.80 -4.75 2.49
-5.70 -4.86 2.49
-5.60 -4.97 2.49
-5.50 -5.08 2.49
-5.39 -5.19 2.49
-5.28 -5.30 2.49
-5.18 -5.40 2.49
-5.07 -5.50 2.49
-4.95 -5.60 2.49
-4.84 -5.70 2.49
-4.72 -5.79 2.49
-4.60 -5.88 2.49
-4.48 -5.97 2.49
-4.36 -6.06 2.49
-4.24 -6.15 2.49
-4.11 -6.23 2.49
-3.98 -6.31 2.49
-3.86 -6.38 2.49
-3.73 -6.46 2.49
-3.59 -6.53 2.49
-3.46 -6.60 2.49
-3.33 -6.67 2.49
-3.19 -6.73 2.49
-3.06 -6.79 2.49
-2.92 -6.85 2.49
-2.78 -6.90 2.49
-2.64 -6.96 2.49
-2.50 -7.01 2.49
-2.36 -7.05 2.49
-2.21 -7.10 2.49
-2.07 -7.14 2.49
-1.93 -7.18 2.49
-1.78 -7.21 2.49
-1.63 -7.25 2.49
-1.49 -7.28 2.49
-1.34 -7.30 2.49
-1.19 -7.33 2.49
-1.05 -7.35 2.49
-0.90 -7.37 2.49
-0.75 -7.38 2.49
-0.60 -7.40 2.49
-0.45 -7.40 2.49
-0.30 -7.41 2.49
-0.16 -7.41 2.49
-0.01 -6.90 2.49
0.13 -6.89 2.49
0.27 -6.89 2.49
0.41 -6.88 2.49
0.55 -6.87 2.49
0.69 -6.86 2.49
0.82 -6.84 2.49
0.96 -6.82 2.49
1.10 -6.80 2.49
1.23 -6.78 2.49
1.37 -6.75 2.49
1.50 -6.72 2.49
1.64 -6.69 2.49
1.77 -6.65 2.49
1.91 -6.62 2.49
2.04 -6.58 2.49
2.08 -6.26 2.39
2.21 -6.22 2.39
2.33 -6.17 2.39
2.45 -6.12 2.39
2.58 -6.07 2.39
2.70 -6.02 2.39
2.82 -5.96 2.39
2.94 -5.91 2.39
3.06 -5.85 2.39
3.17 -5.78 2.39
3.29 -5.72 2.39
3.40 -5.65 2.39
3.51 -5.58 2.39
3.63 -5.51 2.39
3.74 -5.44 2.39
3.84 -5.36 2.39
3.95 -5.28 2.39
4.06 -5.20 2.39
4.16 -5.12 2.39
4.26 -5.03 2.39
4.36 -4.95 2.39
4.46 -4.86 2.39
4.56 -4.77 2.39
4.65 -4.68 2.39
4.75 -4.58 2.39
4.84 -4.48 2.39
4.93 -4.39 2.39
5.02 -4.29 2.39
5.10 -4.19 2.39
5.18 -4.08 2.39
5.27 -3.98 2.39
5.35 -3.87 2.39
4.43 -3.08 1.95
4.43 -2.95 1.93
4.44 -2.82 1.90
4.45 -2.71 1.89
4.49 -2.61 1.88
4.54 -2.52 1.88
4.60 -2.43 1.88
4.64 -2.34 1.88
4.69 -2.24 1.88
4.74 -2.15 1.88
4.78 -2.05 1.88
4.82 -1.96 1.88
4.86 -1.86 1.88
4.90 -1.76 1.88
6.82 -2.30 2.60
6.89 -2.17 2.61
6.95 -2.04 2.62
6.06 -1.64 2.27
6.07 -1.52 2.26
6.08 -1.39 2.25
7.15 -1.48 2.64
7.19 -1.34 2.64
7.23 -1.20 2.65
7.27 -1.06 2.65
9.86 -1.23 3.59
9.98 -1.04 3.62
10.09 -0.85 3.65
10.21 -0.65 3.69
10.37 -0.46 3.74
10.53 -0.25 3.80
10.69 -0.04 3.85
6.07 0.10 2.19
10.99 0.40 3.96
6.07 0.34 2.19
6.08 0.47 2.20
11.40 1.11 4.12
11.54 1.35 4.18
11.72 1.61 4.26
11.90 1.88 4.33
12.07 2.16 4.41
7.27 1.45 2.67
7.25 1.60 2.67
6.09 1.47 2.25
6.08 1.60 2.26
6.08 1.73 2.27
7.14 2.19 2.68
7.10 2.33 2.68
7.06 2.48 2.68
6.08 2.27 2.33
6.96 2.76 2.69
6.90 2.90 2.69
6.09 2.71 2.39
6.04 2.83 2.39
5.98 2.95 2.39
5.92 3.07 2.39
5.86 3.19 2.39
5.80 3.31 2.39
5.73 3.42 2.39
5.66 3.54 2.39
5.59 3.65 2.39
5.52 3.77 2.39
5.45 3.88 2.39
5.37 3.99 2.39
5.29 4.10 2.39
5.21 4.20 2.39
5.12 4.31 2.39
5.04 4.41 2.39
4.95 4.51 2.39
4.86 4.61 2.39
4.77 4.71 2.39
4.67 4.80 2.39
4.58 4.90 2.39
4.48 4.99 2.39
4.38 5.08 2.39
4.28 5.17 2.39
4.17 5.26 2.39
4.07 5.34 2.39
3.96 5.42 2.39
3.85 5.50 2.39
3.74 5.58 2.39
3.63 5.65 2.39
3.52 5.73 2.39
3.40 5.80 2.39
3.12 5.57 2.27
3.06 5.73 2.31
3.00 5.90 2.35
2.88 5.96 2.35
2.76 6.02 2.35
2.55 5.86 2.27
2.47 6.01 2.31
2.44 6.28 2.39
2.31 6.33 2.39
2.18 6.37 2.39
2.12 6.61 2.46
2.01 6.74 2.49
1.87 6.78 2.49
1.74 6.82 2.49
1.60 6.85 2.49
1.46 6.88 2.49
1.33 6.91 2.49
1.19 6.94 2.49
1.05 6.96 2.49
0.91 6.98 2.49
0.77 7.00 2.49
0.63 7.02 2.49
0.49 7.03 2.49
0.35 7.04 2.49
0.21 7.05 2.49
0.06 7.05 2.49
-0.08 7.05 2.49
-0.22 7.05 2.49
-0.36 7.04 2.49
-0.50 7.04 2.49
-0.64 7.03 2.49
-0.78 7.01 2.49
-0.92 7.00 2.49
-1.06 6.98 2.49
-1.20 6.96 2.49
-1.34 6.93 2.49
-1.48 6.90 2.49
-1.62 6.87 2.49
-1.76 6.84 2.49
-1.89 6.80 2.49
-2.03 6.76 2.49
-2.17 6.72 2.49
-2.30 6.68 2.49
-2.43 6.63 2.49
-2.57 6.58 2.49
-2.70 6.53 2.49
-2.83 6.48 2.49
-2.96 6.42 2.49
-3.09 6.36 2.49
-3.21 6.29 2.49
-3.34 6.23 2.49
-3.46 6.16 2.49
-3.59 6.09 2.49
-3.71 6.02 2.49
-3.83 5.94 2.49
-3.95 5.86 2.49
-4.06 5.78 2.49
-4.18 5.70 2.49
-4.29 5.62 2.49
-4.40 5.53 2.49
-4.51 5.44 2.49
-4.62 5.35 2.49
-4.73 5.25 2.49
-4.83 5.16 2.49
-4.93 5.06 2.49
-5.03 4.96 2.49
-5.13 4.86 2.49
-5.23 4.75 2.49
-5.32 4.65 2.49
-5.41 4.54 2.49
-5.50 4.43 2.49
-5.59 4.32 2.49
-5.67 4.21 2.49
-5.76 4.09 2.49
-5.84 3.97 2.49
-5.91 3.86 2.49
-5.94 3.71 2.47
-5.94 3.54 2.44
-5.95 3.39 2.42
-5.96 3.23 2.39
-6.01 3.11 2.39
-6.07 2.99 2.39
-6.13 2.86 2.39
-6.18 2.74 2.39
-6.23 2.62 2.39
-6.28 2.49 2.39
-6.33 2.36 2.39
-6.38 2.24 2.39
-6.42 2.11 2.39
-6.46 1.98 2.39
-6.50 1.85 2.39
-6.53 1.72 2.39
-6.56 1.58 2.39
-6.59 1.45 2.39
-6.62 1.32 2.39
-6.64 1.19 2.39
-6.66 1.05 2.39
-6.68 0.92 2.39
-6.70 0.78 2.39
-6.71 0.65 2.39
-6.72 0.51 2.39
-6.73 0.38 2.39
-6.73 0.24 2.39
-6.74 0.11 2.39
-6.74 -0.03 2.39
-6.73 -0.16 2.39
-6.73 -0.30 2.39
-6.72 -0.43 2.39
-6.71 -0.56 2.39
-6.69 -0.70 2.39
-6.67 -0.83 2.39
-6.65 -0.97 2.39
-6.63 -1.10 2.39
-6.61 -1.23 2.39
-6.58 -1.36 2.39
-6.55 -1.50 2.39
-6.52 -1.63 2.39
-6.48 -1.76 2.39
-6.44 -1.88 2.39
-6.40 -2.01 2.39
-6.36 -2.14 2.39
-6.31 -2.27 2.39
-6.26 -2.39 2.39
-6.21 -2.52 2.39
-6.18 -2.65 2.40
-6.10 -2.76 2.39
-6.05 -2.88 2.39
-5.99 -3.00 2.39
-5.98 -3.15 2.41
-5.98 -3.31 2.44
-5.98 -3.46 2.47
-5.97 -3.62 2.49
-5.89 -3.74 2.49
-5.81 -3.86 2.49
-5.73 -3.97 2.49
-5.65 -4.08 2.49
-5.57 -4.19 2.49
-5.48 -4.30 2.49
-5.39 -4.41 2.49
-5.30 -4.52 2.49
-5.21 -4.62 2.49
-5.11 -4.72 2.49
-5.01 -4.83 2.49
-4.91 -4.92 2.49
-4.81 -5.02 2.49
-4.71 -5.11 2.49
-4.60 -5.21 2.49
-4.50 -5.30 2.49
-4.39 -5.38 2.49
-4.28 -5.47 2.49
-4.17 -5.55 2.49
-4.05 -5.63 2.49
-3.94 -5.71 2.49
-3.82 -5.79 2.49
-3.70 -5.86 2.49
-3.59 -5.94 2.49
-3.46 -6.01 2.49
-3.34 -6.07 2.49
-3.22 -6.14 2.49
-3.09 -6.20 2.49
-2.97 -6.26 2.49
-2.84 -6.31 2.49
-2.71 -6.37 2.49
-2.58 -6.42 2.49
-2.45 -6.47 2.49
-2.32 -6.52 2.49
-2.19 -6.56 2.49
-2.06 -6.60 2.49
-1.93 -6.64 2.49
-1.79 -6.68 2.49
-1.66 -6.71 2.49
-1.52 -6.74 2.49
-1.39 -6.77 2.49
-1.25 -6.79 2.49
-1.11 -6.82 2.49
-0.97 -6.84 2.49
-0.84 -6.85 2.49
-0.70 -6.87 2.49
-0.56 -6.88 2.49
-0.42 -6.89 2.49
-0.28 -6.89 2.49
-0.14 -6.90 2.49
-0.01 -6.44 2.49
0.12 -6.44 2.49
0.25 -6.43 2.49
0.38 -6.43 2.49
0.51 -6.42 2.49
0.64 -6.40 2.49
0.77 -6.39 2.49
0.90 -6.37 2.49
1.02 -6.35 2.49
1.15 -6.33 2.49
1.28 -6.30 2.49
1.40 -6.28 2.49
1.53 -6.25 2.49
1.66 -6.21 2.49
1.78 -6.18 2.49
1.90 -6.14 2.49
2.03 -6.10 2.49
2.07 -5.83 2.40
2.18 -5.76 2.39
2.29 -5.72 2.39
2.41 -5.67 2.39
2.52 -5.62 2.39
2.63 -5.57 2.39
2.74 -5.52 2.39
2.85 -5.46 2.39
2.96 -5.40 2.39
3.07 -5.34 2.39
3.18 -5.28 2.39
3.28 -5.21 2.39
3.39 -5.14 2.39
3.49 -5.08 2.39
3.59 -5.00 2.39
3.69 -4.93 2.39
3.79 -4.86 2.39
3.89 -4.78 2.39
3.98 -4.70 2.39
4.07 -4.62 2.39
4.17 -4.54 2.39
4.26 -4.45 2.39
4.35 -4.37 2.39
4.43 -4.28 2.39
4.52 -4.19 2.39
4.60 -4.10 2.39
4.68 -4.00 2.39
4.76 -3.91 2.39
4.84 -3.81 2.39
4.92 -3.71 2.39
4.99 -3.61 2.39
5.06 -3.51 2.39
5.13 -3.41 2.39
4.43 -2.82 2.04
4.43 -2.70 2.01
4.43 -2.58 1.99
4.43 -2.46 1.97
4.43 -2.34 1.94
4.44 -2.23 1.92
4.44 -2.12 1.91
4.44 -2.02 1.89
4.46 -1.92 1.88
4.50 -1.83 1.88
4.54 -1.74 1.88
4.57 -1.64 1.88
4.70 -1.59 1.92
5.89 -1.86 2.39
5.93 -1.74 2.39
5.96 -1.62 2.39
5.99 -1.50 2.39
6.02 -1.38 2.39
6.05 -1.26 2.39
6.08 -1.13 2.39
6.10 -1.01 2.39
6.82 -0.99 2.67
6.91 -0.86 2.69
6.99 -0.73 2.71
7.03 -0.59 2.72
7.04 -0.45 2.72
7.04 -0.31 2.72
7.05 -0.17 2.72
7.05 -0.03 2.72
7.05 0.12 2.72
7.05 0.26 2.72
6.07 0.34 2.34
7.05 0.54 2.73
7.04 0.68 2.73
7.03 0.83 2.73
7.02 0.97 2.73
6.99 1.11 2.73
6.11 1.09 2.39
6.09 1.22 2.39
6.06 1.34 2.39
6.03 1.46 2.39
6.01 1.58 2.39
5.97 1.70 2.39
5.94 1.82 2.39
5.90 1.94 2.39
5.87 2.06 2.39
5.82 2.18 2.39
5.78 2.30 2.39
5.73 2.41 2.39
5.69 2.53 2.39
5.64 2.64 2.39
5.58 2.75 2.39
5.53 2.87 2.39
5.47 2.98 2.39
5.41 3.09 2.39
5.35 3.20 2.39
5.29 3.30 2.39
5.22 3.41 2.39
5.15 3.52 2.39
5.08 3.62 2.39
5.01 3.72 2.39
4.93 3.82 2.39
4.86 3.92 2.39
4.78 4.02 2.39
4.70 4.12 2.39
4.62 4.21 2.39
4.53 4.30 2.39
4.45 4.39 2.39
4.36 4.48 2.39
4.27 4.57 2.39
4.18 4.66 2.39
4.08 4.74 2.39
3.99 4.82 2.39
3.89 4.90 2.39
3.79 4.98 2.39
3.69 5.06 2.39
3.59 5.13 2.39
3.49 5.20 2.39
3.39 5.28 2.39
3.28 5.34 2.39
3.05 5.21 2.30
2.92 5.21 2.28
2.80 5.25 2.27
2.70 5.31 2.27
2.59 5.36 2.27
2.48 5.42 2.27
2.47 5.68 2.36
2.39 5.81 2.39
2.27 5.86 2.39
2.15 5.90 2.39
2.11 6.18 2.48
2.00 6.25 2.49
1.87 6.29 2.49
1.75 6.32 2.49
1.62 6.36 2.49
1.49 6.39 2.49
1.37 6.42 2.49
1.24 6.45 2.49
1.11 6.47 2.49
0.98 6.49 2.49
0.85 6.51 2.49
0.72 6.53 2.49
0.59 6.54 2.49
0.45 6.56 2.49
0.32 6.57 2.49
0.19 6.57 2.49
0.06 6.57 2.49
-0.07 6.58 2.49
-0.20 6.57 2.49
-0.34 6.57 2.49
-0.47 6.56 2.49
-0.60 6.55 2.49
-0.73 6.54 2.49
-0.86 6.52 2.49
-0.99 6.51 2.49
-1.12 6.49 2.49
-1.25 6.46 2.49
-1.38 6.44 2.49
-1.51 6.41 2.49
-1.64 6.38 2.49
-1.77 6.34 2.49
-1.89 6.31 2.49
-2.02 6.27 2.49
-2.15 6.23 2.49
-2.27 6.18 2.49
-2.39 6.14 2.49
-2.52 6.09 2.49
-2.64 6.04 2.49
-2.76 5.98 2.49
-2.88 5.93 2.49
-3.00 5.87 2.49
-3.11 5.81 2.49
-3.23 5.75 2.49
-3.34 5.68 2.49
-3.46 5.61 2.49
-3.57 5.54 2.49
-3.68 5.47 2.49
-3.79 5.39 2.49
-3.90 5.32 2.49
-4.00 5.24 2.49
-4.10 5.16 2.49
-4.21 5.07 2.49
-4.31 4.99 2.49
-4.41 4.90 2.49
-4.50 4.81 2.49
-4.60 4.72 2.49
-4.69 4.63 2.49
-4.78 4.53 2.49
-4.87 4.43 2.49
-4.96 4.33 2.49
-5.05 4.23 2.49
-5.13 4.13 2.49
-5.21 4.03 2.49
-5.29 3.92 2.49
-5.37 3.81 2.49
-5.44 3.71 2.49
-5.52 3.60 2.49
-5.59 3.48 2.49
-5.65 3.37 2.49
-5.72 3.26 2.49
-5.78 3.14 2.49
-5.84 3.02 2.49
-5.90 2.91 2.49
-5.95 2.78 2.49
-5.95 2.64 2.47
-5.95 2.50 2.45
-5.95 2.36 2.43
-5.96 2.22 2.41
-5.96 2.09 2.40
-5.99 1.97 2.39
-6.02 1.84 2.39
-6.06 1.72 2.39
-6.09 1.60 2.39
-6.12 1.48 2.39
-6.17 1.36 2.40
-6.17 1.23 2.39
-6.20 1.11 2.39
-6.22 0.98 2.39
-6.23 0.86 2.39
-6.25 0.73 2.39
-6.26 0.61 2.39
-6.27 0.48 2.39
-6.28 0.35 2.39
-6.28 0.23 2.39
-6.28 0.10 2.39
-6.28 -0.02 2.39
-6.28 -0.15 2.39
-6.27 -0.27 2.39
-6.27 -0.40 2.39
-6.26 -0.53 2.39
-6.24 -0.65 2.39
-6.23 -0.78 2.39
-6.21 -0.90 2.39
-6.19 -1.02 2.39
-6.18 -1.15 2.40
-6.14 -1.27 2.39
-6.11 -1.39 2.39
-6.08 -1.52 2.39
-6.05 -1.64 2.39
-6.01 -1.76 2.39
-5.98 -1.88 2.39
-5.98 -2.01 2.41
-5.97 -2.14 2.42
-5.97 -2.28 2.44
-5.97 -2.42 2.46
-5.97 -2.56 2.48
-5.94 -2.69 2.49
-5.89 -2.81 2.49
-5.83 -2.92 2.49
-5.76 -3.04 2.49
-5.70 -3.15 2.49
-5.64 -3.27 2.49
-5.57 -3.38 2.49
-5.50 -3.49 2.49
-5.42 -3.60 2.49
-5.35 -3.70 2.49
-5.27 -3.81 2.49
-5.19 -3.91 2.49
-5.11 -4.02 2.49
-5.03 -4.12 2.49
-4.95 -4.22 2.49
-4.86 -4.31 2.49
-4.77 -4.41 2.49
-4.68 -4.50 2.49
-4.59 -4.59 2.49
-4.49 -4.68 2.49
-4.40 -4.77 2.49
-4.30 -4.86 2.49
-4.20 -4.94 2.49
-4.10 -5.02 2.49
-3.99 -5.10 2.49
-3.89 -5.18 2.49
-3.78 -5.26 2.49
-3.68 -5.33 2.49
-3.57 -5.40 2.49
-3.46 -5.47 2.49
-3.35 -5.54 2.49
-3.23 -5.61 2.49
-3.12 -5.67 2.49
-3.01 -5.73 2.49
-2.89 -5.79 2.49
-2.77 -5.84 2.49
-2.65 -5.89 2.49
-2.53 -5.95 2.49
-2.41 -5.99 2.49
-2.29 -6.04 2.49
-2.17 -6.08 2.49
-2.05 -6.12 2.49
-1.92 -6.16 2.49
-1.80 -6.20 2.49
-1.67 -6.23 2.49
-1.55 -6.26 2.49
-1.42 -6.29 2.49
-1.29 -6.32 2.49
-1.17 -6.34 2.49
-1.04 -6.36 2.49
-0.91 -6.38 2.49
-0.78 -6.40 2.49
-0.65 -6.41 2.49
-0.52 -6.42 2.49
-0.39 -6.43 2.49
-0.26 -6.44 2.49
-0.14 -6.44 2.49
-0.01 -6.03 2.49
0.12 -6.03 2.49
0.24 -6.03 2.49
0.36 -6.02 2.49
0.48 -6.01 2.49
0.60 -6.00 2.49
0.72 -5.98 2.49
0.84 -5.97 2.49
0.96 -5.95 2.49
1.08 -5.93 2.49
1.20 -5.90 2.49
1.32 -5.88 2.49
1.43 -5.85 2.49
1.55 -5.82 2.49
1.67 -5.79 2.49
1.78 -5.75 2.49
1.90 -5.72 2.49
2.01 -5.68 2.49
2.07 -5.47 2.42
2.15 -5.36 2.39
2.25 -5.32 2.39
2.36 -5.27 2.39
2.47 -5.22 2.39
2.57 -5.17 2.39
2.67 -5.11 2.39
2.78 -5.06 2.39
2.88 -5.00 2.39
2.98 -4.94 2.39
3.07 -4.88 2.39
3.17 -4.82 2.39
3.27 -4.76 2.39
3.36 -4.69 2.39
3.46 -4.62 2.39
3.55 -4.55 2.39
3.64 -4.48 2.39
3.73 -4.40 2.39
3.82 -4.33 2.39
3.90 -4.25 2.39
3.99 -4.17 2.39
4.07 -4.09 2.39
4.15 -4.01 2.39
4.23 -3.92 2.39
4.31 -3.84 2.39
4.39 -3.75 2.39
4.46 -3.66 2.39
4.54 -3.57 2.39
4.61 -3.48 2.39
4.68 -3.39 2.39
4.74 -3.29 2.39
4.81 -3.20 2.39
4.52 -2.87 2.22
4.61 -2.80 2.23
4.83 -2.81 2.31
5.05 -2.80 2.39
5.11 -2.70 2.39
4.44 -2.23 2.06
4.44 -2.12 2.03
4.44 -2.01 2.01
4.44 -1.90 2.00
4.44 -1.80 1.98
4.44 -1.70 1.96
4.44 -1.60 1.95
5.48 -1.85 2.39
5.52 -1.74 2.39
5.55 -1.63 2.39
5.58 -1.51 2.39
5.61 -1.40 2.39
5.64 -1.29 2.39
5.67 -1.18 2.39
5.69 -1.06 2.39
5.71 -0.95 2.39
5.73 -0.83 2.39
5.75 -0.72 2.39
5.76 -0.60 2.39
5.78 -0.49 2.39
5.78 -0.37 2.39
5.79 -0.25 2.39
5.80 -0.14 2.39
5.80 -0.02 2.39
5.80 0.10 2.39
5.80 0.21 2.39
5.79 0.33 2.39
5.79 0.45 2.39
5.78 0.56 2.39
5.77 0.68 2.39
5.75 0.79 2.39
5.74 0.91 2.39
5.72 1.02 2.39
5.70 1.14 2.39
5.68 1.25 2.39
5.65 1.37 2.39
5.62 1.48 2.39
5.59 1.59 2.39
5.56 1.71 2.39
5.53 1.82 2.39
5.49 1.93 2.39
5.45 2.04 2.39
5.41 2.15 2.39
5.37 2.26 2.39
5.32 2.37 2.39
5.28 2.47 2.39
5.23 2.58 2.39
5.18 2.69 2.39
5.12 2.79 2.39
5.07 2.89 2.39
5.01 2.99 2.39
4.95 3.09 2.39
4.89 3.19 2.39
4.82 3.29 2.39
4.76 3.39 2.39
4.69 3.49 2.39
4.62 3.58 2.39
4.55 3.67 2.39
4.47 3.76 2.39
4.40 3.85 2.39
4.32 3.94 2.39
4.24 4.03 2.39
4.16 4.11 2.39
4.08 4.20 2.39
4.00 4.28 2.39
3.91 4.36 2.39
3.82 4.44 2.39
3.73 4.52 2.39
3.64 4.59 2.39
3.55 4.66 2.39
3.46 4.74 2.39
3.36 4.81 2.39
3.27 4.87 2.39
3.17 4.94 2.39
3.07 5.00 2.39
2.97 5.06 2.39
2.87 5.12 2.39
2.77 5.18 2.39
2.65 5.21 2.38
2.52 5.21 2.35
2.45 5.34 2.39
2.34 5.39 2.39
2.24 5.44 2.39
2.13 5.48 2.39
2.10 5.76 2.49
1.99 5.81 2.49
1.87 5.85 2.49
1.75 5.88 2.49
1.64 5.92 2.49
1.52 5.95 2.49
1.40 5.98 2.49
1.28 6.01 2.49
1.16 6.03 2.49
1.04 6.06 2.49
0.91 6.08 2.49
0.79 6.10 2.49
0.67 6.11 2.49
0.55 6.13 2.49
0.43 6.14 2.49
0.30 6.14 2.49
0.18 6.15 2.49
0.06 6.15 2.49
-0.07 6.15 2.49
-0.19 6.15 2.49
-0.31 6.15 2.49
-0.44 6.14 2.49
-0.56 6.13 2.49
-0.68 6.12 2.49
-0.81 6.11 2.49
-0.93 6.09 2.49
-1.05 6.07 2.49
-1.17 6.05 2.49
-1.29 6.02 2.49
-1.41 6.00 2.49
-1.53 5.97 2.49
-1.65 5.94 2.49
-1.77 5.90 2.49
-1.89 5.87 2.49
-2.01 5.83 2.49
-2.12 5.79 2.49
-2.24 5.74 2.49
-2.35 5.70 2.49
-2.47 5.65 2.49
-2.58 5.60 2.49
-2.69 5.55 2.49
-2.80 5.49 2.49
-2.91 5.44 2.49
-3.02 5.38 2.49
-3.13 5.31 2.49
-3.23 5.25 2.49
-3.34 5.18 2.49
-3.44 5.12 2.49
-3.54 5.05 2.49
-3.64 4.97 2.49
-3.74 4.90 2.49
-3.84 4.82 2.49
-3.94 4.75 2.49
-4.03 4.67 2.49
-4.12 4.59 2.49
-4.21 4.50 2.49
-4.30 4.42 2.49
-4.39 4.33 2.49
-4.48 4.24 2.49
-4.56 4.15 2.49
-4.64 4.06 2.49
-4.72 3.96 2.49
-4.80 3.87 2.49
-4.88 3.77 2.49
-4.95 3.67 2.49
-5.02 3.57 2.49
-5.09 3.47 2.49
-5.16 3.37 2.49
-5.23 3.26 2.49
-5.29 3.16 2.49
-5.35 3.05 2.49
-5.41 2.94 2.49
-5.47 2.83 2.49
-5.52 2.72 2.49
-5.58 2.61 2.49
-5.63 2.50 2.49
-5.68 2.38 2.49
-5.72 2.27 2.49
-5.77 2.15 2.49
-5.81 2.04 2.49
-5.85 1.92 2.49
-5.88 1.80 2.49
-5.92 1.68 2.49
-5.95 1.56 2.49
-5.95 1.44 2.48
-5.95 1.31 2.47
-5.95 1.19 2.46
-5.95 1.06 2.45
-5.96 0.94 2.45
-5.96 0.82 2.44
-5.96 0.70 2.44
-5.96 0.58 2.43
-5.96 0.46 2.43
-5.96 0.34 2.43
-5.96 0.22 2.42
-5.96 0.10 2.42
-5.96 -0.02 2.42
-5.96 -0.14 2.43
-5.96 -0.26 2.43
-5.96 -0.38 2.43
-5.96 -0.50 2.43
-5.96 -0.62 2.44
-5.96 -0.74 2.45
-5.96 -0.86 2.45
-5.96 -0.99 2.46
-5.96 -1.11 2.47
-5.97 -1.24 2.48
-5.97 -1.36 2.49
-5.94 -1.48 2.49
-5.90 -1.60 2.49
-5.87 -1.72 2.49
-5.83 -1.83 2.49
-5.79 -1.95 2.49
-5.75 -2.06 2.49
-5.71 -2.18 2.49
-5.66 -2.29 2.49
-5.61 -2.41 2.49
-5.56 -2.52 2.49
-5.51 -2.63 2.49
-5.45 -2.74 2.49
-5.40 -2.84 2.49
-5.34 -2.95 2.49
-5.28 -3.06 2.49
-5.21 -3.16 2.49
-5.15 -3.27 2.49
-5.08 -3.37 2.49
-5.01 -3.47 2.49
-4.94 -3.57 2.49
-4.86 -3.66 2.49
-4.79 -3.76 2.49
-4.71 -3.85 2.49
-4.63 -3.95 2.49
-4.55 -4.04 2.49
-4.47 -4.13 2.49
-4.38 -4.22 2.49
-4.30 -4.30 2.49
-4.21 -4.39 2.49
-4.12 -4.47 2.49
-4.03 -4.55 2.49
-3.93 -4.63 2.49
-3.84 -4.71 2.49
-3.74 -4.78 2.49
-3.64 -4.85 2.49
-3.55 -4.92 2.49
-3.44 -4.99 2.49
-3.34 -5.06 2.49
-3.24 -5.13 2.49
-3.14 -5.19 2.49
-3.03 -5.25 2.49
-2.92 -5.31 2.49
-2.82 -5.36 2.49
-2.71 -5.42 2.49
-2.60 -5.47 2.49
-2.49 -5.52 2.49
-2.37 -5.57 2.49
-2.26 -5.61 2.49
-2.15 -5.66 2.49
-2.03 -5.70 2.49
-1.92 -5.74 2.49
-1.80 -5.77 2.49
-1.68 -5.81 2.49
-1.57 -5.84 2.49
-1.45 -5.87 2.49
-1.33 -5.89 2.49
-1.21 -5.92 2.49
-1.09 -5.94 2.49
-0.97 -5.96 2.49
-0.85 -5.98 2.49
-0.73 -5.99 2.49
-0.61 -6.01 2.49
-0.49 -6.02 2.49
-0.37 -6.02 2.49
-0.25 -6.03 2.49
-0.13 -6.03 2.49
-0.01 -5.67 2.49
0.11 -5.67 2.49
0.22 -5.66 2.49
0.34 -5.66 2.49
0.45 -5.65 2.49
0.56 -5.64 2.49
0.68 -5.62 2.49
0.79 -5.61 2.49
0.90 -5.59 2.49
1.01 -5.57 2.49
1.12 -5.55 2.49
1.24 -5.52 2.49
1.35 -5.50 2.49
1.46 -5.47 2.49
1.57 -5.44 2.49
1.68 -5.40 2.49
1.78 -5.37 2.49
1.89 -5.33 2.49
2.00 -5.29 2.49
2.06 -5.15 2.45
2.12 -4.99 2.39
2.22 -4.95 2.39
2.32 -4.90 2.39
2.41 -4.86 2.39
2.51 -4.81 2.39
2.61 -4.75 2.39
2.70 -4.70 2.39
2.80 -4.65 2.39
2.89 -4.59 2.39
2.98 -4.53 2.39
3.07 -4.47 2.39
3.16 -4.41 2.39
3.25 -4.34 2.39
3.34 -4.27 2.39
3.42 -4.21 2.39
3.50 -4.14 2.39
3.59 -4.07 2.39
3.67 -3.99 2.39
3.75 -3.92 2.39
3.83 -3.84 2.39
3.90 -3.77 2.39
3.98 -3.69 2.39
4.05 -3.61 2.39
4.12 -3.52 2.39
4.19 -3.44 2.39
4.26 -3.36 2.39
4.33 -3.27 2.39
4.39 -3.18 2.39
4.46 -3.09 2.39
4.52 -3.00 2.39
4.52 -2.87 2.36
4.61 -2.80 2.38
4.69 -2.73 2.39
4.75 -2.63 2.39
4.80 -2.54 2.39
4.85 -2.44 2.39
4.90 -2.34 2.39
4.95 -2.24 2.39
4.53 -1.95 2.17
4.53 -1.84 2.15
4.77 -1.83 2.25
5.11 -1.84 2.39
5.15 -1.74 2.39
5.18 -1.63 2.39
5.22 -1.53 2.39
5.25 -1.42 2.39
5.28 -1.32 2.39
5.30 -1.21 2.39
5.33 -1.10 2.39
5.35 -1.00 2.39
5.37 -0.89 2.39
5.39 -0.78 2.39
5.40 -0.67 2.39
5.41 -0.56 2.39
5.43 -0.46 2.39
5.43 -0.35 2.39
5.44 -0.24 2.39
5.45 -0.13 2.39
5.45 -0.02 2.39
5.45 0.09 2.39
5.45 0.20 2.39
5.44 0.31 2.39
5.44 0.42 2.39
5.43 0.53 2.39
5.42 0.64 2.39
5.40 0.75 2.39
5.39 0.85 2.39
5.37 0.96 2.39
5.35 1.07 2.39
5.33 1.18 2.39
5.31 1.29 2.39
5.28 1.39 2.39
5.25 1.50 2.39
5.22 1.60 2.39
5.19 1.71 2.39
5.16 1.81 2.39
5.12 1.92 2.39
5.08 2.02 2.39
5.04 2.12 2.39
5.00 2.22 2.39
4.96 2.32 2.39
4.91 2.42 2.39
4.86 2.52 2.39
4.81 2.62 2.39
4.76 2.72 2.39
4.70 2.81 2.39
4.65 2.91 2.39
4.59 3.00 2.39
4.53 3.09 2.39
4.47 3.18 2.39
4.40 3.27 2.39
4.34 3.36 2.39
4.27 3.45 2.39
4.20 3.53 2.39
4.13 3.62 2.39
4.06 3.70 2.39
3.98 3.78 2.39
3.91 3.86 2.39
3.83 3.94 2.39
3.75 4.02 2.39
3.67 4.09 2.39
3.59 4.17 2.39
3.51 4.24 2.39
3.42 4.31 2.39
3.16 4.16 2.27
3.08 4.22 2.27
3.16 4.51 2.39
3.07 4.58 2.39
2.97 4.64 2.39
2.88 4.70 2.39
2.79 4.75 2.39
2.69 4.81 2.39
2.60 4.86 2.39
2.50 4.92 2.39
2.40 4.97 2.39
2.30 5.02 2.39
2.20 5.06 2.39
2.12 5.15 2.41
2.08 5.37 2.49
1.97 5.41 2.49
1.87 5.45 2.49
1.76 5.49 2.49
1.65 5.52 2.49
1.54 5.56 2.49
1.42 5.59 2.49
1.31 5.62 2.49
1.20 5.64 2.49
1.09 5.67 2.49
0.97 5.69 2.49
0.86 5.71 2.49
0.74 5.72 2.49
0.63 5.74 2.49
0.51 5.75 2.49
0.40 5.76 2.49
0.28 5.77 2.49
0.17 5.77 2.49
0.05 5.78 2.49
-0.06 5.78 2.49
-0.18 5.77 2.49
-0.30 5.77 2.49
-0.41 5.76 2.49
-0.53 5.76 2.49
-0.64 5.74 2.49
-0.76 5.73 2.49
-0.87 5.72 2.49
-0.99 5.70 2.49
-1.10 5.68 2.49
-1.21 5.65 2.49
-1.33 5.63 2.49
-1.44 5.60 2.49
-1.55 5.57 2.49
-1.66 5.54 2.49
-1.77 5.51 2.49
-1.88 5.47 2.49
-1.99 5.43 2.49
-2.10 5.39 2.49
-2.21 5.35 2.49
-2.32 5.30 2.49
-2.42 5.26 2.49
-2.53 5.21 2.49
-2.63 5.16 2.49
-2.73 5.10 2.49
-2.84 5.05 2.49
-2.94 4.99 2.49
-3.04 4.93 2.49
-3.13 4.87 2.49
-3.23 4.80 2.49
-3.33 4.74 2.49
-3.42 4.67 2.49
-3.51 4.60 2.49
-3.61 4.53 2.49
-3.70 4.46 2.49
-3.78 4.38 2.49
-3.87 4.30 2.49
-3.96 4.23 2.49
-4.04 4.14 2.49
-4.12 4.06 2.49
-4.20 3.98 2.49
-4.28 3.89 2.49
-4.36 3.81 2.49
-4.43 3.72 2.49
-4.51 3.63 2.49
-4.58 3.54 2.49
-4.65 3.45 2.49
-4.72 3.35 2.49
-4.78 3.26 2.49
-4.84 3.16 2.49
-4.91 3.06 2.49
-4.97 2.96 2.49
-5.02 2.86 2.49
-5.08 2.76 2.49
-5.13 2.66 2.49
-5.19 2.55 2.49
-5.24 2.45 2.49
-5.28 2.34 2.49
-5.33 2.24 2.49
-5.37 2.13 2.49
-5.41 2.02 2.49
-5.45 1.91 2.49
-5.49 1.80 2.49
-5.52 1.69 2.49
-5.55 1.58 2.49
-5.58 1.47 2.49
-5.61 1.36 2.49
-5.64 1.24 2.49
-5.66 1.13 2.49
-5.68 1.02 2.49
-5.70 0.90 2.49
-5.71 0.79 2.49
-5.73 0.67 2.49
-5.74 0.56 2.49
-5.75 0.44 2.49
-5.75 0.33 2.49
-5.76 0.21 2.49
-5.76 0.10 2.49
-5.76 -0.02 2.49
-5.76 -0.14 2.49
-5.75 -0.25 2.49
-5.74 -0.37 2.49
-5.73 -0.48 2.49
-5.72 -0.60 2.49
-5.71 -0.71 2.49
-5.69 -0.82 2.49
-5.67 -0.94 2.49
-5.65 -1.05 2.49
-5.63 -1.16 2.49
-5.60 -1.28 2.49
-5.57 -1.39 2.49
-5.54 -1.50 2.49
-5.51 -1.61 2.49
-5.48 -1.72 2.49
-5.44 -1.83 2.49
-5.40 -1.94 2.49
-5.36 -2.05 2.49
-5.32 -2.15 2.49
-5.27 -2.26 2.49
-5.22 -2.36 2.49
-5.17 -2.47 2.49
-5.12 -2.57 2.49
-5.07 -2.67 2.49
-5.01 -2.77 2.49
-4.96 -2.87 2.49
-4.90 -2.97 2.49
-4.83 -3.07 2.49
-4.77 -3.16 2.49
-4.70 -3.26 2.49
-4.64 -3.35 2.49
-4.57 -3.44 2.49
-4.50 -3.53 2.49
-4.42 -3.62 2.49
-4.35 -3.71 2.49
-4.27 -3.79 2.49
-4.20 -3.88 2.49
-4.12 -3.96 2.49
-4.03 -4.04 2.49
-3.95 -4.12 2.49
-3.87 -4.20 2.49
-3.78 -4.27 2.49
-3.69 -4.35 2.49
-3.61 -4.42 2.49
-3.51 -4.49 2.49
-3.42 -4.56 2.49
-3.33 -4.63 2.49
-3.24 -4.69 2.49
-3.14 -4.75 2.49
-3.04 -4.81 2.49
-2.95 -4.87 2.49
-2.85 -4.93 2.49
-2.75 -4.99 2.49
-2.65 -5.04 2.49
-2.54 -5.09 2.49
-2.44 -5.14 2.49
-2.34 -5.19 2.49
-2.23 -5.23 2.49
-2.12 -5.27 2.49
-2.02 -5.31 2.49
-1.91 -5.35 2.49
-1.80 -5.39 2.49
-1.69 -5.42 2.49
-1.58 -5.45 2.49
-1.47 -5.48 2.49
-1.36 -5.51 2.49
-1.25 -5.54 2.49
-1.14 -5.56 2.49
-1.03 -5.58 2.49
-0.91 -5.60 2.49
-0.80 -5.62 2.49
-0.69 -5.63 2.49
-0.58 -5.64 2.49
-0.46 -5.65 2.49
-0.35 -5.66 2.49
-0.23 -5.66 2.49
-0.12 -5.67 2.49
-0.01 -5.34 2.49
0.10 -5.34 2.49
0.21 -5.33 2.49
0.32 -5.33 2.49
0.42 -5.32 2.49
0.53 -5.31 2.49
0.64 -5.30 2.49
0.74 -5.28 2.49
0.85 -5.27 2.49
0.95 -5.25 2.49
1.06 -5.23 2.49
1.16 -5.20 2.49
1.27 -5.18 2.49
1.37 -5.15 2.49
1.48 -5.12 2.49
1.58 -5.09 2.49
1.68 -5.06 2.49
1.78 -5.02 2.49
1.88 -4.99 2.49
1.98 -4.95 2.49
2.06 -4.87 2.47
2.09 -4.66 2.39
2.18 -4.62 2.39
2.27 -4.57 2.39
2.37 -4.53 2.39
2.46 -4.48 2.39
2.55 -4.43 2.39
2.63 -4.38 2.39
2.72 -4.32 2.39
2.81 -4.27 2.39
2.89 -4.21 2.39
2.98 -4.15 2.39
3.06 -4.09 2.39
3.14 -4.03 2.39
3.22 -3.96 2.39
3.30 -3.90 2.39
3.38 -3.83 2.39
3.46 -3.76 2.39
3.53 -3.69 2.39
3.60 -3.62 2.39
3.68 -3.55 2.39
3.75 -3.47 2.39
3.82 -3.40 2.39
3.88 -3.32 2.39
3.95 -3.24 2.39
4.01 -3.16 2.39
4.08 -3.08 2.39
4.14 -3.00 2.39
4.20 -2.91 2.39
4.26 -2.83 2.39
4.31 -2.74 2.39
4.37 -2.66 2.39
4.42 -2.57 2.39
4.47 -2.48 2.39
4.52 -2.39 2.39
4.57 -2.30 2.39
4.61 -2.20 2.39
4.66 -2.11 2.39
4.53 -1.95 2.31
4.53 -1.84 2.28
4.77 -1.83 2.39
4.82 -1.73 2.39
4.85 -1.63 2.39
4.88 -1.54 2.39
4.91 -1.44 2.39
4.94 -1.34 2.39
4.97 -1.24 2.39
4.99 -1.14 2.39
5.02 -1.04 2.39
5.04 -0.94 2.39
5.06 -0.84 2.39
5.07 -0.74 2.39
5.09 -0.63 2.39
5.10 -0.53 2.39
5.11 -0.43 2.39
5.12 -0.33 2.39
5.12 -0.22 2.39
5.13 -0.12 2.39
5.13 -0.02 2.39
5.13 0.09 2.39
5.13 0.19 2.39
5.13 0.29 2.39
5.12 0.39 2.39
5.11 0.50 2.39
5.10 0.60 2.39
5.09 0.70 2.39
5.08 0.81 2.39
5.06 0.91 2.39
5.04 1.01 2.39
5.02 1.11 2.39
5.00 1.21 2.39
4.97 1.31 2.39
4.95 1.41 2.39
4.92 1.51 2.39
4.89 1.61 2.39
4.86 1.71 2.39
4.82 1.81 2.39
4.79 1.90 2.39
4.75 2.00 2.39
4.71 2.09 2.39
4.67 2.19 2.39
4.62 2.28 2.39
4.58 2.38 2.39
4.53 2.47 2.39
4.48 2.56 2.39
4.43 2.65 2.39
4.38 2.74 2.39
4.32 2.83 2.39
4.26 2.91 2.39
4.21 3.00 2.39
4.15 3.08 2.39
4.08 3.17 2.39
4.02 3.25 2.39
3.96 3.33 2.39
3.89 3.41 2.39
3.82 3.49 2.39
3.75 3.56 2.39
3.68 3.64 2.39
3.61 3.71 2.39
3.53 3.78 2.39
3.46 3.86 2.39
3.38 3.92 2.39
3.13 3.79 2.27
3.06 3.86 2.27
3.04 3.99 2.31
2.92 4.00 2.28
2.82 4.03 2.27
2.74 4.09 2.27
2.66 4.14 2.27
2.57 4.20 2.27
2.62 4.48 2.39
2.53 4.53 2.39
2.44 4.58 2.39
2.35 4.63 2.39
2.26 4.68 2.39
2.16 4.72 2.39
2.11 4.86 2.44
2.06 5.01 2.49
1.96 5.05 2.49
1.86 5.09 2.49
1.76 5.13 2.49
1.65 5.17 2.49
1.55 5.20 2.49
1.44 5.23 2.49
1.34 5.26 2.49
1.23 5.29 2.49
1.13 5.31 2.49
1.02 5.33 2.49
0.91 5.35 2.49
0.81 5.37 2.49
0.70 5.39 2.49
0.59 5.40 2.49
0.48 5.41 2.49
0.37 5.42 2.49
0.27 5.43 2.49
0.16 5.43 2.49
0.05 5.44 2.49
-0.06 5.44 2.49
-0.17 5.44 2.49
-0.28 5.43 2.49
-0.39 5.43 2.49
-0.50 5.42 2.49
-0.60 5.41 2.49
-0.71 5.39 2.49
-0.82 5.38 2.49
-0.93 5.36 2.49
-1.04 5.34 2.49
-1.14 5.32 2.49
-1.25 5.30 2.49
-1.36 5.27 2.49
-1.46 5.24 2.49
-1.57 5.21 2.49
-1.67 5.18 2.49
-1.77 5.15 2.49
-1.88 5.11 2.49
-1.98 5.07 2.49
-2.08 5.03 2.49
-2.18 4.99 2.49
-2.28 4.95 2.49
-2.38 4.90 2.49
-2.48 4.85 2.49
-2.57 4.80 2.49
-2.67 4.75 2.49
-2.76 4.69 2.49
-2.86 4.64 2.49
-2.95 4.58 2.49
-3.04 4.52 2.49
-3.13 4.46 2.49
-3.22 4.39 2.49
-3.31 4.33 2.49
-3.39 4.26 2.49
-3.48 4.19 2.49
-3.56 4.12 2.49
-3.64 4.05 2.49
-3.72 3.98 2.49
-3.80 3.90 2.49
-3.88 3.82 2.49
-3.95 3.74 2.49
-4.03 3.66 2.49
-4.10 3.58 2.49
-4.17 3.50 2.49
-4.24 3.42 2.49
-4.31 3.33 2.49
-4.37 3.24 2.49
-4.44 3.15 2.49
-4.50 3.06 2.49
-4.56 2.97 2.49
-4.62 2.88 2.49
-4.67 2.79 2.49
-4.73 2.69 2.49
-4.78 2.60 2.49
-4.83 2.50 2.49
-4.88 2.40 2.49
-4.93 2.30 2.49
-4.97 2.21 2.49
-5.01 2.11 2.49
-5.05 2.00 2.49
-5.09 1.90 2.49
-5.13 1.80 2.49
-5.16 1.70 2.49
-5.20 1.59 2.49
-5.23 1.49 2.49
-5.25 1.38 2.49
-5.28 1.28 2.49
-5.30 1.17 2.49
-5.33 1.06 2.49
-5.34 0.96 2.49
-5.36 0.85 2.49
-5.38 0.74 2.49
-5.39 0.63 2.49
-5.40 0.52 2.49
-5.41 0.42 2.49
-5.42 0.31 2.49
-5.42 0.20 2.49
-5.42 0.09 2.49
-5.42 -0.02 2.49
-5.42 -0.13 2.49
-5.41 -0.24 2.49
-5.41 -0.34 2.49
-5.40 -0.45 2.49
-5.39 -0.56 2.49
-5.37 -0.67 2.49
-5.36 -0.78 2.49
-5.34 -0.88 2.49
-5.32 -0.99 2.49
-5.30 -1.10 2.49
-5.27 -1.20 2.49
-5.25 -1.31 2.49
-5.22 -1.41 2.49
-5.19 -1.52 2.49
-5.16 -1.62 2.49
-5.12 -1.72 2.49
-5.09 -1.82 2.49
-5.05 -1.93 2.49
-5.01 -2.03 2.49
-4.96 -2.13 2.49
-4.92 -2.22 2.49
-4.87 -2.32 2.49
-4.82 -2.42 2.49
-4.77 -2.51 2.49
-4.72 -2.61 2.49
-4.67 -2.70 2.49
-4.61 -2.79 2.49
-4.55 -2.89 2.49
-4.49 -2.98 2.49
-4.43 -3.07 2.49
-4.37 -3.15 2.49
-4.30 -3.24 2.49
-4.23 -3.32 2.49
-4.17 -3.41 2.49
-4.10 -3.49 2.49
-4.02 -3.57 2.49
-3.95 -3.65 2.49
-3.88 -3.73 2.49
-3.80 -3.80 2.49
-3.72 -3.88 2.49
-3.64 -3.95 2.49
-3.56 -4.02 2.49
-3.48 -4.09 2.49
-3.40 -4.16 2.49
-3.31 -4.23 2.49
-3.22 -4.29 2.49
-3.14 -4.35 2.49
-3.05 -4.42 2.49
-2.96 -4.48 2.49
-2.87 -4.53 2.49
-2.77 -4.59 2.49
-2.68 -4.64 2.49
-2.59 -4.69 2.49
-2.49 -4.74 2.49
-2.40 -4.79 2.49
-2.30 -4.84 2.49
-2.20 -4.88 2.49
-2.10 -4.93 2.49
-2.00 -4.97 2.49
-1.90 -5.00 2.49
-1.80 -5.04 2.49
-1.70 -5.07 2.49
-1.59 -5.11 2.49
-1.49 -5.14 2.49
-1.39 -5.17 2.49
-1.28 -5.19 2.49
-1.18 -5.21 2.49
-1.07 -5.24 2.49
-0.97 -5.26 2.49
-0.86 -5.27 2.49
-0.76 -5.29 2.49
-0.65 -5.30 2.49
-0.54 -5.31 2.49
-0.44 -5.32 2.49
-0.33 -5.33 2.49
-0.22 -5.33 2.49
-0.11 -5.34 2.49
-0.01 -5.04 2.49
0.10 -5.04 2.49
0.20 -5.03 2.49
0.30 -5.03 2.49
0.40 -5.02 2.49
0.50 -5.01 2.49
0.60 -5.00 2.49
0.70 -4.99 2.49
0.80 -4.97 2.49
0.90 -4.95 2.49
1.00 -4.93 2.49
1.10 -4.91 2.49
1.20 -4.89 2.49
1.29 -4.86 2.49
1.39 -4.84 2.49
1.49 -4.81 2.49
1.59 -4.77 2.49
1.68 -4.74 2.49
1.78 -4.71 2.49
1.87 -4.67 2.49
1.96 -4.63 2.49
2.06 -4.59 2.49
2.07 -4.39 2.41
2.15 -4.32 2.39
2.23 -4.27 2.39
2.32 -4.23 2.39
2.40 -4.18 2.39
2.49 -4.13 2.39
2.57 -4.08 2.39
2.65 -4.03 2.39
2.73 -3.97 2.39
2.81 -3.92 2.39
2.89 -3.86 2.39
2.97 -3.80 2.39
3.04 -3.74 2.39
3.12 -3.68 2.39
3.19 -3.62 2.39
3.26 -3.55 2.39
3.33 -3.48 2.39
3.40 -3.42 2.39
3.47 -3.35 2.39
3.54 -3.28 2.39
3.60 -3.21 2.39
3.67 -3.13 2.39
3.73 -3.06 2.39
3.79 -2.98 2.39
3.85 -2.91 2.39
3.91 -2.83 2.39
3.96 -2.75 2.39
4.02 -2.67 2.39
4.07 -2.59 2.39
4.12 -2.51 2.39
4.17 -2.42 2.39
4.22 -2.34 2.39
4.27 -2.25 2.39
4.31 -2.17 2.39
4.36 -2.08 2.39
4.40 -1.99 2.39
4.44 -1.90 2.39
4.48 -1.81 2.39
4.51 -1.72 2.39
4.55 -1.63 2.39
4.58 -1.54 2.39
4.61 -1.45 2.39
4.64 -1.36 2.39
4.66 -1.26 2.39
4.69 -1.17 2.39
4.71 -1.08 2.39
4.73 -0.98 2.39
4.75 -0.89 2.39
4.77 -0.79 2.39
4.79 -0.69 2.39
4.80 -0.60 2.39
4.81 -0.50 2.39
4.82 -0.40 2.39
4.83 -0.31 2.39
4.84 -0.21 2.39
4.84 -0.11 2.39
4.84 -0.02 2.39
4.84 0.08 2.39
4.84 0.18 2.39
4.84 0.28 2.39
4.83 0.37 2.39
4.82 0.47 2.39
4.82 0.57 2.39
4.80 0.66 2.39
4.79 0.76 2.39
4.77 0.86 2.39
4.76 0.95 2.39
4.74 1.05 2.39
4.72 1.14 2.39
4.69 1.24 2.39
4.67 1.33 2.39
4.64 1.43 2.39
4.61 1.52 2.39
4.58 1.61 2.39
4.55 1.70 2.39
4.52 1.80 2.39
4.48 1.89 2.39
4.44 1.98 2.39
4.40 2.07 2.39
4.36 2.15 2.39
4.32 2.24 2.39
4.27 2.33 2.39
4.23 2.41 2.39
4.18 2.50 2.39
4.13 2.58 2.39
4.08 2.67 2.39
4.02 2.75 2.39
3.97 2.83 2.39
3.91 2.91 2.39
3.85 2.99 2.39
3.79 3.06 2.39
3.73 3.14 2.39
3.67 3.22 2.39
3.60 3.29 2.39
3.54 3.36 2.39
3.47 3.43 2.39
3.40 3.50 2.39
3.16 3.39 2.27
3.09 3.45 2.27
3.05 3.54 2.29
3.05 3.69 2.34
2.99 3.77 2.35
2.91 3.83 2.35
2.84 3.89 2.35
2.76 3.94 2.35
2.58 3.86 2.27
2.51 3.91 2.27
2.46 4.01 2.30
2.46 4.20 2.38
2.39 4.27 2.39
2.30 4.32 2.39
2.22 4.37 2.39
2.13 4.41 2.39
2.11 4.60 2.47
2.04 4.69 2.49
1.94 4.73 2.49
1.85 4.77 2.49
1.75 4.81 2.49
1.66 4.84 2.49
1.56 4.87 2.49
1.46 4.90 2.49
1.36 4.93 2.49
1.26 4.96 2.49
1.16 4.99 2.49
1.06 5.01 2.49
0.96 5.03 2.49
0.86 5.05 2.49
0.76 5.07 2.49
0.66 5.08 2.49
0.56 5.09 2.49
0.46 5.11 2.49
0.35 5.11 2.49
0.25 5.12 2.49
0.15 5.13 2.49
0.05 5.13 2.49
-0.06 5.13 2.49
-0.16 5.13 2.49
-0.26 5.12 2.49
-0.37 5.12 2.49
-0.47 5.11 2.49
-0.57 5.10 2.49
-0.67 5.09 2.49
-0.77 5.07 2.49
-0.88 5.06 2.49
-0.98 5.04 2.49
-1.08 5.02 2.49
-1.18 5.00 2.49
-1.28 4.97 2.49
-1.38 4.95 2.49
-1.48 4.92 2.49
-1.58 4.89 2.49
-1.67 4.86 2.49
-1.77 4.82 2.49
-1.87 4.79 2.49
-1.96 4.75 2.49
-2.06 4.71 2.49
-2.15 4.67 2.49
-2.24 4.62 2.49
-2.34 4.58 2.49
-2.43 4.53 2.49
-2.52 4.48 2.49
-2.61 4.43 2.49
-2.70 4.37 2.49
-2.78 4.32 2.49
-2.87 4.26 2.49
-2.95 4.21 2.49
-3.04 4.15 2.49
-3.12 4.08 2.49
-3.20 4.02 2.49
-3.28 3.96 2.49
-3.36 3.89 2.49
-3.44 3.82 2.49
-3.51 3.75 2.49
-3.59 3.68 2.49
-3.66 3.61 2.49
-3.73 3.53 2.49
-3.80 3.46 2.49
-3.87 3.38 2.49
-3.93 3.30 2.49
-4.00 3.22 2.49
-4.06 3.14 2.49
-4.13 3.06 2.49
-4.19 2.98 2.49
-4.24 2.89 2.49
-4.30 2.80 2.49
-4.36 2.72 2.49
-4.41 2.63 2.49
-4.46 2.54 2.49
-4.51 2.45 2.49
-4.56 2.36 2.49
-4.60 2.27 2.49
-4.65 2.17 2.49
-4.69 2.08 2.49
-4.73 1.99 2.49
-4.77 1.89 2.49
-4.80 1.79 2.49
-4.84 1.70 2.49
-4.87 1.60 2.49
-4.90 1.50 2.49
-4.93 1.40 2.49
-4.96 1.30 2.49
-4.98 1.20 2.49
-5.00 1.10 2.49
-5.02 1.00 2.49
-5.04 0.90 2.49
-5.06 0.80 2.49
-5.07 0.70 2.49
-5.08 0.60 2.49
-5.09 0.50 2.49
-5.10 0.39 2.49
-5.11 0.29 2.49
-5.11 0.19 2.49
-5.11 0.09 2.49
-5.11 -0.02 2.49
-5.11 -0.12 2.49
-5.11 -0.22 2.49
-5.10 -0.32 2.49
-5.09 -0.43 2.49
-5.08 -0.53 2.49
-5.07 -0.63 2.49
-5.06 -0.73 2.49
-5.04 -0.83 2.49
-5.02 -0.93 2.49
-5.00 -1.03 2.49
-4.98 -1.13 2.49
-4.95 -1.23 2.49
-4.93 -1.33 2.49
-4.90 -1.43 2.49
-4.87 -1.53 2.49
-4.83 -1.62 2.49
-4.80 -1.72 2.49
-4.76 -1.82 2.49
-4.72 -1.91 2.49
-4.68 -2.00 2.49
-4.64 -2.10 2.49
-4.60 -2.19 2.49
-4.55 -2.28 2.49
-4.50 -2.37 2.49
-4.45 -2.46 2.49
-4.40 -2.55 2.49
-4.35 -2.64 2.49
-4.30 -2.72 2.49
-4.24 -2.81 2.49
-4.18 -2.89 2.49
-4.12 -2.97 2.49
-4.06 -3.06 2.49
-4.00 -3.14 2.49
-3.93 -3.22 2.49
-3.87 -3.29 2.49
-3.80 -3.37 2.49
-3.73 -3.44 2.49
-3.66 -3.52 2.49
-3.59 -3.59 2.49
-3.51 -3.66 2.49
-3.44 -3.73 2.49
-3.36 -3.80 2.49
-3.28 -3.86 2.49
-3.20 -3.93 2.49
-3.12 -3.99 2.49
-3.04 -4.05 2.49
-2.96 -4.11 2.49
-2.88 -4.17 2.49
-2.79 -4.22 2.49
-2.71 -4.28 2.49
-2.62 -4.33 2.49
-2.53 -4.38 2.49
-2.44 -4.43 2.49
-2.35 -4.48 2.49
-2.26 -4.52 2.49
-2.17 -4.57 2.49
-2.08 -4.61 2.49
-1.98 -4.65 2.49
-1.89 -4.69 2.49
-1.79 -4.72 2.49
-1.70 -4.76 2.49
-1.60 -4.79 2.49
-1.51 -4.82 2.49
-1.41 -4.85 2.49
-1.31 -4.88 2.49
-1.21 -4.90 2.49
-1.11 -4.92 2.49
-1.01 -4.94 2.49
-0.91 -4.96 2.49
-0.81 -4.98 2.49
-0.71 -4.99 2.49
-0.61 -5.01 2.49
-0.51 -5.02 2.49
-0.41 -5.02 2.49
-0.31 -5.03 2.49
-0.21 -5.04 2.49
-0.11 -5.04 2.49
-0.01 -4.77 2.49
0.09 -4.76 2.49
0.19 -4.76 2.49
0.28 -4.76 2.49
0.38 -4.75 2.49
0.47 -4.74 2.49
0.57 -4.73 2.49
0.66 -4.72 2.49
0.76 -4.70 2.49
0.85 -4.68 2.49
0.95 -4.67 2.49
1.04 -4.65 2.49
1.13 -4.62 2.49
1.22 -4.60 2.49
1.32 -4.57 2.49
1.41 -4.55 2.49
1.50 -4.52 2.49
1.59 -4.48 2.49
1.68 -4.45 2.49
1.77 -4.42 2.49
1.86 -4.38 2.49
1.94 -4.34 2.49
2.03 -4.30 2.49
2.07 -4.16 2.44
2.11 -4.04 2.39
2.19 -4.00 2.39
2.27 -3.95 2.39
2.35 -3.91 2.39
2.43 -3.86 2.39
2.51 -3.81 2.39
2.58 -3.76 2.39
2.66 -3.71 2.39
2.73 -3.65 2.39
2.81 -3.60 2.39
2.88 -3.54 2.39
2.95 -3.48 2.39
3.02 -3.42 2.39
3.09 -3.36 2.39
3.15 -3.30 2.39
3.22 -3.23 2.39
3.28 -3.17 2.39
3.35 -3.10 2.39
3.41 -3.03 2.39
3.47 -2.96 2.39
3.53 -2.89 2.39
3.58 -2.82 2.39
3.64 -2.75 2.39
3.70 -2.68 2.39
3.75 -2.60 2.39
3.80 -2.52 2.39
3.85 -2.45 2.39
3.90 -2.37 2.39
3.95 -2.29 2.39
3.99 -2.21 2.39
4.04 -2.13 2.39
4.08 -2.05 2.39
4.12 -1.97 2.39
4.16 -1.88 2.39
4.20 -1.80 2.39
4.23 -1.72 2.39
4.27 -1.63 2.39
4.30 -1.55 2.39
4.33 -1.46 2.39
4.36 -1.37 2.39
4.39 -1.28 2.39
4.41 -1.20 2.39
4.44 -1.11 2.39
4.46 -1.02 2.39
4.48 -0.93 2.39
4.50 -0.84 2.39
4.51 -0.75 2.39
4.53 -0.66 2.39
4.54 -0.57 2.39
4.55 -0.47 2.39
4.56 -0.38 2.39
4.57 -0.29 2.39
4.57 -0.20 2.39
4.58 -0.11 2.39
4.58 -0.01 2.39
4.58 0.08 2.39
4.58 0.17 2.39
4.58 0.26 2.39
4.57 0.35 2.39
4.56 0.45 2.39
4.55 0.54 2.39
4.54 0.63 2.39
4.53 0.72 2.39
4.52 0.81 2.39
4.50 0.90 2.39
4.48 0.99 2.39
4.46 1.08 2.39
4.44 1.17 2.39
4.42 1.26 2.39
4.39 1.35 2.39
4.36 1.44 2.39
4.33 1.53 2.39
4.30 1.61 2.39
4.27 1.70 2.39
4.24 1.78 2.39
4.20 1.87 2.39
4.16 1.95 2.39
4.12 2.04 2.39
4.08 2.12 2.39
4.04 2.20 2.39
4.00 2.28 2.39
3.95 2.36 2.39
3.90 2.44 2.39
3.85 2.52 2.39
3.80 2.60 2.39
3.75 2.68 2.39
3.70 2.75 2.39
3.64 2.83 2.39
3.59 2.90 2.39
3.53 2.97 2.39
3.47 3.04 2.39
3.41 3.11 2.39
3.17 3.02 2.27
3.11 3.08 2.27
3.06 3.15 2.27
3.05 3.27 2.31
3.03 3.38 2.35
2.96 3.44 2.35
2.89 3.50 2.35
2.82 3.56 2.35
2.75 3.62 2.35
2.59 3.55 2.27
2.51 3.60 2.27
2.46 3.67 2.28
2.46 3.84 2.36
2.42 3.94 2.39
2.34 3.99 2.39
2.26 4.04 2.39
2.18 4.09 2.39
2.11 4.16 2.41
2.10 4.35 2.49
2.01 4.39 2.49
1.92 4.43 2.49
1.84 4.47 2.49
1.75 4.51 2.49
1.66 4.54 2.49
1.56 4.58 2.49
1.47 4.61 2.49
1.38 4.64 2.49
1.29 4.66 2.49
1.19 4.69 2.49
1.10 4.71 2.49
1.01 4.74 2.49
0.91 4.76 2.49
0.81 4.77 2.49
0.72 4.79 2.49
0.62 4.80 2.49
0.53 4.82 2.49
0.43 4.83 2.49
0.33 4.83 2.49
0.24 4.84 2.49
0.14 4.84 2.49
0.04 4.85 2.49
-0.05 4.85 2.49
-0.15 4.85 2.49
-0.25 4.84 2.49
-0.35 4.84 2.49
-0.44 4.83 2.49
-0.54 4.82 2.49
-0.64 4.81 2.49
-0.73 4.80 2.49
-0.83 4.78 2.49
-0.92 4.76 2.49
-1.02 4.74 2.49
-1.11 4.72 2.49
-1.21 4.70 2.49
-1.30 4.68 2.49
-1.40 4.65 2.49
-1.49 4.62 2.49
-1.58 4.59 2.49
-1.67 4.56 2.49
-1.76 4.52 2.49
-1.85 4.49 2.49
-1.94 4.45 2.49
-2.03 4.41 2.49
-2.12 4.37 2.49
