ply
format ascii 1.0
element vertex 2870
property float32 x
property float32 y
property float32 z
end_header
-5.98 25.43 2.49
-6.30 24.58 2.42
-6.71 24.13 2.39
-7.19 24.00 2.39
-7.67 23.85 2.39
-8.15 23.69 2.39
-8.62 23.53 2.39
-9.10 23.35 2.39
-9.56 23.17 2.39
-10.03 22.97 2.39
-10.13 21.99 2.31
-10.11 20.84 2.21
-10.06 19.71 2.11
-10.55 19.69 2.13
-11.06 19.68 2.15
-11.04 18.76 2.07
-11.03 17.91 2.00
-11.45 17.78 2.02
-13.20 19.62 2.25
-13.78 19.61 2.28
-14.37 19.61 2.32
-14.98 19.60 2.35
-6.31 7.92 0.96
-15.70 18.92 2.34
-15.95 18.46 2.32
-16.21 18.02 2.31
-16.44 17.55 2.29
-16.54 16.96 2.26
-16.78 16.52 2.24
-17.10 16.18 2.24
-17.43 15.84 2.24
-17.74 15.49 2.24
-16.84 14.12 2.09
-17.09 13.75 2.09
-18.11 13.98 2.18
-18.41 13.63 2.18
-18.70 13.28 2.18
-18.96 12.89 2.18
-10.08 6.56 1.15
-10.09 6.28 1.13
-10.08 6.00 1.12
-10.08 5.73 1.10
-10.08 5.46 1.09
-10.07 5.20 1.08
-10.13 4.98 1.07
-10.23 4.77 1.07
-10.32 4.57 1.07
-10.41 4.36 1.07
-15.99 6.32 1.64
-16.95 6.31 1.72
-18.01 6.30 1.82
-19.20 6.28 1.92
-20.43 6.23 2.03
-21.94 6.21 2.17
-22.78 5.96 2.24
-22.66 5.45 2.22
-22.76 4.99 2.22
-10.49 2.08 1.02
-16.82 2.98 1.63
-16.81 2.64 1.62
-14.43 1.97 1.39
-16.80 1.95 1.61
-16.80 1.61 1.61
-16.79 1.27 1.60
-16.79 0.93 1.60
-16.78 0.59 1.60
-16.78 0.25 1.60
-16.77 -0.08 1.60
-16.77 -0.42 1.60
-16.76 -0.76 1.60
-16.76 -1.09 1.60
-16.75 -1.43 1.60
-16.75 -1.77 1.61
-16.74 -2.11 1.61
-16.74 -2.45 1.61
-16.06 -2.68 1.55
-15.94 -2.99 1.55
-15.93 -3.32 1.55
-15.93 -3.66 1.56
-15.93 -4.00 1.57
-15.92 -4.34 1.58
-15.92 -4.68 1.58
-15.91 -5.03 1.59
-15.91 -5.38 1.60
-15.91 -5.74 1.61
-15.90 -6.10 1.63
-15.72 -6.40 1.62
-16.22 -6.98 1.69
-16.21 -7.37 1.70
-16.20 -7.76 1.72
-16.62 -8.37 1.78
-16.61 -8.79 1.80
-16.19 -8.99 1.77
-16.18 -9.41 1.79
-16.18 -9.85 1.81
-16.65 -10.60 1.89
-16.64 -11.07 1.91
-16.63 -11.56 1.94
-16.63 -12.05 1.96
-16.62 -12.57 1.99
-16.62 -13.09 2.02
-16.61 -13.64 2.06
-16.60 -14.20 2.09
-16.59 -14.78 2.13
-16.59 -15.38 2.17
-16.58 -16.01 2.21
-16.44 -16.52 2.23
-16.13 -16.88 2.24
-15.82 -17.23 2.24
-15.52 -17.60 2.25
-15.20 -17.95 2.26
-14.88 -18.30 2.26
-14.55 -18.65 2.27
-14.46 -19.32 2.31
-14.06 -19.60 2.31
-13.66 -19.88 2.31
-13.26 -20.14 2.31
-12.85 -20.40 2.31
-12.44 -20.65 2.31
-12.02 -20.89 2.31
-11.59 -21.13 2.31
-11.17 -21.35 2.31
-10.73 -21.57 2.31
-10.30 -21.78 2.31
-9.93 -22.14 2.33
-9.72 -22.90 2.39
-9.26 -23.09 2.39
-8.79 -23.26 2.39
-8.32 -23.43 2.39
-7.85 -23.59 2.39
-7.37 -23.74 2.39
-6.90 -23.88 2.39
-6.41 -24.01 2.39
-5.93 -24.13 2.39
-5.68 -25.29 2.49
-5.17 -25.39 2.49
-4.66 -25.49 2.49
-4.14 -25.57 2.49
-3.63 -25.64 2.49
-3.11 -25.71 2.49
-2.60 -25.76 2.49
-2.08 -25.80 2.49
-1.56 -25.84 2.49
-1.04 -25.86 2.49
-0.52 -25.87 2.49
-0.00 -20.93 2.49
0.42 -20.92 2.49
0.84 -20.90 2.49
1.26 -20.88 2.49
1.68 -20.85 2.49
2.09 -20.81 2.49
2.41 -19.90 2.39
2.81 -19.85 2.39
3.20 -19.79 2.39
3.60 -19.72 2.39
3.99 -19.64 2.39
4.39 -19.55 2.39
4.78 -19.46 2.39
5.04 -18.88 2.33
4.60 -15.93 1.98
4.72 -15.20 1.90
5.05 -15.20 1.91
2.50 -7.05 0.89
6.23 -16.49 2.11
9.41 -23.46 3.02
10.06 -23.70 3.07
10.60 -23.65 3.10
11.15 -23.59 3.12
6.18 -12.43 1.66
12.36 -23.63 3.19
6.19 -11.29 1.54
13.68 -23.78 3.28
14.65 -24.34 3.39
5.89 11.54 1.54
18.78 45.50 5.84
5.85 15.03 1.91
5.83 15.92 2.01
14.66 42.65 5.35
5.81 18.09 2.25
5.78 19.31 2.39
5.39 19.42 2.39
5.00 19.53 2.39
4.61 19.63 2.39
4.22 19.72 2.39
3.82 19.80 2.39
3.42 19.88 2.39
2.87 18.93 2.27
2.58 19.68 2.35
2.17 19.55 2.33
1.82 20.10 2.39
1.48 21.00 2.49
1.05 21.03 2.49
0.63 21.05 2.49
0.21 21.06 2.49
-0.21 21.06 2.49
-0.64 21.06 2.49
-1.06 21.04 2.49
-1.48 21.02 2.49
-1.90 20.99 2.49
-2.32 20.95 2.49
-2.74 20.90 2.49
-3.16 20.84 2.49
-3.58 20.78 2.49
-4.00 20.70 2.49
-4.41 20.62 2.49
-4.83 20.53 2.49
-5.24 20.43 2.49
-5.65 20.32 2.49
-6.06 20.21 2.49
-6.24 19.41 2.41
-6.58 19.13 2.39
-6.96 18.99 2.39
-7.34 18.85 2.39
-7.72 18.70 2.39
-8.09 18.54 2.39
-8.47 18.38 2.39
-8.83 18.21 2.39
-9.20 18.03 2.39
-9.56 17.84 2.39
-9.92 17.65 2.39
-10.34 17.56 2.41
-10.69 17.35 2.41
-11.04 17.14 2.41
-11.38 16.91 2.41
-11.00 15.67 2.26
-11.00 15.02 2.20
-12.07 15.79 2.35
-6.31 7.92 1.20
-12.51 15.08 2.31
-12.73 14.73 2.30
-12.62 14.03 2.23
-12.83 13.70 2.22
-13.04 13.37 2.20
-13.24 13.04 2.19
-13.43 12.71 2.18
-13.62 12.38 2.17
-13.85 12.09 2.17
-14.43 12.09 2.22
-14.81 11.91 2.24
-15.04 11.61 2.24
-15.27 11.31 2.24
-15.50 11.00 2.24
-15.72 10.69 2.24
-10.08 6.56 1.42
-10.11 6.30 1.41
-10.11 6.02 1.39
-10.14 5.76 1.38
-10.14 5.50 1.36
-10.10 5.22 1.34
-10.10 4.96 1.33
-10.13 4.73 1.32
-10.12 4.48 1.31
-10.09 4.22 1.29
-10.08 3.99 1.28
-10.12 3.77 1.27
-10.11 3.53 1.26
-10.11 3.31 1.26
-10.07 3.07 1.24
-10.11 2.86 1.24
-10.10 2.64 1.23
-10.10 2.43 1.23
-10.06 2.21 1.22
-10.06 1.99 1.21
-10.09 1.79 1.21
-10.09 1.58 1.21
-10.09 1.38 1.20
-10.05 1.17 1.19
-10.05 0.96 1.19
-10.08 0.76 1.19
-10.08 0.56 1.19
-10.07 0.35 1.19
-10.04 0.15 1.19
-10.07 -0.05 1.19
-10.07 -0.25 1.19
-10.06 -0.45 1.19
-10.06 -0.66 1.19
-10.03 -0.86 1.19
-10.02 -1.06 1.19
-10.06 -1.27 1.20
-10.05 -1.47 1.20
-10.05 -1.68 1.20
-10.01 -1.88 1.20
-10.05 -2.10 1.21
-10.04 -2.31 1.22
-10.04 -2.52 1.22
-10.02 -2.73 1.23
-10.00 -2.94 1.23
-10.03 -3.17 1.24
-15.91 -5.38 1.99
-15.91 -5.74 2.00
-15.90 -6.10 2.01
-15.72 -6.40 2.01
-16.22 -6.98 2.09
-16.21 -7.37 2.11
-16.20 -7.76 2.13
-16.04 -8.08 2.13
-15.87 -8.40 2.13
-15.70 -8.72 2.13
-15.52 -9.03 2.13
-15.33 -9.34 2.13
-15.14 -9.64 2.13
-14.94 -9.94 2.13
-14.74 -10.24 2.13
-15.17 -11.00 2.22
-14.95 -11.30 2.22
-14.71 -11.59 2.22
-14.50 -11.91 2.22
-14.48 -12.39 2.26
-14.35 -12.78 2.28
-14.14 -13.11 2.29
-13.92 -13.44 2.29
-13.69 -13.76 2.30
-13.47 -14.09 2.31
-13.20 -14.37 2.31
-12.91 -14.63 2.31
-12.64 -14.92 2.32
-12.37 -15.21 2.33
-12.12 -15.54 2.34
-11.88 -15.87 2.35
-11.63 -16.21 2.37
-11.37 -16.54 2.38
-11.09 -16.85 2.40
-10.80 -17.15 2.41
-10.46 -17.36 2.41
-10.10 -17.56 2.41
-9.68 -17.64 2.39
-9.33 -17.83 2.39
-8.96 -18.01 2.39
-8.60 -18.19 2.39
-8.23 -18.35 2.39
-7.86 -18.51 2.39
-7.49 -18.66 2.39
-7.11 -18.81 2.39
-6.73 -18.94 2.39
-6.35 -19.07 2.39
-5.98 -19.25 2.40
-5.76 -19.95 2.47
-5.41 -20.25 2.49
-5.00 -20.35 2.49
-4.59 -20.45 2.49
-4.18 -20.53 2.49
-3.77 -20.61 2.49
-3.35 -20.68 2.49
-2.94 -20.74 2.49
-2.52 -20.79 2.49
-2.10 -20.83 2.49
-1.68 -20.87 2.49
-1.26 -20.90 2.49
-0.84 -20.91 2.49
-0.42 -20.92 2.49
-0.00 -17.55 2.49
0.35 -17.55 2.49
0.70 -17.54 2.49
1.05 -17.52 2.49
1.41 -17.49 2.49
1.76 -17.46 2.49
2.11 -17.42 2.49
2.35 -16.65 2.39
2.69 -16.60 2.39
3.02 -16.54 2.39
3.35 -16.47 2.39
3.68 -16.40 2.39
4.01 -16.32 2.39
4.34 -16.24 2.39
4.66 -16.15 2.39
4.79 -15.44 2.30
5.30 -15.94 2.39
2.50 -7.05 1.06
5.94 -15.72 2.39
6.25 -15.59 2.39
6.21 -14.63 2.26
7.53 -16.78 2.62
8.78 -18.57 2.92
9.65 -19.40 3.08
10.15 -19.42 3.12
6.18 -11.26 1.83
11.19 -19.45 3.19
11.72 -19.46 3.23
6.15 -9.77 1.64
12.79 -19.43 3.31
6.13 -8.92 1.54
14.09 -19.64 3.44
15.03 -20.09 3.57
16.39 -21.01 3.80
5.91 9.19 1.55
5.86 14.20 2.18
5.81 15.86 2.39
5.49 15.97 2.39
5.17 16.08 2.39
4.85 16.18 2.39
4.52 16.28 2.39
4.19 16.37 2.39
3.87 16.45 2.39
3.53 16.53 2.39
3.20 16.60 2.39
2.79 16.22 2.33
2.49 16.44 2.35
2.20 16.77 2.39
1.86 16.81 2.39
1.59 17.57 2.49
1.24 17.60 2.49
0.88 17.62 2.49
0.53 17.64 2.49
0.18 17.65 2.49
-0.18 17.65 2.49
-0.53 17.64 2.49
-0.89 17.63 2.49
-1.24 17.61 2.49
-1.59 17.59 2.49
-1.95 17.55 2.49
-2.30 17.51 2.49
-2.65 17.46 2.49
-3.00 17.41 2.49
-3.35 17.35 2.49
-3.70 17.28 2.49
-4.04 17.20 2.49
-4.39 17.12 2.49
-4.73 17.03 2.49
-5.07 16.93 2.49
-5.41 16.83 2.49
-5.75 16.71 2.49
-6.08 16.60 2.49
-6.20 15.92 2.41
-6.47 15.67 2.39
-6.78 15.53 2.39
-7.09 15.40 2.39
-7.40 15.25 2.39
-7.70 15.10 2.39
-8.01 14.94 2.39
-8.31 14.78 2.39
-8.60 14.61 2.39
-8.89 14.44 2.39
-9.18 14.26 2.39
-9.47 14.07 2.39
-9.75 13.88 2.39
-10.00 13.65 2.38
-10.22 13.37 2.37
-6.28 7.89 1.42
-10.63 12.81 2.35
-10.83 12.53 2.33
-11.03 12.25 2.32
-11.33 12.09 2.34
-11.72 12.01 2.36
-10.95 10.78 2.16
-10.94 10.35 2.12
-11.17 10.15 2.13
-12.36 10.79 2.31
-12.53 10.50 2.30
-12.70 10.22 2.30
-10.92 8.43 1.94
-11.31 8.37 1.98
-11.30 8.02 1.95
-11.32 7.70 1.93
-10.08 6.56 1.69
-10.11 6.30 1.68
-10.11 6.02 1.66
-10.14 5.76 1.64
-10.14 5.50 1.62
-10.10 5.22 1.60
-10.10 4.96 1.58
-10.13 4.73 1.57
-10.12 4.48 1.56
-10.09 4.22 1.54
-10.08 3.99 1.53
-10.12 3.77 1.52
-10.11 3.53 1.51
-10.11 3.31 1.50
-10.07 3.07 1.48
-10.11 2.86 1.48
-10.10 2.64 1.47
-10.10 2.43 1.46
-10.06 2.21 1.45
-10.06 1.99 1.45
-10.09 1.79 1.44
-10.09 1.58 1.44
-10.09 1.38 1.43
-10.05 1.17 1.43
-10.05 0.96 1.42
-10.08 0.76 1.42
-10.08 0.56 1.42
-10.07 0.35 1.42
-10.04 0.15 1.42
-10.07 -0.05 1.42
-10.07 -0.25 1.42
-10.06 -0.45 1.42
-10.06 -0.66 1.42
-10.03 -0.86 1.42
-10.02 -1.06 1.42
-10.06 -1.27 1.43
-10.05 -1.47 1.43
-10.05 -1.68 1.44
-10.01 -1.88 1.44
-10.05 -2.10 1.45
-10.04 -2.31 1.45
-9.27 -2.32 1.35
-9.27 -2.53 1.36
-9.23 -2.71 1.36
-10.03 -3.17 1.48
-14.95 -5.05 2.23
-14.86 -5.36 2.23
-14.76 -5.66 2.23
-14.72 -5.99 2.24
-14.69 -6.32 2.26
-14.59 -6.63 2.26
-14.48 -6.94 2.27
-14.21 -7.16 2.25
-13.66 -7.23 2.18
-13.55 -7.52 2.19
-13.43 -7.81 2.19
-13.30 -8.10 2.20
-13.18 -8.39 2.21
-13.04 -8.68 2.21
-12.91 -8.97 2.22
-13.16 -9.54 2.30
-13.01 -9.83 2.31
-12.86 -10.14 2.32
-12.72 -10.44 2.33
-12.56 -10.74 2.34
-12.40 -11.04 2.35
-12.22 -11.33 2.36
-12.02 -11.61 2.36
-11.82 -11.88 2.37
-11.62 -12.15 2.38
-11.41 -12.42 2.39
-11.20 -12.69 2.40
-10.98 -12.96 2.40
-10.73 -13.19 2.41
-10.46 -13.40 2.41
-10.19 -13.61 2.41
-9.84 -13.72 2.39
-9.56 -13.91 2.39
-9.28 -14.10 2.39
-9.00 -14.28 2.39
-8.71 -14.46 2.39
-8.41 -14.63 2.39
-8.12 -14.79 2.39
-7.82 -14.95 2.39
-7.52 -15.10 2.39
-7.21 -15.25 2.39
-6.90 -15.39 2.39
-6.59 -15.52 2.39
-6.28 -15.65 2.39
-5.96 -15.77 2.39
-5.80 -16.34 2.46
-5.55 -16.68 2.49
-5.22 -16.79 2.49
-4.88 -16.89 2.49
-4.54 -16.98 2.49
-4.19 -17.07 2.49
-3.85 -17.15 2.49
-3.51 -17.22 2.49
-3.16 -17.28 2.49
-2.81 -17.34 2.49
-2.46 -17.39 2.49
-2.11 -17.44 2.49
-1.76 -17.47 2.49
-1.41 -17.50 2.49
-1.06 -17.53 2.49
-0.71 -17.54 2.49
-0.35 -17.55 2.49
-0.00 -15.10 2.49
0.30 -15.10 2.49
0.60 -15.09 2.49
0.91 -15.07 2.49
1.21 -15.05 2.49
1.51 -15.02 2.49
1.81 -14.99 2.49
2.11 -14.95 2.49
2.31 -14.28 2.39
2.60 -14.23 2.39
2.75 -13.52 2.28
3.03 -13.52 2.29
3.27 -13.33 2.27
3.73 -13.97 2.39
4.01 -13.90 2.39
4.29 -13.81 2.39
4.56 -13.72 2.39
2.50 -7.05 1.24
5.11 -13.53 2.39
5.38 -13.42 2.39
5.65 -13.31 2.39
5.91 -13.19 2.39
6.18 -13.07 2.39
7.06 -14.19 2.62
7.35 -14.06 2.63
8.11 -14.78 2.79
6.16 -10.72 2.04
9.88 -16.40 3.17
10.32 -16.39 3.21
10.76 -16.35 3.24
11.18 -16.27 3.27
11.62 -16.20 3.30
12.12 -16.20 3.35
12.62 -16.18 3.40
13.12 -16.14 3.44
6.11 -7.22 1.57
14.61 -16.57 3.66
15.50 -16.88 3.79
5.95 7.18 1.54
5.94 7.46 1.57
5.94 7.77 1.61
5.92 9.20 1.80
5.89 11.55 2.14
7.06 14.56 2.66
6.83 14.84 2.69
4.57 10.47 1.88
4.36 10.56 1.88
4.27 10.97 1.94
4.26 11.64 2.04
4.72 13.74 2.39
4.45 13.83 2.39
4.17 13.92 2.39
3.89 14.00 2.39
3.61 14.08 2.39
3.32 14.15 2.39
2.88 13.49 2.27
2.71 14.04 2.35
2.34 13.60 2.27
2.18 14.37 2.39
1.89 14.42 2.39
1.67 15.08 2.49
1.37 15.11 2.49
1.06 15.13 2.49
0.76 15.15 2.49
0.46 15.17 2.49
0.15 15.17 2.49
-0.15 15.18 2.49
-0.46 15.17 2.49
-0.76 15.16 2.49
-1.07 15.14 2.49
-1.37 15.12 2.49
-1.67 15.09 2.49
-1.98 15.05 2.49
-2.28 15.01 2.49
-2.58 14.96 2.49
-2.88 14.91 2.49
-3.18 14.85 2.49
-3.48 14.79 2.49
-3.77 14.71 2.49
-4.07 14.64 2.49
-4.36 14.55 2.49
-4.65 14.46 2.49
-4.94 14.37 2.49
-5.23 14.27 2.49
-5.52 14.16 2.49
-5.80 14.05 2.49
-6.08 13.93 2.49
-6.17 13.39 2.42
-6.37 13.13 2.40
-6.62 12.98 2.39
-6.88 12.84 2.39
-7.14 12.70 2.39
-7.39 12.56 2.39
-7.64 12.41 2.39
-7.89 12.25 2.39
-8.14 12.09 2.39
-8.38 11.93 2.39
-8.62 11.76 2.39
-8.85 11.58 2.39
-6.28 7.89 1.65
-9.31 11.22 2.39
-9.53 11.03 2.39
-9.75 10.84 2.39
-9.97 10.64 2.39
-10.25 10.51 2.41
-10.46 10.30 2.41
-10.66 10.09 2.41
-10.86 9.87 2.41
-11.06 9.65 2.41
-11.23 9.42 2.40
-11.38 9.16 2.40
-10.92 8.43 2.26
-10.91 8.08 2.23
-10.91 7.74 2.19
-10.90 7.42 2.16
-10.08 6.56 1.97
-10.11 6.30 1.95
-10.11 6.02 1.93
-10.14 5.76 1.91
-10.14 5.50 1.89
-10.10 5.22 1.86
-10.10 4.96 1.84
-10.13 4.73 1.83
-10.12 4.48 1.82
-10.09 4.22 1.79
-10.08 3.99 1.78
-10.12 3.77 1.77
-10.11 3.53 1.76
-10.11 3.31 1.74
-10.07 3.07 1.73
-10.11 2.86 1.72
-10.10 2.64 1.71
-10.10 2.43 1.70
-10.06 2.21 1.69
-10.06 2.00 1.68
-10.09 1.79 1.68
-10.09 1.58 1.67
-10.09 1.38 1.67
-10.05 1.17 1.66
-10.05 0.96 1.66
-10.08 0.76 1.66
-10.08 0.56 1.66
-10.07 0.35 1.65
-10.04 0.15 1.65
-10.07 -0.05 1.65
-10.07 -0.25 1.65
-10.06 -0.45 1.65
-10.06 -0.66 1.65
-10.03 -0.86 1.65
-10.02 -1.06 1.65
-10.06 -1.27 1.66
-10.05 -1.47 1.67
-10.05 -1.68 1.67
-10.01 -1.88 1.67
-10.05 -2.10 1.68
-10.04 -2.31 1.69
-9.14 -2.29 1.55
-9.13 -2.49 1.55
-9.15 -2.69 1.57
-10.03 -3.17 1.73
-13.38 -4.53 2.32
-13.31 -4.80 2.32
-13.23 -5.07 2.33
-13.14 -5.35 2.33
-13.06 -5.62 2.33
-12.93 -5.87 2.33
-12.80 -6.13 2.33
-12.67 -6.38 2.33
-12.53 -6.63 2.33
-12.39 -6.88 2.33
-12.27 -7.13 2.33
-11.83 -7.20 2.28
-11.71 -7.46 2.28
-11.59 -7.71 2.29
-11.47 -7.97 2.30
-11.34 -8.22 2.30
-11.21 -8.47 2.31
-11.07 -8.72 2.32
-10.93 -8.97 2.33
-10.78 -9.22 2.33
-10.93 -9.73 2.41
-10.73 -9.95 2.41
-10.53 -10.16 2.41
-10.32 -10.37 2.41
-10.11 -10.57 2.41
-9.83 -10.70 2.39
-9.61 -10.89 2.39
-9.39 -11.08 2.39
-9.16 -11.27 2.39
-8.93 -11.45 2.39
-8.70 -11.63 2.39
-8.47 -11.80 2.39
-8.23 -11.96 2.39
-7.98 -12.12 2.39
-7.74 -12.28 2.39
-7.49 -12.43 2.39
-7.24 -12.58 2.39
-6.98 -12.72 2.39
-6.72 -12.86 2.39
-6.46 -12.99 2.39
-6.20 -13.11 2.39
-5.94 -13.23 2.39
-5.83 -13.74 2.46
-5.63 -14.04 2.49
-5.35 -14.15 2.49
-5.06 -14.25 2.49
-4.78 -14.35 2.49
-4.49 -14.44 2.49
-4.20 -14.53 2.49
-3.90 -14.61 2.49
-3.61 -14.68 2.49
-3.31 -14.75 2.49
-3.02 -14.81 2.49
-2.72 -14.87 2.49
-2.42 -14.92 2.49
-2.12 -14.96 2.49
-1.82 -15.00 2.49
-1.52 -15.03 2.49
-1.21 -15.06 2.49
-0.91 -15.08 2.49
-0.61 -15.09 2.49
-0.30 -15.10 2.49
-0.00 -13.24 2.49
0.26 -13.24 2.49
0.53 -13.23 2.49
0.80 -13.21 2.49
1.06 -13.19 2.49
1.32 -13.17 2.49
1.59 -13.14 2.49
1.85 -13.10 2.49
2.11 -13.06 2.49
2.28 -12.48 2.39
2.53 -12.43 2.39
2.64 -11.75 2.27
2.97 -12.11 2.35
3.13 -11.73 2.29
3.52 -12.18 2.39
3.76 -12.11 2.39
2.36 -7.09 1.41
2.49 -7.01 1.40
4.48 -11.86 2.39
4.72 -11.77 2.39
4.95 -11.67 2.39
5.19 -11.57 2.39
5.42 -11.46 2.39
5.65 -11.35 2.39
5.87 -11.23 2.39
6.10 -11.11 2.39
7.25 -12.60 2.74
6.16 -10.23 2.25
8.12 -12.89 2.87
8.79 -13.35 3.02
9.54 -13.88 3.18
9.92 -13.83 3.21
10.30 -13.77 3.25
10.69 -13.70 3.28
11.08 -13.63 3.31
11.47 -13.54 3.35
11.90 -13.49 3.39
12.33 -13.43 3.44
6.11 -6.39 1.67
6.10 -6.13 1.63
6.10 -5.89 1.60
6.09 -5.65 1.57
6.09 -5.43 1.54
39.50 -28.64 9.21
5.96 5.64 1.54
5.95 5.87 1.57
5.96 6.11 1.61
14.96 24.29 5.36
5.92 10.07 2.20
5.90 10.51 2.27
6.55 12.23 2.61
5.78 11.33 2.39
5.55 11.45 2.39
5.32 11.56 2.39
4.65 10.65 2.18
4.39 10.64 2.16
4.53 11.63 2.34
4.38 11.95 2.39
4.14 12.04 2.39
3.90 12.12 2.39
3.65 12.20 2.39
3.41 12.27 2.39
3.16 12.34 2.39
2.91 12.40 2.39
2.66 12.45 2.39
2.41 12.51 2.39
2.16 12.55 2.39
1.91 12.60 2.39
1.73 13.18 2.49
1.46 13.21 2.49
1.20 13.24 2.49
0.93 13.26 2.49
0.67 13.28 2.49
0.40 13.29 2.49
0.13 13.30 2.49
-0.14 13.30 2.49
-0.40 13.29 2.49
-0.67 13.28 2.49
-0.94 13.27 2.49
-1.20 13.25 2.49
-1.47 13.22 2.49
-1.73 13.19 2.49
-2.00 13.15 2.49
-2.26 13.11 2.49
-2.52 13.06 2.49
-2.79 13.01 2.49
-3.05 12.95 2.49
-3.31 12.89 2.49
-3.56 12.82 2.49
-3.82 12.75 2.49
-4.08 12.67 2.49
-4.33 12.59 2.49
-4.58 12.50 2.49
-4.83 12.40 2.49
-5.08 12.31 2.49
-5.33 12.20 2.49
-5.57 12.09 2.49
-5.81 11.98 2.49
-6.05 11.86 2.49
-6.14 11.46 2.44
-6.25 11.13 2.39
-6.48 11.00 2.39
-6.70 10.87 2.39
-6.91 10.73 2.39
-7.13 10.59 2.39
-7.34 10.45 2.39
-7.55 10.30 2.39
-7.75 10.15 2.39
-6.28 7.89 1.89
-8.15 9.83 2.39
-8.35 9.66 2.39
-8.54 9.49 2.39
-8.73 9.32 2.39
-8.92 9.14 2.39
-9.10 8.96 2.39
-9.28 8.78 2.39
-9.45 8.59 2.39
-9.62 8.40 2.39
-9.79 8.20 2.39
-9.95 8.01 2.39
-10.11 7.81 2.39
-10.33 7.65 2.41
-10.49 7.44 2.41
-10.63 7.23 2.41
-10.08 6.56 2.25
-10.11 6.30 2.23
-10.11 6.02 2.20
-10.14 5.76 2.18
-10.14 5.50 2.16
-10.10 5.22 2.13
-10.10 4.96 2.11
-10.13 4.73 2.09
-10.12 4.48 2.07
-10.09 4.22 2.05
-10.08 3.99 2.03
-10.12 3.77 2.02
-10.11 3.53 2.01
-10.11 3.31 1.99
-10.07 3.07 1.97
-10.11 2.86 1.97
-10.10 2.64 1.95
-10.10 2.43 1.94
-10.06 2.21 1.93
-10.06 2.00 1.92
-10.09 1.79 1.92
-10.09 1.58 1.91
-10.09 1.38 1.91
-10.05 1.17 1.89
-10.05 0.96 1.89
-10.08 0.76 1.89
-10.08 0.56 1.89
-10.07 0.35 1.89
-10.04 0.15 1.88
-10.07 -0.05 1.89
-10.07 -0.25 1.89
-10.06 -0.45 1.89
-10.06 -0.66 1.89
-10.03 -0.86 1.88
-10.02 -1.06 1.89
-10.06 -1.27 1.90
-10.05 -1.47 1.90
-10.05 -1.68 1.91
-10.01 -1.88 1.91
-10.05 -2.10 1.92
-10.04 -2.31 1.93
-9.16 -2.30 1.77
-9.14 -2.49 1.78
-9.15 -2.69 1.79
-10.03 -3.17 1.97
-11.99 -4.06 2.37
-11.92 -4.30 2.37
-11.84 -4.54 2.38
-11.76 -4.78 2.38
-11.68 -5.02 2.38
-11.59 -5.26 2.39
-11.49 -5.50 2.39
-11.38 -5.73 2.39
-11.27 -5.96 2.39
-11.17 -6.20 2.40
-11.07 -6.44 2.40
-10.96 -6.67 2.41
-10.82 -6.89 2.41
-10.68 -7.11 2.41
-10.32 -7.17 2.36
-10.20 -7.40 2.36
-10.08 -7.62 2.37
-9.96 -7.84 2.38
-9.82 -8.07 2.39
-9.68 -8.28 2.39
-9.51 -8.47 2.39
-9.34 -8.66 2.39
-9.16 -8.84 2.39
-8.98 -9.03 2.39
-8.80 -9.20 2.39
-8.61 -9.38 2.39
-8.42 -9.55 2.39
-8.23 -9.71 2.39
-8.03 -9.88 2.39
-7.83 -10.03 2.39
-7.63 -10.19 2.39
-7.42 -10.34 2.39
-7.21 -10.48 2.39
-7.00 -10.63 2.39
-6.78 -10.76 2.39
-6.56 -10.90 2.39
-6.34 -11.03 2.39
-6.12 -11.15 2.39
-5.89 -11.27 2.39
-5.86 -11.77 2.47
-5.67 -11.99 2.49
-5.43 -12.10 2.49
-5.18 -12.21 2.49
-4.94 -12.31 2.49
-4.69 -12.40 2.49
-4.44 -12.49 2.49
-4.19 -12.58 2.49
-3.93 -12.66 2.49
-3.68 -12.73 2.49
-3.42 -12.80 2.49
-3.16 -12.87 2.49
-2.90 -12.93 2.49
-2.64 -12.98 2.49
-2.38 -13.03 2.49
-2.12 -13.08 2.49
-1.86 -13.12 2.49
-1.59 -13.15 2.49
-1.33 -13.18 2.49
-1.06 -13.20 2.49
-0.80 -13.22 2.49
-0.53 -13.23 2.49
-0.27 -13.24 2.49
-0.00 -11.78 2.49
0.23 -11.77 2.49
0.47 -11.77 2.49
0.71 -11.75 2.49
0.94 -11.74 2.49
1.18 -11.71 2.49
1.41 -11.69 2.49
1.65 -11.65 2.49
1.88 -11.62 2.49
2.11 -11.58 2.49
2.25 -11.06 2.39
2.47 -11.01 2.39
2.55 -10.40 2.27
2.86 -10.72 2.35
3.08 -10.66 2.35
3.17 -10.22 2.27
2.36 -7.09 1.58
2.49 -7.01 1.58
3.99 -10.55 2.39
4.20 -10.47 2.39
4.41 -10.38 2.39
4.61 -10.29 2.39
4.82 -10.19 2.39
5.02 -10.09 2.39
5.22 -9.99 2.39
5.42 -9.88 2.39
5.62 -9.77 2.39
5.81 -9.66 2.39
6.01 -9.54 2.39
7.54 -11.46 2.91
7.98 -11.61 2.99
8.44 -11.77 3.07
8.93 -11.93 3.16
9.50 -12.18 3.28
6.12 -7.53 2.06
10.09 -11.92 3.31
6.12 -6.94 1.96
10.68 -11.63 3.35
10.98 -11.48 3.37
6.10 -6.13 1.83
11.55 -11.15 3.41
11.92 -11.06 3.45
12.29 -10.95 3.49
12.66 -10.83 3.54
13.04 -10.71 3.58
13.41 -10.57 3.62
14.25 -10.77 3.79
14.99 -10.87 3.93
6.08 -4.22 1.57
6.07 -4.04 1.55
41.76 -23.19 10.14
41.93 -22.19 10.07
44.00 -21.07 10.35
44.36 -20.16 10.34
44.77 -19.27 10.34
45.80 0.69 9.71
43.73 1.54 9.28
42.95 2.38 9.12
42.75 3.23 9.09
43.42 4.16 9.25
43.80 6.87 9.40
6.00 4.08 1.54
5.97 4.24 1.55
5.97 4.42 1.57
5.97 5.43 1.71
5.95 5.87 1.77
20.35 26.64 7.09
7.02 10.44 2.66
6.89 10.70 2.69
4.67 7.58 1.88
4.51 7.67 1.88
4.36 7.76 1.88
4.31 8.04 1.93
4.30 8.44 2.00
4.94 10.18 2.39
4.73 10.28 2.39
4.52 10.37 2.39
4.32 10.46 2.39
4.11 10.55 2.39
3.89 10.63 2.39
3.68 10.70 2.39
3.46 10.78 2.39
3.25 10.84 2.39
3.03 10.91 2.39
2.81 10.97 2.39
2.59 11.02 2.39
2.37 11.07 2.39
2.14 11.12 2.39
1.92 11.16 2.39
1.77 11.68 2.49
1.54 11.72 2.49
1.30 11.74 2.49
1.06 11.77 2.49
0.83 11.79 2.49
0.59 11.80 2.49
0.35 11.81 2.49
0.12 11.82 2.49
-0.12 11.82 2.49
-0.36 11.82 2.49
-0.59 11.81 2.49
-0.83 11.79 2.49
-1.07 11.78 2.49
-1.30 11.75 2.49
-1.54 11.73 2.49
-1.78 11.69 2.49
-2.01 11.66 2.49
-2.24 11.61 2.49
-2.48 11.57 2.49
-2.71 11.52 2.49
-2.94 11.46 2.49
-3.17 11.40 2.49
-3.40 11.33 2.49
-3.62 11.26 2.49
-3.85 11.19 2.49
-4.07 11.11 2.49
-4.30 11.03 2.49
-4.52 10.94 2.49
-4.74 10.85 2.49
-4.95 10.75 2.49
-5.17 10.65 2.49
-5.38 10.54 2.49
-5.59 10.43 2.49
-5.80 10.32 2.49
-6.01 10.20 2.49
-6.12 9.94 2.46
-6.15 9.54 2.39
-6.34 9.42 2.39
-6.52 9.29 2.39
-6.71 9.15 2.39
-6.89 9.02 2.39
-6.28 7.89 2.12
-7.25 8.74 2.39
-7.42 8.59 2.39
-7.59 8.44 2.39
-7.76 8.28 2.39
-7.93 8.13 2.39
-8.09 7.97 2.39
-8.25 7.80 2.39
-8.40 7.64 2.39
-8.55 7.47 2.39
-8.70 7.29 2.39
-8.85 7.12 2.39
-8.99 6.94 2.39
-9.12 6.76 2.39
-9.26 6.57 2.39
-9.39 6.38 2.39
-9.51 6.19 2.39
-9.64 6.00 2.39
-9.76 5.81 2.39
-9.87 5.61 2.39
-9.98 5.41 2.39
-10.10 5.22 2.39
-10.10 4.96 2.37
-10.13 4.73 2.35
-10.12 4.48 2.33
-10.09 4.22 2.30
-10.08 3.99 2.28
-10.12 3.77 2.27
-10.11 3.54 2.26
-10.11 3.31 2.24
-10.07 3.07 2.22
-10.11 2.86 2.21
-10.10 2.64 2.20
-10.10 2.43 2.19
-10.06 2.21 2.17
-10.06 2.00 2.16
-10.09 1.79 2.16
-10.09 1.58 2.15
-10.09 1.38 2.14
-10.05 1.17 2.13
-10.05 0.96 2.13
-10.08 0.76 2.13
-10.08 0.56 2.13
-10.07 0.35 2.12
-10.04 0.15 2.11
-10.07 -0.05 2.12
-10.07 -0.25 2.12
-10.06 -0.45 2.12
-10.06 -0.66 2.12
-10.03 -0.86 2.12
-10.02 -1.06 2.12
-10.06 -1.27 2.14
-10.05 -1.47 2.14
-10.05 -1.68 2.15
-10.01 -1.88 2.15
-10.05 -2.10 2.16
-10.04 -2.31 2.17
-9.19 -2.31 2.00
-9.15 -2.49 2.00
-9.16 -2.69 2.01
-10.03 -3.17 2.22
-10.81 -3.66 2.41
-10.74 -3.87 2.41
-10.66 -4.09 2.41
-10.57 -4.30 2.41
-10.48 -4.51 2.41
-10.39 -4.72 2.41
-10.29 -4.93 2.41
-10.19 -5.13 2.41
-10.08 -5.34 2.41
-9.91 -5.50 2.39
-9.80 -5.70 2.39
-9.68 -5.89 2.39
-9.56 -6.09 2.39
-9.43 -6.28 2.39
-9.30 -6.46 2.39
-9.17 -6.65 2.39
-9.04 -6.83 2.39
-8.90 -7.01 2.39
-8.75 -7.19 2.39
-8.61 -7.36 2.39
-8.46 -7.53 2.39
-8.30 -7.70 2.39
-8.15 -7.86 2.39
-7.99 -8.02 2.39
-7.82 -8.18 2.39
-7.66 -8.34 2.39
-7.49 -8.49 2.39
-7.32 -8.64 2.39
-7.14 -8.78 2.39
-6.96 -8.92 2.39
-6.78 -9.06 2.39
-6.60 -9.19 2.39
-6.41 -9.32 2.39
-6.22 -9.45 2.39
-6.03 -9.57 2.39
-5.89 -9.78 2.41
-5.88 -10.22 2.49
-5.68 -10.34 2.49
-5.47 -10.45 2.49
-5.26 -10.56 2.49
-5.04 -10.66 2.49
-4.83 -10.76 2.49
-4.61 -10.85 2.49
-4.39 -10.94 2.49
-4.17 -11.03 2.49
-3.95 -11.11 2.49
-3.72 -11.19 2.49
-3.50 -11.26 2.49
-3.27 -11.32 2.49
-3.04 -11.39 2.49
-2.81 -11.45 2.49
-2.58 -11.50 2.49
-2.35 -11.55 2.49
-2.12 -11.59 2.49
-1.89 -11.63 2.49
-1.65 -11.67 2.49
-1.42 -11.70 2.49
-1.18 -11.72 2.49
-0.95 -11.74 2.49
-0.71 -11.76 2.49
-0.47 -11.77 2.49
-0.24 -11.77 2.49
-0.00 -10.59 2.49
0.21 -10.59 2.49
0.42 -10.58 2.49
0.64 -10.57 2.49
0.85 -10.56 2.49
1.06 -10.54 2.49
1.27 -10.51 2.49
1.48 -10.48 2.49
1.69 -10.45 2.49
1.90 -10.42 2.49
2.11 -10.37 2.49
2.22 -9.90 2.39
2.42 -9.86 2.39
2.52 -9.43 2.30
2.77 -9.59 2.35
2.96 -9.53 2.35
2.36 -7.09 1.76
2.49 -7.01 1.75
3.59 -9.49 2.39
3.78 -9.42 2.39
3.96 -9.34 2.39
4.15 -9.26 2.39
4.33 -9.17 2.39
4.52 -9.08 2.39
4.70 -8.99 2.39
4.88 -8.89 2.39
5.06 -8.79 2.39
5.23 -8.69 2.39
5.40 -8.58 2.39
5.58 -8.47 2.39
5.74 -8.36 2.39
5.91 -8.24 2.39
6.07 -8.12 2.39
7.44 -9.54 2.85
8.05 -9.91 3.01
8.69 -10.26 3.17
9.23 -10.47 3.29
9.56 -10.42 3.33
9.80 -10.25 3.34
6.10 -6.13 2.04
10.26 -9.90 3.36
10.48 -9.72 3.37
10.70 -9.53 3.38
10.91 -9.34 3.39
6.11 -5.02 1.86
11.33 -8.93 3.40
11.60 -8.77 3.43
11.92 -8.64 3.47
12.24 -8.51 3.52
6.07 -4.04 1.72
12.85 -8.18 3.59
6.08 -3.70 1.68
13.46 -7.83 3.67
14.70 -8.16 3.96
42.06 -22.26 11.22
42.54 -21.43 11.23
42.94 -20.57 11.23
6.06 -2.75 1.57
6.06 -2.61 1.56
6.05 -2.46 1.54
44.32 -17.00 11.19
44.87 -16.19 11.25
45.43 -15.37 11.31
44.34 -14.01 10.97
44.02 -12.95 10.82
45.27 -12.33 11.06
46.56 -11.68 11.32
46.84 -10.76 11.33
47.27 -9.86 11.39
34.75 -6.53 8.34
34.32 -5.73 8.20
34.05 -4.99 8.11
34.18 -4.31 8.12
34.32 -3.63 8.14
34.47 -2.94 8.16
34.94 -2.28 8.26
35.40 -1.60 8.36
37.47 -0.94 8.84
38.44 -0.19 9.06
39.17 0.59 9.24
39.78 1.40 9.38
39.99 2.21 9.44
40.19 3.04 9.50
40.64 3.89 9.62
41.18 4.78 9.77
42.34 5.78 10.07
42.73 6.71 10.19
43.06 7.65 10.31
6.02 2.52 1.54
5.99 2.65 1.54
5.99 2.80 1.56
5.99 2.94 1.57
23.87 14.22 6.54
23.48 14.63 6.51
5.98 3.89 1.68
22.72 15.46 6.47
22.36 15.88 6.46
13.08 10.97 4.02
12.64 11.04 3.95
12.19 11.08 3.88
11.72 11.09 3.80
5.95 5.87 1.97
10.88 11.16 3.67
10.55 11.26 3.63
10.20 11.34 3.59
9.84 11.40 3.54
7.13 8.60 2.63
7.03 8.83 2.65
6.93 9.07 2.68
6.82 9.31 2.71
5.84 8.32 2.39
4.69 6.97 1.97
4.48 6.97 1.95
4.32 7.02 1.94
4.32 7.34 2.00
4.60 8.19 2.21
4.39 8.20 2.19
4.62 9.06 2.39
4.44 9.16 2.39
4.26 9.24 2.39
4.07 9.33 2.39
3.88 9.41 2.39
3.69 9.48 2.39
3.50 9.56 2.39
3.31 9.63 2.39
3.11 9.69 2.39
2.92 9.75 2.39
2.72 9.81 2.39
2.53 9.86 2.39
2.33 9.91 2.39
2.13 9.96 2.39
1.93 10.03 2.40
1.80 10.47 2.49
1.59 10.50 2.49
1.38 10.54 2.49
1.17 10.56 2.49
0.96 10.58 2.49
0.74 10.60 2.49
0.53 10.61 2.49
0.32 10.62 2.49
0.10 10.63 2.49
-0.11 10.63 2.49
-0.32 10.63 2.49
-0.53 10.62 2.49
-0.75 10.61 2.49
-0.96 10.59 2.49
-1.17 10.57 2.49
-1.39 10.54 2.49
-1.60 10.51 2.49
-1.81 10.48 2.49
-2.02 10.44 2.49
-2.23 10.40 2.49
-2.44 10.35 2.49
-2.64 10.30 2.49
-2.85 10.25 2.49
-3.05 10.19 2.49
-3.26 10.13 2.49
-3.46 10.06 2.49
-3.66 9.99 2.49
-3.86 9.91 2.49
-4.06 9.84 2.49
-4.26 9.75 2.49
-4.45 9.67 2.49
-4.65 9.57 2.49
-4.84 9.48 2.49
-5.03 9.38 2.49
-5.21 9.28 2.49
-5.40 9.17 2.49
-5.58 9.06 2.49
-5.76 8.95 2.49
-5.94 8.83 2.49
-6.11 8.69 2.49
-6.11 8.33 2.42
-6.20 8.11 2.39
-6.28 7.89 2.36
-6.52 7.85 2.39
-6.67 7.72 2.39
-6.83 7.59 2.39
-6.98 7.45 2.39
-7.13 7.31 2.39
-7.27 7.16 2.39
-7.41 7.02 2.39
-7.55 6.87 2.39
-7.69 6.71 2.39
-7.82 6.56 2.39
-7.95 6.40 2.39
-8.08 6.24 2.39
-8.20 6.07 2.39
-8.32 5.91 2.39
-8.44 5.74 2.39
-8.55 5.57 2.39
-8.66 5.40 2.39
-8.77 5.22 2.39
-8.87 5.04 2.39
-8.97 4.87 2.39
-9.07 4.68 2.39
-9.16 4.50 2.39
-9.25 4.32 2.39
-9.33 4.13 2.39
-9.42 3.94 2.39
-9.49 3.75 2.39
-9.57 3.56 2.39
-9.64 3.37 2.39
-9.70 3.17 2.39
-9.76 2.98 2.39
-9.82 2.78 2.39
-9.87 2.58 2.39
-9.92 2.39 2.39
-9.97 2.19 2.39
-10.01 1.99 2.39
-10.09 1.79 2.40
-10.09 1.58 2.39
-10.09 1.38 2.38
-10.05 1.17 2.37
-10.05 0.96 2.36
-10.08 0.76 2.37
-10.08 0.56 2.36
-10.07 0.35 2.36
-10.04 0.15 2.35
-10.07 -0.05 2.36
-10.07 -0.25 2.36
-10.06 -0.45 2.36
-10.06 -0.66 2.36
-10.03 -0.86 2.36
-10.02 -1.06 2.36
-10.06 -1.27 2.38
-10.05 -1.47 2.38
-10.05 -1.68 2.39
-10.01 -1.88 2.39
-9.98 -2.08 2.39
-9.94 -2.28 2.39
-9.24 -2.32 2.23
-9.17 -2.50 2.23
-9.16 -2.69 2.24
-9.72 -3.07 2.39
-9.66 -3.27 2.39
-9.59 -3.46 2.39
-9.52 -3.65 2.39
-9.44 -3.84 2.39
-9.36 -4.03 2.39
-9.28 -4.22 2.39
-9.19 -4.40 2.39
-9.10 -4.58 2.39
-9.01 -4.77 2.39
-8.91 -4.95 2.39
-8.81 -5.12 2.39
-8.70 -5.30 2.39
-8.59 -5.47 2.39
-8.48 -5.64 2.39
-8.37 -5.81 2.39
-8.25 -5.98 2.39
-8.13 -6.14 2.39
-8.00 -6.30 2.39
-7.87 -6.46 2.39
-7.74 -6.62 2.39
-7.61 -6.77 2.39
-7.47 -6.92 2.39
-7.33 -7.07 2.39
-7.18 -7.22 2.39
-7.04 -7.36 2.39
-6.89 -7.50 2.39
-6.73 -7.63 2.39
-6.58 -7.77 2.39
-6.42 -7.90 2.39
-6.26 -8.02 2.39
-6.11 -8.17 2.40
-5.93 -8.27 2.39
-5.90 -8.58 2.45
-5.84 -8.86 2.49
-5.66 -8.98 2.49
-5.48 -9.09 2.49
-5.29 -9.20 2.49
-5.11 -9.30 2.49
-4.92 -9.40 2.49
-4.73 -9.50 2.49
-4.54 -9.59 2.49
-4.34 -9.68 2.49
-4.15 -9.76 2.49
-3.95 -9.84 2.49
-3.75 -9.92 2.49
-3.55 -9.99 2.49
-3.35 -10.06 2.49
-3.15 -10.13 2.49
-2.94 -10.19 2.49
-2.74 -10.24 2.49
-2.53 -10.29 2.49
-2.32 -10.34 2.49
-2.12 -10.39 2.49
-1.91 -10.43 2.49
-1.70 -10.46 2.49
-1.49 -10.49 2.49
-1.28 -10.52 2.49
-1.06 -10.54 2.49
-0.85 -10.56 2.49
-0.64 -10.58 2.49
-0.43 -10.59 2.49
-0.21 -10.59 2.49
-0.00 -9.62 2.49
0.19 -9.61 2.49
0.38 -9.61 2.49
0.58 -9.60 2.49
0.77 -9.58 2.49
0.96 -9.57 2.49
1.15 -9.54 2.49
1.34 -9.52 2.49
1.54 -9.49 2.49
1.73 -9.46 2.49
1.92 -9.42 2.49
2.10 -9.38 2.49
2.20 -8.95 2.39
2.38 -8.90 2.39
2.54 -8.80 2.38
2.73 -8.80 2.39
2.36 -7.09 1.94
2.49 -7.01 1.93
3.26 -8.62 2.39
3.43 -8.55 2.39
3.60 -8.48 2.39
3.77 -8.40 2.39
3.94 -8.33 2.39
4.10 -8.25 2.39
4.27 -8.16 2.39
4.43 -8.07 2.39
4.59 -7.98 2.39
4.75 -7.89 2.39
4.91 -7.79 2.39
5.06 -7.69 2.39
5.22 -7.59 2.39
5.37 -7.48 2.39
5.52 -7.37 2.39
5.66 -7.26 2.39
5.81 -7.14 2.39
5.95 -7.03 2.39
6.09 -6.91 2.39
7.21 -7.85 2.77
7.28 -7.62 2.74
6.10 -6.13 2.25
6.10 -5.89 2.20
9.39 -8.71 3.33
9.58 -8.54 3.33
9.77 -8.36 3.34
9.96 -8.18 3.35
6.09 -4.80 2.01
10.31 -7.80 3.36
10.49 -7.60 3.36
10.66 -7.40 3.37
6.07 -4.04 1.90
10.99 -7.00 3.38
11.15 -6.79 3.39
11.30 -6.57 3.40
6.07 -3.37 1.80
11.73 -6.21 3.45
11.96 -6.03 3.48
12.19 -5.84 3.51
12.42 -5.64 3.54
12.64 -5.44 3.57
6.06 -2.47 1.70
13.07 -5.01 3.64
13.27 -4.79 3.66
6.05 -2.05 1.66
27.96 -8.83 7.62
6.06 -1.78 1.64
28.45 -7.75 7.66
28.67 -7.19 7.68
28.85 -6.63 7.69
28.99 -6.05 7.69
29.14 -5.47 7.70
29.33 -4.90 7.72
29.58 -4.33 7.76
6.03 -0.76 1.58
6.03 -0.64 1.58
6.03 -0.52 1.57
6.03 -0.39 1.57
6.03 -0.27 1.57
6.03 -0.15 1.57
6.03 -0.03 1.56
6.02 0.09 1.56
6.02 0.21 1.56
6.02 0.33 1.57
6.02 0.45 1.57
6.02 0.58 1.57
6.02 0.70 1.57
6.02 0.82 1.58
40.82 6.41 10.72
40.53 7.20 10.69
6.01 1.70 1.62
6.00 1.96 1.64
6.01 2.24 1.66
14.16 5.60 3.95
13.27 5.56 3.73
13.04 5.77 3.70
12.81 5.98 3.67
12.57 6.18 3.63
12.31 6.36 3.59
6.00 3.26 1.77
11.78 6.70 3.51
11.51 6.85 3.47
11.28 7.03 3.45
5.98 3.89 1.85
11.00 7.48 3.45
10.86 7.71 3.45
10.72 7.94 3.46
10.57 8.16 3.46
10.38 8.36 3.45
10.17 8.53 3.44
9.96 8.70 3.43
5.97 5.43 2.09
9.55 9.05 3.41
5.95 5.87 2.17
7.13 7.31 2.65
5.96 6.36 2.26
6.94 7.72 2.69
6.85 7.93 2.71
5.89 7.10 2.39
5.75 7.22 2.39
5.60 7.34 2.39
5.45 7.45 2.39
5.30 7.56 2.39
5.15 7.66 2.39
4.64 7.21 2.22
4.44 7.20 2.19
4.68 7.96 2.39
4.52 8.05 2.39
4.36 8.14 2.39
4.20 8.23 2.39
4.03 8.31 2.39
3.86 8.39 2.39
3.69 8.47 2.39
3.52 8.54 2.39
3.35 8.61 2.39
3.18 8.68 2.39
3.00 8.74 2.39
2.83 8.80 2.39
2.65 8.85 2.39
2.47 8.90 2.39
2.29 8.95 2.39
2.13 9.05 2.41
1.94 9.09 2.41
1.83 9.47 2.49
1.64 9.50 2.49
1.44 9.53 2.49
1.25 9.56 2.49
1.06 9.59 2.49
0.87 9.61 2.49
0.68 9.62 2.49
0.48 9.63 2.49
0.29 9.64 2.49
0.10 9.65 2.49
-0.10 9.65 2.49
-0.29 9.64 2.49
-0.49 9.64 2.49
-0.68 9.63 2.49
-0.87 9.61 2.49
-1.06 9.59 2.49
-1.26 9.57 2.49
-1.45 9.54 2.49
-1.64 9.51 2.49
-1.83 9.48 2.49
-2.02 9.44 2.49
-2.21 9.40 2.49
-2.40 9.35 2.49
-2.59 9.30 2.49
-2.77 9.25 2.49
-2.96 9.19 2.49
-3.14 9.13 2.49
-3.32 9.07 2.49
-3.51 9.00 2.49
-3.69 8.93 2.49
-3.86 8.85 2.49
-4.04 8.77 2.49
-4.22 8.69 2.49
-4.39 8.60 2.49
-4.56 8.51 2.49
-4.73 8.42 2.49
-4.90 8.32 2.49
-5.07 8.22 2.49
-5.23 8.12 2.49
-5.39 8.01 2.49
-5.55 7.91 2.49
-5.71 7.79 2.49
-5.87 7.68 2.49
-6.02 7.56 2.49
-6.09 7.34 2.46
-6.10 7.05 2.41
-6.20 6.88 2.39
-6.33 6.76 2.39
-6.47 6.63 2.39
-6.60 6.50 2.39
-6.73 6.37 2.39
-6.85 6.23 2.39
-6.98 6.09 2.39
-7.10 5.95 2.39
-7.22 5.81 2.39
-7.33 5.66 2.39
-7.44 5.51 2.39
-7.55 5.36 2.39
-7.66 5.21 2.39
-7.76 5.05 2.39
-7.86 4.90 2.39
-7.96 4.74 2.39
-8.05 4.58 2.39
-8.14 4.42 2.39
-8.23 4.25 2.39
-8.31 4.08 2.39
-8.39 3.92 2.39
-8.47 3.75 2.39
-8.54 3.58 2.39
-8.61 3.40 2.39
-8.68 3.23 2.39
-8.74 3.06 2.39
-8.80 2.88 2.39
-8.86 2.70 2.39
-8.91 2.52 2.39
-8.96 2.35 2.39
-9.01 2.16 2.39
-9.05 1.98 2.39
-9.08 1.80 2.39
-9.12 1.62 2.39
-9.15 1.44 2.39
-9.18 1.25 2.39
-9.20 1.07 2.39
-9.22 0.88 2.39
-9.23 0.70 2.39
-9.25 0.51 2.39
-9.25 0.33 2.39
-9.26 0.14 2.39
-9.26 -0.05 2.39
-9.26 -0.23 2.39
-9.25 -0.42 2.39
-9.24 -0.60 2.39
-9.22 -0.79 2.39
-9.21 -0.97 2.39
-9.18 -1.16 2.39
-9.16 -1.34 2.39
-9.13 -1.52 2.39
-9.10 -1.71 2.39
-9.06 -1.89 2.39
-9.02 -2.07 2.39
-8.98 -2.25 2.39
-8.93 -2.43 2.39
-8.88 -2.61 2.39
-8.82 -2.79 2.39
-8.77 -2.96 2.39
-8.70 -3.14 2.39
-8.64 -3.31 2.39
-8.57 -3.49 2.39
-8.50 -3.66 2.39
-8.42 -3.83 2.39
-8.34 -3.99 2.39
-8.26 -4.16 2.39
-8.18 -4.33 2.39
-8.09 -4.49 2.39
-7.99 -4.65 2.39
-7.90 -4.81 2.39
-7.80 -4.97 2.39
-7.70 -5.12 2.39
-7.59 -5.27 2.39
-7.49 -5.43 2.39
-7.38 -5.57 2.39
-7.26 -5.72 2.39
-7.15 -5.87 2.39
-7.03 -6.01 2.39
-6.90 -6.15 2.39
-6.78 -6.28 2.39
-6.65 -6.42 2.39
-6.52 -6.55 2.39
-6.39 -6.68 2.39
-6.25 -6.81 2.39
-6.13 -6.95 2.40
-5.97 -7.05 2.39
-5.92 -7.28 2.43
-5.91 -7.57 2.49
-5.77 -7.71 2.49
-5.62 -7.83 2.49
-5.46 -7.94 2.49
-5.30 -8.05 2.49
-5.14 -8.15 2.49
-4.97 -8.25 2.49
-4.80 -8.35 2.49
-4.64 -8.44 2.49
-4.46 -8.53 2.49
-4.29 -8.62 2.49
-4.12 -8.71 2.49
-3.94 -8.79 2.49
-3.76 -8.86 2.49
-3.59 -8.94 2.49
-3.41 -9.01 2.49
-3.22 -9.07 2.49
-3.04 -9.13 2.49
-2.86 -9.19 2.49
-2.67 -9.25 2.49
-2.49 -9.30 2.49
-2.30 -9.35 2.49
-2.11 -9.39 2.49
-1.92 -9.43 2.49
-1.73 -9.47 2.49
-1.54 -9.50 2.49
-1.35 -9.53 2.49
-1.16 -9.55 2.49
-0.97 -9.57 2.49
-0.77 -9.59 2.49
-0.58 -9.60 2.49
-0.39 -9.61 2.49
-0.19 -9.62 2.49
-0.00 -8.80 2.49
0.17 -8.79 2.49
0.35 -8.79 2.49
0.53 -8.78 2.49
0.70 -8.77 2.49
0.88 -8.75 2.49
1.06 -8.73 2.49
1.23 -8.71 2.49
1.40 -8.68 2.49
1.58 -8.65 2.49
1.75 -8.62 2.49
1.92 -8.58 2.49
2.10 -8.54 2.49
2.17 -8.14 2.39
2.34 -8.10 2.39
2.50 -8.05 2.39
2.36 -7.09 2.12
2.49 -7.01 2.11
2.98 -7.88 2.39
3.14 -7.82 2.39
3.29 -7.76 2.39
3.45 -7.69 2.39
3.60 -7.62 2.39
3.75 -7.54 2.39
3.90 -7.47 2.39
4.05 -7.39 2.39
4.20 -7.30 2.39
4.34 -7.22 2.39
4.49 -7.13 2.39
4.63 -7.04 2.39
4.77 -6.94 2.39
4.91 -6.84 2.39
5.05 -6.74 2.39
5.18 -6.64 2.39
5.31 -6.54 2.39
5.44 -6.43 2.39
5.57 -6.32 2.39
5.70 -6.20 2.39
5.82 -6.09 2.39
5.94 -5.97 2.39
6.06 -5.85 2.39
7.09 -6.57 2.74
7.15 -6.37 2.72
6.10 -5.21 2.28
7.26 -5.96 2.67
7.31 -5.76 2.64
8.88 -6.72 3.16
6.09 -4.41 2.13
9.60 -6.67 3.32
6.07 -4.04 2.07
9.88 -6.30 3.33
10.02 -6.10 3.33
10.15 -5.91 3.33
10.28 -5.71 3.34
6.07 -3.21 1.95
10.51 -5.30 3.34
10.64 -5.10 3.35
10.76 -4.89 3.36
10.88 -4.68 3.36
10.99 -4.47 3.37
11.09 -4.26 3.37
11.19 -4.04 3.38
6.05 -2.05 1.81
11.39 -3.60 3.39
11.53 -3.39 3.41
11.66 -3.18 3.43
11.81 -2.96 3.46
11.95 -2.74 3.48
12.08 -2.52 3.50
12.20 -2.29 3.52
12.31 -2.06 3.54
12.41 -1.82 3.56
12.50 -1.58 3.58
12.58 -1.33 3.59
12.66 -1.08 3.61
12.73 -0.83 3.62
12.78 -0.58 3.63
12.83 -0.32 3.64
6.03 -0.03 1.71
12.89 0.20 3.66
12.90 0.45 3.66
12.90 0.71 3.67
12.87 0.97 3.66
12.83 1.23 3.66
12.77 1.48 3.65
12.70 1.73 3.64
12.62 1.98 3.63
12.54 2.23 3.61
12.44 2.47 3.60
6.02 1.32 1.75
12.21 2.94 3.56
12.07 3.16 3.54
11.93 3.38 3.52
11.79 3.60 3.50
6.00 1.96 1.79
11.50 4.02 3.46
11.34 4.22 3.43
11.20 4.43 3.41
11.06 4.63 3.40
10.94 4.84 3.39
6.00 2.80 1.88
10.66 5.24 3.37
10.51 5.43 3.35
10.36 5.62 3.34
10.20 5.80 3.33
10.09 6.01 3.33
9.98 6.22 3.33
5.98 3.89 2.02
9.76 6.64 3.34
9.63 6.84 3.35
9.51 7.04 3.35
9.35 7.22 3.35
8.81 7.09 3.21
7.14 5.99 2.64
7.07 6.17 2.66
7.00 6.37 2.68
4.82 4.56 1.88
4.73 4.66 1.88
4.64 4.76 1.88
4.54 4.85 1.88
4.44 4.94 1.88
4.36 5.04 1.89
5.39 6.50 2.39
5.26 6.60 2.39
5.12 6.71 2.39
4.99 6.81 2.39
4.85 6.91 2.39
4.71 7.01 2.39
4.57 7.10 2.39
4.43 7.19 2.39
4.28 7.28 2.39
4.14 7.36 2.39
3.99 7.45 2.39
3.84 7.52 2.39
3.69 7.60 2.39
3.53 7.67 2.39
3.38 7.74 2.39
3.22 7.81 2.39
3.06 7.87 2.39
2.91 7.93 2.39
2.75 7.99 2.39
2.59 8.05 2.39
2.42 8.10 2.39
2.26 8.14 2.39
2.10 8.19 2.39
1.95 8.31 2.41
1.84 8.62 2.49
1.67 8.66 2.49
1.50 8.69 2.49
1.32 8.72 2.49
1.15 8.74 2.49
0.97 8.77 2.49
0.79 8.78 2.49
0.62 8.80 2.49
0.44 8.81 2.49
0.26 8.82 2.49
0.09 8.82 2.49
-0.09 8.82 2.49
-0.27 8.82 2.49
-0.44 8.81 2.49
-0.62 8.80 2.49
-0.80 8.79 2.49
-0.97 8.77 2.49
-1.15 8.75 2.49
-1.33 8.73 2.49
-1.50 8.70 2.49
-1.67 8.67 2.49
-1.85 8.63 2.49
-2.02 8.59 2.49
-2.19 8.55 2.49
-2.36 8.51 2.49
-2.53 8.46 2.49
-2.70 8.40 2.49
-2.87 8.35 2.49
-3.04 8.29 2.49
-3.21 8.23 2.49
-3.37 8.16 2.49
-3.53 8.09 2.49
-3.70 8.02 2.49
-3.86 7.95 2.49
-4.01 7.87 2.49
-4.17 7.78 2.49
-4.33 7.70 2.49
-4.48 7.61 2.49
-4.63 7.52 2.49
-4.78 7.43 2.49
-4.93 7.33 2.49
-5.08 7.23 2.49
-5.22 7.13 2.49
-5.36 7.02 2.49
-5.50 6.91 2.49
-5.64 6.80 2.49
-5.78 6.68 2.49
-5.91 6.57 2.49
-6.04 6.45 2.49
-6.08 6.23 2.46
-6.08 5.99 2.41
-6.15 5.82 2.39
-6.28 5.71 2.40
-6.38 5.57 2.39
-6.49 5.44 2.39
-6.60 5.31 2.39
-6.70 5.18 2.39
-6.81 5.04 2.39
-6.91 4.90 2.39
-7.00 4.76 2.39
-7.10 4.62 2.39
-7.19 4.48 2.39
-7.28 4.33 2.39
-7.36 4.19 2.39
-7.45 4.04 2.39
-7.53 3.89 2.39
-7.60 3.74 2.39
-7.68 3.58 2.39
-7.75 3.43 2.39
-7.81 3.27 2.39
-7.88 3.11 2.39
-7.94 2.95 2.39
-8.00 2.79 2.39
-8.05 2.63 2.39
-8.10 2.47 2.39
-8.15 2.31 2.39
-8.19 2.14 2.39
-8.23 1.98 2.39
-8.27 1.81 2.39
-8.31 1.65 2.39
-8.34 1.48 2.39
-8.37 1.31 2.39
-8.39 1.14 2.39
-8.41 0.98 2.39
-8.43 0.81 2.39
-8.44 0.64 2.39
-8.45 0.47 2.39
-8.46 0.30 2.39
-8.47 0.13 2.39
-8.47 -0.04 2.39
-8.46 -0.21 2.39
-8.46 -0.38 2.39
-8.45 -0.55 2.39
-8.44 -0.72 2.39
-8.42 -0.89 2.39
-8.40 -1.06 2.39
-8.38 -1.23 2.39
-8.35 -1.39 2.39
-8.32 -1.56 2.39
-8.29 -1.73 2.39
-8.25 -1.89 2.39
-8.21 -2.06 2.39
-8.17 -2.22 2.39
-8.12 -2.39 2.39
-8.07 -2.55 2.39
-8.02 -2.71 2.39
-7.96 -2.87 2.39
-7.90 -3.03 2.39
-7.84 -3.19 2.39
-7.77 -3.34 2.39
-7.70 -3.50 2.39
-7.63 -3.65 2.39
-7.55 -3.80 2.39
-7.48 -3.96 2.39
-7.40 -4.10 2.39
-7.31 -4.25 2.39
-7.22 -4.40 2.39
-7.13 -4.54 2.39
-7.04 -4.68 2.39
-6.95 -4.82 2.39
-6.85 -4.96 2.39
-6.75 -5.10 2.39
-6.64 -5.23 2.39
-6.53 -5.36 2.39
-6.43 -5.49 2.39
-6.31 -5.62 2.39
-6.20 -5.75 2.39
-6.08 -5.87 2.39
-5.96 -5.99 2.39
-5.93 -6.20 2.43
-5.92 -6.45 2.48
-5.83 -6.61 2.49
-5.70 -6.73 2.49
-5.56 -6.84 2.49
-5.42 -6.95 2.49
-5.28 -7.06 2.49
-5.14 -7.16 2.49
-4.99 -7.26 2.49
-4.85 -7.36 2.49
-4.70 -7.45 2.49
-4.55 -7.55 2.49
-4.39 -7.64 2.49
-4.24 -7.72 2.49
-4.08 -7.81 2.49
-3.93 -7.89 2.49
-3.77 -7.96 2.49
-3.61 -8.04 2.49
-3.44 -8.11 2.49
-3.28 -8.17 2.49
-3.11 -8.24 2.49
-2.95 -8.30 2.49
-2.78 -8.35 2.49
-2.61 -8.41 2.49
-2.44 -8.46 2.49
-2.27 -8.50 2.49
-2.10 -8.55 2.49
-1.93 -8.59 2.49
-1.76 -8.62 2.49
-1.58 -8.66 2.49
-1.41 -8.69 2.49
-1.23 -8.71 2.49
-1.06 -8.74 2.49
-0.88 -8.75 2.49
-0.71 -8.77 2.49
-0.53 -8.78 2.49
-0.35 -8.79 2.49
-0.18 -8.80 2.49
-0.00 -8.10 2.49
0.16 -8.10 2.49
0.32 -8.09 2.49
0.49 -8.08 2.49
0.65 -8.07 2.49
0.81 -8.05 2.49
0.97 -8.04 2.49
1.13 -8.02 2.49
1.29 -7.99 2.49
1.45 -7.96 2.49
1.61 -7.93 2.49
1.77 -7.90 2.49
1.93 -7.86 2.49
2.09 -7.82 2.49
2.15 -7.45 2.39
2.30 -7.41 2.39
2.36 -7.08 2.30
2.49 -7.01 2.29
2.74 -7.26 2.39
2.89 -7.20 2.39
3.03 -7.14 2.39
3.17 -7.08 2.39
3.31 -7.01 2.39
3.45 -6.94 2.39
3.59 -6.87 2.39
3.73 -6.80 2.39
3.87 -6.72 2.39
4.00 -6.64 2.39
4.13 -6.56 2.39
4.26 -6.48 2.39
4.39 -6.39 2.39
4.52 -6.30 2.39
4.64 -6.21 2.39
4.77 -6.11 2.39
4.89 -6.02 2.39
5.01 -5.92 2.39
5.13 -5.82 2.39
5.24 -5.71 2.39
5.36 -5.60 2.39
5.47 -5.50 2.39
5.58 -5.38 2.39
5.68 -5.27 2.39
5.79 -5.16 2.39
5.89 -5.04 2.39
5.99 -4.92 2.39
6.09 -4.80 2.39
7.02 -5.31 2.71
7.08 -5.13 2.70
7.13 -4.95 2.68
6.07 -4.04 2.25
7.23 -4.60 2.64
7.28 -4.43 2.63
7.65 -4.45 2.73
8.37 -4.65 2.95
9.35 -4.95 3.26
9.46 -4.77 3.27
9.57 -4.58 3.27
9.67 -4.40 3.28
9.77 -4.21 3.28
9.87 -4.01 3.29
9.96 -3.82 3.29
10.04 -3.62 3.29
6.05 -2.05 1.97
10.20 -3.22 3.30
10.29 -3.03 3.31
10.37 -2.83 3.32
10.45 -2.62 3.32
10.53 -2.42 3.33
10.59 -2.21 3.34
10.66 -2.00 3.34
10.70 -1.79 3.35
10.72 -1.57 3.34
10.73 -1.35 3.33
10.75 -1.14 3.33
10.80 -0.92 3.34
10.83 -0.71 3.35
10.86 -0.49 3.35
10.89 -0.27 3.36
6.03 -0.03 1.86
10.91 0.17 3.36
10.91 0.38 3.37
10.91 0.60 3.37
10.89 0.82 3.37
10.87 1.04 3.37
10.83 1.26 3.36
6.02 0.82 1.87
10.74 1.69 3.35
10.69 1.90 3.35
10.63 2.11 3.34
10.57 2.32 3.34
10.51 2.53 3.33
10.45 2.74 3.33
10.37 2.94 3.32
10.28 3.14 3.31
6.00 1.96 1.95
10.10 3.53 3.30
10.00 3.72 3.29
9.90 3.92 3.28
9.80 4.11 3.27
9.69 4.29 3.27
9.58 4.47 3.26
9.46 4.65 3.25
9.34 4.83 3.24
9.24 5.01 3.24
8.54 4.85 3.02
5.99 3.57 2.15
7.34 4.58 2.66
5.98 3.89 2.20
7.09 4.83 2.64
5.98 4.25 2.26
6.98 5.17 2.68
4.84 3.73 1.88
4.76 3.83 1.88
4.68 3.93 1.88
4.60 4.02 1.88
4.52 4.11 1.88
4.44 4.20 1.88
4.37 4.30 1.89
4.35 4.46 1.92
4.35 4.64 1.96
4.35 4.83 2.00
4.35 5.03 2.05
4.96 5.98 2.39
4.84 6.08 2.39
4.72 6.18 2.39
4.59 6.27 2.39
4.46 6.36 2.39
4.34 6.45 2.39
4.21 6.54 2.39
4.07 6.62 2.39
3.94 6.70 2.39
3.81 6.78 2.39
3.67 6.85 2.39
3.53 6.93 2.39
3.39 7.00 2.39
3.25 7.06 2.39
3.11 7.13 2.39
2.96 7.19 2.39
2.82 7.25 2.39
2.67 7.30 2.39
2.53 7.35 2.39
2.38 7.40 2.39
2.23 7.45 2.39
2.08 7.49 2.39
1.96 7.64 2.42
1.85 7.90 2.49
1.70 7.94 2.49
1.54 7.97 2.49
1.38 8.00 2.49
1.22 8.02 2.49
1.05 8.05 2.49
0.89 8.07 2.49
0.73 8.08 2.49
0.57 8.10 2.49
0.41 8.11 2.49
0.24 8.12 2.49
0.08 8.12 2.49
-0.08 8.12 2.49
-0.25 8.12 2.49
-0.41 8.11 2.49
-0.57 8.10 2.49
-0.73 8.09 2.49
-0.90 8.07 2.49
-1.06 8.05 2.49
-1.22 8.03 2.49
-1.38 8.00 2.49
-1.54 7.98 2.49
-1.70 7.94 2.49
-1.86 7.91 2.49
-2.02 7.87 2.49
-2.18 7.83 2.49
-2.33 7.78 2.49
-2.49 7.73 2.49
-2.64 7.68 2.49
-2.80 7.63 2.49
-2.95 7.57 2.49
-3.10 7.51 2.49
-3.25 7.45 2.49
-3.40 7.38 2.49
-3.55 7.31 2.49
-3.69 7.24 2.49
-3.84 7.16 2.49
-3.98 7.09 2.49
-4.12 7.00 2.49
-4.26 6.92 2.49
-4.40 6.83 2.49
-4.54 6.74 2.49
-4.67 6.65 2.49
-4.81 6.56 2.49
-4.94 6.46 2.49
-5.06 6.36 2.49
-5.19 6.26 2.49
-5.32 6.15 2.49
-5.44 6.04 2.49
-5.56 5.93 2.49
-5.68 5.82 2.49
-5.79 5.71 2.49
-5.91 5.59 2.49
-6.02 5.47 2.49
-6.07 5.29 2.47
-6.07 5.08 2.43
-6.07 4.89 2.39
-6.17 4.76 2.39
-6.27 4.64 2.39
-6.36 4.51 2.39
-6.45 4.38 2.39
-6.53 4.25 2.39
-6.62 4.12 2.39
-6.70 3.99 2.39
-6.78 3.85 2.39
-6.85 3.72 2.39
-6.93 3.58 2.39
-7.00 3.44 2.39
-7.06 3.30 2.39
-7.13 3.15 2.39
-7.19 3.01 2.39
-7.25 2.87 2.39
-7.30 2.72 2.39
-7.36 2.57 2.39
-7.41 2.42 2.39
-7.45 2.27 2.39
-7.50 2.12 2.39
-7.54 1.97 2.39
-7.58 1.82 2.39
-7.61 1.67 2.39
-7.64 1.52 2.39
-7.67 1.36 2.39
-7.70 1.21 2.39
-7.72 1.05 2.39
-7.74 0.90 2.39
-7.76 0.74 2.39
-7.77 0.59 2.39
-7.78 0.43 2.39
-7.79 0.27 2.39
-7.79 0.12 2.39
-7.79 -0.04 2.39
-7.79 -0.19 2.39
-7.78 -0.35 2.39
-7.77 -0.51 2.39
-7.76 -0.66 2.39
-7.75 -0.82 2.39
-7.73 -0.97 2.39
-7.71 -1.13 2.39
-7.68 -1.28 2.39
-7.66 -1.44 2.39
-7.62 -1.59 2.39
-7.59 -1.74 2.39
-7.55 -1.89 2.39
-7.51 -2.05 2.39
-7.47 -2.20 2.39
-7.43 -2.35 2.39
-7.38 -2.49 2.39
-7.33 -2.64 2.39
-7.27 -2.79 2.39
-7.21 -2.93 2.39
-7.15 -3.08 2.39
-7.09 -3.22 2.39
-7.02 -3.36 2.39
-6.95 -3.50 2.39
-6.88 -3.64 2.39
-6.81 -3.78 2.39
-6.73 -3.91 2.39
-6.65 -4.05 2.39
-6.57 -4.18 2.39
-6.48 -4.31 2.39
-6.39 -4.44 2.39
-6.30 -4.57 2.39
-6.21 -4.69 2.39
-6.11 -4.81 2.39
-6.01 -4.94 2.39
-5.95 -5.09 2.41
-5.94 -5.29 2.44
-5.93 -5.50 2.49
-5.84 -5.63 2.49
-5.72 -5.75 2.49
-5.61 -5.86 2.49
-5.49 -5.98 2.49
-5.37 -6.08 2.49
-5.24 -6.19 2.49
-5.12 -6.29 2.49
-4.99 -6.39 2.49
-4.86 -6.49 2.49
-4.73 -6.59 2.49
-4.60 -6.68 2.49
-4.46 -6.77 2.49
-4.32 -6.86 2.49
-4.18 -6.95 2.49
-4.04 -7.03 2.49
-3.90 -7.11 2.49
-3.76 -7.18 2.49
-3.61 -7.26 2.49
-3.47 -7.33 2.49
-3.32 -7.40 2.49
-3.17 -7.46 2.49
-3.02 -7.52 2.49
-2.87 -7.58 2.49
-2.71 -7.64 2.49
-2.56 -7.69 2.49
-2.41 -7.74 2.49
-2.25 -7.78 2.49
-2.09 -7.83 2.49
-1.93 -7.87 2.49
-1.78 -7.90 2.49
-1.62 -7.94 2.49
-1.46 -7.97 2.49
-1.30 -8.00 2.49
-1.14 -8.02 2.49
-0.97 -8.04 2.49
-0.81 -8.06 2.49
-0.65 -8.07 2.49
-0.49 -8.08 2.49
-0.33 -8.09 2.49
-0.16 -8.10 2.49
-0.00 -7.49 2.49
0.15 -7.49 2.49
0.30 -7.49 2.49
0.45 -7.48 2.49
0.60 -7.47 2.49
0.75 -7.45 2.49
0.90 -7.44 2.49
1.05 -7.42 2.49
1.20 -7.39 2.49
1.34 -7.37 2.49
1.49 -7.34 2.49
1.64 -7.31 2.49
1.79 -7.27 2.49
1.93 -7.24 2.49
2.08 -7.20 2.49
2.14 -6.89 2.40
2.27 -6.81 2.39
2.40 -6.76 2.39
2.54 -6.72 2.39
2.67 -6.66 2.39
2.80 -6.61 2.39
2.94 -6.55 2.39
3.07 -6.49 2.39
3.20 -6.43 2.39
3.32 -6.36 2.39
3.45 -6.29 2.39
3.58 -6.22 2.39
3.70 -6.15 2.39
3.82 -6.07 2.39
3.94 -5.99 2.39
4.06 -5.91 2.39
4.18 -5.83 2.39
4.30 -5.75 2.39
4.41 -5.66 2.39
4.53 -5.57 2.39
4.64 -5.48 2.39
4.74 -5.38 2.39
4.85 -5.29 2.39
4.96 -5.19 2.39
5.06 -5.09 2.39
5.16 -4.98 2.39
5.26 -4.88 2.39
5.36 -4.77 2.39
5.45 -4.66 2.39
5.54 -4.55 2.39
5.63 -4.44 2.39
5.72 -4.33 2.39
5.81 -4.21 2.39
5.89 -4.09 2.39
5.97 -3.97 2.39
6.05 -3.85 2.39
6.97 -4.25 2.72
7.02 -4.08 2.71
7.06 -3.92 2.69
7.10 -3.76 2.68
6.07 -3.06 2.26
7.18 -3.44 2.65
7.21 -3.28 2.64
7.24 -3.12 2.63
7.27 -2.96 2.62
6.06 -2.32 2.16
7.74 -2.79 2.74
6.05 -2.05 2.13
8.45 -2.67 2.95
8.81 -2.59 3.06
6.07 -1.65 2.10
9.33 -2.34 3.21
9.37 -2.15 3.20
9.40 -1.96 3.20
9.43 -1.77 3.20
9.46 -1.58 3.19
9.47 -1.39 3.19
6.04 -0.76 2.03
9.54 -1.01 3.20
9.57 -0.82 3.20
9.60 -0.63 3.21
9.63 -0.43 3.21
9.65 -0.24 3.22
6.03 -0.03 2.01
9.67 0.15 3.22
9.67 0.34 3.22
9.66 0.54 3.22
9.65 0.73 3.22
6.03 0.58 2.02
9.60 1.11 3.22
9.58 1.31 3.22
9.55 1.50 3.22
9.51 1.69 3.22
9.47 1.88 3.22
6.02 1.32 2.05
9.37 2.25 3.21
9.31 2.44 3.21
9.25 2.62 3.20
9.00 2.75 3.13
6.00 1.96 2.10
8.41 2.94 2.97
6.01 2.24 2.13
7.80 3.09 2.79
7.49 3.14 2.70
7.19 3.18 2.62
7.15 3.34 2.63
7.10 3.49 2.63
7.05 3.64 2.64
5.99 3.25 2.27
6.95 3.95 2.66
6.89 4.10 2.67
6.83 4.26 2.68
5.98 3.89 2.37
5.94 4.04 2.39
5.86 4.16 2.39
4.82 3.57 2.00
4.62 3.57 1.94
4.44 3.57 1.90
4.37 3.66 1.90
4.36 3.81 1.93
4.36 3.96 1.96
4.35 4.12 1.99
4.35 4.29 2.03
4.67 4.79 2.22
4.48 4.78 2.18
4.81 5.34 2.39
4.70 5.44 2.39
4.59 5.53 2.39
4.48 5.63 2.39
4.36 5.71 2.39
4.25 5.80 2.39
4.13 5.89 2.39
4.01 5.97 2.39
3.89 6.05 2.39
3.77 6.12 2.39
3.65 6.20 2.39
3.52 6.27 2.39
3.40 6.34 2.39
3.27 6.41 2.39
3.14 6.47 2.39
3.01 6.54 2.39
2.88 6.59 2.39
2.74 6.65 2.39
2.61 6.71 2.39
2.47 6.76 2.39
2.34 6.81 2.39
2.20 6.85 2.39
2.06 6.89 2.39
1.96 7.07 2.44
1.86 7.27 2.49
1.72 7.31 2.49
1.57 7.34 2.49
1.42 7.37 2.49
1.27 7.40 2.49
1.12 7.43 2.49
0.98 7.45 2.49
0.83 7.46 2.49
0.68 7.48 2.49
0.53 7.49 2.49
0.38 7.50 2.49
0.22 7.51 2.49
0.07 7.51 2.49
-0.08 7.51 2.49
-0.23 7.51 2.49
-0.38 7.50 2.49
-0.53 7.49 2.49
-0.68 7.48 2.49
-0.83 7.47 2.49
-0.98 7.45 2.49
-1.13 7.43 2.49
-1.28 7.41 2.49
-1.43 7.38 2.49
-1.57 7.35 2.49
-1.72 7.32 2.49
-1.87 7.28 2.49
-2.01 7.24 2.49
-2.16 7.20 2.49
-2.30 7.16 2.49
-2.45 7.11 2.49
-2.59 7.06 2.49
-2.73 7.00 2.49
-2.87 6.95 2.49
-3.01 6.89 2.49
-3.15 6.83 2.49
-3.28 6.76 2.49
-3.42 6.70 2.49
-3.55 6.63 2.49
-3.68 6.56 2.49
-3.82 6.48 2.49
-3.94 6.40 2.49
-4.07 6.32 2.49
-4.20 6.24 2.49
-4.32 6.15 2.49
-4.45 6.07 2.49
-4.57 5.98 2.49
-4.69 5.88 2.49
-4.80 5.79 2.49
-4.92 5.69 2.49
-5.03 5.59 2.49
-5.14 5.49 2.49
-5.25 5.38 2.49
-5.36 5.28 2.49
-5.46 5.17 2.49
-5.57 5.06 2.49
-5.67 4.95 2.49
-5.77 4.83 2.49
-5.86 4.71 2.49
-5.95 4.60 2.49
-6.05 4.48 2.49
-6.05 4.30 2.46
-6.05 4.12 2.43
-6.06 3.95 2.40
-6.12 3.81 2.39
-6.20 3.69 2.39
-6.27 3.56 2.39
-6.34 3.44 2.39
-6.41 3.31 2.39
-6.47 3.18 2.39
-6.53 3.05 2.39
-6.59 2.92 2.39
-6.65 2.78 2.39
-6.71 2.65 2.39
-6.76 2.52 2.39
-6.81 2.38 2.39
-6.85 2.24 2.39
-6.90 2.10 2.39
-6.94 1.97 2.39
-6.98 1.83 2.39
-7.01 1.69 2.39
-7.04 1.54 2.39
-7.07 1.40 2.39
-7.10 1.26 2.39
-7.12 1.12 2.39
-7.14 0.97 2.39
-7.16 0.83 2.39
-7.18 0.69 2.39
-7.19 0.54 2.39
-7.20 0.40 2.39
-7.20 0.25 2.39
-7.21 0.11 2.39
-7.21 -0.04 2.39
-7.21 -0.18 2.39
-7.20 -0.32 2.39
-7.19 -0.47 2.39
-7.18 -0.61 2.39
-7.17 -0.76 2.39
-7.15 -0.90 2.39
-7.13 -1.04 2.39
-7.11 -1.19 2.39
-7.08 -1.33 2.39
-7.05 -1.47 2.39
-7.02 -1.61 2.39
-6.99 -1.75 2.39
-6.95 -1.89 2.39
-6.91 -2.03 2.39
-6.87 -2.17 2.39
-6.83 -2.31 2.39
-6.78 -2.44 2.39
-6.73 -2.58 2.39
-6.67 -2.71 2.39
-6.62 -2.85 2.39
-6.56 -2.98 2.39
-6.50 -3.11 2.39
-6.43 -3.24 2.39
-6.37 -3.37 2.39
-6.30 -3.49 2.39
-6.23 -3.62 2.39
-6.17 -3.75 2.40
-6.07 -3.87 2.39
-6.00 -3.99 2.39
-5.96 -4.14 2.41
-5.95 -4.31 2.44
-5.95 -4.49 2.48
-5.90 -4.65 2.49
-5.80 -4.76 2.49
-5.71 -4.88 2.49
-5.61 -4.99 2.49
-5.51 -5.10 2.49
-5.40 -5.21 2.49
-5.30 -5.32 2.49
-5.19 -5.43 2.49
-5.08 -5.53 2.49
-4.97 -5.63 2.49
-4.85 -5.73 2.49
-4.74 -5.82 2.49
-4.62 -5.92 2.49
-4.50 -6.01 2.49
-4.38 -6.10 2.49
-4.25 -6.18 2.49
-4.13 -6.27 2.49
-4.00 -6.35 2.49
-3.87 -6.43 2.49
-3.74 -6.50 2.49
-3.61 -6.58 2.49
-3.48 -6.65 2.49
-3.34 -6.72 2.49
-3.21 -6.78 2.49
-3.07 -6.84 2.49
-2.93 -6.90 2.49
-2.79 -6.96 2.49
-2.65 -7.01 2.49
-2.51 -7.07 2.49
-2.37 -7.11 2.49
-2.23 -7.16 2.49
-2.08 -7.20 2.49
-1.94 -7.24 2.49
-1.79 -7.28 2.49
-1.64 -7.31 2.49
-1.50 -7.35 2.49
-1.35 -7.37 2.49
-1.20 -7.40 2.49
-1.05 -7.42 2.49
-0.90 -7.44 2.49
-0.75 -7.46 2.49
-0.60 -7.47 2.49
-0.45 -7.48 2.49
-0.30 -7.49 2.49
-0.15 -7.49 2.49
-0.00 -6.97 2.49
0.14 -6.96 2.49
0.28 -6.96 2.49
0.42 -6.95 2.49
0.56 -6.94 2.49
0.70 -6.93 2.49
0.84 -6.91 2.49
0.97 -6.90 2.49
1.11 -6.87 2.49
1.25 -6.85 2.49
1.39 -6.82 2.49
1.52 -6.79 2.49
1.66 -6.76 2.49
1.79 -6.73 2.49
1.93 -6.69 2.49
2.06 -6.65 2.49
2.13 -6.40 2.42
2.23 -6.29 2.39
2.36 -6.24 2.39
2.48 -6.19 2.39
2.61 -6.14 2.39
2.73 -6.09 2.39
2.85 -6.03 2.39
2.97 -5.97 2.39
3.09 -5.91 2.39
3.21 -5.85 2.39
3.33 -5.78 2.39
3.44 -5.72 2.39
3.55 -5.65 2.39
3.67 -5.57 2.39
3.78 -5.50 2.39
3.89 -5.42 2.39
4.00 -5.34 2.39
4.10 -5.26 2.39
4.21 -5.18 2.39
4.31 -5.09 2.39
4.41 -5.00 2.39
4.51 -4.91 2.39
4.61 -4.82 2.39
4.70 -4.73 2.39
4.80 -4.63 2.39
4.89 -4.54 2.39
4.98 -4.44 2.39
5.07 -4.34 2.39
5.15 -4.23 2.39
5.24 -4.13 2.39
5.32 -4.02 2.39
5.40 -3.91 2.39
5.48 -3.81 2.39
5.55 -3.69 2.39
5.63 -3.58 2.39
5.70 -3.47 2.39
5.76 -3.35 2.39
5.83 -3.24 2.39
5.89 -3.12 2.39
5.96 -3.00 2.39
6.02 -2.88 2.39
6.07 -2.76 2.39
6.94 -2.99 2.71
6.97 -2.84 2.70
7.00 -2.69 2.69
