ply
format ascii 1.0
element vertex 2977
property float32 x
property float32 y
property float32 z
end_header
-1.67 -11.94 2.50
-1.44 -11.97 2.50
-1.20 -12.01 2.50
-0.96 -12.03 2.50
-0.72 -12.05 2.50
-0.48 -12.07 2.50
-0.24 -12.08 2.50
0.00 -10.84 2.50
0.22 -10.84 2.50
0.44 -10.84 2.50
0.65 -10.83 2.50
0.87 -10.81 2.50
1.08 -10.79 2.50
1.30 -10.77 2.50
1.51 -10.74 2.50
1.73 -10.70 2.50
1.94 -10.66 2.50
2.15 -10.62 2.50
2.26 -10.13 2.39
2.46 -10.08 2.39
2.66 -10.03 2.39
2.86 -9.97 2.39
3.06 -9.90 2.39
3.25 -9.83 2.39
3.45 -9.76 2.39
3.64 -9.68 2.39
3.83 -9.60 2.39
4.01 -9.51 2.39
4.20 -9.42 2.39
4.38 -9.33 2.39
4.56 -9.23 2.39
4.74 -9.13 2.39
4.92 -9.02 2.39
5.09 -8.92 2.39
5.26 -8.80 2.39
5.43 -8.69 2.39
5.60 -8.56 2.39
5.76 -8.44 2.39
5.92 -8.31 2.39
6.08 -8.18 2.39
6.22 -8.04 2.39
6.22 -7.72 2.33
6.22 -7.41 2.28
6.29 -7.19 2.26
6.42 -7.05 2.26
6.55 -6.91 2.26
6.68 -6.77 2.26
6.80 -6.63 2.26
6.92 -6.48 2.26
7.04 -6.33 2.26
7.15 -6.18 2.26
7.26 -6.02 2.26
7.37 -5.86 2.26
7.47 -5.71 2.26
7.57 -5.55 2.26
6.17 -4.34 1.82
6.30 -4.24 1.84
6.59 -4.25 1.90
6.89 -4.25 1.96
7.21 -4.25 2.03
7.55 -4.25 2.11
7.92 -4.25 2.19
8.32 -4.25 2.28
8.75 -4.26 2.38
9.22 -4.26 2.49
9.73 -4.26 2.61
10.29 -4.26 2.74
10.91 -4.26 2.89
6.24 -2.30 1.65
12.37 -4.27 3.24
13.23 -4.27 3.45
14.21 -4.28 3.70
16.46 -4.60 4.27
18.78 -4.84 4.85
34.51 -8.17 8.89
39.49 -8.52 10.15
43.50 -8.47 11.16
45.07 -7.85 11.54
45.03 -6.91 11.52
45.00 -5.99 11.51
44.97 -5.07 11.50
44.31 -4.10 11.33
44.89 -3.24 11.48
44.81 -2.34 11.48
44.77 -1.43 11.48
4.17 -0.05 1.07
4.09 0.03 1.05
4.05 0.11 1.05
4.04 0.19 1.05
4.04 0.28 1.05
4.07 0.36 1.06
4.12 0.45 1.08
6.26 0.81 1.65
42.34 6.34 11.20
42.31 7.20 11.25
42.46 8.11 11.36
42.32 8.97 11.39
42.30 9.85 11.46
42.29 10.75 11.54
42.36 11.68 11.64
6.27 1.86 1.74
42.69 13.64 11.93
42.75 14.62 12.05
6.26 2.28 1.78
43.29 16.77 12.43
43.50 17.87 12.62
35.69 15.51 10.47
43.64 20.01 12.94
24.05 14.11 7.59
6.27 3.85 2.01
20.34 13.06 6.60
6.28 4.21 2.07
18.60 13.03 6.23
17.86 13.06 6.08
17.26 13.16 5.97
16.70 13.28 5.88
6.29 5.21 2.26
15.67 13.52 5.72
7.44 6.68 2.77
7.39 6.92 2.81
6.17 6.01 2.39
6.03 6.12 2.39
5.90 6.23 2.39
5.77 6.34 2.39
5.63 6.45 2.39
5.49 6.55 2.39
5.35 6.65 2.39
5.21 6.75 2.39
5.06 6.84 2.39
4.92 6.93 2.39
4.77 7.02 2.39
4.62 7.11 2.39
4.47 7.19 2.39
4.32 7.27 2.39
4.17 7.35 2.39
4.01 7.42 2.39
3.86 7.49 2.39
3.70 7.56 2.39
3.54 7.63 2.39
3.39 7.69 2.39
2.62 6.29 1.94
2.49 6.33 1.94
2.91 7.86 2.39
2.75 7.91 2.39
2.58 7.96 2.39
2.42 8.00 2.39
2.27 8.08 2.40
2.18 8.43 2.50
2.01 8.47 2.50
1.84 8.50 2.50
1.66 8.53 2.50
1.49 8.56 2.50
1.32 8.59 2.50
1.14 8.61 2.50
0.97 8.62 2.50
0.79 8.64 2.50
0.62 8.65 2.50
0.44 8.66 2.50
0.27 8.67 2.50
0.09 8.67 2.50
-0.08 8.67 2.50
-0.26 8.66 2.50
-0.43 8.65 2.50
-0.61 8.64 2.50
-0.78 8.63 2.50
-0.96 8.61 2.50
-1.13 8.59 2.50
-1.31 8.57 2.50
-1.48 8.54 2.50
-1.65 8.51 2.50
-1.82 8.48 2.50
-2.00 8.45 2.50
-2.17 8.41 2.50
-2.34 8.36 2.50
-2.51 8.32 2.50
-2.68 8.27 2.50
-2.85 8.22 2.50
-3.01 8.16 2.50
-3.18 8.11 2.50
-3.34 8.05 2.50
-3.51 7.98 2.50
-3.67 7.92 2.50
-3.83 7.85 2.50
-4.00 7.77 2.50
-4.15 7.70 2.50
-4.31 7.62 2.50
-4.47 7.54 2.50
-4.63 7.45 2.50
-4.78 7.37 2.50
-4.93 7.27 2.50
-5.09 7.18 2.50
-5.23 7.08 2.50
-5.38 6.99 2.50
-5.53 6.88 2.50
-5.67 6.78 2.50
-5.79 6.65 2.49
-5.80 6.39 2.43
-5.85 6.18 2.39
-5.98 6.07 2.39
-6.11 5.96 2.39
-6.23 5.84 2.39
-6.36 5.72 2.39
-6.48 5.60 2.39
-6.61 5.48 2.39
-6.73 5.35 2.39
-6.84 5.22 2.39
-6.96 5.09 2.39
-7.07 4.96 2.39
-7.18 4.82 2.39
-7.29 4.69 2.39
-7.40 4.55 2.39
-7.50 4.40 2.39
-7.60 4.26 2.39
-7.70 4.11 2.39
-7.79 3.96 2.39
-7.89 3.81 2.39
-7.98 3.66 2.39
-8.06 3.51 2.39
-8.15 3.35 2.39
-8.23 3.19 2.39
-8.31 3.03 2.39
-8.38 2.87 2.39
-8.46 2.70 2.39
-8.53 2.54 2.39
-8.59 2.37 2.39
-8.66 2.20 2.39
-8.72 2.03 2.39
-8.78 1.86 2.39
-8.83 1.69 2.39
-8.88 1.51 2.39
-8.93 1.34 2.39
-8.97 1.16 2.39
-9.02 0.98 2.39
-9.05 0.80 2.39
-9.09 0.62 2.39
-9.12 0.44 2.39
-9.14 0.26 2.39
-9.17 0.07 2.39
-9.19 -0.11 2.39
-9.21 -0.30 2.39
-9.22 -0.48 2.39
-9.23 -0.67 2.39
-9.23 -0.86 2.39
-9.23 -1.04 2.39
-9.23 -1.23 2.39
-9.23 -1.42 2.39
-9.22 -1.61 2.39
-9.20 -1.80 2.39
-9.19 -1.98 2.39
-9.17 -2.17 2.39
-9.14 -2.36 2.39
-9.11 -2.55 2.39
-9.08 -2.74 2.39
-9.04 -2.93 2.39
-9.00 -3.11 2.39
-8.96 -3.30 2.39
-8.91 -3.49 2.39
-8.86 -3.67 2.39
-8.80 -3.86 2.39
-8.74 -4.04 2.39
-8.68 -4.22 2.39
-8.61 -4.41 2.39
-8.54 -4.59 2.39
-8.46 -4.77 2.39
-8.38 -4.95 2.39
-8.30 -5.12 2.39
-8.21 -5.30 2.39
-8.12 -5.47 2.39
-8.03 -5.65 2.39
-7.93 -5.82 2.39
-7.83 -5.99 2.39
-7.72 -6.15 2.39
-7.61 -6.32 2.39
-7.50 -6.48 2.39
-7.38 -6.64 2.39
-7.26 -6.80 2.39
-7.13 -6.96 2.39
-7.01 -7.11 2.39
-6.87 -7.26 2.39
-6.74 -7.41 2.39
-6.60 -7.56 2.39
-6.46 -7.70 2.39
-6.32 -7.84 2.39
-6.17 -7.98 2.39
-6.02 -8.11 2.39
-5.87 -8.26 2.40
-5.86 -8.60 2.46
-5.78 -8.87 2.50
-5.61 -8.99 2.50
-5.44 -9.12 2.50
-5.27 -9.23 2.50
-5.09 -9.35 2.50
-4.91 -9.46 2.50
-4.72 -9.57 2.50
-4.54 -9.67 2.50
-4.35 -9.77 2.50
-4.16 -9.87 2.50
-3.96 -9.96 2.50
-3.77 -10.05 2.50
-3.57 -10.13 2.50
-3.37 -10.21 2.50
-3.17 -10.28 2.50
-2.96 -10.35 2.50
-2.76 -10.42 2.50
-2.55 -10.48 2.50
-2.34 -10.54 2.50
-2.14 -10.59 2.50
-1.93 -10.64 2.50
-1.71 -10.68 2.50
-1.50 -10.72 2.50
-1.29 -10.75 2.50
-1.07 -10.78 2.50
-0.86 -10.80 2.50
-0.64 -10.82 2.50
-0.43 -10.83 2.50
-0.21 -10.84 2.50
0.00 -9.83 2.50
0.20 -9.83 2.50
0.40 -9.82 2.50
0.59 -9.81 2.50
0.79 -9.80 2.50
0.98 -9.78 2.50
1.18 -9.76 2.50
1.37 -9.73 2.50
1.56 -9.70 2.50
1.76 -9.66 2.50
1.95 -9.62 2.50
2.14 -9.58 2.50
2.23 -9.14 2.39
2.41 -9.09 2.39
2.59 -9.03 2.39
2.77 -8.97 2.39
2.95 -8.91 2.39
3.12 -8.85 2.39
3.30 -8.78 2.39
3.47 -8.70 2.39
3.64 -8.63 2.39
3.81 -8.55 2.39
3.97 -8.46 2.39
4.14 -8.37 2.39
4.30 -8.28 2.39
4.46 -8.19 2.39
4.62 -8.09 2.39
4.77 -7.99 2.39
4.93 -7.88 2.39
5.08 -7.77 2.39
5.22 -7.66 2.39
5.37 -7.55 2.39
5.51 -7.43 2.39
5.65 -7.31 2.39
5.79 -7.19 2.39
5.92 -7.06 2.39
6.06 -6.93 2.39
6.18 -6.80 2.39
6.23 -6.58 2.36
6.23 -6.32 2.32
6.23 -6.08 2.28
6.29 -5.89 2.26
6.39 -5.75 2.26
6.50 -5.62 2.26
6.60 -5.48 2.26
6.69 -5.34 2.26
6.79 -5.19 2.26
6.88 -5.05 2.26
6.17 -4.34 2.00
6.30 -4.24 2.02
6.58 -4.25 2.08
6.88 -4.25 2.15
7.20 -4.25 2.23
7.54 -4.25 2.31
7.91 -4.25 2.41
8.31 -4.25 2.50
8.74 -4.26 2.61
6.25 -2.89 1.85
9.72 -4.26 2.86
10.28 -4.26 3.01
10.89 -4.26 3.17
6.24 -2.30 1.81
12.34 -4.27 3.55
13.20 -4.27 3.78
15.39 -4.65 4.39
17.41 -4.88 4.95
34.50 -8.92 9.77
34.51 -8.19 9.74
39.28 -8.50 11.06
6.25 -1.22 1.76
42.36 -7.40 11.89
42.36 -6.53 11.87
42.33 -5.66 11.85
42.33 -4.80 11.85
42.36 -3.94 11.86
42.35 -3.09 11.86
6.26 -0.33 1.75
42.32 -1.38 11.88
4.17 -0.05 1.17
4.09 0.03 1.15
4.05 0.11 1.14
4.04 0.19 1.14
4.04 0.27 1.15
4.06 0.36 1.16
4.12 0.45 1.18
4.30 0.55 1.24
41.36 6.16 11.95
41.36 7.01 12.01
41.21 7.84 12.04
41.24 8.71 12.12
41.24 9.58 12.20
6.27 1.59 1.87
41.43 11.40 12.43
41.60 12.35 12.58
41.69 13.29 12.71
41.76 14.25 12.84
6.26 2.28 1.94
41.99 16.24 13.15
42.13 17.27 13.33
35.43 15.37 11.32
42.26 19.35 13.65
29.66 14.31 9.69
23.37 11.86 7.73
22.10 11.78 7.40
6.27 3.51 2.13
20.13 11.80 6.92
6.27 3.84 2.18
18.38 11.79 6.50
6.29 4.21 2.26
17.02 11.91 6.20
16.43 12.00 6.08
7.42 5.65 2.79
6.25 4.96 2.39
6.14 5.08 2.39
6.02 5.19 2.39
5.91 5.30 2.39
5.79 5.41 2.39
5.67 5.52 2.39
5.55 5.63 2.39
5.43 5.73 2.39
5.30 5.83 2.39
5.18 5.93 2.39
5.05 6.02 2.39
4.92 6.11 2.39
4.79 6.20 2.39
4.66 6.29 2.39
4.53 6.38 2.39
4.39 6.46 2.39
4.25 6.54 2.39
4.12 6.62 2.39
3.98 6.69 2.39
3.84 6.76 2.39
3.70 6.83 2.39
3.55 6.90 2.39
3.41 6.96 2.39
3.27 7.02 2.39
3.12 7.08 2.39
2.62 6.29 2.11
2.49 6.33 2.11
2.68 7.24 2.39
2.53 7.28 2.39
2.38 7.33 2.39
2.26 7.47 2.42
2.17 7.73 2.50
2.01 7.77 2.50
1.85 7.80 2.50
1.69 7.83 2.50
1.53 7.86 2.50
1.37 7.89 2.50
1.21 7.91 2.50
1.05 7.93 2.50
0.89 7.95 2.50
0.73 7.96 2.50
0.57 7.97 2.50
0.41 7.98 2.50
0.25 7.98 2.50
0.08 7.99 2.50
-0.08 7.99 2.50
-0.24 7.98 2.50
-0.40 7.98 2.50
-0.56 7.97 2.50
-0.72 7.95 2.50
-0.88 7.94 2.50
-1.04 7.92 2.50
-1.20 7.90 2.50
-1.36 7.87 2.50
-1.52 7.84 2.50
-1.68 7.81 2.50
-1.84 7.78 2.50
-2.00 7.75 2.50
-2.16 7.71 2.50
-2.31 7.66 2.50
-2.47 7.62 2.50
-2.62 7.57 2.50
-2.78 7.52 2.50
-2.93 7.47 2.50
-3.08 7.41 2.50
-3.23 7.35 2.50
-3.38 7.29 2.50
-3.53 7.23 2.50
-3.68 7.16 2.50
-3.83 7.09 2.50
-3.97 7.01 2.50
-4.12 6.94 2.50
-4.26 6.86 2.50
-4.40 6.78 2.50
-4.54 6.70 2.50
-4.68 6.61 2.50
-4.82 6.52 2.50
-4.96 6.43 2.50
-5.09 6.33 2.50
-5.22 6.24 2.50
-5.36 6.14 2.50
-5.48 6.03 2.50
-5.61 5.93 2.50
-5.74 5.82 2.50
-5.80 5.65 2.47
-5.81 5.43 2.42
-5.85 5.26 2.39
-5.97 5.15 2.39
-6.08 5.03 2.39
-6.19 4.92 2.39
-6.29 4.80 2.39
-6.40 4.68 2.39
-6.50 4.55 2.39
-6.60 4.43 2.39
-6.70 4.30 2.39
-6.80 4.17 2.39
-6.89 4.04 2.39
-6.98 3.91 2.39
-7.07 3.77 2.39
-7.16 3.64 2.39
-7.24 3.50 2.39
-7.32 3.36 2.39
-7.40 3.21 2.39
-7.48 3.07 2.39
-7.55 2.92 2.39
-7.63 2.78 2.39
-7.69 2.63 2.39
-7.76 2.48 2.39
-7.82 2.32 2.39
-7.88 2.17 2.39
-7.94 2.01 2.39
-7.99 1.86 2.39
-8.05 1.70 2.39
-8.09 1.54 2.39
-8.14 1.38 2.39
-8.18 1.22 2.39
-8.22 1.06 2.39
-8.26 0.89 2.39
-8.29 0.73 2.39
-8.32 0.56 2.39
-8.35 0.40 2.39
-8.37 0.23 2.39
-8.39 0.06 2.39
-8.41 -0.11 2.39
-8.42 -0.28 2.39
-8.43 -0.45 2.39
-8.44 -0.62 2.39
-8.44 -0.79 2.39
-8.44 -0.96 2.39
-8.44 -1.13 2.39
-8.43 -1.30 2.39
-8.42 -1.47 2.39
-8.41 -1.65 2.39
-8.39 -1.82 2.39
-8.37 -1.99 2.39
-8.35 -2.16 2.39
-8.32 -2.33 2.39
-8.29 -2.50 2.39
-8.25 -2.68 2.39
-8.21 -2.85 2.39
-8.17 -3.02 2.39
-8.13 -3.19 2.39
-8.08 -3.35 2.39
-8.02 -3.52 2.39
-7.97 -3.69 2.39
-7.91 -3.86 2.39
-7.85 -4.02 2.39
-7.78 -4.19 2.39
-7.71 -4.35 2.39
-7.63 -4.51 2.39
-7.56 -4.67 2.39
-7.48 -4.83 2.39
-7.39 -4.99 2.39
-7.31 -5.15 2.39
-7.21 -5.30 2.39
-7.12 -5.45 2.39
-7.02 -5.60 2.39
-6.92 -5.75 2.39
-6.82 -5.90 2.39
-6.71 -6.05 2.39
-6.60 -6.19 2.39
-6.48 -6.33 2.39
-6.37 -6.47 2.39
-6.25 -6.61 2.39
-6.12 -6.74 2.39
-6.00 -6.87 2.39
-5.87 -7.00 2.39
-5.86 -7.28 2.44
-5.84 -7.57 2.50
-5.70 -7.69 2.50
-5.55 -7.81 2.50
-5.40 -7.93 2.50
-5.25 -8.05 2.50
-5.09 -8.17 2.50
-4.94 -8.28 2.50
-4.78 -8.38 2.50
-4.61 -8.49 2.50
-4.45 -8.59 2.50
-4.28 -8.68 2.50
-4.11 -8.78 2.50
-3.94 -8.87 2.50
-3.77 -8.95 2.50
-3.59 -9.04 2.50
-3.41 -9.11 2.50
-3.23 -9.19 2.50
-3.05 -9.26 2.50
-2.87 -9.33 2.50
-2.69 -9.39 2.50
-2.50 -9.45 2.50
-2.31 -9.50 2.50
-2.12 -9.55 2.50
-1.93 -9.60 2.50
-1.74 -9.64 2.50
-1.55 -9.68 2.50
-1.36 -9.71 2.50
-1.17 -9.74 2.50
-0.97 -9.77 2.50
-0.78 -9.79 2.50
-0.58 -9.80 2.50
-0.39 -9.82 2.50
-0.19 -9.82 2.50
0.00 -8.98 2.50
0.18 -8.97 2.50
0.36 -8.97 2.50
0.54 -8.96 2.50
0.72 -8.95 2.50
0.90 -8.93 2.50
1.07 -8.91 2.50
1.25 -8.89 2.50
1.43 -8.86 2.50
1.60 -8.83 2.50
1.78 -8.79 2.50
1.95 -8.75 2.50
2.13 -8.71 2.50
2.20 -8.30 2.39
2.38 -8.29 2.40
2.53 -8.20 2.39
2.69 -8.14 2.39
2.85 -8.08 2.39
3.01 -8.02 2.39
3.17 -7.95 2.39
3.32 -7.88 2.39
3.48 -7.81 2.39
3.63 -7.73 2.39
3.78 -7.65 2.39
3.93 -7.57 2.39
4.07 -7.48 2.39
4.22 -7.39 2.39
4.36 -7.30 2.39
4.50 -7.21 2.39
4.64 -7.11 2.39
4.77 -7.01 2.39
4.91 -6.90 2.39
5.04 -6.80 2.39
5.17 -6.69 2.39
5.29 -6.57 2.39
5.42 -6.46 2.39
5.54 -6.34 2.39
5.66 -6.22 2.39
5.77 -6.10 2.39
5.88 -5.98 2.39
5.99 -5.85 2.39
6.10 -5.72 2.39
6.21 -5.59 2.39
6.23 -5.39 2.37
6.23 -5.18 2.33
6.24 -4.98 2.30
6.24 -4.78 2.26
6.30 -4.63 2.26
6.17 -4.35 2.18
6.29 -4.24 2.20
6.57 -4.25 2.27
6.87 -4.25 2.35
7.19 -4.25 2.43
7.53 -4.25 2.52
6.24 -3.36 2.07
8.30 -4.25 2.73
8.73 -4.26 2.85
9.19 -4.26 2.97
9.70 -4.26 3.12
10.26 -4.26 3.27
10.87 -4.26 3.45
6.24 -2.31 1.97
12.36 -4.29 3.88
14.45 -4.69 4.51
16.23 -4.91 5.04
29.43 -8.26 9.11
30.91 -8.01 9.53
34.46 -8.20 10.59
35.96 -7.80 11.02
38.33 -7.52 11.73
38.37 -6.73 11.72
38.38 -5.94 11.70
38.40 -5.16 11.70
6.28 -0.72 1.91
38.54 -3.61 11.73
38.58 -2.84 11.75
38.63 -2.06 11.77
38.67 -1.29 11.80
4.18 -0.06 1.28
4.10 0.03 1.25
4.06 0.11 1.24
4.04 0.19 1.24
4.04 0.27 1.25
4.06 0.35 1.26
4.12 0.44 1.28
4.28 0.55 1.34
39.97 5.93 12.54
40.03 6.76 12.62
40.08 7.60 12.70
6.27 1.32 2.00
40.19 9.31 12.90
35.44 8.96 11.45
35.30 9.69 11.49
6.27 1.86 2.06
40.60 12.92 13.42
40.63 13.83 13.54
6.26 2.27 2.11
40.70 15.71 13.82
23.54 9.63 8.07
22.65 9.80 7.84
21.81 9.97 7.64
21.18 10.20 7.50
20.47 10.37 7.33
6.27 3.34 2.27
18.94 10.58 6.96
18.16 10.63 6.76
6.27 3.84 2.36
6.25 4.01 2.39
6.16 4.13 2.39
6.07 4.24 2.39
5.97 4.36 2.39
5.87 4.47 2.39
5.77 4.58 2.39
5.67 4.69 2.39
5.57 4.79 2.39
5.46 4.90 2.39
5.35 5.00 2.39
5.25 5.10 2.39
5.13 5.20 2.39
5.02 5.29 2.39
4.91 5.39 2.39
4.79 5.48 2.39
4.67 5.57 2.39
4.55 5.65 2.39
4.43 5.74 2.39
4.31 5.82 2.39
4.19 5.90 2.39
4.06 5.97 2.39
3.94 6.05 2.39
3.81 6.12 2.39
3.68 6.19 2.39
3.55 6.26 2.39
3.25 6.00 2.27
3.12 6.06 2.27
3.00 6.11 2.27
3.02 6.50 2.39
2.89 6.55 2.39
2.62 6.29 2.28
2.49 6.33 2.28
2.48 6.70 2.39
2.34 6.74 2.39
2.25 6.93 2.44
2.16 7.12 2.50
2.01 7.16 2.50
1.86 7.19 2.50
1.72 7.22 2.50
1.57 7.25 2.50
1.42 7.28 2.50
1.27 7.30 2.50
1.12 7.32 2.50
0.98 7.34 2.50
0.83 7.36 2.50
0.68 7.37 2.50
0.53 7.38 2.50
0.38 7.39 2.50
0.23 7.40 2.50
0.08 7.40 2.50
-0.07 7.40 2.50
-0.22 7.39 2.50
-0.37 7.39 2.50
-0.52 7.38 2.50
-0.67 7.37 2.50
-0.82 7.35 2.50
-0.97 7.33 2.50
-1.12 7.31 2.50
-1.26 7.29 2.50
-1.41 7.27 2.50
-1.56 7.24 2.50
-1.71 7.21 2.50
-1.85 7.17 2.50
-2.00 7.14 2.50
-2.14 7.10 2.50
-2.29 7.06 2.50
-2.43 7.01 2.50
-2.57 6.96 2.50
-2.71 6.91 2.50
-2.86 6.86 2.50
-3.00 6.81 2.50
-3.13 6.75 2.50
-3.27 6.69 2.50
-3.41 6.63 2.50
-3.55 6.56 2.50
-3.68 6.49 2.50
-3.81 6.42 2.50
-3.95 6.35 2.50
-4.08 6.27 2.50
-4.21 6.20 2.50
-4.34 6.11 2.50
-4.46 6.03 2.50
-4.59 5.95 2.50
-4.71 5.86 2.50
-4.84 5.77 2.50
-4.96 5.68 2.50
-5.08 5.58 2.50
-5.19 5.48 2.50
-5.31 5.38 2.50
-5.42 5.28 2.50
-5.54 5.18 2.50
-5.65 5.07 2.50
-5.76 4.96 2.50
-5.80 4.80 2.47
-5.81 4.61 2.43
-5.82 4.43 2.39
-5.92 4.32 2.39
-6.02 4.21 2.40
-6.10 4.09 2.39
-6.19 3.97 2.39
-6.28 3.85 2.39
-6.37 3.73 2.39
-6.45 3.61 2.39
-6.53 3.48 2.39
-6.61 3.35 2.39
-6.69 3.23 2.39
-6.76 3.09 2.39
-6.84 2.96 2.39
-6.91 2.83 2.39
-6.97 2.69 2.39
-7.04 2.56 2.39
-7.10 2.42 2.39
-7.16 2.28 2.39
-7.22 2.14 2.39
-7.27 2.00 2.39
-7.32 1.85 2.39
-7.37 1.71 2.39
-7.42 1.56 2.39
-7.46 1.42 2.39
-7.50 1.27 2.39
-7.54 1.12 2.39
-7.58 0.97 2.39
-7.61 0.82 2.39
-7.64 0.67 2.39
-7.67 0.51 2.39
-7.69 0.36 2.39
-7.71 0.21 2.39
-7.73 0.05 2.39
-7.74 -0.10 2.39
-7.75 -0.26 2.39
-7.76 -0.42 2.39
-7.77 -0.57 2.39
-7.77 -0.73 2.39
-7.77 -0.89 2.39
-7.76 -1.04 2.39
-7.76 -1.20 2.39
-7.74 -1.36 2.39
-7.73 -1.52 2.39
-7.71 -1.68 2.39
-7.69 -1.83 2.39
-7.67 -1.99 2.39
-7.64 -2.15 2.39
-7.61 -2.31 2.39
-7.58 -2.46 2.39
-7.54 -2.62 2.39
-7.50 -2.77 2.39
-7.46 -2.93 2.39
-7.42 -3.08 2.39
-7.37 -3.24 2.39
-7.31 -3.39 2.39
-7.26 -3.54 2.39
-7.20 -3.70 2.39
-7.14 -3.85 2.39
-7.07 -3.99 2.39
-7.00 -4.14 2.39
-6.93 -4.29 2.39
-6.85 -4.43 2.39
-6.78 -4.58 2.39
-6.70 -4.72 2.39
-6.61 -4.86 2.39
-6.52 -5.00 2.39
-6.43 -5.14 2.39
-6.34 -5.28 2.39
-6.24 -5.41 2.39
-6.14 -5.54 2.39
-6.06 -5.69 2.40
-5.94 -5.80 2.39
-5.86 -5.96 2.41
-5.85 -6.19 2.45
-5.85 -6.44 2.50
-5.72 -6.57 2.50
-5.60 -6.69 2.50
-5.47 -6.81 2.50
-5.34 -6.93 2.50
-5.21 -7.04 2.50
-5.08 -7.15 2.50
-4.94 -7.26 2.50
-4.80 -7.37 2.50
-4.66 -7.47 2.50
-4.51 -7.57 2.50
-4.37 -7.67 2.50
-4.22 -7.76 2.50
-4.07 -7.85 2.50
-3.91 -7.94 2.50
-3.76 -8.03 2.50
-3.60 -8.11 2.50
-3.44 -8.19 2.50
-3.28 -8.26 2.50
-3.12 -8.33 2.50
-2.95 -8.40 2.50
-2.79 -8.46 2.50
-2.62 -8.52 2.50
-2.45 -8.58 2.50
-2.28 -8.63 2.50
-2.11 -8.68 2.50
-1.94 -8.73 2.50
-1.77 -8.77 2.50
-1.59 -8.81 2.50
-1.42 -8.84 2.50
-1.24 -8.87 2.50
-1.06 -8.90 2.50
-0.89 -8.92 2.50
-0.71 -8.94 2.50
-0.53 -8.95 2.50
-0.35 -8.97 2.50
-0.17 -8.97 2.50
0.00 -8.25 2.50
0.17 -8.25 2.50
0.33 -8.25 2.50
0.50 -8.24 2.50
0.66 -8.23 2.50
0.82 -8.21 2.50
0.99 -8.19 2.50
1.15 -8.17 2.50
1.31 -8.14 2.50
1.47 -8.11 2.50
1.63 -8.08 2.50
1.79 -8.04 2.50
1.95 -8.00 2.50
2.11 -7.96 2.50
2.20 -7.66 2.42
2.32 -7.54 2.39
2.47 -7.49 2.39
2.62 -7.43 2.39
2.77 -7.38 2.39
2.91 -7.31 2.39
3.05 -7.25 2.39
3.20 -7.18 2.39
3.34 -7.11 2.39
3.47 -7.04 2.39
3.61 -6.96 2.39
3.75 -6.89 2.39
3.88 -6.80 2.39
4.01 -6.72 2.39
4.14 -6.63 2.39
4.27 -6.54 2.39
4.39 -6.45 2.39
4.51 -6.35 2.39
4.64 -6.26 2.39
4.75 -6.16 2.39
4.87 -6.05 2.39
4.98 -5.95 2.39
5.10 -5.84 2.39
5.21 -5.73 2.39
5.31 -5.62 2.39
5.42 -5.51 2.39
5.52 -5.39 2.39
5.62 -5.27 2.39
5.71 -5.15 2.39
5.81 -5.03 2.39
5.90 -4.91 2.39
5.99 -4.78 2.39
6.07 -4.65 2.39
6.15 -4.53 2.39
6.17 -4.35 2.37
6.28 -4.24 2.38
6.56 -4.25 2.46
6.86 -4.25 2.54
7.18 -4.25 2.63
6.24 -3.53 2.27
7.89 -4.25 2.84
8.28 -4.25 2.95
8.71 -4.26 3.08
9.15 -4.24 3.21
7.39 -3.25 2.57
7.77 -3.23 2.69
9.35 -3.67 3.21
6.24 -2.31 2.13
13.62 -4.73 4.63
15.21 -4.95 5.14
29.42 -8.92 9.90
29.43 -8.28 9.86
30.82 -8.01 10.29
34.13 -8.15 11.36
33.77 -7.35 11.21
35.78 -7.04 11.85
35.79 -6.30 11.83
35.79 -5.57 11.81
35.84 -4.84 11.81
6.25 -0.72 2.06
35.13 -3.32 11.57
36.00 -2.67 11.86
4.17 -0.23 1.37
36.12 -1.23 11.91
4.18 -0.06 1.38
4.08 0.02 1.35
4.06 0.11 1.35
4.04 0.19 1.34
4.04 0.27 1.35
4.06 0.35 1.36
4.12 0.44 1.38
4.26 0.54 1.44
35.89 5.30 12.16
6.26 1.05 2.13
35.85 6.77 12.27
29.24 6.14 10.07
29.18 6.74 10.11
38.21 9.63 13.32
38.56 10.55 13.54
33.45 9.88 11.84
25.06 7.96 8.94
6.27 2.13 2.26
6.26 2.27 2.27
21.40 8.25 7.84
20.85 8.52 7.71
20.32 8.78 7.59
7.43 3.39 2.80
7.41 3.56 2.83
6.20 3.14 2.39
6.12 3.26 2.39
6.05 3.37 2.39
5.97 3.49 2.39
5.89 3.60 2.39
5.81 3.71 2.39
5.72 3.82 2.39
5.63 3.93 2.39
5.55 4.04 2.39
5.46 4.15 2.39
5.36 4.25 2.39
5.27 4.35 2.39
5.17 4.45 2.39
5.07 4.55 2.39
4.97 4.64 2.39
4.87 4.73 2.39
4.77 4.83 2.39
4.67 4.91 2.39
4.56 5.00 2.39
4.45 5.09 2.39
4.34 5.17 2.39
4.23 5.25 2.39
4.12 5.33 2.39
4.01 5.40 2.39
3.89 5.48 2.39
3.78 5.55 2.39
3.66 5.62 2.39
3.54 5.69 2.39
3.25 5.46 2.27
3.19 5.61 2.31
3.13 5.78 2.35
3.01 5.83 2.35
2.89 5.89 2.35
2.67 5.73 2.27
2.61 5.90 2.32
2.56 6.14 2.39
2.44 6.20 2.40
2.31 6.23 2.39
2.25 6.47 2.47
2.14 6.58 2.50
2.01 6.62 2.50
1.87 6.65 2.50
1.73 6.69 2.50
1.60 6.72 2.50
1.46 6.75 2.50
1.32 6.77 2.50
1.19 6.79 2.50
1.05 6.81 2.50
0.91 6.83 2.50
0.77 6.85 2.50
0.63 6.86 2.50
0.49 6.87 2.50
0.35 6.88 2.50
0.21 6.88 2.50
0.07 6.88 2.50
-0.07 6.88 2.50
-0.21 6.88 2.50
-0.34 6.87 2.50
-0.48 6.86 2.50
-0.62 6.85 2.50
-0.76 6.84 2.50
-0.90 6.82 2.50
-1.04 6.80 2.50
-1.18 6.78 2.50
-1.31 6.76 2.50
-1.45 6.73 2.50
-1.59 6.70 2.50
-1.72 6.67 2.50
-1.86 6.64 2.50
-1.99 6.60 2.50
-2.13 6.56 2.50
-2.26 6.52 2.50
-2.39 6.48 2.50
-2.53 6.43 2.50
-2.66 6.38 2.50
-2.79 6.33 2.50
-2.92 6.28 2.50
-3.05 6.22 2.50
-3.17 6.16 2.50
-3.30 6.10 2.50
-3.42 6.04 2.50
-3.55 5.97 2.50
-3.67 5.90 2.50
-3.79 5.83 2.50
-3.91 5.76 2.50
-4.03 5.68 2.50
-4.15 5.61 2.50
-4.27 5.53 2.50
-4.38 5.44 2.50
-4.50 5.36 2.50
-4.61 5.27 2.50
-4.72 5.18 2.50
-4.83 5.09 2.50
-4.94 5.00 2.50
-5.04 4.90 2.50
-5.15 4.81 2.50
-5.25 4.71 2.50
-5.35 4.61 2.50
-5.45 4.50 2.50
-5.54 4.40 2.50
-5.64 4.29 2.50
-5.73 4.18 2.50
-5.81 4.06 2.49
-5.81 3.89 2.45
-5.81 3.72 2.42
-5.83 3.57 2.39
-5.91 3.46 2.39
-5.99 3.34 2.39
-6.07 3.23 2.39
-6.14 3.11 2.39
-6.21 2.99 2.39
-6.28 2.87 2.39
-6.34 2.74 2.39
-6.41 2.62 2.39
-6.47 2.49 2.39
-6.53 2.37 2.39
-6.59 2.24 2.39
-6.64 2.11 2.39
-6.69 1.98 2.39
-6.74 1.85 2.39
-6.79 1.71 2.39
-6.84 1.58 2.39
-6.88 1.44 2.39
-6.92 1.31 2.39
-6.95 1.17 2.39
-6.99 1.03 2.39
-7.02 0.89 2.39
-7.05 0.75 2.39
-7.08 0.61 2.39
-7.10 0.47 2.39
-7.12 0.33 2.39
-7.14 0.19 2.39
-7.15 0.04 2.39
-7.17 -0.10 2.39
-7.18 -0.25 2.39
-7.18 -0.39 2.39
-7.19 -0.53 2.39
-7.19 -0.68 2.39
-7.18 -0.83 2.39
-7.18 -0.97 2.39
-7.17 -1.12 2.39
-7.16 -1.26 2.39
-7.15 -1.41 2.39
-7.13 -1.55 2.39
-7.11 -1.70 2.39
-7.09 -1.85 2.39
-7.06 -1.99 2.39
-7.03 -2.14 2.39
-7.00 -2.28 2.39
-6.97 -2.42 2.39
-6.93 -2.57 2.39
-6.89 -2.71 2.39
-6.85 -2.85 2.39
-6.80 -2.99 2.39
-6.75 -3.14 2.39
-6.70 -3.28 2.39
-6.64 -3.41 2.39
-6.58 -3.55 2.39
-6.52 -3.69 2.39
-6.46 -3.83 2.39
-6.39 -3.96 2.39
-6.32 -4.09 2.39
-6.25 -4.23 2.39
-6.17 -4.36 2.39
-6.09 -4.49 2.39
-6.01 -4.62 2.39
-5.93 -4.74 2.39
-5.86 -4.88 2.40
-5.85 -5.07 2.43
-5.85 -5.28 2.47
-5.81 -5.46 2.50
-5.70 -5.58 2.50
-5.60 -5.70 2.50
-5.49 -5.82 2.50
-5.38 -5.94 2.50
-5.27 -6.05 2.50
-5.16 -6.16 2.50
-5.04 -6.27 2.50
-4.92 -6.38 2.50
-4.80 -6.49 2.50
-4.67 -6.59 2.50
-4.54 -6.69 2.50
-4.42 -6.78 2.50
-4.28 -6.88 2.50
-4.15 -6.97 2.50
-4.02 -7.06 2.50
-3.88 -7.15 2.50
-3.74 -7.23 2.50
-3.60 -7.31 2.50
-3.45 -7.39 2.50
-3.31 -7.46 2.50
-3.16 -7.53 2.50
-3.02 -7.60 2.50
-2.87 -7.66 2.50
-2.71 -7.73 2.50
-2.56 -7.78 2.50
-2.41 -7.84 2.50
-2.25 -7.89 2.50
-2.10 -7.94 2.50
-1.94 -7.98 2.50
-1.78 -8.03 2.50
-1.62 -8.06 2.50
-1.46 -8.10 2.50
-1.30 -8.13 2.50
-1.14 -8.16 2.50
-0.98 -8.18 2.50
-0.81 -8.20 2.50
-0.65 -8.22 2.50
-0.49 -8.23 2.50
-0.32 -8.24 2.50
-0.16 -8.25 2.50
0.00 -7.63 2.50
0.16 -7.63 2.50
0.31 -7.62 2.50
0.46 -7.61 2.50
0.61 -7.60 2.50
0.76 -7.59 2.50
0.91 -7.57 2.50
1.06 -7.55 2.50
1.21 -7.53 2.50
1.36 -7.50 2.50
1.51 -7.47 2.50
1.66 -7.44 2.50
1.81 -7.40 2.50
1.95 -7.36 2.50
2.10 -7.32 2.50
2.19 -7.11 2.44
2.29 -6.92 2.39
2.42 -6.87 2.39
2.56 -6.82 2.39
2.69 -6.76 2.39
2.82 -6.71 2.39
2.95 -6.64 2.39
3.08 -6.58 2.39
3.21 -6.51 2.39
3.34 -6.44 2.39
3.46 -6.37 2.39
3.59 -6.29 2.39
3.71 -6.22 2.39
3.83 -6.14 2.39
3.94 -6.05 2.39
4.06 -5.97 2.39
4.17 -5.88 2.39
4.29 -5.79 2.39
4.40 -5.70 2.39
4.51 -5.60 2.39
4.61 -5.51 2.39
4.71 -5.41 2.39
4.82 -5.31 2.39
4.92 -5.20 2.39
5.01 -5.10 2.39
5.11 -4.99 2.39
5.20 -4.88 2.39
5.29 -4.77 2.39
5.38 -4.66 2.39
5.46 -4.55 2.39
5.54 -4.43 2.39
5.62 -4.31 2.39
5.70 -4.20 2.39
5.77 -4.08 2.39
5.85 -3.95 2.39
5.92 -3.83 2.39
5.98 -3.71 2.39
6.05 -3.58 2.39
6.11 -3.45 2.39
6.17 -3.33 2.39
6.22 -3.20 2.39
7.39 -3.61 2.82
7.24 -3.36 2.74
7.26 -3.20 2.73
7.28 -3.03 2.71
7.30 -2.87 2.70
6.24 -2.31 2.30
7.33 -2.55 2.69
6.25 -2.04 2.28
6.25 -1.90 2.27
6.25 -1.76 2.26
6.27 -1.63 2.26
7.41 -1.77 2.66
30.09 -6.57 10.76
29.98 -5.92 10.70
30.39 -5.37 10.82
34.29 -5.36 12.19
6.26 -0.85 2.22
6.25 -0.72 2.22
31.90 -3.03 11.31
31.46 -2.36 11.15
31.46 -1.72 11.16
34.48 -1.20 12.24
4.19 -0.06 1.49
4.06 0.02 1.45
4.04 0.10 1.44
4.04 0.18 1.44
4.04 0.27 1.45
4.06 0.35 1.46
4.11 0.44 1.49
4.25 0.54 1.54
6.26 0.92 2.28
32.98 5.52 12.07
29.26 5.51 10.76
28.81 6.03 10.66
28.60 6.58 10.65
7.43 1.87 2.78
7.42 2.02 2.80
7.41 2.18 2.81
6.25 1.98 2.39
6.20 2.10 2.39
6.14 2.22 2.39
6.09 2.34 2.39
6.03 2.46 2.39
5.97 2.58 2.39
5.91 2.69 2.39
5.84 2.80 2.39
5.78 2.92 2.39
5.71 3.03 2.39
5.64 3.14 2.39
5.56 3.25 2.39
5.49 3.35 2.39
5.41 3.46 2.39
5.33 3.56 2.39
5.25 3.66 2.39
5.17 3.76 2.39
5.09 3.86 2.39
5.00 3.96 2.39
4.91 4.05 2.39
4.82 4.14 2.39
4.73 4.24 2.39
4.64 4.32 2.39
4.55 4.41 2.39
4.45 4.50 2.39
4.35 4.58 2.39
4.26 4.66 2.39
4.16 4.74 2.39
4.05 4.82 2.39
3.95 4.89 2.39
3.85 4.97 2.39
3.74 5.04 2.39
3.64 5.11 2.39
3.53 5.18 2.39
3.25 4.97 2.27
3.19 5.11 2.31
3.15 5.28 2.35
3.04 5.34 2.35
2.92 5.39 2.35
2.71 5.25 2.27
2.61 5.31 2.28
2.60 5.58 2.37
2.51 5.68 2.39
2.39 5.73 2.39
2.28 5.77 2.39
2.25 6.06 2.49
2.13 6.11 2.50
2.00 6.14 2.50
1.87 6.18 2.50
1.75 6.21 2.50
1.62 6.24 2.50
1.49 6.27 2.50
1.37 6.30 2.50
1.24 6.32 2.50
1.11 6.34 2.50
0.98 6.36 2.50
0.85 6.38 2.50
0.72 6.39 2.50
0.59 6.40 2.50
0.46 6.41 2.50
0.33 6.42 2.50
0.20 6.42 2.50
0.07 6.43 2.50
-0.06 6.43 2.50
-0.19 6.42 2.50
-0.32 6.42 2.50
-0.45 6.41 2.50
-0.58 6.40 2.50
-0.71 6.39 2.50
-0.84 6.37 2.50
-0.97 6.35 2.50
-1.10 6.33 2.50
-1.23 6.31 2.50
-1.36 6.29 2.50
-1.48 6.26 2.50
-1.61 6.23 2.50
-1.74 6.20 2.50
-1.86 6.16 2.50
-1.99 6.13 2.50
-2.11 6.09 2.50
-2.24 6.05 2.50
-2.36 6.00 2.50
-2.48 5.96 2.50
-2.60 5.91 2.50
-2.72 5.86 2.50
-2.84 5.81 2.50
-2.96 5.75 2.50
-3.08 5.69 2.50
-3.20 5.63 2.50
-3.31 5.57 2.50
-3.43 5.51 2.50
-3.54 5.44 2.50
-3.65 5.37 2.50
-3.77 5.30 2.50
-3.88 5.23 2.50
-3.98 5.15 2.50
-4.09 5.08 2.50
-4.20 5.00 2.50
-4.30 4.92 2.50
-4.41 4.83 2.50
-4.51 4.75 2.50
-4.61 4.66 2.50
-4.71 4.57 2.50
-4.80 4.48 2.50
-4.90 4.39 2.50
-4.99 4.29 2.50
-5.08 4.20 2.50
-5.17 4.10 2.50
-5.26 4.00 2.50
-5.35 3.90 2.50
-5.43 3.79 2.50
-5.51 3.69 2.50
-5.60 3.58 2.50
-5.67 3.47 2.50
-5.75 3.36 2.50
-5.81 3.24 2.49
-5.81 3.09 2.46
-5.81 2.94 2.43
-5.82 2.80 2.41
-5.85 2.67 2.39
-5.91 2.55 2.39
-5.97 2.44 2.39
-6.03 2.32 2.39
-6.08 2.20 2.39
-6.14 2.08 2.39
-6.19 1.96 2.39
-6.23 1.84 2.39
-6.28 1.72 2.39
-6.32 1.59 2.39
-6.36 1.47 2.39
-6.40 1.34 2.39
-6.44 1.21 2.39
-6.47 1.08 2.39
-6.50 0.96 2.39
-6.53 0.83 2.39
-6.56 0.70 2.39
-6.58 0.57 2.39
-6.60 0.43 2.39
-6.62 0.30 2.39
-6.64 0.17 2.39
-6.65 0.04 2.39
-6.66 -0.10 2.39
-6.67 -0.23 2.39
-6.68 -0.37 2.39
-6.68 -0.50 2.39
-6.68 -0.64 2.39
-6.68 -0.77 2.39
-6.67 -0.91 2.39
-6.66 -1.04 2.39
-6.65 -1.18 2.39
-6.64 -1.31 2.39
-6.62 -1.45 2.39
-6.60 -1.58 2.39
-6.58 -1.72 2.39
-6.56 -1.85 2.39
-6.53 -1.99 2.39
-6.50 -2.12 2.39
-6.47 -2.25 2.39
-6.43 -2.39 2.39
-6.39 -2.52 2.39
-6.35 -2.65 2.39
-6.31 -2.78 2.39
-6.26 -2.91 2.39
-6.21 -3.04 2.39
-6.16 -3.17 2.39
-6.10 -3.30 2.39
-6.05 -3.43 2.39
-5.99 -3.55 2.39
-5.92 -3.68 2.39
-5.86 -3.80 2.39
-5.85 -3.96 2.42
-5.84 -4.13 2.44
-5.84 -4.31 2.48
-5.81 -4.47 2.50
-5.73 -4.59 2.50
-5.64 -4.71 2.50
-5.56 -4.83 2.50
-5.47 -4.94 2.50
-5.38 -5.06 2.50
-5.28 -5.17 2.50
-5.18 -5.28 2.50
-5.08 -5.39 2.50
-4.98 -5.50 2.50
-4.88 -5.61 2.50
-4.77 -5.71 2.50
-4.66 -5.81 2.50
-4.55 -5.91 2.50
-4.44 -6.01 2.50
-4.32 -6.10 2.50
-4.20 -6.19 2.50
-4.08 -6.28 2.50
-3.96 -6.37 2.50
-3.84 -6.45 2.50
-3.71 -6.53 2.50
-3.59 -6.61 2.50
-3.46 -6.69 2.50
-3.33 -6.76 2.50
-3.19 -6.83 2.50
-3.06 -6.90 2.50
-2.92 -6.97 2.50
-2.79 -7.03 2.50
-2.65 -7.09 2.50
-2.51 -7.15 2.50
-2.37 -7.20 2.50
-2.23 -7.25 2.50
-2.08 -7.30 2.50
-1.94 -7.34 2.50
-1.79 -7.38 2.50
-1.65 -7.42 2.50
-1.50 -7.46 2.50
-1.35 -7.49 2.50
-1.20 -7.52 2.50
-1.05 -7.54 2.50
-0.90 -7.56 2.50
-0.75 -7.58 2.50
-0.60 -7.60 2.50
-0.45 -7.61 2.50
-0.30 -7.62 2.50
-0.15 -7.62 2.50
0.00 -7.08 2.50
0.15 -7.08 2.50
0.29 -7.08 2.50
0.43 -7.07 2.50
0.57 -7.06 2.50
0.71 -7.05 2.50
0.85 -7.03 2.50
0.99 -7.01 2.50
1.13 -6.99 2.50
1.26 -6.97 2.50
1.40 -6.94 2.50
1.54 -6.91 2.50
1.68 -6.87 2.50
1.81 -6.84 2.50
1.95 -6.80 2.50
2.08 -6.75 2.50
2.19 -6.65 2.47
2.25 -6.38 2.39
2.38 -6.37 2.41
2.50 -6.28 2.39
2.62 -6.23 2.39
2.74 -6.17 2.39
2.86 -6.11 2.39
2.98 -6.05 2.39
3.10 -5.99 2.39
3.22 -5.92 2.39
3.33 -5.85 2.39
3.44 -5.78 2.39
3.55 -5.70 2.39
3.66 -5.63 2.39
3.77 -5.55 2.39
3.88 -5.47 2.39
3.98 -5.38 2.39
4.09 -5.30 2.39
4.19 -5.21 2.39
4.28 -5.12 2.39
4.38 -5.03 2.39
4.48 -4.94 2.39
4.57 -4.84 2.39
4.66 -4.74 2.39
4.75 -4.65 2.39
4.83 -4.54 2.39
4.92 -4.44 2.39
5.00 -4.34 2.39
5.08 -4.23 2.39
5.15 -4.13 2.39
5.23 -4.02 2.39
5.30 -3.91 2.39
5.37 -3.79 2.39
5.44 -3.68 2.39
5.50 -3.57 2.39
5.57 -3.45 2.39
5.63 -3.34 2.39
5.68 -3.22 2.39
5.74 -3.10 2.39
5.79 -2.98 2.39
5.84 -2.86 2.39
5.89 -2.74 2.39
5.93 -2.62 2.39
5.97 -2.49 2.39
6.01 -2.37 2.39
6.05 -2.25 2.39
6.09 -2.12 2.39
6.12 -2.00 2.39
6.15 -1.87 2.39
6.17 -1.75 2.39
6.20 -1.62 2.39
6.22 -1.49 2.39
7.29 -1.60 2.80
7.31 -1.45 2.80
7.32 -1.30 2.79
7.33 -1.15 2.79
7.33 -1.00 2.79
6.25 -0.73 2.38
7.34 -0.70 2.79
7.35 -0.56 2.79
7.35 -0.41 2.79
7.35 -0.26 2.80
4.19 -0.06 1.60
4.06 0.02 1.55
4.02 0.10 1.54
4.04 0.18 1.55
4.04 0.26 1.55
4.06 0.35 1.57
4.11 0.43 1.59
4.24 0.53 1.65
6.14 0.90 2.39
6.11 1.02 2.39
6.07 1.14 2.39
6.04 1.26 2.39
6.00 1.38 2.39
5.97 1.50 2.39
5.93 1.61 2.39
5.88 1.73 2.39
5.84 1.84 2.39
5.79 1.96 2.39
5.74 2.07 2.39
5.69 2.18 2.39
5.64 2.29 2.39
5.58 2.40 2.39
5.52 2.51 2.39
5.46 2.62 2.39
5.40 2.72 2.39
5.34 2.83 2.39
5.27 2.93 2.39
5.20 3.03 2.39
5.13 3.13 2.39
5.06 3.23 2.39
4.99 3.33 2.39
4.91 3.42 2.39
4.84 3.52 2.39
4.76 3.61 2.39
4.68 3.70 2.39
4.60 3.79 2.39
4.52 3.87 2.39
4.43 3.96 2.39
4.34 4.04 2.39
4.26 4.13 2.39
4.17 4.21 2.39
4.08 4.28 2.39
3.99 4.36 2.39
3.89 4.44 2.39
3.80 4.51 2.39
3.70 4.58 2.39
3.60 4.65 2.39
3.51 4.72 2.39
3.23 4.54 2.27
3.19 4.67 2.31
3.15 4.83 2.35
3.05 4.88 2.35
2.95 4.94 2.35
2.84 4.99 2.35
2.64 4.87 2.27
2.60 5.03 2.32
2.57 5.23 2.39
2.46 5.28 2.39
2.35 5.32 2.39
2.26 5.39 2.40
2.23 5.64 2.50
2.11 5.68 2.50
1.99 5.72 2.50
1.88 5.75 2.50
1.76 5.79 2.50
1.64 5.82 2.50
1.52 5.85 2.50
1.40 5.88 2.50
1.28 5.90 2.50
1.16 5.92 2.50
1.04 5.94 2.50
0.92 5.96 2.50
0.80 5.98 2.50
0.68 5.99 2.50
0.55 6.00 2.50
0.43 6.01 2.50
0.31 6.02 2.50
0.19 6.02 2.50
0.06 6.02 2.50
-0.06 6.02 2.50
-0.18 6.02 2.50
-0.30 6.01 2.50
-0.42 6.01 2.50
-0.55 6.00 2.50
-0.67 5.98 2.50
-0.79 5.97 2.50
-0.91 5.95 2.50
-1.03 5.93 2.50
-1.15 5.91 2.50
-1.27 5.89 2.50
-1.39 5.86 2.50
-1.51 5.84 2.50
-1.63 5.81 2.50
-1.75 5.77 2.50
-1.86 5.74 2.50
-1.98 5.70 2.50
-2.10 5.66 2.50
-2.21 5.62 2.50
-2.33 5.58 2.50
-2.44 5.53 2.50
-2.55 5.49 2.50
-2.67 5.44 2.50
-2.78 5.39 2.50
-2.89 5.33 2.50
-3.00 5.28 2.50
-3.11 5.22 2.50
-3.21 5.16 2.50
-3.32 5.09 2.50
-3.42 5.03 2.50
-3.53 4.96 2.50
-3.63 4.90 2.50
-3.73 4.82 2.50
-3.83 4.75 2.50
-3.93 4.68 2.50
-4.03 4.60 2.50
-4.13 4.52 2.50
-4.22 4.44 2.50
-4.31 4.36 2.50
-4.41 4.28 2.50
-4.50 4.19 2.50
-4.59 4.11 2.50
-4.67 4.02 2.50
-4.76 3.93 2.50
-4.84 3.83 2.50
-4.92 3.74 2.50
-5.01 3.64 2.50
-5.08 3.55 2.50
-5.16 3.45 2.50
-5.24 3.35 2.50
-5.31 3.24 2.50
-5.38 3.14 2.50
-5.45 3.03 2.50
-5.52 2.93 2.50
-5.58 2.82 2.50
-5.65 2.71 2.50
-5.71 2.60 2.50
-5.77 2.49 2.50
-5.81 2.37 2.49
-5.81 2.23 2.47
-5.81 2.10 2.45
-5.82 1.97 2.43
-5.82 1.84 2.41
-5.83 1.72 2.39
-5.87 1.60 2.39
-5.91 1.48 2.39
-5.95 1.37 2.39
-5.98 1.25 2.39
-6.03 1.13 2.40
-6.05 1.01 2.39
-6.08 0.89 2.39
-6.10 0.77 2.39
-6.13 0.65 2.39
-6.15 0.52 2.39
-6.17 0.40 2.39
-6.18 0.28 2.39
-6.20 0.15 2.39
-6.21 0.03 2.39
-6.22 -0.10 2.39
-6.23 -0.22 2.39
-6.23 -0.35 2.39
-6.23 -0.47 2.39
-6.23 -0.60 2.39
-6.23 -0.72 2.39
-6.22 -0.85 2.39
-6.21 -0.98 2.39
-6.20 -1.10 2.39
-6.19 -1.23 2.39
-6.17 -1.35 2.39
-6.16 -1.48 2.39
-6.14 -1.61 2.39
-6.11 -1.73 2.39
-6.09 -1.86 2.39
-6.06 -1.98 2.39
-6.04 -2.11 2.40
-5.99 -2.23 2.39
-5.96 -2.35 2.39
-5.92 -2.47 2.39
-5.88 -2.60 2.39
-5.85 -2.73 2.40
-5.84 -2.87 2.42
-5.84 -3.01 2.44
-5.84 -3.16 2.46
-5.84 -3.31 2.48
-5.81 -3.45 2.50
-5.75 -3.57 2.50
-5.69 -3.69 2.50
-5.62 -3.81 2.50
-5.55 -3.93 2.50
-5.48 -4.05 2.50
-5.41 -4.16 2.50
-5.33 -4.27 2.50
-5.25 -4.38 2.50
-5.17 -4.49 2.50
-5.08 -4.60 2.50
-5.00 -4.71 2.50
-4.91 -4.81 2.50
-4.82 -4.92 2.50
-4.73 -5.02 2.50
-4.63 -5.12 2.50
-4.53 -5.22 2.50
-4.43 -5.31 2.50
-4.33 -5.40 2.50
-4.23 -5.50 2.50
-4.12 -5.59 2.50
-4.02 -5.67 2.50
-3.91 -5.76 2.50
-3.79 -5.84 2.50
-3.68 -5.92 2.50
-3.57 -6.00 2.50
-3.45 -6.07 2.50
-3.33 -6.15 2.50
-3.21 -6.22 2.50
-3.09 -6.29 2.50
-2.97 -6.35 2.50
-2.84 -6.41 2.50
-2.71 -6.47 2.50
-2.59 -6.53 2.50
-2.46 -6.59 2.50
-2.33 -6.64 2.50
-2.20 -6.69 2.50
-2.07 -6.74 2.50
-1.93 -6.78 2.50
-1.80 -6.82 2.50
-1.66 -6.86 2.50
-1.53 -6.89 2.50
-1.39 -6.93 2.50
-1.25 -6.95 2.50
-1.12 -6.98 2.50
-0.98 -7.00 2.50
-0.84 -7.02 2.50
-0.70 -7.04 2.50
-0.56 -7.06 2.50
-0.42 -7.07 2.50
-0.28 -7.08 2.50
-0.14 -7.08 2.50
0.00 -6.60 2.50
0.14 -6.60 2.50
0.27 -6.60 2.50
0.40 -6.59 2.50
0.53 -6.58 2.50
0.66 -6.57 2.50
0.79 -6.56 2.50
0.92 -6.54 2.50
1.05 -6.52 2.50
1.18 -6.50 2.50
1.31 -6.47 2.50
1.43 -6.44 2.50
1.56 -6.41 2.50
1.69 -6.38 2.50
1.81 -6.34 2.50
1.94 -6.30 2.50
2.06 -6.26 2.50
2.19 -6.21 2.50
2.21 -5.91 2.39
2.33 -5.86 2.39
2.44 -5.81 2.39
2.56 -5.76 2.39
2.67 -5.70 2.39
2.78 -5.65 2.39
2.89 -5.59 2.39
3.00 -5.52 2.39
3.10 -5.46 2.39
3.21 -5.39 2.39
3.31 -5.32 2.39
3.42 -5.25 2.39
3.52 -5.18 2.39
3.62 -5.10 2.39
3.71 -5.03 2.39
3.81 -4.95 2.39
3.90 -4.86 2.39
4.00 -4.78 2.39
4.09 -4.70 2.39
4.18 -4.61 2.39
4.26 -4.52 2.39
4.35 -4.43 2.39
4.43 -4.34 2.39
4.51 -4.24 2.39
4.59 -4.15 2.39
4.66 -4.05 2.39
4.74 -3.95 2.39
4.81 -3.85 2.39
4.88 -3.75 2.39
4.95 -3.65 2.39
5.01 -3.55 2.39
5.08 -3.44 2.39
5.14 -3.34 2.39
5.20 -3.23 2.39
5.25 -3.12 2.39
5.31 -3.01 2.39
5.36 -2.90 2.39
5.41 -2.79 2.39
5.46 -2.68 2.39
5.50 -2.56 2.39
5.54 -2.45 2.39
5.58 -2.34 2.39
5.62 -2.22 2.39
5.66 -2.10 2.39
5.69 -1.99 2.39
5.72 -1.87 2.39
5.75 -1.75 2.39
5.77 -1.64 2.39
5.79 -1.52 2.39
5.81 -1.40 2.39
5.83 -1.28 2.39
5.85 -1.16 2.39
5.86 -1.04 2.39
5.87 -0.93 2.39
5.88 -0.81 2.39
5.89 -0.69 2.39
5.89 -0.57 2.39
5.89 -0.45 2.39
5.89 -0.33 2.39
5.89 -0.21 2.39
4.20 -0.07 1.71
4.10 0.02 1.67
4.06 0.10 1.66
4.04 0.18 1.65
4.04 0.26 1.66
4.06 0.34 1.67
4.11 0.43 1.70
4.23 0.53 1.75
5.75 0.84 2.39
5.72 0.95 2.39
5.69 1.06 2.39
5.66 1.18 2.39
5.63 1.29 2.39
5.59 1.40 2.39
5.55 1.51 2.39
5.51 1.62 2.39
5.47 1.72 2.39
5.43 1.83 2.39
5.38 1.94 2.39
5.33 2.04 2.39
5.28 2.15 2.39
5.23 2.25 2.39
5.18 2.35 2.39
5.12 2.45 2.39
5.07 2.55 2.39
5.01 2.65 2.39
4.95 2.75 2.39
4.88 2.84 2.39
4.82 2.93 2.39
4.75 3.03 2.39
4.68 3.12 2.39
4.61 3.21 2.39
4.54 3.30 2.39
4.47 3.38 2.39
4.39 3.47 2.39
4.32 3.55 2.39
4.24 3.63 2.39
4.16 3.71 2.39
4.08 3.79 2.39
4.00 3.87 2.39
3.91 3.95 2.39
3.83 4.02 2.39
3.74 4.09 2.39
3.66 4.16 2.39
3.57 4.23 2.39
3.30 4.08 2.27
3.21 4.14 2.27
3.19 4.28 2.32
3.15 4.41 2.35
3.05 4.47 2.35
2.96 4.53 2.35
2.87 4.58 2.35
2.67 4.48 2.27
2.60 4.56 2.29
2.60 4.78 2.38
2.52 4.87 2.39
2.43 4.94 2.41
2.32 4.96 2.39
2.25 5.08 2.43
2.20 5.26 2.50
2.09 5.30 2.50
1.98 5.34 2.50
1.87 5.37 2.50
1.76 5.41 2.50
1.65 5.44 2.50
1.54 5.47 2.50
1.43 5.49 2.50
1.32 5.52 2.50
1.20 5.54 2.50
1.09 5.56 2.50
0.98 5.58 2.50
0.86 5.60 2.50
0.75 5.61 2.50
0.63 5.63 2.50
0.52 5.64 2.50
0.41 5.65 2.50
0.29 5.65 2.50
0.18 5.66 2.50
0.06 5.66 2.50
-0.05 5.66 2.50
-0.17 5.65 2.50
-0.28 5.65 2.50
-0.40 5.64 2.50
-0.51 5.63 2.50
-0.63 5.62 2.50
-0.74 5.61 2.50
-0.85 5.59 2.50
-0.97 5.58 2.50
-1.08 5.56 2.50
-1.19 5.53 2.50
-1.31 5.51 2.50
-1.42 5.48 2.50
-1.53 5.46 2.50
-1.64 5.43 2.50
-1.75 5.39 2.50
-1.86 5.36 2.50
-1.97 5.32 2.50
-2.08 5.28 2.50
-2.19 5.24 2.50
-2.29 5.20 2.50
-2.40 5.15 2.50
-2.51 5.11 2.50
-2.61 5.06 2.50
-2.71 5.01 2.50
-2.82 4.95 2.50
-2.92 4.90 2.50
-3.02 4.84 2.50
-3.12 4.78 2.50
-3.22 4.72 2.50
-3.32 4.66 2.50
-3.41 4.60 2.50
-3.51 4.53 2.50
-3.60 4.46 2.50
-3.69 4.39 2.50
-3.79 4.32 2.50
-3.88 4.25 2.50
-3.97 4.17 2.50
-4.05 4.09 2.50
-4.14 4.01 2.50
-4.22 3.93 2.50
-4.31 3.85 2.50
-4.39 3.77 2.50
-4.47 3.68 2.50
-4.55 3.60 2.50
-4.62 3.51 2.50
-4.70 3.42 2.50
-4.77 3.32 2.50
-4.85 3.23 2.50
-4.92 3.14 2.50
-4.98 3.04 2.50
-5.05 2.94 2.50
-5.12 2.84 2.50
-5.18 2.74 2.50
-5.24 2.64 2.50
-5.30 2.54 2.50
-5.36 2.43 2.50
-5.41 2.33 2.50
-5.46 2.22 2.50
-5.52 2.11 2.50
-5.56 2.01 2.50
-5.61 1.90 2.50
-5.66 1.79 2.50
-5.70 1.67 2.50
-5.74 1.56 2.50
-5.78 1.45 2.50
-5.82 1.33 2.50
-5.82 1.21 2.48
-5.82 1.09 2.47
-5.82 0.97 2.46
-5.82 0.85 2.45
-5.82 0.73 2.44
-5.82 0.61 2.43
-5.83 0.49 2.42
-5.83 0.37 2.41
-5.83 0.26 2.41
-5.83 0.14 2.40
-5.83 0.02 2.40
-5.84 -0.09 2.40
-5.84 -0.21 2.40
-5.84 -0.33 2.39
-5.84 -0.45 2.39
-5.84 -0.56 2.40
-5.84 -0.68 2.40
-5.84 -0.80 2.40
-5.84 -0.92 2.40
-5.84 -1.04 2.41
-5.84 -1.16 2.41
-5.84 -1.28 2.42
-5.83 -1.41 2.42
-5.83 -1.53 2.43
-5.83 -1.66 2.44
-5.83 -1.78 2.45
-5.83 -1.91 2.46
-5.83 -2.04 2.48
-5.83 -2.17 2.49
-5.81 -2.30 2.50
-5.77 -2.42 2.50
-5.73 -2.54 2.50
-5.69 -2.65 2.50
-5.64 -2.77 2.50
-5.59 -2.89 2.50
-5.54 -3.00 2.50
-5.49 -3.12 2.50
-5.43 -3.23 2.50
-5.37 -3.34 2.50
-5.31 -3.46 2.50
-5.25 -3.57 2.50
-5.19 -3.68 2.50
-5.12 -3.78 2.50
-5.05 -3.89 2.50
-4.98 -3.99 2.50
-4.90 -4.10 2.50
-4.83 -4.20 2.50
-4.75 -4.30 2.50
-4.67 -4.40 2.50
-4.58 -4.50 2.50
-4.50 -4.59 2.50
-4.41 -4.69 2.50
-4.32 -4.78 2.50
-4.23 -4.87 2.50
-4.14 -4.96 2.50
-4.04 -5.05 2.50
-3.95 -5.13 2.50
-3.85 -5.22 2.50
-3.75 -5.30 2.50
-3.64 -5.38 2.50
-3.54 -5.45 2.50
-3.43 -5.53 2.50
-3.33 -5.60 2.50
-3.22 -5.67 2.50
-3.11 -5.74 2.50
-2.99 -5.80 2.50
-2.88 -5.87 2.50
-2.76 -5.93 2.50
-2.65 -5.99 2.50
-2.53 -6.04 2.50
-2.41 -6.09 2.50
-2.29 -6.15 2.50
-2.17 -6.19 2.50
-2.05 -6.24 2.50
-1.93 -6.28 2.50
-1.80 -6.32 2.50
-1.68 -6.36 2.50
-1.55 -6.40 2.50
-1.42 -6.43 2.50
-1.30 -6.46 2.50
-1.17 -6.49 2.50
-1.04 -6.51 2.50
-0.91 -6.53 2.50
-0.78 -6.55 2.50
-0.65 -6.57 2.50
-0.52 -6.58 2.50
-0.39 -6.59 2.50
-0.26 -6.60 2.50
-0.13 -6.60 2.50
0.00 -6.18 2.50
0.13 -6.18 2.50
0.25 -6.18 2.50
0.37 -6.17 2.50
0.49 -6.16 2.50
0.62 -6.15 2.50
0.74 -6.14 2.50
0.86 -6.12 2.50
0.98 -6.10 2.50
1.10 -6.08 2.50
1.22 -6.05 2.50
1.34 -6.03 2.50
1.46 -6.00 2.50
1.58 -5.97 2.50
1.70 -5.93 2.50
1.81 -5.89 2.50
1.93 -5.86 2.50
2.04 -5.81 2.50
2.16 -5.77 2.50
2.20 -5.55 2.42
2.29 -5.44 2.39
2.39 -5.39 2.39
2.50 -5.34 2.39
2.60 -5.28 2.39
2.70 -5.23 2.39
2.80 -5.17 2.39
2.90 -5.11 2.39
3.00 -5.05 2.39
3.10 -4.98 2.39
3.20 -4.92 2.39
3.29 -4.85 2.39
3.38 -4.78 2.39
3.48 -4.71 2.39
3.57 -4.63 2.39
3.65 -4.56 2.39
3.74 -4.48 2.39
3.83 -4.40 2.39
3.91 -4.32 2.39
3.99 -4.24 2.39
4.07 -4.15 2.39
4.15 -4.07 2.39
4.22 -3.98 2.39
4.30 -3.89 2.39
4.37 -3.80 2.39
4.44 -3.71 2.39
4.51 -3.61 2.39
4.57 -3.52 2.39
4.64 -3.42 2.39
4.70 -3.33 2.39
4.76 -3.23 2.39
4.81 -3.13 2.39
4.87 -3.03 2.39
4.92 -2.93 2.39
4.97 -2.83 2.39
5.02 -2.72 2.39
5.07 -2.62 2.39
5.11 -2.51 2.39
5.16 -2.41 2.39
5.20 -2.30 2.39
5.23 -2.19 2.39
5.27 -2.09 2.39
5.30 -1.98 2.39
5.33 -1.87 2.39
5.36 -1.76 2.39
5.39 -1.65 2.39
5.41 -1.54 2.39
5.43 -1.43 2.39
5.45 -1.32 2.39
5.47 -1.21 2.39
5.49 -1.10 2.39
5.50 -0.98 2.39
5.51 -0.87 2.39
5.52 -0.76 2.39
5.52 -0.65 2.39
5.53 -0.54 2.39
5.53 -0.43 2.39
5.53 -0.31 2.39
5.53 -0.20 2.39
4.20 -0.07 1.82
4.11 0.01 1.78
4.06 0.09 1.77
4.04 0.18 1.76
4.04 0.26 1.76
4.06 0.34 1.78
4.11 0.43 1.81
4.22 0.53 1.86
5.40 0.78 2.39
5.37 0.89 2.39
5.35 1.00 2.39
5.32 1.10 2.39
5.29 1.21 2.39
5.26 1.31 2.39
5.22 1.41 2.39
5.18 1.52 2.39
5.14 1.62 2.39
5.10 1.72 2.39
5.06 1.82 2.39
5.02 1.92 2.39
4.97 2.01 2.39
4.92 2.11 2.39
4.87 2.21 2.39
4.82 2.30 2.39
4.77 2.40 2.39
4.71 2.49 2.39
4.65 2.58 2.39
4.59 2.67 2.39
4.53 2.76 2.39
4.47 2.84 2.39
4.41 2.93 2.39
4.34 3.01 2.39
4.27 3.10 2.39
4.21 3.18 2.39
4.14 3.26 2.39
4.06 3.34 2.39
3.99 3.42 2.39
3.92 3.49 2.39
3.84 3.57 2.39
3.76 3.64 2.39
3.69 3.71 2.39
3.61 3.78 2.39
3.52 3.85 2.39
3.27 3.72 2.27
3.19 3.78 2.27
3.18 3.93 2.33
3.14 4.04 2.35
3.05 4.10 2.35
2.96 4.15 2.35
2.88 4.21 2.35
2.69 4.11 2.27
2.61 4.17 2.27
2.60 4.35 2.34
2.56 4.49 2.39
2.47 4.54 2.39
2.37 4.58 2.39
2.28 4.63 2.39
2.24 4.80 2.46
2.18 4.91 2.50
2.07 4.95 2.50
1.97 4.99 2.50
1.87 5.02 2.50
1.77 5.06 2.50
1.66 5.09 2.50
1.56 5.12 2.50
1.45 5.15 2.50
1.35 5.17 2.50
1.24 5.20 2.50
1.13 5.22 2.50
1.03 5.24 2.50
0.92 5.26 2.50
0.81 5.27 2.50
0.71 5.29 2.50
0.60 5.30 2.50
0.49 5.31 2.50
0.38 5.32 2.50
0.27 5.32 2.50
0.17 5.33 2.50
0.06 5.33 2.50
-0.05 5.33 2.50
-0.16 5.33 2.50
-0.27 5.32 2.50
-0.37 5.32 2.50
-0.48 5.31 2.50
-0.59 5.30 2.50
-0.70 5.28 2.50
-0.81 5.27 2.50
-0.91 5.25 2.50
-1.02 5.23 2.50
-1.13 5.21 2.50
-1.23 5.19 2.50
-1.34 5.17 2.50
-1.44 5.14 2.50
-1.55 5.11 2.50
-1.65 5.08 2.50
-1.75 5.05 2.50
-1.86 5.01 2.50
-1.96 4.97 2.50
-2.06 4.94 2.50
-2.16 4.90 2.50
-2.26 4.85 2.50
-2.36 4.81 2.50
-2.46 4.76 2.50
-2.56 4.71 2.50
-2.65 4.66 2.50
-2.75 4.61 2.50
-2.84 4.56 2.50
-2.94 4.50 2.50
-3.03 4.45 2.50
-3.12 4.39 2.50
-3.21 4.33 2.50
-3.30 4.26 2.50
-3.39 4.20 2.50
-3.48 4.13 2.50
-3.57 4.07 2.50
-3.65 4.00 2.50
-3.73 3.92 2.50
-3.82 3.85 2.50
-3.90 3.78 2.50
-3.98 3.70 2.50
-4.06 3.62 2.50
-4.13 3.54 2.50
-4.21 3.46 2.50
-4.28 3.38 2.50
-4.35 3.30 2.50
-4.42 3.21 2.50
-4.49 3.13 2.50
-4.56 3.04 2.50
-4.63 2.95 2.50
-4.69 2.86 2.50
-4.75 2.77 2.50
-4.81 2.67 2.50
-4.87 2.58 2.50
-4.93 2.48 2.50
-4.99 2.38 2.50
-5.04 2.29 2.50
-5.09 2.19 2.50
-5.14 2.09 2.50
-5.19 1.99 2.50
-5.23 1.88 2.50
-5.28 1.78 2.50
-5.32 1.67 2.50
-5.36 1.57 2.50
-5.40 1.46 2.50
-5.43 1.36 2.50
-5.47 1.25 2.50
-5.50 1.14 2.50
-5.53 1.03 2.50
-5.56 0.92 2.50
-5.58 0.81 2.50
-5.61 0.70 2.50
-5.63 0.59 2.50
-5.65 0.47 2.50
-5.66 0.36 2.50
-5.68 0.25 2.50
-5.69 0.13 2.50
-5.70 0.02 2.50
-5.71 -0.10 2.50
-5.71 -0.21 2.50
-5.71 -0.33 2.50
-5.72 -0.44 2.50
-5.71 -0.56 2.50
-5.71 -0.67 2.50
-5.70 -0.79 2.50
-5.70 -0.90 2.50
-5.68 -1.02 2.50
-5.67 -1.13 2.50
-5.66 -1.25 2.50
-5.64 -1.36 2.50
-5.62 -1.48 2.50
-5.60 -1.59 2.50
-5.57 -1.71 2.50
-5.54 -1.82 2.50
-5.51 -1.94 2.50
-5.48 -2.05 2.50
-5.45 -2.16 2.50
-5.41 -2.27 2.50
-5.37 -2.38 2.50
-5.33 -2.49 2.50
-5.29 -2.60 2.50
-5.24 -2.71 2.50
-5.19 -2.82 2.50
-5.14 -2.93 2.50
-5.09 -3.03 2.50
-5.04 -3.14 2.50
-4.98 -3.24 2.50
-4.92 -3.35 2.50
-4.86 -3.45 2.50
-4.80 -3.55 2.50
-4.73 -3.65 2.50
-4.66 -3.75 2.50
-4.59 -3.84 2.50
-4.52 -3.94 2.50
-4.45 -4.03 2.50
-4.37 -4.13 2.50
-4.29 -4.22 2.50
-4.21 -4.31 2.50
-4.13 -4.39 2.50
-4.05 -4.48 2.50
-3.96 -4.57 2.50
-3.87 -4.65 2.50
-3.78 -4.73 2.50
-3.69 -4.81 2.50
-3.60 -4.89 2.50
-3.51 -4.96 2.50
-3.41 -5.04 2.50
-3.31 -5.11 2.50
-3.21 -5.18 2.50
-3.11 -5.24 2.50
-3.01 -5.31 2.50
-2.91 -5.37 2.50
-2.80 -5.43 2.50
-2.69 -5.49 2.50
-2.59 -5.55 2.50
-2.48 -5.60 2.50
-2.37 -5.66 2.50
-2.26 -5.71 2.50
-2.14 -5.75 2.50
-2.03 -5.80 2.50
-1.92 -5.84 2.50
-1.80 -5.88 2.50
-1.68 -5.92 2.50
-1.57 -5.95 2.50
-1.45 -5.99 2.50
-1.33 -6.02 2.50
-1.21 -6.04 2.50
-1.09 -6.07 2.50
-0.97 -6.09 2.50
-0.85 -6.11 2.50
-0.73 -6.13 2.50
-0.61 -6.15 2.50
-0.49 -6.16 2.50
-0.36 -6.17 2.50
-0.24 -6.17 2.50
-0.12 -6.18 2.50
0.00 -5.80 2.50
0.12 -5.80 2.50
0.23 -5.80 2.50
0.35 -5.79 2.50
0.46 -5.78 2.50
0.58 -5.77 2.50
0.69 -5.76 2.50
0.81 -5.74 2.50
0.92 -5.73 2.50
1.03 -5.71 2.50
1.15 -5.68 2.50
1.26 -5.66 2.50
1.37 -5.63 2.50
1.48 -5.60 2.50
1.59 -5.57 2.50
1.70 -5.53 2.50
1.81 -5.50 2.50
1.92 -5.46 2.50
2.02 -5.42 2.50
2.13 -5.37 2.50
2.20 -5.24 2.46
2.24 -5.06 2.39
2.34 -5.01 2.39
2.44 -4.96 2.39
2.54 -4.91 2.39
2.63 -4.86 2.39
2.73 -4.80 2.39
2.82 -4.74 2.39
2.91 -4.68 2.39
3.00 -4.62 2.39
3.09 -4.55 2.39
3.18 -4.49 2.39
3.10 -4.20 2.27
3.18 -4.13 2.27
3.26 -4.06 2.27
3.51 -4.21 2.39
3.59 -4.13 2.39
3.67 -4.06 2.39
3.75 -3.98 2.39
3.82 -3.90 2.39
3.89 -3.82 2.39
3.96 -3.74 2.39
4.03 -3.66 2.39
4.10 -3.57 2.39
4.17 -3.49 2.39
4.23 -3.40 2.39
4.29 -3.31 2.39
4.35 -3.22 2.39
4.41 -3.13 2.39
4.47 -3.04 2.39
4.52 -2.94 2.39
4.57 -2.85 2.39
4.63 -2.75 2.39
4.67 -2.66 2.39
4.72 -2.56 2.39
4.76 -2.46 2.39
4.81 -2.37 2.39
4.85 -2.27 2.39
4.88 -2.17 2.39
4.92 -2.07 2.39
4.95 -1.96 2.39
4.99 -1.86 2.39
5.01 -1.76 2.39
5.04 -1.66 2.39
5.07 -1.55 2.39
5.09 -1.45 2.39
5.11 -1.35 2.39
5.13 -1.24 2.39
5.15 -1.14 2.39
5.16 -1.03 2.39
5.17 -0.93 2.39
5.18 -0.82 2.39
5.19 -0.72 2.39
5.20 -0.61 2.39
5.20 -0.51 2.39
5.20 -0.40 2.39
5.20 -0.30 2.39
5.20 -0.20 2.39
4.21 -0.07 1.94
4.11 0.01 1.90
4.06 0.09 1.88
4.04 0.17 1.87
4.04 0.25 1.87
4.06 0.34 1.89
4.10 0.42 1.92
4.22 0.52 1.98
5.09 0.73 2.39
5.06 0.83 2.39
5.04 0.93 2.39
5.01 1.03 2.39
4.98 1.13 2.39
4.95 1.23 2.39
4.92 1.33 2.39
4.88 1.42 2.39
4.85 1.52 2.39
4.81 1.62 2.39
4.77 1.71 2.39
4.73 1.80 2.39
4.68 1.90 2.39
4.64 1.99 2.39
4.59 2.08 2.39
4.54 2.17 2.39
4.49 2.25 2.39
4.44 2.34 2.39
4.39 2.43 2.39
4.33 2.51 2.39
4.28 2.60 2.39
4.22 2.68 2.39
4.16 2.76 2.39
4.10 2.84 2.39
4.03 2.92 2.39
3.97 3.00 2.39
3.90 3.07 2.39
3.83 3.15 2.39
3.77 3.22 2.39
3.70 3.29 2.39
3.62 3.36 2.39
3.55 3.43 2.39
3.30 3.32 2.27
3.23 3.38 2.27
3.18 3.47 2.29
3.18 3.62 2.34
3.12 3.69 2.35
3.04 3.75 2.35
2.96 3.81 2.35
2.88 3.86 2.35
2.70 3.78 2.27
2.62 3.83 2.27
2.60 3.97 2.32
2.59 4.14 2.39
2.51 4.19 2.39
2.43 4.26 2.41
2.33 4.28 2.39
2.25 4.34 2.40
2.24 4.55 2.49
2.15 4.59 2.50
2.05 4.63 2.50
1.96 4.67 2.50
1.86 4.71 2.50
1.77 4.74 2.50
1.67 4.77 2.50
1.57 4.80 2.50
1.47 4.83 2.50
1.37 4.86 2.50
1.27 4.88 2.50
1.17 4.91 2.50
1.07 4.93 2.50
0.97 4.95 2.50
0.87 4.96 2.50
0.77 4.98 2.50
0.67 4.99 2.50
0.57 5.00 2.50
0.46 5.01 2.50
0.36 5.02 2.50
0.26 5.03 2.50
0.16 5.03 2.50
0.06 5.03 2.50
-0.05 5.03 2.50
-0.15 5.03 2.50
-0.25 5.02 2.50
-0.35 5.02 2.50
-0.46 5.01 2.50
-0.56 5.00 2.50
-0.66 4.99 2.50
-0.76 4.97 2.50
-0.86 4.96 2.50
-0.96 4.94 2.50
-1.06 4.92 2.50
-1.16 4.90 2.50
-1.26 4.88 2.50
-1.36 4.85 2.50
-1.46 4.82 2.50
-1.56 4.79 2.50
-1.66 4.76 2.50
-1.75 4.73 2.50
-1.85 4.70 2.50
-1.95 4.66 2.50
-2.04 4.62 2.50
-2.14 4.58 2.50
-2.23 4.54 2.50
-2.32 4.49 2.50
-2.41 4.45 2.50
-2.51 4.40 2.50
-2.60 4.35 2.50
-2.69 4.30 2.50
-2.77 4.25 2.50
-2.86 4.20 2.50
-2.95 4.14 2.50
-3.03 4.08 2.50
-3.12 4.02 2.50
-3.20 3.96 2.50
-3.29 3.90 2.50
-3.37 3.83 2.50
-3.45 3.77 2.50
-3.53 3.70 2.50
-3.60 3.63 2.50
-3.68 3.56 2.50
-3.75 3.49 2.50
-3.83 3.42 2.50
-3.90 3.34 2.50
-3.97 3.26 2.50
-4.04 3.19 2.50
-4.11 3.11 2.50
-4.17 3.03 2.50
-4.24 2.95 2.50
-4.30 2.86 2.50
-4.36 2.78 2.50
-4.43 2.69 2.50
-4.48 2.61 2.50
-4.54 2.52 2.50
-4.60 2.43 2.50
-4.65 2.34 2.50
-4.70 2.25 2.50
-4.75 2.15 2.50
-4.80 2.06 2.50
-4.85 1.96 2.50
-4.89 1.87 2.50
-4.93 1.77 2.50
-4.98 1.67 2.50
-5.02 1.58 2.50
-5.05 1.48 2.50
-5.09 1.38 2.50
-5.12 1.27 2.50
-5.15 1.17 2.50
-5.18 1.07 2.50
-5.21 0.97 2.50
-5.24 0.86 2.50
-5.26 0.76 2.50
-5.28 0.65 2.50
-5.30 0.55 2.50
-5.32 0.44 2.50
-5.33 0.34 2.50
-5.35 0.23 2.50
-5.36 0.12 2.50
-5.37 0.01 2.50
-5.37 -0.09 2.50
-5.38 -0.20 2.50
-5.38 -0.31 2.50
-5.38 -0.42 2.50
-5.38 -0.53 2.50
-5.38 -0.64 2.50
-5.37 -0.75 2.50
-5.36 -0.85 2.50
-5.35 -0.96 2.50
-5.34 -1.07 2.50
-5.32 -1.18 2.50
-5.31 -1.29 2.50
-5.29 -1.40 2.50
-5.26 -1.50 2.50
-5.24 -1.61 2.50
-5.21 -1.72 2.50
-5.19 -1.82 2.50
-5.16 -1.93 2.50
-5.12 -2.04 2.50
-5.09 -2.14 2.50
-5.05 -2.24 2.50
-5.01 -2.35 2.50
-4.97 -2.45 2.50
-4.93 -2.55 2.50
-4.88 -2.66 2.50
-4.84 -2.76 2.50
-4.79 -2.86 2.50
-4.73 -2.95 2.50
-4.68 -3.05 2.50
-4.62 -3.15 2.50
-4.57 -3.24 2.50
-4.51 -3.34 2.50
-4.44 -3.43 2.50
-4.38 -3.52 2.50
-4.31 -3.61 2.50
-4.25 -3.70 2.50
-4.18 -3.79 2.50
-4.10 -3.88 2.50
-4.03 -3.96 2.50
-3.96 -4.05 2.50
-3.88 -4.13 2.50
-3.80 -4.21 2.50
-3.72 -4.29 2.50
-3.64 -4.37 2.50
-3.55 -4.44 2.50
-3.47 -4.52 2.50
-3.38 -4.59 2.50
-3.29 -4.66 2.50
-3.20 -4.73 2.50
-3.11 -4.80 2.50
-3.01 -4.86 2.50
-2.92 -4.93 2.50
-2.82 -4.99 2.50
-2.73 -5.05 2.50
-2.63 -5.10 2.50
-2.53 -5.16 2.50
-2.43 -5.21 2.50
-2.32 -5.26 2.50
-2.22 -5.31 2.50
-2.12 -5.36 2.50
-2.01 -5.40 2.50
-1.90 -5.44 2.50
-1.80 -5.48 2.50
-1.69 -5.52 2.50
-1.58 -5.56 2.50
-1.47 -5.59 2.50
-1.36 -5.62 2.50
-1.25 -5.65 2.50
-1.14 -5.67 2.50
-1.02 -5.70 2.50
-0.91 -5.72 2.50
-0.80 -5.74 2.50
-0.68 -5.75 2.50
-0.57 -5.77 2.50
-0.46 -5.78 2.50
-0.34 -5.79 2.50
-0.23 -5.79 2.50
-0.11 -5.80 2.50
0.00 -5.46 2.50
0.11 -5.46 2.50
0.22 -5.45 2.50
0.33 -5.45 2.50
0.44 -5.44 2.50
0.54 -5.43 2.50
0.65 -5.42 2.50
0.76 -5.41 2.50
0.87 -5.39 2.50
0.97 -5.37 2.50
1.08 -5.35 2.50
1.18 -5.32 2.50
1.29 -5.30 2.50
1.39 -5.27 2.50
1.50 -5.24 2.50
1.60 -5.21 2.50
1.70 -5.17 2.50
1.80 -5.14 2.50
1.90 -5.10 2.50
2.00 -5.06 2.50
2.10 -5.01 2.50
2.20 -4.97 2.50
2.21 -4.74 2.40
2.30 -4.67 2.39
2.39 -4.64 2.40
2.48 -4.57 2.39
2.56 -4.52 2.39
2.65 -4.46 2.39
2.60 -4.18 2.27
2.68 -4.13 2.27
2.76 -4.07 2.27
2.84 -4.02 2.27
2.95 -4.00 2.30
3.08 -4.00 2.34
3.15 -3.93 2.34
3.15 -3.78 2.28
3.21 -3.70 2.27
3.28 -3.63 2.27
3.53 -3.75 2.39
3.60 -3.68 2.39
3.67 -3.60 2.39
3.73 -3.52 2.39
3.80 -3.45 2.39
3.86 -3.37 2.39
3.92 -3.28 2.39
3.98 -3.20 2.39
4.04 -3.12 2.39
4.10 -3.04 2.39
4.15 -2.95 2.39
4.21 -2.86 2.39
4.26 -2.78 2.39
4.31 -2.69 2.39
4.36 -2.60 2.39
4.40 -2.51 2.39
4.45 -2.42 2.39
4.49 -2.32 2.39
4.53 -2.23 2.39
4.57 -2.14 2.39
4.60 -2.04 2.39
4.64 -1.95 2.39
4.67 -1.86 2.39
4.70 -1.76 2.39
4.73 -1.66 2.39
4.75 -1.57 2.39
4.78 -1.47 2.39
4.80 -1.37 2.39
4.82 -1.27 2.39
4.84 -1.18 2.39
4.85 -1.08 2.39
4.87 -0.98 2.39
4.88 -0.88 2.39
4.89 -0.78 2.39
4.90 -0.68 2.39
4.90 -0.58 2.39
4.91 -0.48 2.39
4.91 -0.39 2.39
4.91 -0.29 2.39
4.91 -0.19 2.39
4.22 -0.08 2.06
4.11 0.01 2.01
4.06 0.09 1.99
4.04 0.17 1.98
4.04 0.25 1.99
4.06 0.33 2.00
4.10 0.42 2.03
4.23 0.52 2.10
4.80 0.69 2.39
4.78 0.78 2.39
4.76 0.88 2.39
4.73 0.97 2.39
4.70 1.07 2.39
4.68 1.16 2.39
4.65 1.25 2.39
4.61 1.34 2.39
4.58 1.43 2.39
4.54 1.52 2.39
4.51 1.61 2.39
4.47 1.70 2.39
4.43 1.79 2.39
4.38 1.87 2.39
4.34 1.96 2.39
4.29 2.04 2.39
4.25 2.13 2.39
4.20 2.21 2.39
4.15 2.29 2.39
4.09 2.37 2.39
4.04 2.45 2.39
3.99 2.53 2.39
3.93 2.61 2.39
3.87 2.68 2.39
3.81 2.76 2.39
3.75 2.83 2.39
3.69 2.90 2.39
3.63 2.97 2.39
3.56 3.04 2.39
3.49 3.11 2.39
3.25 3.01 2.27
3.19 3.08 2.27
3.18 3.20 2.31
3.17 3.31 2.35
3.09 3.37 2.35
3.02 3.43 2.35
2.95 3.49 2.35
2.88 3.54 2.35
2.70 3.47 2.27
2.63 3.52 2.27
2.60 3.63 2.31
2.60 3.79 2.38
2.53 3.87 2.39
2.45 3.91 2.39
2.37 3.96 2.39
2.29 4.00 2.39
2.24 4.11 2.43
2.21 4.26 2.50
2.12 4.30 2.50
2.03 4.34 2.50
1.94 4.38 2.50
1.85 4.42 2.50
1.76 4.45 2.50
1.67 4.48 2.50
1.58 4.51 2.50
1.49 4.54 2.50
1.39 4.57 2.50
1.30 4.60 2.50
1.20 4.62 2.50
1.11 4.64 2.50
1.02 4.66 2.50
0.92 4.68 2.50
0.82 4.69 2.50
0.73 4.71 2.50
0.63 4.72 2.50
0.54 4.73 2.50
0.44 4.74 2.50
0.34 4.75 2.50
0.25 4.75 2.50
0.15 4.76 2.50
0.05 4.76 2.50
