ply
format ascii 1.0
element vertex 2850
property float32 x
property float32 y
property float32 z
end_header
8.55 36.42 2.65
7.62 35.66 2.58
5.80 30.10 2.17
5.74 33.35 2.39
5.07 33.50 2.39
4.40 33.63 2.39
3.73 33.75 2.39
3.06 33.86 2.39
2.26 32.22 2.27
1.77 35.50 2.49
1.06 35.56 2.49
0.35 35.62 2.49
-0.37 35.65 2.49
-1.08 35.67 2.49
-1.80 35.68 2.49
-2.52 35.67 2.49
-3.24 35.65 2.49
-3.96 35.61 2.49
-4.67 35.56 2.49
-5.39 35.49 2.49
-6.11 35.40 2.49
-6.54 33.84 2.39
-6.61 30.88 2.19
-7.91 33.61 2.39
-8.59 33.47 2.39
-9.26 33.31 2.39
-9.94 33.15 2.39
-9.16 28.46 2.06
-9.02 26.21 1.91
-10.73 29.27 2.15
-10.06 25.83 1.91
-10.05 24.35 1.81
-10.04 23.01 1.73
-10.04 21.78 1.65
-10.03 20.67 1.58
-10.02 19.64 1.51
-10.02 18.69 1.46
-10.01 17.81 1.40
-10.00 16.99 1.35
-9.71 15.75 1.27
-10.14 15.74 1.28
-10.59 15.73 1.30
-11.05 15.72 1.32
-11.52 15.71 1.33
-12.00 15.70 1.35
-12.50 15.69 1.37
-13.01 15.68 1.39
-13.55 15.68 1.42
-14.10 15.67 1.44
-14.68 15.67 1.47
-15.28 15.66 1.50
-15.90 15.66 1.53
-16.55 15.66 1.56
-17.22 15.65 1.59
-17.92 15.65 1.63
-18.66 15.64 1.67
-19.43 15.64 1.71
-20.25 15.63 1.75
-21.10 15.63 1.80
-22.00 15.62 1.85
-22.96 15.61 1.90
-6.19 4.03 0.51
-20.69 12.89 1.67
-20.69 12.32 1.65
-20.68 11.76 1.63
-20.59 11.17 1.61
-20.59 10.64 1.59
-20.58 10.12 1.57
-20.48 9.56 1.55
-20.47 9.06 1.54
-19.19 8.04 1.43
-20.57 8.13 1.52
-20.57 7.66 1.51
-20.56 7.19 1.50
-20.65 6.76 1.50
-20.65 6.30 1.49
-20.64 5.85 1.48
-20.64 5.40 1.47
-20.55 4.94 1.46
-20.55 4.51 1.45
-10.51 2.09 0.74
-15.29 2.72 1.07
-15.33 2.41 1.07
-14.45 1.97 1.01
-20.35 2.36 1.42
-24.25 2.32 1.69
-29.98 2.27 2.09
-32.20 1.79 2.24
-31.87 1.13 2.22
-31.85 0.49 2.22
-31.83 -0.15 2.22
-27.86 -0.69 1.94
-16.80 -0.76 1.18
-16.80 -1.09 1.18
-16.80 -1.43 1.18
-17.06 -1.80 1.20
-14.42 -1.81 1.02
-17.06 -2.50 1.21
-16.78 -2.80 1.20
-10.48 -1.97 0.75
-16.78 -3.50 1.21
-16.78 -3.85 1.21
-16.77 -4.20 1.22
-17.05 -4.64 1.25
-17.05 -5.01 1.26
-17.04 -5.38 1.27
-16.76 -5.66 1.26
-16.76 -6.04 1.27
-16.75 -6.42 1.28
-16.26 -6.61 1.25
-15.80 -6.79 1.23
-15.95 -7.24 1.25
-15.95 -7.63 1.26
-15.95 -8.03 1.28
-15.95 -8.43 1.29
-15.94 -8.85 1.31
-15.94 -9.27 1.33
-15.94 -9.70 1.34
-15.93 -10.14 1.36
-16.25 -10.81 1.41
-16.25 -11.28 1.43
-16.25 -11.77 1.45
-16.66 -12.59 1.51
-16.26 -12.81 1.50
-16.23 -13.32 1.53
-16.23 -13.87 1.55
-16.70 -14.87 1.63
-16.70 -15.47 1.66
-16.69 -16.10 1.69
-16.69 -16.76 1.73
-16.68 -17.44 1.77
-16.68 -18.15 1.81
-16.67 -18.89 1.85
-16.67 -19.67 1.90
-16.66 -20.48 1.94
-16.66 -21.34 2.00
-16.65 -22.24 2.05
-16.64 -23.18 2.11
-17.71 -25.75 2.31
-17.17 -26.06 2.31
-16.55 -26.25 2.30
-15.82 -26.25 2.28
-15.10 -26.24 2.25
-14.39 -26.20 2.23
-13.73 -26.23 2.21
-13.06 -26.23 2.19
-12.39 -26.19 2.17
-11.77 -26.22 2.15
-11.14 -26.22 2.14
-10.52 -26.21 2.12
-9.91 -26.21 2.11
-9.88 -27.79 2.22
-9.87 -29.63 2.35
-9.41 -30.25 2.39
-8.79 -30.40 2.39
-8.16 -30.53 2.39
-7.54 -30.66 2.39
-6.92 -30.77 2.39
-6.29 -30.86 2.39
-5.81 -31.78 2.45
-5.25 -32.36 2.49
-4.60 -32.43 2.49
-3.94 -32.48 2.49
-3.28 -32.52 2.49
-2.63 -32.54 2.49
-1.97 -32.56 2.49
-1.32 -32.56 2.49
-0.66 -32.54 2.49
-0.01 -25.09 2.49
0.49 -25.07 2.49
1.00 -25.04 2.49
1.50 -24.99 2.49
2.00 -24.94 2.49
2.39 -23.85 2.39
2.87 -23.78 2.39
3.35 -23.71 2.39
3.82 -23.62 2.39
4.29 -23.52 2.39
4.66 -22.92 2.34
4.60 -20.52 2.10
4.72 -19.24 1.98
6.15 -23.05 2.39
7.22 -25.04 2.61
8.01 -25.82 2.71
9.64 -29.01 3.07
6.13 -17.27 1.84
6.11 -16.17 1.74
11.59 -28.93 3.13
6.09 -14.36 1.57
13.14 -29.31 3.23
14.15 -29.94 3.33
30.45 38.28 4.68
29.19 38.24 4.60
27.96 38.20 4.52
26.77 38.16 4.44
25.62 38.13 4.37
24.50 38.09 4.31
23.42 38.06 4.25
22.36 38.03 4.19
21.33 38.00 4.13
20.32 37.97 4.08
19.27 37.81 4.02
18.31 37.78 3.97
17.37 37.75 3.93
16.45 37.73 3.88
15.54 37.70 3.84
5.92 15.21 1.54
13.79 37.69 3.78
12.94 37.68 3.75
12.10 37.68 3.72
11.27 37.67 3.69
10.28 37.07 3.61
8.95 34.98 3.38
5.84 24.87 2.39
5.34 25.01 2.39
4.84 25.13 2.39
4.34 25.25 2.39
3.84 25.35 2.39
3.33 25.45 2.39
2.77 25.11 2.35
2.21 24.47 2.28
1.84 26.26 2.45
1.34 26.83 2.49
0.80 26.87 2.49
0.26 26.90 2.49
-0.28 26.92 2.49
-0.82 26.93 2.49
-1.36 26.93 2.49
-1.90 26.92 2.49
-2.44 26.90 2.49
-2.99 26.86 2.49
-3.53 26.81 2.49
-4.07 26.76 2.49
-4.61 26.69 2.49
-5.14 26.61 2.49
-5.68 26.51 2.49
-6.21 26.38 2.49
-6.47 25.21 2.39
-6.98 25.09 2.39
-7.48 24.96 2.39
-7.99 24.81 2.39
-8.49 24.66 2.39
-8.98 24.50 2.39
-9.48 24.33 2.39
-9.97 24.14 2.39
-10.04 23.00 2.30
-10.04 21.78 2.19
-10.03 20.66 2.10
-10.02 19.64 2.01
-10.02 18.69 1.94
-10.01 17.81 1.87
-10.00 16.99 1.80
-9.71 15.75 1.69
-10.14 15.74 1.71
-10.59 15.73 1.73
-11.05 15.72 1.75
-11.52 15.71 1.78
-12.00 15.70 1.80
-12.50 15.69 1.83
-13.01 15.68 1.86
-13.55 15.68 1.89
-14.10 15.67 1.92
-14.68 15.67 1.96
-15.28 15.66 1.99
-15.90 15.66 2.03
-16.55 15.66 2.07
-17.22 15.65 2.12
-17.92 15.65 2.17
-18.66 15.64 2.22
-19.18 15.43 2.24
-19.49 15.04 2.24
-19.78 14.65 2.24
-20.07 14.25 2.24
-20.35 13.84 2.24
-6.19 4.03 0.67
-20.60 12.83 2.21
-20.60 12.27 2.19
-20.60 11.71 2.16
-20.59 11.17 2.14
-19.53 10.09 2.01
-19.72 9.69 2.01
-19.90 9.29 2.01
-20.08 8.89 2.01
-19.14 8.02 1.90
-20.40 8.07 2.01
-20.57 7.66 2.01
-20.56 7.19 1.99
-20.56 6.73 1.98
-20.56 6.28 1.97
-20.56 5.83 1.96
-20.55 5.38 1.95
-11.39 2.74 1.07
-11.44 2.51 1.07
-10.51 2.09 0.98
-13.39 2.38 1.25
-15.26 2.40 1.42
-14.45 1.97 1.34
-20.34 2.36 1.88
-24.24 2.33 2.24
-24.27 1.84 2.24
-24.03 1.33 2.22
-24.04 0.85 2.22
-24.03 0.37 2.22
-24.02 -0.11 2.22
-22.88 -0.57 2.12
-16.80 -0.75 1.56
-16.80 -1.09 1.56
-16.80 -1.43 1.56
-16.79 -1.77 1.57
-14.42 -1.81 1.35
-16.79 -2.45 1.58
-16.78 -2.80 1.58
-10.48 -1.96 0.99
-16.78 -3.50 1.60
-16.78 -3.85 1.60
-16.77 -4.20 1.61
-16.77 -4.56 1.62
-16.77 -4.92 1.63
-16.76 -5.29 1.64
-16.76 -5.66 1.66
-16.76 -6.04 1.67
-16.75 -6.42 1.68
-16.27 -6.61 1.65
-15.79 -6.79 1.62
-15.95 -7.24 1.65
-10.29 -4.92 1.07
-10.18 -5.12 1.07
-10.06 -5.32 1.07
-10.00 -5.55 1.08
-10.00 -5.81 1.09
-10.00 -6.08 1.11
-10.00 -6.36 1.12
-9.99 -6.64 1.14
-9.99 -6.94 1.15
-10.05 -7.28 1.18
-16.66 -12.59 1.99
-16.27 -12.81 1.97
-16.23 -13.32 2.00
-16.23 -13.87 2.04
-16.70 -14.86 2.14
-16.70 -15.47 2.18
-16.62 -16.03 2.21
-16.29 -16.35 2.21
-15.95 -16.67 2.21
-15.60 -16.98 2.21
-15.25 -17.28 2.22
-14.89 -17.57 2.22
-14.55 -17.89 2.22
-14.53 -18.61 2.28
-14.22 -18.98 2.29
-13.83 -19.26 2.29
-13.44 -19.53 2.29
-13.07 -19.83 2.30
-12.73 -20.20 2.31
-12.42 -20.60 2.33
-12.09 -21.00 2.35
-11.73 -21.36 2.37
-11.37 -21.73 2.39
-11.02 -22.12 2.41
-10.56 -22.31 2.41
-10.10 -22.49 2.41
-9.57 -22.52 2.39
-9.11 -22.69 2.39
-8.64 -22.84 2.39
-8.18 -22.99 2.39
-7.71 -23.13 2.39
-7.23 -23.26 2.39
-6.76 -23.38 2.39
-6.28 -23.49 2.39
-5.87 -23.87 2.42
-5.56 -24.70 2.49
-5.05 -24.78 2.49
-4.55 -24.86 2.49
-4.05 -24.93 2.49
-3.54 -24.98 2.49
-3.04 -25.03 2.49
-2.53 -25.06 2.49
-2.03 -25.09 2.49
-1.52 -25.10 2.49
-1.02 -25.11 2.49
-0.51 -25.11 2.49
-0.01 -20.41 2.49
0.40 -20.39 2.49
0.81 -20.37 2.49
1.22 -20.34 2.49
1.63 -20.30 2.49
2.03 -20.25 2.49
2.34 -19.40 2.39
2.72 -19.30 2.39
3.11 -19.23 2.39
3.49 -19.16 2.39
3.87 -19.07 2.39
2.48 -11.05 1.39
4.63 -18.88 2.39
5.01 -18.78 2.39
5.38 -18.67 2.39
5.75 -18.55 2.39
6.12 -18.42 2.39
6.12 -17.25 2.25
6.11 -16.17 2.13
9.15 -22.84 3.03
9.85 -23.22 3.11
10.45 -23.32 3.15
11.06 -23.41 3.20
11.69 -23.50 3.24
12.32 -23.57 3.28
6.07 -11.07 1.56
13.70 -23.83 3.40
14.76 -24.52 3.54
16.03 -25.47 3.72
24.89 38.70 5.43
23.75 38.60 5.34
22.64 38.51 5.26
21.56 38.42 5.18
20.54 38.39 5.12
5.94 11.66 1.54
18.57 38.33 5.00
17.61 38.30 4.94
16.68 38.27 4.89
15.76 38.25 4.84
14.86 38.22 4.80
13.98 38.20 4.75
13.11 38.18 4.71
12.25 38.16 4.68
5.87 19.64 2.39
5.48 19.77 2.39
5.09 19.89 2.39
4.69 20.01 2.39
4.29 20.11 2.39
3.89 20.21 2.39
3.49 20.30 2.39
2.92 19.34 2.27
2.54 19.45 2.27
2.26 20.51 2.39
1.88 20.85 2.42
1.50 21.50 2.49
1.07 21.54 2.49
0.64 21.58 2.49
0.21 21.60 2.49
-0.23 21.61 2.49
-0.66 21.62 2.49
-1.09 21.61 2.49
-1.53 21.60 2.49
-1.96 21.58 2.49
-2.40 21.54 2.49
-2.83 21.50 2.49
-3.26 21.46 2.49
-3.69 21.40 2.49
-4.13 21.33 2.49
-4.55 21.25 2.49
-4.98 21.17 2.49
-5.41 21.07 2.49
-5.83 20.97 2.49
-6.17 20.57 2.46
-6.40 19.88 2.39
-6.80 19.76 2.39
-7.20 19.62 2.39
-7.59 19.48 2.39
-7.99 19.33 2.39
-8.37 19.18 2.39
-8.76 19.01 2.39
-9.14 18.84 2.39
-9.52 18.66 2.39
-9.90 18.47 2.39
-10.01 17.81 2.33
-10.00 16.99 2.25
-9.71 15.75 2.11
-10.14 15.74 2.13
-10.59 15.73 2.16
-11.05 15.72 2.19
-11.52 15.71 2.22
-10.94 14.32 2.05
-11.02 13.83 2.01
-13.01 15.68 2.32
-13.55 15.68 2.36
-13.99 15.54 2.38
-14.24 15.20 2.37
-14.49 14.86 2.36
-14.63 14.41 2.34
-14.74 13.95 2.31
-14.85 13.49 2.28
-14.96 13.06 2.26
-15.14 12.69 2.25
-15.35 12.35 2.24
-15.59 12.04 2.24
-15.83 11.72 2.24
-16.06 11.40 2.24
-16.28 11.07 2.24
-6.19 4.03 0.84
-15.72 9.79 2.11
-15.89 9.46 2.11
-16.05 9.13 2.10
-16.21 8.79 2.10
-16.36 8.45 2.10
-16.57 8.14 2.10
-17.41 8.13 2.19
-17.97 7.96 2.24
-18.12 7.59 2.24
-18.27 7.22 2.24
-18.40 6.85 2.24
-18.53 6.48 2.24
-18.65 6.11 2.24
-18.76 5.73 2.24
-18.86 5.35 2.24
-10.05 2.63 1.19
-10.11 2.43 1.19
-10.08 2.21 1.18
-10.11 2.01 1.18
-10.11 1.80 1.18
-10.11 1.59 1.17
-10.11 1.38 1.17
-10.05 1.17 1.16
-10.05 0.96 1.16
-10.04 0.76 1.16
-10.04 0.56 1.16
-10.04 0.36 1.16
-10.04 0.15 1.16
-10.04 -0.05 1.16
-10.04 -0.25 1.16
-10.04 -0.45 1.16
-10.03 -0.65 1.16
-10.03 -0.85 1.16
-10.09 -1.06 1.17
-10.09 -1.27 1.18
-10.09 -1.47 1.18
-10.05 -1.68 1.18
-10.05 -1.88 1.18
-10.08 -2.10 1.19
-10.08 -2.31 1.20
-10.08 -2.53 1.21
-10.05 -2.73 1.21
-10.04 -2.95 1.22
-10.08 -3.18 1.23
-10.08 -3.40 1.24
-10.07 -3.63 1.25
-10.04 -3.85 1.25
-10.07 -4.09 1.27
-10.07 -4.33 1.28
-10.07 -4.57 1.29
-10.03 -4.80 1.30
-10.06 -5.06 1.32
-10.06 -5.32 1.33
-10.06 -5.58 1.35
-10.03 -5.83 1.36
-10.06 -6.12 1.38
-10.06 -6.40 1.40
-9.52 -6.33 1.34
-9.42 -6.54 1.35
-9.27 -6.71 1.35
-14.68 -11.09 2.17
-14.32 -11.28 2.15
-14.14 -11.60 2.16
-13.96 -11.92 2.17
-13.76 -12.25 2.18
-13.57 -12.57 2.19
-13.36 -12.89 2.20
-13.61 -13.66 2.29
-13.36 -13.96 2.29
-13.14 -14.30 2.31
-12.92 -14.63 2.32
-12.69 -14.98 2.34
-12.45 -15.30 2.35
-12.18 -15.60 2.36
-11.91 -15.90 2.37
-11.63 -16.19 2.38
-11.35 -16.49 2.39
-11.06 -16.77 2.40
-10.72 -17.00 2.41
-10.37 -17.20 2.41
-10.02 -17.39 2.41
-9.59 -17.46 2.39
-9.23 -17.63 2.39
-8.87 -17.80 2.39
-8.50 -17.96 2.39
-8.13 -18.11 2.39
-7.76 -18.26 2.39
-7.39 -18.40 2.39
-7.01 -18.53 2.39
-6.63 -18.65 2.39
-6.25 -18.77 2.39
-5.91 -18.99 2.41
-5.72 -19.79 2.49
-5.32 -19.89 2.49
-4.92 -19.98 2.49
-4.51 -20.06 2.49
-4.11 -20.13 2.49
-3.70 -20.19 2.49
-3.29 -20.25 2.49
-2.88 -20.30 2.49
-2.47 -20.34 2.49
-2.06 -20.37 2.49
-1.65 -20.39 2.49
-1.24 -20.41 2.49
-0.83 -20.42 2.49
-0.42 -20.42 2.49
-0.01 -17.19 2.49
0.34 -17.17 2.49
0.68 -17.16 2.49
1.02 -17.13 2.49
1.37 -17.10 2.49
1.71 -17.06 2.49
2.05 -17.01 2.49
2.29 -16.26 2.39
2.49 -15.40 2.27
2.89 -15.88 2.35
3.10 -15.25 2.27
2.48 -11.05 1.65
3.90 -15.92 2.39
4.22 -15.83 2.39
4.54 -15.73 2.39
4.85 -15.63 2.39
5.16 -15.53 2.39
5.47 -15.42 2.39
5.78 -15.30 2.39
6.08 -15.18 2.39
7.21 -17.00 2.70
7.74 -17.26 2.77
8.69 -18.39 2.98
9.61 -19.32 3.16
10.12 -19.37 3.20
6.08 -11.08 1.85
11.19 -19.46 3.29
6.06 -10.08 1.72
12.33 -19.59 3.39
12.93 -19.65 3.45
6.06 -8.81 1.57
14.67 -20.46 3.69
16.02 -21.42 3.92
5.93 9.23 1.54
5.95 10.12 1.65
23.81 42.45 6.84
20.05 41.40 6.45
5.92 12.87 1.98
18.55 42.58 6.50
5.90 15.18 2.28
5.88 16.06 2.39
5.56 16.19 2.39
5.23 16.31 2.39
4.91 16.42 2.39
4.58 16.53 2.39
4.25 16.62 2.39
3.92 16.72 2.39
3.58 16.80 2.39
3.25 16.88 2.39
2.85 16.59 2.34
2.53 16.74 2.35
2.23 17.08 2.39
1.91 17.28 2.41
1.61 17.91 2.49
1.25 17.95 2.49
0.89 17.98 2.49
0.53 18.01 2.49
0.17 18.03 2.49
-0.19 18.03 2.49
-0.55 18.04 2.49
-0.91 18.03 2.49
-1.28 18.02 2.49
-1.64 18.00 2.49
-2.00 17.97 2.49
-2.36 17.93 2.49
-2.72 17.89 2.49
-3.08 17.84 2.49
-3.44 17.78 2.49
-3.80 17.72 2.49
-4.15 17.65 2.49
-4.51 17.57 2.49
-4.86 17.48 2.49
-5.21 17.38 2.49
-5.56 17.28 2.49
-5.91 17.17 2.49
-6.14 16.75 2.45
-6.35 16.29 2.40
-6.65 16.11 2.39
-6.98 15.98 2.39
-7.30 15.84 2.39
-7.62 15.69 2.39
-7.93 15.54 2.39
-8.24 15.38 2.39
-8.55 15.22 2.39
-8.86 15.05 2.39
-9.16 14.87 2.39
-9.46 14.68 2.39
-9.75 14.49 2.39
-10.04 14.30 2.39
-10.40 14.19 2.41
-10.68 13.98 2.41
-10.96 13.76 2.41
-11.24 13.54 2.41
-11.51 13.32 2.41
-11.77 13.08 2.41
-10.92 11.66 2.18
-10.92 11.20 2.14
-11.23 11.06 2.15
-12.34 11.68 2.32
-12.50 11.36 2.31
-12.66 11.05 2.30
-12.81 10.74 2.28
-12.66 10.18 2.22
-12.81 9.89 2.21
-12.96 9.59 2.20
-13.10 9.30 2.20
-13.23 9.00 2.19
-6.19 4.03 1.01
-13.49 8.41 2.17
-13.69 8.15 2.18
-14.25 8.10 2.24
-14.40 7.81 2.24
-14.55 7.52 2.24
-14.70 7.23 2.24
-14.84 6.93 2.24
-14.97 6.63 2.24
-15.10 6.32 2.24
-15.22 6.02 2.24
-15.33 5.71 2.24
-15.44 5.40 2.24
-15.54 5.09 2.24
-15.63 4.77 2.24
-15.72 4.46 2.24
-10.05 2.63 1.43
-10.11 2.43 1.43
-10.08 2.21 1.42
-10.11 2.01 1.42
-10.11 1.80 1.41
-10.11 1.59 1.41
-10.11 1.38 1.40
-10.07 1.17 1.40
-10.07 0.97 1.39
-10.10 0.77 1.40
-10.10 0.56 1.39
-10.07 0.36 1.39
-10.07 0.16 1.39
-10.10 -0.05 1.39
-10.10 -0.25 1.39
-10.10 -0.45 1.40
-10.09 -0.65 1.40
-10.06 -0.86 1.40
-10.09 -1.06 1.40
-10.09 -1.27 1.41
-10.09 -1.47 1.41
-10.05 -1.67 1.41
-10.05 -1.88 1.42
-10.08 -2.10 1.43
-10.08 -2.31 1.44
-10.08 -2.52 1.44
-10.05 -2.73 1.45
-10.04 -2.95 1.46
-10.08 -3.18 1.47
-10.08 -3.40 1.48
-10.07 -3.63 1.49
-10.04 -3.84 1.50
-10.07 -4.09 1.52
-10.07 -4.33 1.53
-10.07 -4.57 1.55
-10.03 -4.80 1.56
-10.06 -5.06 1.58
-10.06 -5.32 1.59
-10.06 -5.58 1.61
-10.03 -5.82 1.63
-10.06 -6.12 1.65
-10.06 -6.39 1.67
-9.41 -6.25 1.59
-9.16 -6.35 1.57
-9.16 -6.63 1.59
-13.17 -9.94 2.32
-12.96 -10.20 2.32
-12.75 -10.45 2.32
-12.54 -10.71 2.33
-12.33 -10.97 2.33
-11.98 -11.10 2.31
-11.64 -11.23 2.29
-11.46 -11.50 2.30
-11.27 -11.77 2.31
-11.08 -12.05 2.32
-10.88 -12.32 2.33
-10.67 -12.58 2.34
-10.46 -12.85 2.35
-10.25 -13.12 2.37
-10.15 -13.54 2.41
-9.80 -13.64 2.39
-9.52 -13.82 2.39
-9.23 -14.00 2.39
-8.94 -14.18 2.39
-8.65 -14.34 2.39
-8.35 -14.50 2.39
-8.06 -14.66 2.39
-7.75 -14.81 2.39
-7.45 -14.95 2.39
-7.14 -15.09 2.39
-6.84 -15.22 2.39
-6.52 -15.34 2.39
-6.21 -15.46 2.39
-5.93 -15.67 2.41
-5.82 -16.35 2.49
-5.49 -16.45 2.49
-5.15 -16.55 2.49
-4.81 -16.64 2.49
-4.48 -16.72 2.49
-4.14 -16.80 2.49
-3.80 -16.87 2.49
-3.46 -16.93 2.49
-3.11 -16.99 2.49
-2.77 -17.04 2.49
-2.43 -17.08 2.49
-2.08 -17.12 2.49
-1.74 -17.14 2.49
-1.39 -17.17 2.49
-1.05 -17.18 2.49
-0.70 -17.19 2.49
-0.35 -17.19 2.49
-0.01 -14.83 2.49
0.29 -14.82 2.49
0.59 -14.80 2.49
0.88 -14.78 2.49
1.18 -14.76 2.49
1.47 -14.72 2.49
1.77 -14.68 2.49
2.06 -14.64 2.49
2.26 -13.99 2.39
2.47 -13.53 2.32
2.77 -13.65 2.35
2.47 -11.04 1.91
3.37 -13.74 2.39
3.64 -13.67 2.39
3.92 -13.59 2.39
4.19 -13.50 2.39
4.46 -13.41 2.39
4.72 -13.31 2.39
4.99 -13.21 2.39
5.25 -13.11 2.39
5.51 -13.00 2.39
5.77 -12.88 2.39
6.03 -12.76 2.39
7.78 -15.64 2.96
8.33 -15.94 3.05
8.97 -16.35 3.16
9.55 -16.62 3.25
6.06 -10.08 1.99
10.33 -16.41 3.29
6.07 -9.22 1.87
6.08 -8.85 1.82
11.71 -16.33 3.41
6.05 -8.09 1.71
6.06 -7.77 1.67
13.30 -16.37 3.58
14.20 -16.78 3.73
6.04 -6.85 1.55
5.96 7.20 1.54
5.95 7.48 1.57
5.95 7.81 1.61
5.95 8.13 1.65
24.34 41.43 7.86
5.95 10.60 1.99
20.04 41.40 7.51
19.02 41.39 7.43
5.85 13.44 2.39
5.59 13.56 2.39
5.32 13.68 2.39
5.04 13.79 2.39
4.77 13.90 2.39
4.49 14.00 2.39
4.21 14.09 2.39
3.93 14.18 2.39
3.65 14.27 2.39
3.36 14.34 2.39
2.92 13.68 2.27
2.79 14.48 2.39
2.50 14.54 2.39
2.20 14.60 2.39
1.92 14.74 2.41
1.69 15.32 2.49
1.38 15.36 2.49
1.07 15.39 2.49
0.76 15.42 2.49
0.46 15.44 2.49
0.15 15.45 2.49
-0.16 15.46 2.49
-0.47 15.46 2.49
-0.78 15.45 2.49
-1.10 15.44 2.49
-1.41 15.42 2.49
-1.72 15.40 2.49
-2.02 15.37 2.49
-2.33 15.33 2.49
-2.64 15.29 2.49
-2.95 15.24 2.49
-3.26 15.18 2.49
-3.56 15.12 2.49
-3.86 15.05 2.49
-4.17 14.97 2.49
-4.47 14.89 2.49
-4.77 14.80 2.49
-5.06 14.71 2.49
-5.36 14.61 2.49
-5.65 14.50 2.49
-5.94 14.39 2.49
-6.12 14.02 2.45
-6.25 13.56 2.39
-6.52 13.43 2.39
-6.79 13.30 2.39
-7.06 13.17 2.39
-7.32 13.03 2.39
-7.58 12.88 2.39
-7.84 12.73 2.39
-8.10 12.57 2.39
-8.35 12.41 2.39
-8.60 12.24 2.39
-8.84 12.06 2.39
-9.08 11.89 2.39
-9.32 11.70 2.39
-9.55 11.51 2.39
-9.78 11.32 2.39
-10.01 11.12 2.39
-10.30 10.99 2.41
-10.52 10.79 2.41
-10.73 10.57 2.41
-10.65 10.07 2.34
-10.80 9.82 2.33
-10.95 9.56 2.32
-11.10 9.31 2.31
-11.24 9.05 2.31
-11.38 8.79 2.30
-11.52 8.53 2.29
-11.65 8.27 2.28
-11.98 8.15 2.31
-6.19 4.03 1.18
-10.89 6.78 2.05
-10.89 6.48 2.03
-10.91 6.20 2.01
-12.58 6.83 2.29
-12.69 6.56 2.28
-12.81 6.30 2.28
-12.93 6.04 2.28
-13.04 5.77 2.28
-13.14 5.51 2.28
-11.22 4.44 1.93
-13.39 4.99 2.29
-13.51 4.73 2.29
-13.59 4.45 2.29
-13.66 4.17 2.29
-13.73 3.89 2.29
-10.05 2.63 1.66
-10.10 2.43 1.67
-10.08 2.21 1.66
-10.11 2.01 1.65
-10.11 1.80 1.65
-10.11 1.59 1.64
-10.11 1.38 1.64
-10.07 1.17 1.63
-10.07 0.97 1.63
-10.10 0.77 1.63
-10.10 0.56 1.63
-10.07 0.36 1.62
-10.07 0.16 1.62
-10.10 -0.05 1.63
-10.10 -0.25 1.63
-10.10 -0.45 1.63
-10.09 -0.65 1.63
-10.06 -0.85 1.63
-10.09 -1.06 1.64
-10.09 -1.27 1.64
-10.09 -1.47 1.65
-10.05 -1.67 1.65
-10.05 -1.88 1.65
-10.08 -2.10 1.67
-10.08 -2.31 1.67
-10.08 -2.52 1.68
-10.05 -2.73 1.69
-10.04 -2.95 1.70
-10.08 -3.18 1.71
-10.08 -3.40 1.73
-10.07 -3.63 1.74
-10.04 -3.84 1.75
-10.07 -4.09 1.77
-10.07 -4.33 1.78
-10.07 -4.57 1.80
-10.03 -4.80 1.81
-10.06 -5.06 1.84
-10.06 -5.32 1.86
-10.06 -5.58 1.88
-10.03 -5.82 1.89
-10.06 -6.11 1.92
-10.06 -6.39 1.95
-9.43 -6.27 1.85
-9.17 -6.36 1.83
-9.17 -6.64 1.85
-11.62 -8.77 2.39
-11.46 -9.02 2.39
-11.30 -9.26 2.40
-11.13 -9.50 2.40
-10.95 -9.74 2.41
-10.74 -9.95 2.41
-10.53 -10.15 2.41
-10.32 -10.36 2.41
-10.11 -10.56 2.41
-9.82 -10.68 2.39
-9.60 -10.87 2.39
-9.37 -11.05 2.39
-9.14 -11.23 2.39
-8.91 -11.40 2.39
-8.67 -11.57 2.39
-8.43 -11.74 2.39
-8.19 -11.90 2.39
-7.95 -12.05 2.39
-7.70 -12.20 2.39
-7.45 -12.35 2.39
-7.19 -12.49 2.39
-6.94 -12.62 2.39
-6.68 -12.75 2.39
-6.42 -12.87 2.39
-6.16 -12.99 2.39
-5.95 -13.23 2.41
-5.86 -13.79 2.49
-5.58 -13.89 2.49
-5.30 -13.99 2.49
-5.02 -14.09 2.49
-4.73 -14.18 2.49
-4.44 -14.26 2.49
-4.15 -14.34 2.49
-3.86 -14.41 2.49
-3.57 -14.48 2.49
-3.28 -14.54 2.49
-2.98 -14.60 2.49
-2.69 -14.65 2.49
-2.39 -14.69 2.49
-2.09 -14.73 2.49
-1.80 -14.76 2.49
-1.50 -14.79 2.49
-1.20 -14.81 2.49
-0.90 -14.82 2.49
-0.60 -14.83 2.49
-0.31 -14.83 2.49
-0.01 -13.03 2.49
0.25 -13.02 2.49
0.51 -13.01 2.49
0.77 -12.99 2.49
1.04 -12.97 2.49
1.29 -12.94 2.49
1.55 -12.90 2.49
1.81 -12.87 2.49
2.07 -12.82 2.49
2.23 -12.25 2.39
2.47 -12.20 2.39
2.47 -11.04 2.17
2.96 -12.08 2.39
3.20 -12.01 2.39
3.44 -11.94 2.39
3.68 -11.87 2.39
3.92 -11.79 2.39
4.15 -11.71 2.39
4.38 -11.62 2.39
4.62 -11.52 2.39
4.85 -11.43 2.39
5.07 -11.32 2.39
5.30 -11.22 2.39
5.52 -11.11 2.39
5.74 -10.99 2.39
5.96 -10.87 2.39
7.22 -12.56 2.79
6.06 -10.08 2.27
8.96 -14.23 3.24
9.50 -14.44 3.33
9.82 -14.30 3.35
10.15 -14.15 3.36
6.05 -8.09 1.95
10.78 -13.83 3.38
11.10 -13.66 3.40
11.42 -13.49 3.41
11.88 -13.47 3.47
6.05 -6.59 1.73
12.81 -13.40 3.58
6.04 -6.07 1.65
14.28 -13.78 3.83
15.31 -14.20 4.03
6.03 -5.37 1.56
6.05 -5.18 1.54
5.96 5.65 1.55
5.96 5.88 1.57
5.95 7.81 1.84
5.95 9.27 2.06
5.93 10.10 2.19
5.93 10.58 2.27
6.96 13.01 2.75
5.81 11.42 2.39
5.58 11.54 2.39
5.35 11.65 2.39
5.12 11.77 2.39
4.89 11.87 2.39
4.65 11.97 2.39
4.41 12.07 2.39
4.17 12.16 2.39
3.93 12.25 2.39
3.68 12.33 2.39
3.44 12.41 2.39
3.19 12.48 2.39
2.88 12.29 2.34
2.64 12.40 2.35
2.31 12.02 2.27
2.18 12.72 2.39
1.94 12.84 2.40
1.74 13.36 2.49
1.48 13.40 2.49
1.21 13.43 2.49
0.94 13.46 2.49
0.67 13.48 2.49
0.40 13.50 2.49
0.13 13.51 2.49
-0.14 13.52 2.49
-0.42 13.52 2.49
-0.69 13.51 2.49
-0.96 13.50 2.49
-1.23 13.48 2.49
-1.50 13.46 2.49
-1.77 13.43 2.49
-2.04 13.40 2.49
-2.31 13.36 2.49
-2.58 13.31 2.49
-2.85 13.26 2.49
-3.11 13.21 2.49
-3.38 13.15 2.49
-3.64 13.08 2.49
-3.90 13.01 2.49
-4.17 12.93 2.49
-4.42 12.85 2.49
-4.68 12.76 2.49
-4.94 12.67 2.49
-5.19 12.57 2.49
-5.45 12.46 2.49
-5.70 12.36 2.49
-5.94 12.24 2.49
-6.11 11.97 2.46
-6.17 11.50 2.39
-6.40 11.38 2.39
-6.62 11.25 2.39
-6.85 11.12 2.39
-7.07 10.98 2.39
-7.29 10.83 2.39
-7.51 10.69 2.39
-7.72 10.54 2.39
-7.93 10.38 2.39
-8.14 10.22 2.39
-8.34 10.06 2.39
-8.54 9.89 2.39
-8.74 9.71 2.39
-8.94 9.54 2.39
-9.12 9.36 2.39
-9.31 9.17 2.39
-9.49 8.98 2.39
-9.67 8.79 2.39
-9.85 8.59 2.39
-9.98 8.37 2.38
-10.11 8.14 2.37
-10.41 8.04 2.41
-10.57 7.83 2.41
-10.73 7.62 2.41
-10.88 7.40 2.41
-6.15 4.01 1.34
-6.32 3.94 1.36
-10.91 6.50 2.32
-10.95 6.23 2.30
-11.47 6.22 2.39
-11.57 5.98 2.38
-11.66 5.73 2.38
-11.75 5.49 2.37
-11.83 5.24 2.37
-11.91 4.99 2.37
-10.87 4.30 2.14
-10.87 4.05 2.13
-10.87 3.80 2.11
-10.87 3.56 2.10
-11.23 3.43 2.15
-12.30 3.49 2.35
-10.05 2.63 1.91
-10.10 2.43 1.91
-10.08 2.21 1.89
-10.11 2.01 1.89
-10.11 1.80 1.89
-10.11 1.59 1.88
-10.11 1.38 1.88
-10.07 1.17 1.86
-10.07 0.97 1.86
-10.10 0.77 1.86
-10.10 0.56 1.86
-10.07 0.36 1.85
-10.07 0.16 1.85
-10.10 -0.04 1.86
-10.10 -0.25 1.86
-10.10 -0.45 1.86
-10.09 -0.65 1.87
-10.06 -0.85 1.86
-10.09 -1.06 1.87
-10.09 -1.27 1.88
-10.09 -1.47 1.88
-10.05 -1.67 1.88
-10.05 -1.88 1.89
-10.08 -2.10 1.91
-10.08 -2.31 1.91
-10.08 -2.52 1.92
-10.05 -2.73 1.93
-10.04 -2.95 1.94
-10.08 -3.18 1.96
-10.08 -3.40 1.97
-10.07 -3.63 1.99
-10.04 -3.84 2.00
-10.07 -4.09 2.02
-10.07 -4.32 2.04
-10.07 -4.57 2.06
-10.03 -4.79 2.07
-10.06 -5.06 2.10
-10.06 -5.31 2.12
-10.06 -5.57 2.14
-10.03 -5.82 2.16
-10.06 -6.11 2.20
-10.06 -6.39 2.22
-9.46 -6.28 2.12
-9.18 -6.36 2.09
-9.18 -6.64 2.12
-10.27 -7.75 2.41
-10.10 -7.95 2.41
-9.87 -8.09 2.39
-9.70 -8.28 2.39
-9.53 -8.47 2.39
-9.35 -8.66 2.39
-9.17 -8.84 2.39
-8.99 -9.02 2.39
-8.80 -9.19 2.39
-8.61 -9.36 2.39
-8.41 -9.52 2.39
-8.22 -9.69 2.39
-8.02 -9.84 2.39
-7.81 -10.00 2.39
-7.61 -10.15 2.39
-7.40 -10.29 2.39
-7.19 -10.43 2.39
-6.97 -10.57 2.39
-6.75 -10.70 2.39
-6.53 -10.83 2.39
-6.31 -10.95 2.39
-6.09 -11.07 2.39
-5.96 -11.37 2.43
-5.88 -11.78 2.49
-5.63 -11.89 2.49
-5.39 -12.00 2.49
-5.15 -12.10 2.49
-4.90 -12.19 2.49
-4.65 -12.28 2.49
-4.40 -12.37 2.49
-4.15 -12.45 2.49
-3.90 -12.52 2.49
-3.65 -12.59 2.49
-3.39 -12.65 2.49
-3.13 -12.71 2.49
-2.88 -12.77 2.49
-2.62 -12.82 2.49
-2.36 -12.86 2.49
-2.10 -12.90 2.49
-1.84 -12.93 2.49
-1.58 -12.96 2.49
-1.32 -12.99 2.49
-1.06 -13.01 2.49
-0.79 -13.02 2.49
-0.53 -13.03 2.49
-0.27 -13.03 2.49
-0.01 -11.60 2.49
0.22 -11.60 2.49
0.46 -11.59 2.49
0.69 -11.57 2.49
0.92 -11.55 2.49
1.15 -11.53 2.49
1.38 -11.50 2.49
1.61 -11.47 2.49
1.84 -11.43 2.49
2.07 -11.38 2.49
2.20 -10.87 2.39
2.42 -10.82 2.39
2.64 -10.77 2.39
2.85 -10.71 2.39
3.07 -10.65 2.39
3.28 -10.58 2.39
3.49 -10.51 2.39
3.70 -10.43 2.39
3.91 -10.36 2.39
4.11 -10.27 2.39
4.32 -10.19 2.39
4.52 -10.09 2.39
4.72 -10.00 2.39
4.92 -9.90 2.39
5.12 -9.80 2.39
5.31 -9.69 2.39
5.51 -9.58 2.39
5.70 -9.47 2.39
5.89 -9.35 2.39
6.07 -9.23 2.39
7.11 -10.34 2.72
6.07 -8.46 2.25
6.05 -8.09 2.19
6.06 -7.77 2.13
9.72 -11.97 3.34
9.99 -11.80 3.35
6.06 -6.87 1.98
10.52 -11.46 3.37
10.77 -11.27 3.38
6.04 -6.07 1.85
11.28 -10.89 3.40
11.65 -10.80 3.44
12.06 -10.74 3.50
12.47 -10.66 3.55
12.88 -10.57 3.61
13.29 -10.47 3.66
14.86 -11.23 4.03
6.02 -4.18 1.59
6.02 -4.01 1.57
6.02 -3.83 1.55
45.60 -3.87 9.86
43.13 -2.79 9.31
42.59 -1.90 9.18
42.43 -1.04 9.14
43.10 -0.19 9.27
43.78 0.69 9.42
43.60 2.44 9.39
5.98 4.07 1.54
5.97 4.24 1.56
5.97 4.43 1.58
5.97 5.43 1.71
5.96 5.88 1.77
5.95 7.81 2.07
14.98 20.49 5.35
7.09 10.56 2.68
6.93 10.78 2.70
4.68 7.62 1.88
4.53 7.71 1.88
4.38 7.81 1.88
5.36 10.04 2.39
5.16 10.15 2.39
4.96 10.25 2.39
4.76 10.35 2.39
4.55 10.45 2.39
4.34 10.55 2.39
4.13 10.64 2.39
3.92 10.72 2.39
3.70 10.80 2.39
3.49 10.88 2.39
3.27 10.95 2.39
2.90 10.47 2.27
2.78 10.90 2.35
2.57 10.96 2.35
2.30 10.80 2.30
2.16 11.25 2.39
1.95 11.36 2.40
1.78 11.83 2.49
1.55 11.86 2.49
1.31 11.90 2.49
1.07 11.93 2.49
0.83 11.95 2.49
0.59 11.97 2.49
0.35 11.98 2.49
0.11 11.99 2.49
-0.13 12.00 2.49
-0.37 11.99 2.49
-0.61 11.99 2.49
-0.85 11.98 2.49
-1.09 11.96 2.49
-1.33 11.94 2.49
-1.57 11.92 2.49
-1.81 11.89 2.49
-2.05 11.85 2.49
-2.29 11.81 2.49
-2.52 11.77 2.49
-2.76 11.72 2.49
-3.00 11.66 2.49
-3.23 11.60 2.49
-3.46 11.54 2.49
-3.70 11.47 2.49
-3.93 11.40 2.49
-4.15 11.32 2.49
-4.38 11.23 2.49
-4.61 11.15 2.49
-4.83 11.05 2.49
-5.05 10.96 2.49
-5.27 10.86 2.49
-5.49 10.75 2.49
-5.70 10.64 2.49
-5.92 10.52 2.49
-6.10 10.36 2.48
-6.11 9.91 2.40
-6.27 9.73 2.39
-6.47 9.61 2.39
-6.66 9.48 2.39
-6.85 9.34 2.39
-7.03 9.20 2.39
-7.22 9.06 2.39
-7.40 8.92 2.39
-7.58 8.77 2.39
-7.75 8.61 2.39
-7.92 8.46 2.39
-8.09 8.30 2.39
-8.26 8.13 2.39
-8.42 7.96 2.39
-8.58 7.79 2.39
-8.73 7.62 2.39
-8.88 7.44 2.39
-9.03 7.26 2.39
-9.17 7.08 2.39
-9.31 6.90 2.39
-9.45 6.71 2.39
-9.58 6.52 2.39
-6.15 4.01 1.52
-6.31 3.93 1.53
-9.95 5.93 2.39
-10.07 5.73 2.39
-10.25 5.56 2.41
-10.35 5.35 2.41
-10.46 5.14 2.41
-10.56 4.93 2.41
-10.65 4.72 2.41
-10.74 4.50 2.41
-10.83 4.28 2.41
-10.90 4.06 2.40
-10.89 3.81 2.39
-10.89 3.57 2.37
-11.12 3.40 2.41
-11.18 3.17 2.40
-10.05 2.63 2.15
-10.10 2.43 2.15
-10.08 2.22 2.14
-10.11 2.01 2.13
-10.11 1.80 2.13
-10.11 1.59 2.12
-10.11 1.38 2.11
-10.07 1.17 2.10
-10.07 0.97 2.10
-10.10 0.77 2.10
-10.10 0.56 2.10
-10.07 0.36 2.09
-10.07 0.16 2.09
-10.10 -0.04 2.10
-10.10 -0.25 2.10
-10.10 -0.45 2.10
-10.09 -0.65 2.10
-10.06 -0.85 2.10
-10.09 -1.06 2.11
-10.09 -1.26 2.12
-10.09 -1.47 2.12
-10.05 -1.67 2.12
-10.05 -1.88 2.13
-10.08 -2.10 2.15
-10.08 -2.31 2.16
-10.08 -2.52 2.17
-10.05 -2.73 2.17
-10.04 -2.94 2.19
-10.08 -3.18 2.21
-10.08 -3.40 2.22
-10.07 -3.62 2.24
-10.04 -3.84 2.25
-10.07 -4.09 2.27
-10.07 -4.32 2.29
-10.07 -4.56 2.31
-10.03 -4.79 2.33
-10.06 -5.06 2.36
-10.06 -5.31 2.39
-9.97 -5.52 2.39
-9.85 -5.72 2.39
-9.73 -5.91 2.39
-9.60 -6.10 2.39
-9.47 -6.29 2.39
-9.19 -6.37 2.35
-9.21 -6.66 2.39
-9.07 -6.84 2.39
-8.92 -7.02 2.39
-8.78 -7.19 2.39
-8.62 -7.36 2.39
-8.47 -7.53 2.39
-8.31 -7.69 2.39
-8.15 -7.86 2.39
-7.99 -8.01 2.39
-7.82 -8.17 2.39
-7.66 -8.32 2.39
-7.48 -8.47 2.39
-7.31 -8.61 2.39
-7.13 -8.75 2.39
-6.95 -8.89 2.39
-6.77 -9.02 2.39
-6.58 -9.15 2.39
-6.39 -9.28 2.39
-6.20 -9.40 2.39
-6.01 -9.52 2.39
-5.96 -9.88 2.45
-5.86 -10.16 2.49
-5.65 -10.28 2.49
-5.44 -10.38 2.49
-5.23 -10.48 2.49
-5.02 -10.58 2.49
-4.80 -10.68 2.49
-4.58 -10.77 2.49
-4.36 -10.85 2.49
-4.14 -10.93 2.49
-3.92 -11.01 2.49
-3.70 -11.08 2.49
-3.47 -11.15 2.49
-3.25 -11.21 2.49
-3.02 -11.27 2.49
-2.79 -11.32 2.49
-2.56 -11.37 2.49
-2.33 -11.41 2.49
-2.10 -11.45 2.49
-1.87 -11.49 2.49
-1.64 -11.52 2.49
-1.41 -11.55 2.49
-1.17 -11.57 2.49
-0.94 -11.58 2.49
-0.71 -11.60 2.49
-0.48 -11.60 2.49
-0.24 -11.61 2.49
-0.01 -10.45 2.49
0.20 -10.45 2.49
0.41 -10.44 2.49
0.62 -10.42 2.49
0.83 -10.41 2.49
1.04 -10.39 2.49
1.25 -10.36 2.49
1.45 -10.33 2.49
1.66 -10.30 2.49
1.87 -10.26 2.49
2.07 -10.22 2.49
2.18 -9.75 2.39
2.38 -9.70 2.39
2.57 -9.65 2.39
2.76 -9.59 2.39
2.95 -9.53 2.39
3.14 -9.47 2.39
3.33 -9.40 2.39
3.52 -9.33 2.39
3.71 -9.26 2.39
3.89 -9.18 2.39
4.07 -9.10 2.39
4.26 -9.01 2.39
4.44 -8.92 2.39
4.61 -8.83 2.39
4.79 -8.74 2.39
4.96 -8.64 2.39
5.14 -8.53 2.39
5.30 -8.43 2.39
5.47 -8.32 2.39
5.64 -8.21 2.39
5.80 -8.09 2.39
5.96 -7.97 2.39
6.97 -8.93 2.72
7.06 -8.69 2.69
6.06 -7.16 2.25
7.24 -8.21 2.63
8.11 -8.84 2.88
9.46 -9.90 3.29
6.04 -6.07 2.06
9.91 -9.57 3.31
10.13 -9.40 3.32
10.36 -9.23 3.33
10.59 -9.06 3.35
10.81 -8.88 3.36
11.03 -8.69 3.37
11.25 -8.50 3.39
11.53 -8.36 3.42
6.02 -4.18 1.76
12.20 -8.12 3.52
12.54 -7.98 3.57
6.03 -3.67 1.70
13.19 -7.67 3.66
15.04 -8.34 4.13
28.89 -15.28 7.84
29.67 -14.94 7.97
30.11 -14.41 8.01
30.53 -13.86 8.05
6.01 -2.59 1.57
6.01 -2.44 1.56
6.01 -2.30 1.54
6.03 -2.17 1.54
31.51 -10.64 7.97
31.67 -9.99 7.96
31.77 -9.33 7.93
32.03 -8.71 7.95
32.32 -8.09 7.98
32.60 -7.47 8.01
33.02 -6.87 8.08
33.55 -6.28 8.17
34.10 -5.68 8.27
34.73 -5.07 8.40
35.88 -4.50 8.65
37.94 -3.99 9.12
38.70 -3.28 9.29
39.28 -2.54 9.41
39.76 -1.77 9.51
40.03 -0.97 9.57
40.57 -0.17 9.69
41.15 0.65 9.83
42.18 1.52 10.08
42.74 2.40 10.21
43.05 3.28 10.30
5.98 2.51 1.54
5.98 2.65 1.55
5.98 2.80 1.56
5.98 2.94 1.58
22.82 11.82 6.09
22.65 12.31 6.10
42.15 24.02 11.48
5.98 3.57 1.65
39.87 24.90 11.11
5.97 3.90 1.68
39.92 27.22 11.41
5.97 4.43 1.76
38.20 29.56 11.39
5.97 5.02 1.84
5.96 5.88 1.97
33.12 34.05 11.17
20.19 22.49 7.10
7.09 8.92 2.67
5.95 7.81 2.30
4.73 6.48 1.88
4.61 6.57 1.88
4.47 6.67 1.88
4.35 6.77 1.88
4.33 7.04 1.93
4.33 7.37 2.00
5.00 8.92 2.39
4.82 9.02 2.39
4.64 9.12 2.39
4.46 9.22 2.39
4.27 9.31 2.39
4.09 9.39 2.39
3.90 9.48 2.39
3.71 9.56 2.39
3.52 9.64 2.39
3.33 9.71 2.39
2.97 9.28 2.27
2.89 9.67 2.35
2.70 9.74 2.35
2.41 9.45 2.27
2.31 9.86 2.35
2.14 10.06 2.39
1.96 10.18 2.41
1.81 10.58 2.49
1.60 10.62 2.49
1.39 10.66 2.49
1.17 10.69 2.49
0.96 10.71 2.49
0.75 10.73 2.49
0.53 10.75 2.49
0.31 10.76 2.49
0.10 10.77 2.49
-0.12 10.77 2.49
-0.33 10.77 2.49
-0.55 10.77 2.49
-0.77 10.76 2.49
-0.98 10.74 2.49
-1.20 10.72 2.49
-1.41 10.70 2.49
-1.63 10.67 2.49
-1.84 10.64 2.49
-2.05 10.60 2.49
-2.27 10.56 2.49
-2.48 10.52 2.49
-2.69 10.47 2.49
-2.90 10.42 2.49
-3.11 10.36 2.49
-3.32 10.30 2.49
-3.52 10.23 2.49
-3.73 10.16 2.49
-3.93 10.08 2.49
-4.14 10.00 2.49
-4.34 9.92 2.49
-4.53 9.83 2.49
-4.73 9.74 2.49
-4.93 9.65 2.49
-5.12 9.55 2.49
-5.31 9.45 2.49
-5.50 9.34 2.49
-5.69 9.23 2.49
-5.87 9.11 2.49
-6.05 8.99 2.49
-6.09 8.67 2.44
-6.15 8.38 2.39
-6.31 8.26 2.39
-6.48 8.13 2.39
-6.64 8.00 2.39
-6.80 7.87 2.39
-6.96 7.73 2.39
-7.11 7.59 2.39
-7.26 7.44 2.39
-7.41 7.30 2.39
-7.55 7.15 2.39
-7.70 6.99 2.39
-7.83 6.84 2.39
-7.97 6.68 2.39
-8.10 6.52 2.39
-8.23 6.35 2.39
-8.36 6.19 2.39
-8.48 6.02 2.39
-8.60 5.85 2.39
-6.15 4.01 1.69
-6.30 3.93 1.71
-8.93 5.32 2.39
-9.03 5.14 2.39
-9.13 4.96 2.39
-9.23 4.77 2.39
-9.32 4.58 2.39
-9.41 4.40 2.39
-9.50 4.21 2.39
-9.58 4.01 2.39
-9.65 3.82 2.39
-9.73 3.63 2.39
-9.80 3.43 2.39
-9.86 3.23 2.39
-9.92 3.03 2.39
-9.98 2.83 2.39
-10.03 2.63 2.39
-10.10 2.43 2.39
-10.08 2.22 2.38
-10.11 2.01 2.38
-10.11 1.80 2.37
-10.11 1.59 2.36
-10.11 1.38 2.35
-10.07 1.17 2.34
-10.07 0.97 2.34
-10.10 0.77 2.34
-10.10 0.57 2.34
-10.07 0.36 2.33
-10.07 0.16 2.33
-10.10 -0.04 2.34
-10.10 -0.25 2.34
-10.10 -0.45 2.34
-10.09 -0.65 2.34
-10.06 -0.85 2.34
-10.09 -1.06 2.35
-10.09 -1.26 2.36
-10.09 -1.47 2.36
-10.05 -1.67 2.36
-10.05 -1.88 2.37
-10.08 -2.10 2.39
-10.08 -2.31 2.40
-9.99 -2.50 2.39
-9.93 -2.70 2.39
-9.87 -2.89 2.39
-9.81 -3.09 2.39
-9.74 -3.28 2.39
-9.67 -3.48 2.39
-9.59 -3.67 2.39
-9.51 -3.86 2.39
-9.43 -4.05 2.39
-9.34 -4.23 2.39
-9.25 -4.42 2.39
-9.16 -4.60 2.39
-9.06 -4.78 2.39
-8.96 -4.96 2.39
-8.85 -5.14 2.39
-8.74 -5.31 2.39
-8.63 -5.48 2.39
-8.52 -5.65 2.39
-8.40 -5.82 2.39
-8.28 -5.99 2.39
-8.15 -6.15 2.39
-8.02 -6.31 2.39
-7.89 -6.46 2.39
-7.76 -6.62 2.39
-7.62 -6.77 2.39
-7.48 -6.92 2.39
-7.33 -7.06 2.39
-7.19 -7.21 2.39
-7.04 -7.35 2.39
-6.89 -7.48 2.39
-6.73 -7.62 2.39
-6.57 -7.75 2.39
-6.41 -7.87 2.39
-6.25 -8.00 2.39
-6.09 -8.12 2.39
-5.98 -8.32 2.41
-5.97 -8.66 2.48
-5.82 -8.82 2.49
-5.64 -8.93 2.49
-5.46 -9.04 2.49
-5.27 -9.15 2.49
-5.09 -9.25 2.49
-4.90 -9.34 2.49
-4.71 -9.44 2.49
-4.52 -9.52 2.49
-4.32 -9.61 2.49
-4.13 -9.69 2.49
-3.93 -9.77 2.49
-3.73 -9.84 2.49
-3.53 -9.91 2.49
-3.33 -9.97 2.49
-3.13 -10.03 2.49
-2.92 -10.09 2.49
-2.72 -10.14 2.49
-2.51 -10.19 2.49
-2.31 -10.24 2.49
-2.10 -10.28 2.49
-1.89 -10.31 2.49
-1.69 -10.35 2.49
-1.48 -10.37 2.49
-1.27 -10.40 2.49
-1.06 -10.42 2.49
-0.85 -10.43 2.49
-0.64 -10.44 2.49
-0.43 -10.45 2.49
-0.22 -10.45 2.49
-0.01 -9.50 2.49
0.18 -9.50 2.49
0.37 -9.49 2.49
0.56 -9.48 2.49
0.75 -9.46 2.49
0.94 -9.44 2.49
1.13 -9.42 2.49
1.32 -9.39 2.49
1.51 -9.36 2.49
1.70 -9.32 2.49
1.88 -9.29 2.49
2.07 -9.24 2.49
2.16 -8.82 2.39
2.34 -8.77 2.39
2.51 -8.72 2.39
2.69 -8.67 2.39
2.86 -8.61 2.39
3.03 -8.55 2.39
3.20 -8.48 2.39
3.37 -8.42 2.39
3.54 -8.35 2.39
3.70 -8.27 2.39
3.87 -8.19 2.39
4.03 -8.11 2.39
4.19 -8.03 2.39
4.35 -7.94 2.39
4.51 -7.85 2.39
4.67 -7.76 2.39
4.82 -7.66 2.39
4.98 -7.56 2.39
5.13 -7.46 2.39
5.28 -7.36 2.39
5.42 -7.25 2.39
5.57 -7.14 2.39
5.71 -7.02 2.39
5.85 -6.91 2.39
5.98 -6.79 2.39
6.95 -7.57 2.71
7.02 -7.35 2.69
6.04 -6.07 2.26
7.18 -6.93 2.64
7.25 -6.72 2.61
8.18 -7.28 2.89
9.34 -7.99 3.25
9.54 -7.83 3.26
6.04 -4.76 2.03
9.91 -7.49 3.28
10.10 -7.32 3.29
6.02 -4.18 1.94
10.48 -6.97 3.32
10.67 -6.79 3.34
10.85 -6.60 3.35
11.03 -6.41 3.37
6.03 -3.34 1.82
11.41 -6.03 3.41
11.67 -5.87 3.45
11.93 -5.71 3.49
12.18 -5.53 3.53
12.43 -5.34 3.57
12.68 -5.15 3.61
12.92 -4.95 3.65
6.01 -2.17 1.69
13.68 -4.62 3.81
27.21 -8.58 7.52
27.65 -8.12 7.60
28.00 -7.61 7.65
28.37 -7.10 7.71
28.86 -6.61 7.80
29.35 -6.11 7.90
29.83 -5.58 7.99
30.34 -5.05 8.10
31.01 -4.52 8.25
31.71 -3.98 8.41
32.62 -3.43 8.63
33.60 -2.85 8.87
34.77 -2.24 9.16
6.00 -0.27 1.58
6.00 -0.15 1.58
6.00 -0.02 1.58
6.00 0.10 1.58
5.99 0.22 1.58
5.99 0.34 1.58
5.99 0.46 1.58
43.63 4.21 11.50
5.98 1.83 1.64
5.99 2.24 1.67
23.80 10.00 6.74
22.87 10.15 6.53
22.50 10.53 6.48
22.57 11.12 6.56
22.43 11.62 6.58
5.98 3.25 1.77
38.59 22.00 11.57
30.23 18.05 9.17
5.97 3.90 1.85
36.45 27.06 11.80
35.08 27.15 11.52
5.97 5.44 2.09
5.96 5.88 2.17
7.08 7.28 2.63
5.96 6.38 2.26
6.73 7.50 2.61
6.55 7.59 2.59
5.89 7.12 2.39
5.75 7.24 2.39
5.61 7.36 2.39
4.66 6.37 2.04
4.46 6.37 2.01
4.33 6.46 2.01
5.01 7.80 2.39
4.66 7.59 2.30
4.45 7.59 2.27
4.53 8.09 2.39
4.37 8.19 2.39
4.21 8.27 2.39
4.04 8.36 2.39
3.88 8.44 2.39
3.71 8.52 2.39
3.54 8.60 2.39
3.37 8.67 2.39
3.19 8.74 2.39
3.02 8.81 2.39
2.82 8.80 2.37
2.62 8.80 2.36
2.43 8.79 2.34
2.30 9.03 2.39
2.12 9.08 2.39
1.96 9.21 2.41
1.83 9.56 2.49
1.64 9.60 2.49
1.45 9.63 2.49
1.26 9.66 2.49
1.06 9.69 2.49
0.87 9.71 2.49
0.68 9.73 2.49
0.48 9.75 2.49
0.28 9.76 2.49
0.09 9.76 2.49
-0.11 9.77 2.49
-0.30 9.76 2.49
-0.50 9.76 2.49
-0.69 9.75 2.49
-0.89 9.74 2.49
-1.09 9.72 2.49
-1.28 9.70 2.49
-1.48 9.67 2.49
-1.67 9.64 2.49
-1.86 9.61 2.49
-2.06 9.57 2.49
-2.25 9.53 2.49
-2.44 9.49 2.49
-2.63 9.44 2.49
-2.82 9.39 2.49
-3.01 9.33 2.49
-3.19 9.27 2.49
-3.38 9.21 2.49
-3.56 9.14 2.49
-3.75 9.07 2.49
-3.93 8.99 2.49
-4.11 8.91 2.49
-4.29 8.83 2.49
-4.46 8.74 2.49
-4.64 8.65 2.49
-4.81 8.56 2.49
-4.98 8.46 2.49
-5.15 8.36 2.49
-5.32 8.26 2.49
-5.49 8.15 2.49
-5.65 8.04 2.49
-5.81 7.92 2.49
-5.97 7.81 2.49
-6.08 7.63 2.48
-6.09 7.33 2.42
-6.16 7.13 2.39
-6.30 7.00 2.39
-6.44 6.88 2.39
-6.58 6.74 2.39
-6.71 6.61 2.39
-6.84 6.48 2.39
-6.97 6.34 2.39
-7.10 6.20 2.39
-7.22 6.05 2.39
-7.34 5.91 2.39
-7.46 5.76 2.39
-7.57 5.61 2.39
-7.68 5.45 2.39
-7.79 5.30 2.39
-6.15 4.01 1.86
-6.29 3.92 1.88
-8.09 4.82 2.39
-8.19 4.66 2.39
-8.28 4.49 2.39
-8.36 4.32 2.39
-8.45 4.15 2.39
-8.53 3.98 2.39
-8.61 3.81 2.39
-8.68 3.64 2.39
-8.75 3.46 2.39
-8.81 3.29 2.39
-8.88 3.11 2.39
-8.94 2.93 2.39
-8.99 2.75 2.39
-9.04 2.57 2.39
-9.09 2.38 2.39
-9.14 2.20 2.39
-9.18 2.02 2.39
-9.21 1.83 2.39
-9.25 1.65 2.39
-9.27 1.46 2.39
-9.30 1.27 2.39
-9.32 1.09 2.39
-9.34 0.90 2.39
-9.35 0.71 2.39
-9.36 0.52 2.39
-9.37 0.34 2.39
-9.37 0.15 2.39
-9.37 -0.04 2.39
-9.36 -0.23 2.39
-9.36 -0.41 2.39
-9.34 -0.60 2.39
-9.33 -0.79 2.39
-9.31 -0.98 2.39
-9.28 -1.16 2.39
-9.25 -1.35 2.39
-9.22 -1.53 2.39
-9.19 -1.72 2.39
-9.15 -1.90 2.39
-9.10 -2.08 2.39
-9.06 -2.26 2.39
-9.01 -2.44 2.39
-8.95 -2.62 2.39
-8.89 -2.80 2.39
-8.83 -2.98 2.39
-8.77 -3.15 2.39
-8.70 -3.33 2.39
-8.63 -3.50 2.39
-8.55 -3.67 2.39
-8.48 -3.84 2.39
-8.39 -4.01 2.39
-8.31 -4.17 2.39
-8.22 -4.34 2.39
-8.13 -4.50 2.39
-8.03 -4.66 2.39
-7.93 -4.82 2.39
-7.83 -4.98 2.39
-7.73 -5.13 2.39
-7.62 -5.28 2.39
-7.51 -5.43 2.39
-7.40 -5.58 2.39
-7.28 -5.72 2.39
-7.16 -5.87 2.39
-7.04 -6.01 2.39
-6.91 -6.14 2.39
-6.79 -6.28 2.39
-6.66 -6.41 2.39
-6.52 -6.54 2.39
-6.39 -6.67 2.39
-6.25 -6.79 2.39
-6.11 -6.91 2.39
-5.99 -7.06 2.40
-5.98 -7.34 2.45
-5.92 -7.57 2.49
-5.77 -7.69 2.49
-5.61 -7.80 2.49
-5.45 -7.91 2.49
-5.29 -8.01 2.49
-5.12 -8.11 2.49
-4.96 -8.21 2.49
-4.79 -8.30 2.49
-4.62 -8.40 2.49
-4.45 -8.48 2.49
-4.28 -8.57 2.49
-4.10 -8.65 2.49
-3.93 -8.73 2.49
-3.75 -8.80 2.49
-3.57 -8.87 2.49
-3.39 -8.94 2.49
-3.21 -9.00 2.49
-3.03 -9.06 2.49
-2.84 -9.11 2.49
-2.66 -9.17 2.49
-2.47 -9.21 2.49
-2.29 -9.26 2.49
-2.10 -9.30 2.49
-1.91 -9.34 2.49
-1.72 -9.37 2.49
-1.53 -9.40 2.49
-1.34 -9.43 2.49
-1.15 -9.45 2.49
-0.96 -9.47 2.49
-0.77 -9.48 2.49
-0.58 -9.49 2.49
-0.39 -9.50 2.49
-0.20 -9.50 2.49
-0.01 -8.70 2.49
0.17 -8.69 2.49
0.34 -8.69 2.49
0.51 -8.68 2.49
0.69 -8.66 2.49
0.86 -8.64 2.49
1.04 -8.62 2.49
1.21 -8.60 2.49
1.38 -8.57 2.49
1.55 -8.54 2.49
1.72 -8.50 2.49
1.89 -8.47 2.49
2.06 -8.42 2.49
2.14 -8.03 2.39
2.30 -7.99 2.39
2.46 -7.94 2.39
2.48 -7.48 2.27
2.66 -7.51 2.29
2.83 -7.51 2.31
3.00 -7.50 2.33
3.07 -7.25 2.27
3.39 -7.58 2.39
3.54 -7.51 2.39
3.69 -7.43 2.39
3.84 -7.35 2.39
3.99 -7.28 2.39
4.13 -7.19 2.39
4.28 -7.11 2.39
4.42 -7.02 2.39
4.56 -6.93 2.39
4.70 -6.83 2.39
4.83 -6.74 2.39
4.97 -6.64 2.39
5.10 -6.54 2.39
5.23 -6.43 2.39
5.36 -6.33 2.39
5.48 -6.22 2.39
5.61 -6.11 2.39
5.73 -5.99 2.39
5.85 -5.88 2.39
5.96 -5.76 2.39
6.89 -6.39 2.71
6.96 -6.20 2.69
7.03 -6.01 2.67
6.04 -4.96 2.25
7.15 -5.64 2.63
7.21 -5.45 2.61
7.42 -5.38 2.64
6.02 -4.18 2.12
8.58 -5.71 2.97
9.34 -5.95 3.19
9.49 -5.78 3.20
9.64 -5.61 3.22
6.03 -3.34 1.99
9.94 -5.26 3.24
6.02 -3.03 1.94
10.27 -4.92 3.28
10.44 -4.74 3.30
10.59 -4.55 3.32
10.75 -4.37 3.34
10.89 -4.17 3.36
6.01 -2.17 1.84
11.17 -3.77 3.40
11.30 -3.57 3.41
11.47 -3.36 3.44
11.62 -3.16 3.46
6.01 -1.51 1.78
11.88 -2.72 3.51
12.00 -2.50 3.53
12.11 -2.27 3.54
12.21 -2.03 3.56
12.30 -1.79 3.57
12.38 -1.55 3.59
6.01 -0.63 1.74
12.51 -1.06 3.61
12.55 -0.81 3.61
12.58 -0.56 3.62
6.00 -0.14 1.72
12.61 -0.05 3.62
12.62 0.20 3.62
12.62 0.46 3.62
6.00 0.34 1.72
12.60 0.96 3.62
12.57 1.22 3.62
12.54 1.47 3.62
12.50 1.72 3.61
12.44 1.97 3.61
12.37 2.21 3.60
12.29 2.45 3.59
5.99 1.32 1.76
12.13 2.93 3.57
12.11 3.18 3.58
12.08 3.44 3.59
5.98 1.83 1.79
11.96 3.93 3.60
11.89 4.17 3.60
11.80 4.41 3.60
11.70 4.64 3.59
11.59 4.87 3.59
11.56 5.13 3.61
5.98 2.80 1.88
11.36 5.60 3.61
11.24 5.82 3.61
11.16 6.07 3.62
11.08 6.32 3.63
10.99 6.56 3.64
10.80 6.75 3.62
5.97 3.90 2.03
10.48 7.15 3.61
10.35 7.37 3.61
10.21 7.58 3.61
10.04 7.77 3.61
9.76 7.87 3.56
7.13 5.99 2.64
5.98 5.23 2.25
6.99 6.37 2.68
6.92 6.56 2.70
5.96 5.88 2.37
5.88 6.05 2.39
5.76 6.17 2.39
5.64 6.29 2.39
5.52 6.40 2.39
5.39 6.51 2.39
5.26 6.62 2.39
5.13 6.73 2.39
4.99 6.83 2.39
4.63 6.61 2.28
4.43 6.61 2.25
4.58 7.13 2.39
4.43 7.22 2.39
4.29 7.31 2.39
4.14 7.40 2.39
4.00 7.48 2.39
3.85 7.57 2.39
3.70 7.64 2.39
3.54 7.72 2.39
3.39 7.79 2.39
3.23 7.86 2.39
3.08 7.93 2.39
2.92 7.99 2.39
2.76 8.05 2.39
2.60 8.11 2.39
2.43 8.16 2.39
2.27 8.21 2.39
2.11 8.26 2.39
1.96 8.40 2.42
1.85 8.70 2.49
1.68 8.74 2.49
1.50 8.77 2.49
1.33 8.80 2.49
1.15 8.83 2.49
0.97 8.85 2.49
0.79 8.87 2.49
0.62 8.89 2.49
0.44 8.90 2.49
0.26 8.91 2.49
0.08 8.92 2.49
-0.10 8.92 2.49
-0.28 8.92 2.49
-0.46 8.92 2.49
-0.64 8.91 2.49
-0.81 8.89 2.49
-0.99 8.88 2.49
-1.17 8.86 2.49
-1.35 8.84 2.49
-1.53 8.81 2.49
-1.70 8.78 2.49
-1.88 8.75 2.49
-2.05 8.71 2.49
-2.23 8.67 2.49
-2.40 8.62 2.49
-2.58 8.57 2.49
-2.75 8.52 2.49
-2.92 8.47 2.49
-3.09 8.41 2.49
-3.26 8.35 2.49
-3.42 8.28 2.49
-3.59 8.21 2.49
-3.75 8.14 2.49
-3.92 8.06 2.49
-4.08 7.98 2.49
-4.24 7.90 2.49
-4.40 7.82 2.49
-4.55 7.73 2.49
-4.71 7.64 2.49
-4.86 7.54 2.49
-5.01 7.44 2.49
-5.16 7.34 2.49
-5.31 7.24 2.49
-5.45 7.13 2.49
-5.59 7.02 2.49
-5.73 6.91 2.49
-5.87 6.79 2.49
-6.00 6.67 2.49
-6.07 6.48 2.47
-6.08 6.23 2.42
-6.13 6.04 2.39
-6.25 5.91 2.39
-6.37 5.79 2.39
-6.48 5.66 2.39
-6.59 5.53 2.39
-6.70 5.39 2.39
-6.81 5.26 2.39
-6.91 5.12 2.39
-7.01 4.98 2.39
-7.11 4.84 2.39
-6.15 4.01 2.04
-6.28 3.92 2.06
-7.39 4.40 2.39
-7.47 4.25 2.39
-7.56 4.10 2.39
-7.64 3.95 2.39
-7.71 3.79 2.39
-7.79 3.64 2.39
-7.86 3.48 2.39
-7.93 3.32 2.39
-7.99 3.16 2.39
-8.05 3.00 2.39
-8.11 2.84 2.39
-8.16 2.68 2.39
-8.21 2.51 2.39
-8.26 2.35 2.39
-8.30 2.18 2.39
-8.34 2.01 2.39
-8.38 1.84 2.39
-8.41 1.67 2.39
-8.45 1.51 2.39
-8.47 1.34 2.39
-8.50 1.16 2.39
-8.51 0.99 2.39
-8.53 0.82 2.39
-8.54 0.65 2.39
-8.55 0.48 2.39
-8.56 0.31 2.39
-8.56 0.14 2.39
-8.56 -0.03 2.39
-8.56 -0.21 2.39
-8.55 -0.38 2.39
-8.54 -0.55 2.39
-8.52 -0.72 2.39
-8.50 -0.89 2.39
-8.48 -1.06 2.39
-8.45 -1.23 2.39
-8.43 -1.40 2.39
-8.39 -1.57 2.39
-8.36 -1.73 2.39
-8.32 -1.90 2.39
-8.28 -2.07 2.39
-8.23 -2.23 2.39
-8.18 -2.40 2.39
-8.13 -2.56 2.39
-8.07 -2.72 2.39
-8.01 -2.88 2.39
-7.95 -3.04 2.39
-7.89 -3.20 2.39
-7.82 -3.35 2.39
-7.75 -3.51 2.39
-7.67 -3.66 2.39
-7.59 -3.81 2.39
-7.51 -3.96 2.39
-7.43 -4.11 2.39
-7.34 -4.26 2.39
-7.25 -4.40 2.39
-7.16 -4.55 2.39
-7.07 -4.69 2.39
-6.97 -4.83 2.39
-6.87 -4.96 2.39
-6.76 -5.10 2.39
-6.66 -5.23 2.39
-6.55 -5.36 2.39
-6.44 -5.49 2.39
-6.32 -5.62 2.39
-6.21 -5.74 2.39
-6.09 -5.86 2.39
-6.00 -6.01 2.40
-5.99 -6.25 2.45
-5.97 -6.48 2.49
-5.83 -6.60 2.49
-5.70 -6.71 2.49
-5.56 -6.82 2.49
-5.42 -6.93 2.49
-5.28 -7.03 2.49
-5.13 -7.13 2.49
-4.99 -7.23 2.49
-4.84 -7.33 2.49
-4.69 -7.42 2.49
-4.54 -7.51 2.49
-4.38 -7.60 2.49
-4.23 -7.68 2.49
-4.07 -7.76 2.49
-3.91 -7.84 2.49
-3.75 -7.91 2.49
-3.59 -7.98 2.49
-3.43 -8.05 2.49
-3.27 -8.12 2.49
-3.10 -8.18 2.49
-2.94 -8.24 2.49
-2.77 -8.29 2.49
-2.60 -8.34 2.49
-2.43 -8.39 2.49
-2.26 -8.43 2.49
-2.09 -8.47 2.49
-1.92 -8.51 2.49
-1.75 -8.55 2.49
-1.58 -8.58 2.49
-1.40 -8.60 2.49
-1.23 -8.63 2.49
-1.06 -8.65 2.49
-0.88 -8.66 2.49
-0.71 -8.68 2.49
-0.53 -8.69 2.49
-0.36 -8.69 2.49
-0.18 -8.70 2.49
-0.01 -8.01 2.49
0.15 -8.01 2.49
0.31 -8.00 2.49
0.47 -7.99 2.49
0.63 -7.98 2.49
0.79 -7.96 2.49
0.95 -7.94 2.49
1.11 -7.92 2.49
1.27 -7.90 2.49
1.43 -7.87 2.49
1.59 -7.83 2.49
1.74 -7.80 2.49
1.90 -7.76 2.49
2.05 -7.72 2.49
2.12 -7.36 2.39
2.27 -7.31 2.39
2.41 -7.26 2.39
2.43 -6.85 2.27
2.66 -7.04 2.35
2.80 -6.99 2.35
2.94 -6.93 2.35
3.01 -6.71 2.30
3.10 -6.56 2.27
3.40 -6.85 2.39
3.54 -6.78 2.39
3.67 -6.70 2.39
3.81 -6.63 2.39
3.94 -6.55 2.39
4.07 -6.47 2.39
4.20 -6.38 2.39
4.33 -6.30 2.39
4.45 -6.21 2.39
4.58 -6.12 2.39
4.70 -6.03 2.39
4.82 -5.93 2.39
4.94 -5.83 2.39
5.05 -5.73 2.39
5.17 -5.63 2.39
5.28 -5.52 2.39
5.39 -5.41 2.39
5.49 -5.31 2.39
5.60 -5.19 2.39
5.70 -5.08 2.39
5.80 -4.96 2.39
5.90 -4.85 2.39
6.00 -4.73 2.39
6.90 -5.21 2.71
6.95 -5.04 2.69
6.02 -4.18 2.30
6.03 -4.01 2.27
7.11 -4.52 2.64
7.16 -4.36 2.62
7.20 -4.19 2.61
7.30 -4.05 2.61
7.73 -4.09 2.74
8.19 -4.12 2.87
8.65 -4.14 3.00
9.10 -4.13 3.13
9.36 -4.02 3.18
9.48 -3.85 3.20
9.61 -3.68 3.22
6.01 -2.16 2.00
9.84 -3.32 3.25
9.95 -3.14 3.26
10.04 -2.95 3.27
10.13 -2.75 3.28
10.22 -2.56 3.29
10.30 -2.36 3.30
10.38 -2.16 3.31
10.45 -1.95 3.32
10.52 -1.75 3.33
10.59 -1.54 3.34
10.64 -1.33 3.35
10.69 -1.12 3.35
10.73 -0.91 3.36
10.76 -0.69 3.36
10.79 -0.48 3.37
6.00 -0.14 1.87
10.82 -0.04 3.37
10.83 0.17 3.37
10.83 0.39 3.37
10.83 0.61 3.38
10.83 0.83 3.38
10.81 1.05 3.38
10.78 1.26 3.38
10.75 1.48 3.38
10.71 1.69 3.37
10.67 1.91 3.37
10.62 2.12 3.37
10.60 2.34 3.37
10.59 2.56 3.38
10.57 2.78 3.39
10.55 3.00 3.40
5.98 1.83 1.94
10.48 3.44 3.42
10.44 3.67 3.43
10.40 3.89 3.44
10.32 4.10 3.44
6.00 2.52 2.02
10.14 4.50 3.44
10.04 4.70 3.43
9.94 4.90 3.43
9.88 5.12 3.44
9.81 5.34 3.45
9.67 5.52 3.44
5.98 3.57 2.15
9.32 5.82 3.40
5.97 3.90 2.20
7.09 4.84 2.65
5.97 4.25 2.26
6.98 5.18 2.68
4.82 3.73 1.88
4.75 3.83 1.88
4.67 3.93 1.88
4.59 4.02 1.88
4.51 4.11 1.88
4.43 4.20 1.88
4.36 4.31 1.89
4.35 4.47 1.92
5.30 5.68 2.39
5.19 5.79 2.39
5.08 5.89 2.39
4.96 5.99 2.39
4.84 6.09 2.39
4.72 6.19 2.39
4.59 6.29 2.39
4.47 6.38 2.39
4.34 6.47 2.39
4.21 6.56 2.39
4.08 6.65 2.39
3.95 6.73 2.39
3.81 6.81 2.39
3.68 6.89 2.39
3.54 6.96 2.39
3.40 7.03 2.39
3.26 7.10 2.39
3.12 7.17 2.39
2.97 7.23 2.39
2.83 7.29 2.39
2.68 7.35 2.39
2.54 7.41 2.39
2.39 7.46 2.39
2.24 7.51 2.39
2.09 7.55 2.39
1.97 7.72 2.43
1.86 7.96 2.49
1.70 8.00 2.49
1.54 8.04 2.49
1.38 8.07 2.49
1.22 8.10 2.49
1.06 8.12 2.49
0.89 8.14 2.49
0.73 8.16 2.49
0.57 8.18 2.49
0.40 8.19 2.49
0.24 8.20 2.49
0.07 8.20 2.49
-0.09 8.20 2.49
-0.26 8.20 2.49
-0.42 8.20 2.49
-0.58 8.19 2.49
-0.75 8.18 2.49
-0.91 8.16 2.49
-1.08 8.15 2.49
-1.24 8.12 2.49
-1.40 8.10 2.49
-1.57 8.07 2.49
-1.73 8.04 2.49
-1.89 8.01 2.49
-2.05 7.97 2.49
-2.21 7.93 2.49
-2.37 7.88 2.49
-2.53 7.83 2.49
-2.68 7.78 2.49
-2.84 7.73 2.49
-2.99 7.67 2.49
-3.15 7.61 2.49
-3.30 7.55 2.49
-3.45 7.48 2.49
-3.60 7.41 2.49
-3.75 7.34 2.49
-3.90 7.26 2.49
-4.04 7.19 2.49
-4.18 7.10 2.49
-4.33 7.02 2.49
-4.47 6.93 2.49
-4.61 6.84 2.49
-4.74 6.75 2.49
-4.88 6.65 2.49
-5.01 6.55 2.49
-5.14 6.45 2.49
-5.27 6.35 2.49
-5.39 6.24 2.49
-5.52 6.13 2.49
-5.64 6.02 2.49
-5.76 5.91 2.49
-5.88 5.79 2.49
-5.99 5.67 2.49
-6.07 5.51 2.48
-6.07 5.30 2.43
-6.08 5.09 2.40
-6.16 4.96 2.39
-6.27 4.85 2.40
-6.35 4.71 2.39
-6.45 4.58 2.39
-6.54 4.45 2.39
-6.15 4.01 2.22
-6.28 3.91 2.24
-6.79 4.05 2.39
-6.87 3.91 2.39
-6.95 3.77 2.39
-7.02 3.63 2.39
-7.09 3.49 2.39
-7.16 3.34 2.39
-7.22 3.20 2.39
-7.29 3.05 2.39
-7.34 2.91 2.39
-7.40 2.76 2.39
-7.45 2.61 2.39
-7.50 2.46 2.39
-7.55 2.31 2.39
-7.59 2.16 2.39
-7.63 2.00 2.39
-7.67 1.85 2.39
-7.71 1.70 2.39
-7.74 1.54 2.39
-7.76 1.38 2.39
-7.79 1.23 2.39
-7.81 1.07 2.39
-7.83 0.91 2.39
-7.84 0.76 2.39
-7.86 0.60 2.39
-7.86 0.44 2.39
-7.87 0.28 2.39
-7.87 0.13 2.39
-7.87 -0.03 2.39
-7.87 -0.19 2.39
-7.86 -0.35 2.39
-7.85 -0.50 2.39
-7.84 -0.66 2.39
-7.82 -0.82 2.39
-7.80 -0.97 2.39
-7.78 -1.13 2.39
-7.75 -1.29 2.39
-7.72 -1.44 2.39
-7.69 -1.59 2.39
-7.65 -1.75 2.39
-7.61 -1.90 2.39
-7.57 -2.05 2.39
-7.53 -2.20 2.39
-7.48 -2.35 2.39
-7.43 -2.50 2.39
-7.37 -2.65 2.39
-7.32 -2.80 2.39
-7.26 -2.94 2.39
-7.19 -3.08 2.39
-7.13 -3.23 2.39
-7.06 -3.37 2.39
-6.99 -3.51 2.39
-6.91 -3.65 2.39
-6.84 -3.78 2.39
-6.76 -3.92 2.39
-6.67 -4.05 2.39
-6.59 -4.18 2.39
-6.50 -4.31 2.39
-6.41 -4.44 2.39
-6.32 -4.57 2.39
-6.22 -4.69 2.39
-6.13 -4.81 2.39
-6.03 -4.93 2.39
-6.00 -5.12 2.42
-5.99 -5.32 2.46
-5.96 -5.51 2.49
-5.85 -5.63 2.49
-5.73 -5.74 2.49
-5.61 -5.85 2.49
-5.49 -5.96 2.49
-5.37 -6.07 2.49
-5.24 -6.17 2.49
-5.12 -6.28 2.49
-4.99 -6.38 2.49
-4.86 -6.47 2.49
-4.73 -6.57 2.49
-4.59 -6.66 2.49
-4.45 -6.75 2.49
-4.32 -6.83 2.49
-4.18 -6.91 2.49
-4.04 -6.99 2.49
-3.89 -7.07 2.49
-3.75 -7.15 2.49
-3.60 -7.22 2.49
-3.46 -7.29 2.49
-3.31 -7.35 2.49
-3.16 -7.41 2.49
-3.01 -7.47 2.49
-2.86 -7.53 2.49
-2.71 -7.58 2.49
-2.55 -7.63 2.49
-2.40 -7.68 2.49
-2.24 -7.73 2.49
-2.09 -7.77 2.49
-1.93 -7.80 2.49
-1.77 -7.84 2.49
-1.61 -7.87 2.49
-1.45 -7.90 2.49
-1.29 -7.92 2.49
-1.13 -7.95 2.49
-0.97 -7.97 2.49
-0.81 -7.98 2.49
-0.65 -7.99 2.49
-0.49 -8.00 2.49
-0.33 -8.01 2.49
-0.17 -8.01 2.49
-0.01 -7.42 2.49
0.14 -7.42 2.49
0.29 -7.41 2.49
0.44 -7.40 2.49
0.59 -7.39 2.49
0.73 -7.37 2.49
0.88 -7.36 2.49
1.03 -7.34 2.49
1.18 -7.31 2.49
1.32 -7.28 2.49
1.47 -7.26 2.49
1.61 -7.22 2.49
1.76 -7.19 2.49
1.90 -7.15 2.49
2.05 -7.11 2.49
2.10 -6.77 2.39
2.25 -6.78 2.41
2.37 -6.68 2.39
2.42 -6.41 2.31
2.50 -6.24 2.27
2.72 -6.42 2.35
2.85 -6.36 2.35
2.97 -6.30 2.35
3.00 -6.04 2.28
3.11 -5.96 2.27
3.40 -6.21 2.39
3.53 -6.14 2.39
3.65 -6.07 2.39
3.77 -5.99 2.39
3.89 -5.91 2.39
4.01 -5.83 2.39
4.12 -5.75 2.39
4.24 -5.67 2.39
4.35 -5.58 2.39
4.46 -5.49 2.39
4.57 -5.40 2.39
4.68 -5.31 2.39
4.78 -5.21 2.39
4.89 -5.12 2.39
4.99 -5.02 2.39
5.09 -4.91 2.39
5.19 -4.81 2.39
5.28 -4.71 2.39
5.38 -4.60 2.39
5.47 -4.49 2.39
5.56 -4.38 2.39
5.64 -4.27 2.39
5.73 -4.15 2.39
5.81 -4.04 2.39
5.89 -3.92 2.39
5.97 -3.80 2.39
6.05 -3.68 2.39
6.91 -4.02 2.70
6.95 -3.86 2.68
6.99 -3.70 2.67
6.02 -3.03 2.28
6.02 -2.88 2.25
7.10 -3.22 2.63
7.14 -3.07 2.62
7.18 -2.92 2.61
6.04 -2.31 2.18
6.01 -2.16 2.16
7.64 -2.58 2.72
7.93 -2.50 2.81
8.23 -2.41 2.89
6.01 -1.63 2.10
8.82 -2.21 3.07
9.11 -2.09 3.15
9.29 -1.93 3.20
9.36 -1.75 3.21
9.42 -1.56 3.22
9.47 -1.38 3.22
6.01 -0.75 2.04
9.56 -1.00 3.24
9.59 -0.81 3.24
9.62 -0.62 3.25
9.65 -0.43 3.25
6.00 -0.14 2.02
9.69 -0.04 3.26
9.70 0.16 3.26
9.71 0.35 3.27
9.71 0.55 3.27
9.70 0.74 3.27
6.00 0.58 2.03
9.66 1.13 3.27
9.66 1.33 3.28
9.66 1.53 3.29
9.66 1.73 3.30
9.66 1.93 3.31
5.99 1.32 2.06
9.63 2.33 3.32
9.61 2.53 3.33
9.59 2.73 3.34
5.98 1.83 2.10
9.52 3.13 3.36
9.46 3.32 3.36
5.99 2.24 2.14
9.31 3.69 3.35
9.23 3.88 3.35
8.06 3.58 2.95
7.16 3.35 2.64
7.12 3.51 2.65
5.98 3.10 2.25
5.98 3.25 2.28
6.98 3.98 2.69
6.93 4.14 2.70
4.78 2.99 1.88
4.72 3.08 1.88
4.66 3.18 1.88
4.59 3.27 1.88
4.53 3.36 1.88
4.46 3.46 1.88
4.39 3.55 1.88
4.36 3.66 1.90
4.35 3.81 1.93
4.35 3.97 1.96
4.35 4.13 1.99
4.35 4.30 2.03
5.01 5.15 2.39
4.91 5.26 2.39
4.80 5.35 2.39
4.70 5.45 2.39
4.59 5.55 2.39
4.48 5.64 2.39
4.36 5.73 2.39
4.25 5.82 2.39
4.13 5.90 2.39
4.01 5.99 2.39
