ply
format ascii 1.0
element vertex 2747
property float32 x
property float32 y
property float32 z
end_header
-19.35 14.95 -1.87
-19.33 14.32 -1.84
-19.32 13.72 -1.81
-19.30 13.13 -1.79
-19.29 12.56 -1.76
-19.27 12.01 -1.74
-19.26 11.47 -1.72
-19.25 10.95 -1.70
-19.25 10.44 -1.68
-19.24 9.94 -1.67
-19.23 9.46 -1.65
-19.23 8.98 -1.64
-19.23 8.51 -1.62
-19.32 8.10 -1.62
-20.91 8.27 -1.74
-22.08 8.23 -1.83
-6.37 0.61 -0.50
-22.93 -1.02 -1.83
-20.31 -1.32 -1.63
-20.33 -1.73 -1.64
-20.36 -2.14 -1.64
-20.39 -2.56 -1.65
-20.42 -2.98 -1.66
-20.45 -3.40 -1.67
-20.48 -3.83 -1.69
-20.51 -4.27 -1.70
-20.55 -4.71 -1.71
-20.58 -5.15 -1.73
-20.62 -5.60 -1.74
-20.66 -6.06 -1.76
-20.71 -6.53 -1.78
-20.75 -7.00 -1.80
-19.69 -7.09 -1.72
-18.42 -7.05 -1.62
-17.28 -7.02 -1.54
-16.84 -7.23 -1.51
-17.01 -7.71 -1.55
-16.87 -8.06 -1.55
-21.12 -10.62 -1.97
-21.09 -11.14 -1.99
-20.05 -11.12 -1.91
-19.09 -11.09 -1.85
-18.20 -11.07 -1.79
-17.37 -11.05 -1.73
-16.98 -11.28 -1.72
-17.00 -11.79 -1.75
-21.74 -15.74 -2.27
-21.84 -16.49 -2.32
-21.72 -17.09 -2.35
-21.61 -17.72 -2.38
-22.17 -18.93 -2.48
2.67 17.64 -1.00
-10.95 46.53 -2.59
-13.00 46.76 -2.62
-19.15 41.56 -2.46
-18.97 39.09 -2.33
-18.81 36.86 -2.22
-18.81 35.11 -2.13
-19.53 34.75 -2.14
-20.09 34.12 -2.12
-21.04 34.16 -2.15
-22.02 34.19 -2.18
-23.03 34.23 -2.21
-15.10 21.50 -1.41
-15.13 20.65 -1.37
-15.56 20.36 -1.37
-16.25 20.41 -1.40
-16.97 20.46 -1.42
-15.23 17.63 -1.25
-15.84 17.60 -1.27
-15.30 16.34 -1.20
-15.97 16.38 -1.23
-16.68 16.43 -1.25
-17.42 16.48 -1.29
-18.20 16.54 -1.32
-18.52 16.17 -1.32
-18.51 15.51 -1.30
-18.50 14.89 -1.28
-18.49 14.28 -1.26
-18.49 13.69 -1.24
-18.48 13.12 -1.22
-18.48 12.57 -1.21
-18.47 12.03 -1.19
-18.47 11.51 -1.18
-18.47 11.00 -1.16
-18.47 10.50 -1.15
-18.47 10.02 -1.14
-18.47 9.55 -1.13
-18.48 9.08 -1.12
-18.48 8.63 -1.11
-18.48 8.18 -1.10
-18.49 7.74 -1.10
-19.25 7.61 -1.13
-20.82 7.75 -1.22
-22.63 7.92 -1.32
-24.76 8.11 -1.43
-6.37 0.61 -0.36
-19.56 -0.88 -1.12
-19.58 -1.27 -1.13
-19.60 -1.67 -1.13
-19.62 -2.07 -1.14
-19.65 -2.47 -1.14
-19.67 -2.87 -1.15
-19.70 -3.28 -1.16
-19.73 -3.70 -1.17
-19.75 -4.11 -1.18
-19.78 -4.54 -1.19
-19.81 -4.96 -1.20
-19.85 -5.40 -1.21
-19.88 -5.84 -1.22
-19.91 -6.28 -1.24
-19.74 -6.67 -1.24
-18.47 -6.65 -1.17
-17.33 -6.64 -1.11
-16.82 -6.84 -1.09
-17.27 -7.42 -1.13
-17.28 -7.85 -1.14
-16.90 -8.09 -1.13
-20.25 -10.19 -1.37
-20.13 -10.64 -1.38
-19.18 -10.63 -1.33
-18.29 -10.63 -1.29
-17.46 -10.62 -1.25
-16.96 -10.79 -1.23
-17.70 -11.77 -1.31
-17.04 -11.82 -1.28
-20.72 -15.01 -1.58
-20.80 -15.71 -1.62
-20.87 -16.43 -1.65
-20.96 -17.19 -1.69
-21.04 -17.98 -1.73
-21.13 -18.81 -1.77
-21.23 -19.67 -1.82
-9.92 -34.32 -2.40
-9.32 -34.86 -2.43
2.67 17.63 -0.60
-10.03 46.86 -1.52
-10.91 46.38 -1.51
-12.93 46.52 -1.52
-13.97 46.60 -1.53
-9.96 27.15 -0.90
-19.11 41.49 -1.42
-18.54 38.21 -1.32
-19.37 37.96 -1.32
-19.27 35.96 -1.27
-19.53 34.75 -1.24
-20.08 34.12 -1.23
-21.06 34.20 -1.24
-17.67 27.44 -1.01
-17.67 26.27 -0.98
-15.29 21.78 -0.82
-15.54 21.20 -0.81
-15.16 19.84 -0.77
-15.81 19.86 -0.79
-15.21 18.33 -0.74
-15.61 18.06 -0.74
-16.13 17.92 -0.75
-16.19 17.28 -0.73
-15.50 15.89 -0.69
-16.17 15.93 -0.70
-16.87 15.97 -0.72
-17.61 16.01 -0.74
-17.69 15.44 -0.73
-17.69 14.83 -0.72
-17.70 14.24 -0.71
-17.70 13.67 -0.70
-17.71 13.12 -0.69
-17.72 12.58 -0.68
-17.72 12.05 -0.67
-17.73 11.55 -0.67
-17.74 11.05 -0.66
-17.74 10.57 -0.65
-17.75 10.09 -0.65
-17.76 9.63 -0.64
-17.77 9.18 -0.64
-17.78 8.74 -0.63
-17.79 8.30 -0.63
-17.80 7.88 -0.62
-17.81 7.46 -0.62
-17.85 7.06 -0.62
-19.19 7.14 -0.66
-20.73 7.25 -0.71
-22.52 7.37 -0.77
-24.61 7.51 -0.84
-6.36 0.61 -0.22
-18.86 -0.47 -0.65
-18.88 -0.85 -0.65
-18.90 -1.23 -0.66
-18.92 -1.61 -0.66
-18.94 -2.00 -0.67
-18.96 -2.39 -0.67
-18.98 -2.78 -0.68
-19.01 -3.17 -0.68
-19.03 -3.57 -0.69
-19.05 -3.97 -0.70
-19.08 -4.38 -0.70
-19.10 -4.79 -0.71
-19.13 -5.21 -0.72
-19.16 -5.63 -0.73
-19.18 -6.06 -0.74
-18.53 -6.26 -0.72
-17.37 -6.26 -0.68
-16.81 -6.44 -0.67
-17.03 -6.92 -0.69
-17.27 -7.43 -0.70
-17.28 -7.85 -0.71
-17.08 -8.17 -0.72
-16.88 -8.50 -0.72
-19.26 -10.19 -0.83
-18.37 -10.20 -0.80
-17.55 -10.20 -0.78
-16.95 -10.31 -0.77
-17.93 -11.41 -0.82
-17.95 -11.94 -0.84
-17.57 -12.20 -0.84
-17.02 -12.33 -0.83
-19.85 -15.00 -0.98
-19.91 -15.68 -1.00
-19.97 -16.39 -1.03
-20.03 -17.12 -1.05
-20.09 -17.89 -1.08
-20.16 -18.69 -1.11
-20.24 -19.53 -1.14
-20.31 -20.40 -1.17
2.67 17.63 -0.19
-10.03 46.85 -0.44
-10.93 46.48 -0.44
-13.01 46.83 -0.44
-14.03 46.83 -0.44
-13.64 31.25 -0.29
-17.39 37.75 -0.36
-18.06 37.24 -0.35
-18.95 37.13 -0.36
-19.47 36.34 -0.35
-19.53 34.75 -0.34
-16.59 28.18 -0.28
-16.61 26.97 -0.27
-16.64 25.84 -0.26
-15.07 22.40 -0.23
-15.29 21.78 -0.22
-15.33 20.92 -0.22
-15.35 20.10 -0.21
-15.39 19.33 -0.21
-15.37 18.53 -0.20
-15.91 18.42 -0.21
-16.13 17.92 -0.20
-16.19 17.28 -0.20
-15.30 15.69 -0.19
-15.69 15.45 -0.19
-16.36 15.48 -0.19
-16.92 15.38 -0.20
-16.93 14.78 -0.19
-16.95 14.21 -0.19
-16.97 13.65 -0.19
-16.98 13.11 -0.19
-17.00 12.59 -0.19
-17.01 12.08 -0.18
-17.03 11.58 -0.18
-17.04 11.10 -0.18
-17.06 10.63 -0.18
-17.07 10.17 -0.18
-17.09 9.72 -0.18
-17.10 9.27 -0.18
-17.12 8.84 -0.18
-17.13 8.42 -0.18
-17.15 8.00 -0.18
-17.16 7.59 -0.18
-17.18 7.19 -0.18
-17.19 6.80 -0.18
-17.80 6.63 -0.19
-19.13 6.69 -0.20
-20.65 6.76 -0.22
-22.41 6.84 -0.24
-24.47 6.93 -0.26
-26.92 7.05 -0.29
-6.36 0.61 -0.07
-18.22 -0.09 -0.22
-18.24 -0.46 -0.22
-18.25 -0.82 -0.22
-18.27 -1.19 -0.22
-18.29 -1.56 -0.23
-18.31 -1.93 -0.23
-18.32 -2.31 -0.23
-18.34 -2.69 -0.24
-18.36 -3.07 -0.24
-18.38 -3.45 -0.25
-18.40 -3.84 -0.25
-18.42 -4.23 -0.25
-18.44 -4.63 -0.26
-18.46 -5.03 -0.26
-18.48 -5.43 -0.27
-18.50 -5.85 -0.27
-17.41 -5.89 -0.26
-16.79 -6.06 -0.26
-17.02 -6.53 -0.27
-17.03 -6.93 -0.27
-17.05 -7.34 -0.28
-17.07 -7.76 -0.28
-17.08 -8.18 -0.29
-17.09 -8.61 -0.29
-16.90 -8.94 -0.30
-17.64 -9.79 -0.32
-16.93 -9.85 -0.31
-17.91 -10.91 -0.34
-17.93 -11.42 -0.35
-17.95 -11.94 -0.35
-17.72 -12.31 -0.36
-17.42 -12.62 -0.36
-17.04 -12.88 -0.36
-19.03 -14.99 -0.41
-19.07 -15.66 -0.43
-19.11 -16.34 -0.44
-19.15 -17.06 -0.45
-19.20 -17.80 -0.47
-19.25 -18.58 -0.48
-19.30 -19.39 -0.50
-19.35 -20.24 -0.51
-19.41 -21.14 -0.53
8.24 -45.12 -0.09
2.67 17.62 0.21
-10.08 47.11 0.64
-10.90 46.39 0.64
-12.95 46.62 0.66
-14.08 47.00 0.67
-15.57 45.29 0.66
-13.71 31.42 0.48
-19.27 41.85 0.64
-19.28 39.75 0.62
-19.35 37.93 0.60
-19.47 36.34 0.58
-16.04 28.54 0.46
-16.05 27.27 0.45
-16.09 26.12 0.43
-16.13 25.05 0.42
-15.29 22.73 0.39
-15.46 22.02 0.38
-15.49 21.14 0.37
-15.52 20.32 0.36
-15.18 19.07 0.34
-15.79 19.03 0.35
-15.91 18.42 0.34
-16.01 17.79 0.34
-16.05 17.13 0.33
-15.98 16.39 0.32
-15.49 15.26 0.30
-16.15 15.28 0.31
-16.48 14.98 0.31
-16.50 14.40 0.31
-16.52 13.85 0.30
-16.54 13.31 0.29
-16.56 12.78 0.29
-16.58 12.27 0.28
-16.59 11.78 0.28
-16.61 11.29 0.27
-16.63 10.82 0.27
-16.64 10.37 0.27
-16.66 9.92 0.26
-16.67 9.48 0.26
-16.69 9.05 0.25
-16.70 8.63 0.25
-16.72 8.21 0.25
-16.73 7.81 0.24
-16.75 7.41 0.24
-16.76 7.02 0.24
-16.77 6.63 0.23
-17.05 6.35 0.23
-18.29 6.39 0.25
-19.69 6.44 0.26
-21.31 6.50 0.28
-23.19 6.57 0.30
-25.41 6.65 0.32
-28.06 6.74 0.35
-45.15 9.89 0.56
-45.45 9.01 0.55
-6.36 0.61 0.07
-17.72 0.27 0.19
-17.73 -0.09 0.19
-17.74 -0.45 0.19
-17.76 -0.80 0.18
-17.77 -1.16 0.18
-17.78 -1.52 0.18
-17.80 -1.88 0.18
-17.81 -2.25 0.18
-17.81 -2.61 0.17
-17.83 -2.98 0.17
-17.84 -3.35 0.17
-17.85 -3.73 0.17
-17.87 -4.11 0.17
-17.88 -4.49 0.16
-17.89 -4.88 0.16
-17.91 -5.27 0.16
-17.76 -5.61 0.16
-16.78 -5.68 0.15
-17.00 -6.14 0.15
-17.02 -6.53 0.14
-17.03 -6.93 0.14
-17.05 -7.34 0.14
-17.06 -7.76 0.14
-17.08 -8.18 0.14
-17.09 -8.61 0.14
-17.11 -9.06 0.13
-16.91 -9.39 0.13
-17.65 -10.27 0.13
-17.91 -10.91 0.13
-17.93 -11.42 0.13
-17.95 -11.95 0.13
-17.72 -12.31 0.13
-17.74 -12.86 0.13
-17.26 -13.06 0.12
-18.23 -14.37 0.13
-18.25 -14.99 0.12
-18.27 -15.63 0.12
-18.30 -16.30 0.12
-18.33 -17.00 0.12
-18.35 -17.72 0.12
-18.38 -18.48 0.11
-18.41 -19.27 0.11
-18.45 -20.09 0.11
-18.48 -20.96 0.11
-18.51 -21.87 0.11
8.25 -45.11 0.94
2.68 17.62 0.61
-8.40 48.76 1.77
-8.69 45.01 1.64
-9.63 45.03 1.65
-10.58 45.05 1.66
-11.55 45.07 1.68
-12.53 45.10 1.69
-9.19 30.68 1.16
-9.25 28.78 1.09
-9.65 28.06 1.08
-11.64 31.76 1.23
-12.39 31.82 1.24
-13.14 31.85 1.25
-13.71 31.42 1.25
-14.68 31.87 1.28
-15.47 31.90 1.29
-16.31 31.96 1.31
-17.14 31.99 1.33
-16.04 28.54 1.20
-16.33 27.75 1.18
-16.11 26.16 1.13
-16.26 25.25 1.10
-15.29 22.73 1.00
-15.46 22.02 0.99
-15.49 21.14 0.96
-15.52 20.32 0.94
-15.55 19.53 0.91
-15.89 19.15 0.91
-15.91 18.42 0.89
-15.94 17.71 0.87
-16.37 17.47 0.88
-15.98 16.39 0.84
-16.01 15.76 0.82
-16.24 15.36 0.82
-16.51 15.00 0.81
-16.53 14.43 0.80
-16.55 13.87 0.79
-16.57 13.33 0.77
-16.59 12.81 0.76
-16.61 12.29 0.75
-16.62 11.80 0.74
-16.64 11.31 0.73
-16.66 10.84 0.72
-16.67 10.38 0.71
-16.69 9.93 0.70
-16.70 9.49 0.69
-16.72 9.06 0.68
-16.73 8.64 0.67
-16.75 8.23 0.67
-16.76 7.82 0.66
-16.78 7.42 0.65
-16.79 7.03 0.65
-16.81 6.64 0.64
-17.13 6.37 0.65
-18.37 6.42 0.69
-19.79 6.47 0.73
-21.42 6.53 0.78
-23.32 6.60 0.85
-26.26 6.87 0.94
-31.43 3.64 1.08
-6.36 0.61 0.22
-17.76 0.26 0.59
-17.77 -0.09 0.59
-17.78 -0.45 0.59
-17.79 -0.81 0.59
-17.81 -1.17 0.59
-17.82 -1.53 0.58
-17.83 -1.89 0.58
-17.84 -2.25 0.58
-17.85 -2.62 0.58
-17.87 -2.99 0.58
-17.88 -3.36 0.58
-17.89 -3.74 0.58
-17.90 -4.12 0.58
-17.92 -4.50 0.58
-17.93 -4.89 0.58
-17.94 -5.28 0.58
-17.96 -5.68 0.58
-16.99 -5.75 0.55
-17.18 -6.20 0.56
-17.20 -6.60 0.56
-17.21 -7.01 0.56
-17.22 -7.42 0.57
-17.24 -7.84 0.57
-17.25 -8.27 0.57
-17.27 -8.71 0.57
-17.29 -9.15 0.58
-17.63 -9.80 0.59
-17.65 -10.28 0.59
-17.67 -10.77 0.60
-17.69 -11.27 0.60
-17.86 -11.89 0.61
-17.72 -12.32 0.61
-17.74 -12.87 0.62
-18.25 -13.81 0.64
-18.27 -14.41 0.65
-18.29 -15.03 0.66
-18.32 -15.68 0.67
-18.34 -16.34 0.67
-18.36 -17.04 0.68
-18.39 -17.76 0.69
-18.42 -18.52 0.70
-18.45 -19.31 0.71
-18.47 -20.13 0.73
-18.50 -21.00 0.74
-18.54 -21.90 0.75
8.25 -45.11 1.98
11.66 -32.82 1.48
13.97 -32.90 1.52
16.42 -32.99 1.56
19.04 -33.10 1.61
19.91 -33.07 1.63
20.85 -33.10 1.65
21.81 -33.13 1.67
22.80 -33.17 1.70
23.82 -33.20 1.72
24.87 -33.24 1.75
25.96 -33.28 1.78
27.08 -33.32 1.81
28.25 -33.36 1.85
29.45 -33.40 1.88
30.71 -33.45 1.92
32.01 -33.49 1.96
33.37 -33.54 2.00
34.79 -33.59 2.05
36.27 -33.64 2.10
6.94 32.41 1.87
7.07 36.54 2.10
5.66 32.79 1.88
2.68 17.62 1.01
5.49 41.74 2.39
4.64 41.76 2.39
3.60 39.63 2.27
3.08 43.54 2.49
2.20 43.51 2.49
1.32 43.46 2.49
0.45 43.40 2.49
-0.42 43.33 2.49
-1.29 43.23 2.49
-2.16 43.13 2.49
-3.02 43.00 2.49
-3.87 42.87 2.49
-4.73 42.72 2.49
-5.34 40.79 2.39
-6.15 40.62 2.39
-6.96 40.43 2.39
-7.76 40.23 2.39
-8.55 40.02 2.39
-9.20 39.19 2.36
-9.83 38.37 2.32
-9.86 35.51 2.16
-9.24 30.86 1.89
-9.31 28.96 1.79
-9.37 27.25 1.70
-9.39 25.63 1.61
-8.77 22.53 1.42
-9.52 23.06 1.47
-9.58 21.95 1.41
-14.68 31.87 2.07
-15.47 31.90 2.09
-16.30 31.96 2.12
-17.14 31.99 2.15
-16.04 28.54 1.94
-16.08 27.32 1.88
-16.11 26.16 1.82
-16.15 25.08 1.77
-15.29 22.73 1.62
-15.46 22.02 1.59
-15.49 21.14 1.55
-15.52 20.32 1.51
-15.55 19.53 1.48
-15.89 19.15 1.47
-15.91 18.41 1.44
-15.94 17.71 1.41
-16.37 17.47 1.42
-15.98 16.39 1.35
-16.01 15.76 1.33
-16.24 15.36 1.32
-16.51 15.00 1.32
-16.53 14.43 1.30
-16.55 13.87 1.27
-16.57 13.33 1.25
-16.86 13.01 1.25
-16.88 12.49 1.24
-16.90 11.99 1.22
-16.91 11.50 1.20
-16.66 10.84 1.17
-16.67 10.38 1.15
-16.69 9.93 1.14
-16.70 9.49 1.12
-16.99 9.21 1.13
-17.01 8.78 1.12
-17.02 8.36 1.11
-16.76 7.82 1.08
-16.78 7.42 1.07
-16.79 7.02 1.06
-16.81 6.64 1.05
-17.13 6.37 1.06
-19.28 6.73 1.18
-19.80 6.47 1.20
-21.43 6.53 1.29
-23.33 6.60 1.39
-25.62 6.70 1.52
-39.32 9.44 2.32
-39.74 8.70 2.33
-40.11 7.94 2.33
-18.60 3.30 1.08
-19.89 3.11 1.14
-24.36 3.31 1.39
-30.36 3.51 1.73
-6.36 0.61 0.36
-40.78 3.06 2.30
-40.64 2.23 2.29
-40.73 1.42 2.28
-17.76 0.26 0.99
-17.77 -0.10 0.99
-17.78 -0.45 0.99
-18.07 -0.82 1.00
-18.08 -1.19 1.00
-18.10 -1.55 1.00
-17.83 -1.89 0.99
-17.84 -2.26 0.99
-17.85 -2.62 0.99
-17.87 -2.99 0.99
-17.88 -3.37 0.99
-18.17 -3.80 1.01
-18.19 -4.19 1.01
-18.20 -4.58 1.01
-17.93 -4.89 1.00
-17.94 -5.29 1.00
-17.96 -5.68 1.01
-16.99 -5.76 0.96
-17.18 -6.21 0.97
-17.20 -6.61 0.98
-17.21 -7.01 0.98
-17.22 -7.42 0.99
-17.24 -7.84 0.99
-17.25 -8.27 1.00
-17.27 -8.71 1.01
-17.29 -9.16 1.02
-17.63 -9.80 1.05
-17.65 -10.28 1.06
-17.67 -10.77 1.07
-18.12 -11.55 1.10
-17.85 -11.89 1.10
-17.72 -12.32 1.10
-17.74 -12.87 1.11
-18.25 -13.81 1.16
-18.27 -14.41 1.18
-18.29 -15.04 1.19
-18.61 -15.93 1.23
-18.63 -16.61 1.25
-18.65 -17.32 1.27
-18.39 -17.77 1.27
-18.42 -18.53 1.29
-18.74 -19.62 1.34
-18.77 -20.46 1.36
-18.51 -21.00 1.37
-18.54 -21.91 1.40
0.01 -37.52 2.49
0.77 -37.57 2.49
1.52 -37.60 2.49
2.28 -37.62 2.49
3.04 -37.62 2.49
3.80 -37.60 2.49
4.37 -36.02 2.39
5.10 -35.96 2.39
5.83 -35.90 2.39
4.84 -26.46 1.77
7.28 -35.72 2.39
7.38 -32.85 2.21
8.72 -35.47 2.39
9.44 -35.33 2.39
10.16 -35.16 2.39
10.87 -34.98 2.39
10.90 -32.74 2.25
11.65 -32.77 2.27
12.40 -32.80 2.28
13.17 -32.83 2.30
13.95 -32.85 2.32
14.75 -32.88 2.34
15.56 -32.91 2.37
16.39 -32.94 2.39
17.24 -32.97 2.41
18.11 -33.00 2.44
19.00 -33.03 2.47
19.91 -33.06 2.50
20.85 -33.10 2.54
21.81 -33.13 2.57
22.80 -33.17 2.61
23.82 -33.20 2.65
24.87 -33.24 2.69
25.96 -33.28 2.73
27.08 -33.32 2.78
28.25 -33.36 2.83
29.45 -33.40 2.89
30.71 -33.45 2.94
32.01 -33.49 3.00
33.37 -33.54 3.07
34.79 -33.59 3.14
36.27 -33.64 3.21
6.43 18.67 1.54
6.49 20.15 1.66
6.55 21.83 1.79
6.70 26.10 2.12
7.88 33.46 2.71
6.35 29.63 2.39
5.50 28.43 2.29
5.14 29.76 2.39
2.67 17.57 1.41
3.93 29.85 2.39
3.33 29.88 2.39
2.84 31.19 2.49
2.21 31.19 2.49
1.58 31.19 2.49
0.95 31.17 2.49
0.32 31.14 2.49
-0.30 31.10 2.49
-0.92 31.05 2.49
-1.55 30.99 2.49
-2.17 30.92 2.49
-2.78 30.83 2.49
-3.40 30.74 2.49
-4.01 30.63 2.49
-4.62 30.51 2.49
-5.19 30.19 2.48
-5.59 28.99 2.39
-6.16 28.85 2.39
-6.74 28.69 2.39
-7.31 28.53 2.39
-7.87 28.35 2.39
-8.43 28.17 2.39
-8.99 27.97 2.39
-9.37 27.26 2.35
-9.39 25.64 2.23
-8.78 22.56 1.97
-9.52 23.07 2.04
-9.58 21.95 1.95
-12.22 26.54 2.39
-12.65 26.08 2.37
-13.03 25.54 2.34
-13.36 24.94 2.31
-13.59 24.19 2.27
-13.96 23.73 2.25
-14.23 23.10 2.22
-14.68 22.80 2.22
-15.13 22.50 2.22
-15.29 21.78 2.18
-15.37 20.98 2.13
-15.52 20.32 2.09
-15.55 19.53 2.04
-15.89 19.15 2.04
-15.91 18.41 1.99
-15.94 17.71 1.95
-16.37 17.47 1.96
-15.98 16.39 1.87
-16.01 15.76 1.84
-16.24 15.36 1.83
-16.51 15.00 1.82
-16.53 14.42 1.79
-16.55 13.87 1.76
-16.57 13.32 1.73
-16.59 12.80 1.71
-16.61 12.29 1.68
-16.62 11.79 1.66
-16.64 11.31 1.64
-16.66 10.84 1.62
-16.67 10.38 1.60
-16.69 9.93 1.58
-16.70 9.49 1.56
-16.72 9.06 1.54
-16.74 8.64 1.53
-16.84 8.27 1.52
-16.76 7.82 1.50
-16.78 7.42 1.48
-16.79 7.02 1.47
-16.81 6.64 1.46
-17.14 6.37 1.47
-18.39 6.42 1.57
-19.81 6.47 1.67
-21.44 6.53 1.80
-23.34 6.60 1.94
-25.59 6.68 2.12
-13.09 3.14 1.08
-13.17 2.88 1.08
-15.20 3.01 1.23
-17.43 3.09 1.41
-20.41 3.19 1.64
-24.36 3.31 1.95
-30.42 3.51 2.42
-6.36 0.61 0.51
-28.73 2.15 2.27
-28.65 1.57 2.26
-26.91 0.93 2.12
-17.76 0.26 1.39
-17.77 -0.10 1.39
-17.78 -0.46 1.39
-18.07 -0.83 1.41
-18.08 -1.19 1.41
-18.10 -1.56 1.41
-17.83 -1.90 1.39
-17.84 -2.26 1.39
-17.85 -2.63 1.40
-17.87 -3.00 1.40
-17.88 -3.37 1.40
-18.17 -3.80 1.43
-18.19 -4.19 1.43
-18.20 -4.58 1.44
-17.93 -4.90 1.42
-17.94 -5.29 1.43
-17.95 -5.69 1.43
-16.99 -5.76 1.36
-17.18 -6.21 1.39
-17.20 -6.61 1.39
-17.21 -7.02 1.40
-17.23 -7.43 1.41
-17.24 -7.85 1.42
-17.26 -8.28 1.43
-17.27 -8.72 1.45
-17.29 -9.16 1.46
-17.64 -9.81 1.50
-17.65 -10.28 1.52
-17.67 -10.78 1.53
-18.12 -11.56 1.59
-17.84 -11.89 1.58
-17.72 -12.33 1.59
-17.74 -12.88 1.61
-18.25 -13.82 1.68
-18.27 -14.42 1.70
-18.29 -15.04 1.73
-18.32 -15.69 1.75
-18.34 -16.36 1.78
-18.37 -17.05 1.81
-18.39 -17.78 1.85
-18.42 -18.53 1.88
-18.45 -19.32 1.92
-18.47 -20.15 1.96
-18.51 -21.01 2.00
-18.54 -21.92 2.05
-19.97 -24.60 2.26
-19.60 -25.16 2.27
-19.24 -25.75 2.28
-18.95 -26.44 2.30
-18.59 -27.08 2.32
-18.52 -28.18 2.37
-18.25 -29.01 2.41
-17.70 -29.43 2.41
-17.14 -29.85 2.41
-16.58 -30.26 2.41
-16.00 -30.65 2.41
-14.00 -28.18 2.19
-14.83 -31.41 2.41
-14.22 -31.77 2.41
-13.62 -32.13 2.41
-12.91 -32.23 2.39
-12.28 -32.56 2.39
-11.65 -32.86 2.39
-11.01 -33.16 2.39
-10.37 -33.44 2.39
-9.71 -33.71 2.39
-9.05 -33.97 2.39
-8.75 -35.68 2.49
-8.05 -35.92 2.49
-7.34 -36.15 2.49
-6.62 -36.35 2.49
-5.90 -36.55 2.49
-5.18 -36.72 2.49
-4.45 -36.89 2.49
-1.62 -16.12 1.09
-1.29 -16.16 1.09
-0.97 -16.20 1.08
-0.65 -16.24 1.08
-0.32 -16.27 1.08
0.01 -27.99 2.49
0.58 -28.01 2.49
1.09 -26.87 2.39
1.63 -26.87 2.39
1.40 -17.36 1.55
2.71 -26.84 2.39
3.25 -26.80 2.39
3.80 -26.76 2.39
3.42 -21.07 1.89
3.84 -20.96 1.88
5.80 -28.44 2.56
6.26 -27.84 2.52
7.01 -28.48 2.58
7.62 -28.49 2.60
5.14 -17.79 1.63
5.19 -16.71 1.54
9.93 -29.82 2.76
10.66 -29.99 2.80
11.42 -30.19 2.83
12.16 -30.31 2.87
12.89 -30.33 2.89
13.63 -30.38 2.92
14.43 -30.50 2.96
15.16 -30.46 2.98
16.20 -30.97 3.06
18.11 -33.00 3.30
19.00 -33.03 3.33
19.91 -33.06 3.38
20.85 -33.10 3.42
21.81 -33.13 3.47
22.80 -33.17 3.52
23.82 -33.20 3.57
24.87 -33.24 3.63
25.96 -33.28 3.69
27.08 -33.32 3.75
28.24 -33.36 3.82
29.50 -33.46 3.90
30.83 -33.58 3.99
32.48 -33.99 4.11
33.94 -34.12 4.21
35.47 -34.25 4.32
6.28 14.36 1.57
6.40 17.41 1.87
11.02 31.96 3.41
6.49 20.14 2.14
7.61 25.36 2.68
6.34 22.76 2.39
5.87 22.85 2.39
5.41 22.93 2.39
4.94 23.01 2.39
4.47 23.07 2.39
4.00 23.13 2.39
2.68 17.57 1.81
2.94 22.27 2.29
2.63 23.59 2.43
2.21 24.27 2.49
1.72 24.28 2.49
1.23 24.28 2.49
0.74 24.28 2.49
0.26 24.26 2.49
-0.23 24.24 2.49
-0.72 24.21 2.49
-1.20 24.16 2.49
-1.69 24.11 2.49
-2.17 24.05 2.49
-2.65 23.98 2.49
-3.13 23.91 2.49
-3.60 23.82 2.49
-4.08 23.72 2.49
-4.55 23.62 2.49
-5.02 23.51 2.49
-5.44 23.18 2.47
-5.71 22.29 2.39
-6.15 22.16 2.39
-6.59 22.02 2.39
-7.03 21.87 2.39
-7.46 21.71 2.39
-7.89 21.55 2.39
-8.32 21.38 2.39
-8.74 21.20 2.39
-9.16 21.01 2.39
-9.65 20.95 2.41
-10.06 20.75 2.41
-10.47 20.53 2.41
-10.84 20.24 2.40
-11.19 19.92 2.39
-11.50 19.55 2.37
-11.80 19.15 2.35
-11.73 18.22 2.27
-12.02 17.87 2.25
-12.31 17.52 2.24
-12.58 17.17 2.23
-12.85 16.82 2.21
-13.11 16.47 2.20
-13.49 16.26 2.21
-14.08 16.29 2.25
-14.43 16.03 2.25
-14.50 15.48 2.22
-14.81 15.18 2.22
-15.14 14.91 2.22
-15.44 14.61 2.22
-15.74 14.30 2.22
-16.03 13.99 2.22
-16.25 13.61 2.21
-16.57 13.32 2.22
-16.59 12.80 2.18
-16.61 12.29 2.15
-16.62 11.79 2.12
-16.64 11.31 2.09
-16.66 10.84 2.07
-16.67 10.38 2.04
-16.69 9.93 2.02
-16.70 9.49 2.00
-16.72 9.06 1.97
-16.73 8.64 1.95
-16.75 8.22 1.93
-16.76 7.81 1.92
-16.78 7.41 1.90
-16.79 7.02 1.88
-16.81 6.63 1.87
-17.15 6.37 1.89
-18.39 6.42 2.01
-19.82 6.47 2.15
-10.15 3.09 1.09
-10.16 2.87 1.09
-10.67 2.79 1.13
-12.08 2.90 1.27
-13.47 2.94 1.41
-15.21 3.01 1.59
-17.45 3.09 1.81
-20.43 3.19 2.11
-23.18 3.15 2.39
-22.41 2.58 2.30
-6.36 0.60 0.65
-22.13 1.65 2.26
-22.17 1.21 2.25
-22.19 0.76 2.25
-17.76 0.26 1.80
-17.77 -0.10 1.80
-17.78 -0.46 1.80
-17.79 -0.82 1.80
-17.81 -1.18 1.80
-17.82 -1.54 1.80
-17.83 -1.90 1.80
-17.84 -2.26 1.80
-17.85 -2.63 1.81
-17.87 -3.00 1.81
-17.88 -3.37 1.82
-17.89 -3.75 1.82
-17.90 -4.13 1.83
-17.92 -4.51 1.83
-17.93 -4.90 1.84
-17.94 -5.29 1.85
-17.93 -5.68 1.86
-16.99 -5.76 1.77
-17.18 -6.22 1.80
-17.20 -6.61 1.81
-17.21 -7.02 1.82
-17.23 -7.43 1.84
-17.24 -7.85 1.85
-17.26 -8.28 1.87
-17.27 -8.72 1.89
-17.29 -9.17 1.90
-17.64 -9.81 1.96
-17.65 -10.29 1.98
-14.99 -9.15 1.70
-18.12 -11.56 2.08
-13.72 -9.15 1.59
-17.72 -12.33 2.08
-17.74 -12.88 2.11
-18.25 -13.82 2.20
-18.27 -14.43 2.23
-18.29 -15.05 2.26
-18.32 -15.69 2.30
-18.15 -16.19 2.32
-17.92 -16.65 2.33
-17.72 -17.13 2.34
-17.50 -17.62 2.35
-17.29 -18.12 2.37
-17.11 -18.67 2.39
-17.00 -19.31 2.42
-16.67 -19.72 2.43
-16.25 -20.03 2.42
-15.89 -20.40 2.42
-15.42 -20.64 2.41
-15.01 -20.95 2.41
-14.61 -21.29 2.41
-14.20 -21.61 2.41
-13.79 -21.93 2.41
-13.37 -22.24 2.41
-12.94 -22.55 2.41
-12.51 -22.84 2.41
-12.07 -23.13 2.41
-11.62 -23.40 2.41
-11.09 -23.51 2.39
-10.64 -23.77 2.39
-10.18 -24.02 2.39
-9.71 -24.26 2.39
-9.23 -24.48 2.39
-8.75 -24.70 2.39
-8.27 -24.91 2.39
-7.78 -25.11 2.39
-7.29 -25.30 2.39
-7.08 -26.58 2.49
-6.56 -26.76 2.49
-6.03 -26.92 2.49
-5.49 -27.08 2.49
-4.95 -27.22 2.49
-4.41 -27.35 2.49
-3.87 -27.47 2.49
-3.32 -27.58 2.49
-1.58 -15.77 1.42
-1.26 -15.79 1.42
-0.94 -15.80 1.42
-0.63 -15.81 1.41
-0.31 -15.82 1.41
0.01 -22.30 2.49
0.46 -22.31 2.49
0.91 -22.32 2.49
1.30 -21.39 2.39
1.41 -17.35 1.94
2.16 -21.36 2.39
2.59 -21.33 2.39
3.02 -21.29 2.39
3.45 -21.24 2.39
3.74 -20.41 2.30
3.54 -17.33 1.96
3.77 -16.77 1.91
5.56 -22.60 2.58
6.02 -22.52 2.58
5.14 -17.78 2.05
5.20 -16.71 1.94
8.30 -24.92 2.91
8.88 -24.98 2.93
9.58 -25.31 2.99
5.30 -13.21 1.57
10.77 -25.34 3.04
11.28 -25.13 3.04
11.78 -24.91 3.04
12.28 -24.67 3.04
12.78 -24.43 3.04
13.27 -24.17 3.04
13.75 -23.90 3.04
14.23 -23.63 3.04
14.77 -23.45 3.05
15.29 -23.23 3.06
15.81 -23.00 3.08
16.33 -22.76 3.09
17.73 -23.70 3.26
26.76 -34.31 4.79
27.98 -34.42 4.89
29.25 -34.54 4.99
30.57 -34.67 5.09
32.00 -34.86 5.22
33.67 -35.24 5.37
6.17 10.97 1.54
6.21 12.14 1.67
12.43 25.57 3.49
11.45 24.80 3.36
6.31 14.42 1.94
9.69 23.43 3.12
7.93 20.32 2.69
7.50 20.42 2.69
6.31 18.29 2.39
5.93 18.39 2.39
5.55 18.49 2.39
5.18 18.57 2.39
4.80 18.65 2.39
4.42 18.73 2.39
4.04 18.79 2.39
3.65 18.85 2.39
3.27 18.90 2.39
2.68 17.56 2.22
2.50 18.98 2.39
2.21 19.82 2.49
1.81 19.85 2.49
1.41 19.86 2.49
1.01 19.87 2.49
0.61 19.87 2.49
0.21 19.86 2.49
-0.19 19.84 2.49
-0.59 19.82 2.49
-0.98 19.79 2.49
-1.38 19.75 2.49
-1.77 19.70 2.49
-2.17 19.65 2.49
-2.56 19.59 2.49
-2.95 19.52 2.49
-3.34 19.44 2.49
-3.73 19.36 2.49
-4.11 19.27 2.49
-4.50 19.17 2.49
-4.88 19.07 2.49
-5.26 18.96 2.49
-5.60 18.71 2.48
-5.76 17.94 2.39
-6.12 17.81 2.39
-6.47 17.68 2.39
-6.82 17.54 2.39
-7.17 17.39 2.39
-7.52 17.24 2.39
-7.86 17.08 2.39
-8.20 16.91 2.39
-8.54 16.74 2.39
-8.87 16.56 2.39
-9.20 16.38 2.39
-9.52 16.19 2.39
-9.90 16.08 2.41
-10.23 15.89 2.41
-10.55 15.68 2.41
-10.85 15.45 2.40
-11.11 15.16 2.39
-11.37 14.88 2.39
-11.62 14.59 2.38
-11.87 14.30 2.37
-12.11 14.01 2.36
-12.34 13.71 2.35
-12.57 13.41 2.34
-12.79 13.12 2.33
-13.02 12.82 2.33
-13.23 12.52 2.32
-13.44 12.21 2.31
-13.65 11.91 2.30
-13.85 11.61 2.30
-14.06 11.30 2.29
-14.25 11.00 2.29
-14.45 10.69 2.28
-14.54 10.31 2.26
-14.56 9.89 2.23
-14.71 9.57 2.23
-14.93 9.29 2.23
-15.15 9.01 2.23
-15.36 8.72 2.24
-15.57 8.43 2.24
-15.78 8.14 2.25
-15.99 7.85 2.25
-16.20 7.55 2.26
-16.40 7.24 2.26
-16.59 6.94 2.27
-16.79 6.62 2.28
-17.15 6.37 2.31
-17.36 6.05 2.31
-17.49 5.71 2.31
-17.61 5.36 2.31
-10.16 2.87 1.33
-10.79 2.82 1.40
-12.08 2.90 1.56
-13.48 2.95 1.73
-15.22 3.01 1.94
-17.46 3.09 2.22
-18.47 2.88 2.34
-18.41 2.50 2.32
-18.36 2.11 2.30
-6.36 0.60 0.80
-18.31 1.37 2.29
-18.31 1.00 2.28
-18.28 0.63 2.27
-17.76 0.25 2.20
-17.77 -0.10 2.20
-17.78 -0.46 2.20
-17.79 -0.82 2.20
-17.81 -1.18 2.20
-17.82 -1.54 2.21
-17.83 -1.90 2.21
-17.84 -2.27 2.21
-17.85 -2.63 2.22
-17.87 -3.00 2.22
-17.88 -3.38 2.23
-17.89 -3.75 2.24
-17.90 -4.13 2.25
-17.92 -4.52 2.26
-17.85 -4.88 2.26
-17.77 -5.24 2.26
-17.67 -5.60 2.25
-16.99 -5.77 2.18
-17.00 -6.15 2.19
-17.02 -6.55 2.21
-17.03 -6.95 2.23
-17.05 -7.36 2.24
-17.06 -7.78 2.26
-16.71 -8.02 2.23
-16.14 -8.15 2.17
-15.63 -8.29 2.13
-15.26 -8.50 2.10
-15.51 -9.05 2.15
-14.89 -9.09 2.09
-14.20 -9.07 2.01
-15.94 -10.63 2.28
-13.15 -9.16 1.91
-12.60 -9.16 1.85
-14.73 -11.16 2.19
-14.58 -11.51 2.20
-14.42 -11.86 2.21
-10.66 -9.14 1.66
-14.08 -12.57 2.23
-14.23 -13.22 2.29
-14.04 -13.58 2.30
-13.84 -13.94 2.31
-13.63 -14.29 2.32
-13.42 -14.65 2.33
-13.55 -15.39 2.40
-13.69 -16.20 2.48
-13.45 -16.58 2.49
-13.01 -16.71 2.47
-12.57 -16.84 2.45
-12.14 -16.96 2.42
-11.74 -17.11 2.41
-11.41 -17.37 2.41
-11.07 -17.62 2.41
-10.66 -17.74 2.39
-10.32 -17.98 2.39
-9.97 -18.21 2.39
-9.61 -18.43 2.39
-9.26 -18.64 2.39
-8.89 -18.85 2.39
-8.52 -19.05 2.39
-8.15 -19.24 2.39
-7.77 -19.43 2.39
-7.39 -19.60 2.39
-7.00 -19.77 2.39
-6.90 -20.80 2.49
-6.49 -20.96 2.49
-6.07 -21.11 2.49
-5.66 -21.25 2.49
-5.24 -21.38 2.49
-4.81 -21.51 2.49
-4.38 -21.63 2.49
-3.95 -21.74 2.49
-3.52 -21.83 2.49
-3.09 -21.92 2.49
-2.65 -22.01 2.49
-1.58 -15.78 1.78
-1.26 -15.79 1.78
-0.94 -15.81 1.78
-0.63 -15.82 1.77
-0.31 -15.83 1.77
0.01 -18.51 2.49
0.38 -18.52 2.49
0.76 -18.53 2.49
1.13 -18.52 2.49
1.41 -17.34 2.34
1.80 -17.72 2.39
2.15 -17.69 2.39
2.51 -17.66 2.39
2.86 -17.62 2.39
3.22 -17.56 2.39
3.57 -17.51 2.39
3.83 -17.01 2.33
3.63 -14.74 2.03
3.67 -13.72 1.90
3.91 -13.53 1.88
5.66 -18.19 2.54
5.22 -15.68 2.21
6.54 -18.40 2.61
7.35 -19.42 2.77
8.36 -20.83 2.99
5.33 -12.55 1.82
9.27 -20.65 3.02
9.70 -20.51 3.02
10.14 -20.36 3.03
5.40 -10.33 1.55
10.97 -19.99 3.04
11.38 -19.77 3.04
11.78 -19.56 3.04
12.18 -19.33 3.04
12.58 -19.11 3.04
13.00 -18.92 3.05
13.42 -18.71 3.06
13.82 -18.48 3.07
14.22 -18.24 3.08
15.56 -19.14 3.28
16.36 -19.32 3.37
6.09 9.03 1.57
13.84 21.44 3.69
12.86 20.82 3.55
6.15 10.42 1.75
11.37 20.19 3.37
10.84 20.18 3.33
10.30 20.14 3.29
9.77 20.09 3.25
8.31 18.00 2.89
6.31 14.42 2.30
6.26 15.12 2.39
5.95 15.23 2.39
5.64 15.33 2.39
5.32 15.43 2.39
5.01 15.52 2.39
4.69 15.60 2.39
4.37 15.67 2.39
4.05 15.74 2.39
3.73 15.81 2.39
3.27 15.23 2.30
3.04 15.65 2.35
2.70 15.58 2.33
2.44 16.00 2.39
2.21 16.72 2.49
1.87 16.75 2.49
1.53 16.77 2.49
1.19 16.79 2.49
0.86 16.79 2.49
0.52 16.80 2.49
0.18 16.79 2.49
-0.16 16.78 2.49
-0.49 16.76 2.49
-0.83 16.74 2.49
-1.16 16.71 2.49
-1.50 16.67 2.49
-1.83 16.63 2.49
-2.17 16.58 2.49
-2.50 16.52 2.49
-2.83 16.46 2.49
-3.15 16.39 2.49
-3.48 16.31 2.49
-3.81 16.23 2.49
-4.13 16.15 2.49
-4.45 16.05 2.49
-4.77 15.95 2.49
-5.09 15.85 2.49
-5.41 15.74 2.49
-5.71 15.59 2.49
-5.78 14.86 2.39
-6.08 14.73 2.39
-6.37 14.60 2.39
-6.66 14.47 2.39
-6.95 14.33 2.39
-7.23 14.18 2.39
-7.51 14.03 2.39
-7.79 13.88 2.39
-8.07 13.71 2.39
-8.34 13.55 2.39
-8.61 13.38 2.39
-8.88 13.20 2.39
-9.14 13.02 2.39
-9.40 12.83 2.39
-9.66 12.64 2.39
-9.98 12.53 2.41
-10.23 12.32 2.41
-10.47 12.12 2.41
-10.71 11.91 2.41
-10.95 11.68 2.41
-11.13 11.41 2.40
-11.32 11.14 2.39
-11.50 10.87 2.38
-11.67 10.60 2.37
-11.84 10.33 2.36
-12.01 10.06 2.35
-12.17 9.78 2.34
-12.33 9.51 2.34
-12.49 9.24 2.33
-12.65 8.97 2.32
-12.80 8.70 2.32
-12.95 8.42 2.31
-13.10 8.15 2.31
-13.30 7.91 2.32
-13.50 7.66 2.32
-13.74 7.44 2.34
-13.99 7.22 2.35
-14.23 6.98 2.37
-14.48 6.74 2.38
-14.72 6.50 2.40
-14.32 5.98 2.31
-14.45 5.70 2.31
-14.57 5.41 2.31
-14.68 5.12 2.31
-14.79 4.83 2.31
-14.90 4.53 2.31
-10.16 2.87 1.57
-10.80 2.82 1.66
-12.09 2.90 1.84
-13.49 2.95 2.05
-15.24 3.01 2.30
-15.98 2.82 2.40
-15.91 2.48 2.38
-15.85 2.15 2.36
-15.77 1.81 2.34
-6.36 0.60 0.94
-15.71 1.17 2.32
-15.66 0.85 2.31
-15.61 0.53 2.30
-15.56 0.22 2.29
-15.50 -0.09 2.28
-15.45 -0.40 2.27
-15.49 -0.72 2.27
-15.54 -1.03 2.28
-15.57 -1.35 2.29
-15.60 -1.67 2.29
-15.63 -1.99 2.30
-15.65 -2.31 2.31
-15.65 -2.63 2.31
-15.66 -2.96 2.32
-15.67 -3.29 2.33
-15.67 -3.62 2.33
-15.66 -3.95 2.34
-15.66 -4.28 2.35
-15.61 -4.61 2.35
-15.51 -4.92 2.35
-15.41 -5.23 2.35
-15.30 -5.54 2.35
-15.19 -5.85 2.34
-15.08 -6.16 2.34
-14.97 -6.47 2.34
-10.52 -4.79 1.66
-14.51 -6.97 2.31
-14.27 -7.21 2.29
-10.55 -5.60 1.71
-13.60 -7.57 2.22
-13.30 -7.76 2.20
-13.00 -7.94 2.17
-12.93 -8.26 2.18
-10.59 -7.07 1.81
-13.06 -9.10 2.26
-12.51 -9.10 2.19
-10.58 -8.02 1.88
-11.54 -9.12 2.08
-12.94 -10.65 2.37
-10.59 -9.08 1.97
-12.22 -10.91 2.31
-12.06 -11.21 2.32
-11.89 -11.51 2.33
-11.71 -11.80 2.34
-11.53 -12.10 2.34
-11.35 -12.39 2.35
-11.16 -12.68 2.36
-11.12 -13.16 2.41
-10.86 -13.40 2.41
-10.54 -13.54 2.39
-10.27 -13.76 2.39
-10.01 -13.98 2.39
-9.74 -14.20 2.39
-9.46 -14.41 2.39
-9.18 -14.61 2.39
-8.90 -14.81 2.39
-8.61 -15.00 2.39
-8.31 -15.19 2.39
-8.02 -15.37 2.39
-7.72 -15.55 2.39
-7.41 -15.72 2.39
-7.10 -15.88 2.39
-6.84 -16.16 2.41
-6.75 -16.89 2.49
-6.42 -17.04 2.49
-6.08 -17.18 2.49
-5.74 -17.32 2.49
-5.40 -17.45 2.49
-5.05 -17.57 2.49
-4.71 -17.69 2.49
-4.35 -17.79 2.49
-4.00 -17.90 2.49
-3.64 -17.99 2.49
-3.29 -18.08 2.49
-2.92 -18.15 2.49
-2.56 -18.23 2.49
-1.91 -15.86 2.16
-1.57 -15.68 2.13
-1.26 -15.80 2.14
-0.94 -15.82 2.14
-0.62 -15.83 2.14
-0.30 -15.73 2.12
0.01 -15.81 2.49
0.33 -15.82 2.49
0.65 -15.82 2.49
0.97 -15.82 2.49
1.25 -15.37 2.43
1.53 -15.13 2.39
1.84 -15.10 2.39
2.14 -15.07 2.39
2.45 -15.03 2.39
2.75 -14.99 2.39
3.05 -14.94 2.39
3.35 -14.88 2.39
3.65 -14.82 2.39
3.89 -14.55 2.36
3.92 -13.57 2.21
4.54 -14.59 2.39
4.83 -14.50 2.39
5.12 -14.41 2.39
5.77 -15.25 2.55
6.12 -15.23 2.57
6.47 -15.23 2.59
7.25 -16.14 2.76
7.95 -16.80 2.90
8.53 -17.13 2.99
8.89 -16.99 2.99
5.42 -9.87 1.76
9.63 -16.73 3.01
10.00 -16.59 3.02
10.36 -16.45 3.03
5.48 -8.32 1.55
11.03 -16.05 3.04
11.36 -15.83 3.04
11.67 -15.60 3.04
11.98 -15.36 3.04
12.29 -15.12 3.04
12.60 -14.88 3.04
12.99 -14.73 3.06
13.37 -14.57 3.09
13.76 -14.40 3.11
14.14 -14.21 3.13
14.51 -14.02 3.15
47.94 1.63 7.66
6.05 6.98 1.54
6.03 7.25 1.57
14.46 18.11 3.87
13.06 17.05 3.59
12.38 16.85 3.50
11.74 16.67 3.41
11.30 16.75 3.39
10.90 16.88 3.37
10.50 17.00 3.36
6.15 10.42 2.03
6.17 10.94 2.11
8.75 16.29 3.11
7.86 15.37 2.91
6.20 12.75 2.39
5.94 12.86 2.39
5.68 12.96 2.39
5.41 13.06 2.39
5.14 13.15 2.39
4.87 13.24 2.39
4.60 13.33 2.39
4.33 13.41 2.39
4.05 13.48 2.39
3.78 13.55 2.39
3.33 12.92 2.27
3.17 13.44 2.35
2.90 13.49 2.35
2.63 13.52 2.35
2.39 13.80 2.39
2.20 14.43 2.49
1.91 14.47 2.49
1.62 14.49 2.49
1.33 14.51 2.49
1.04 14.52 2.49
0.74 14.53 2.49
0.45 14.53 2.49
0.16 14.53 2.49
-0.13 14.52 2.49
-0.43 14.51 2.49
-0.72 14.49 2.49
-1.01 14.46 2.49
-1.30 14.43 2.49
-1.59 14.40 2.49
-1.87 14.35 2.49
-2.16 14.31 2.49
-2.45 14.25 2.49
-2.73 14.19 2.49
-3.01 14.13 2.49
-3.30 14.06 2.49
-3.58 13.99 2.49
-3.86 13.91 2.49
-4.13 13.82 2.49
-4.41 13.73 2.49
-4.68 13.64 2.49
-4.95 13.53 2.49
-5.22 13.43 2.49
-5.49 13.32 2.49
-5.76 13.20 2.49
-5.82 12.65 2.41
-6.03 12.45 2.40
-6.27 12.29 2.39
-6.51 12.16 2.39
-6.75 12.03 2.39
-6.99 11.89 2.39
-7.23 11.74 2.39
-7.46 11.59 2.39
-7.70 11.44 2.39
-7.92 11.28 2.39
-8.15 11.12 2.39
-8.37 10.96 2.39
-8.59 10.79 2.39
-8.80 10.61 2.39
-9.02 10.43 2.39
-9.23 10.25 2.39
-9.43 10.06 2.39
-9.63 9.87 2.39
-9.83 9.68 2.39
-10.09 9.54 2.41
-10.28 9.34 2.41
-10.47 9.13 2.41
-10.65 8.92 2.41
-10.83 8.71 2.41
-11.01 8.49 2.41
-11.15 8.25 2.40
-11.29 8.01 2.40
-11.43 7.76 2.39
-11.58 7.53 2.39
-11.76 7.32 2.39
-11.94 7.10 2.40
-12.11 6.87 2.41
-12.28 6.65 2.41
-11.92 6.15 2.31
-12.05 5.91 2.31
-12.17 5.67 2.31
-12.29 5.43 2.31
-12.40 5.18 2.31
-12.51 4.93 2.31
-12.61 4.68 2.31
-12.71 4.43 2.31
-12.80 4.18 2.31
-12.89 3.92 2.31
-10.16 2.87 1.81
-10.80 2.82 1.92
-12.10 2.90 2.13
-13.50 2.95 2.37
-13.50 2.66 2.36
-13.43 2.37 2.33
-13.35 2.08 2.31
-10.30 1.39 1.78
-10.31 1.18 1.77
-6.36 0.60 1.09
-10.33 0.77 1.77
-10.33 0.56 1.76
-13.53 0.46 2.30
-13.58 0.19 2.31
-13.64 -0.08 2.32
-13.69 -0.36 2.32
-13.72 -0.64 2.33
-13.76 -0.92 2.34
-13.81 -1.20 2.35
-10.39 -1.11 1.77
-10.40 -1.32 1.77
-10.40 -1.54 1.78
-10.42 -1.75 1.78
-10.42 -1.97 1.79
-10.43 -2.19 1.79
-10.43 -2.41 1.80
-13.89 -3.51 2.41
-13.83 -3.79 2.41
-13.77 -4.07 2.41
-10.47 -3.32 1.84
-13.63 -4.63 2.41
-13.55 -4.91 2.41
-13.44 -5.18 2.41
-13.33 -5.45 2.40
-13.21 -5.71 2.40
-10.52 -4.80 1.93
-12.98 -6.24 2.40
-12.87 -6.51 2.40
-10.55 -5.60 1.98
-10.56 -5.89 2.01
-12.11 -7.07 2.32
-12.02 -7.34 2.33
-10.60 -6.77 2.08
-10.52 -7.02 2.09
-10.54 -7.35 2.12
-10.54 -7.66 2.15
-10.54 -7.99 2.18
-10.54 -8.33 2.21
-10.54 -8.68 2.24
-10.54 -9.04 2.28
-10.95 -9.78 2.41
-10.76 -10.01 2.41
-10.50 -10.17 2.39
-10.31 -10.39 2.39
-10.11 -10.60 2.39
-9.90 -10.81 2.39
-9.69 -11.02 2.39
-9.48 -11.23 2.39
-9.26 -11.43 2.39
-9.04 -11.62 2.39
-8.81 -11.81 2.39
-8.58 -12.00 2.39
-8.35 -12.18 2.39
-8.11 -12.36 2.39
-7.87 -12.53 2.39
-7.63 -12.70 2.39
-7.38 -12.86 2.39
-7.12 -13.02 2.39
-6.87 -13.18 2.39
-6.74 -13.60 2.44
-6.62 -14.05 2.49
-6.34 -14.19 2.49
-6.06 -14.33 2.49
-5.78 -14.46 2.49
-5.49 -14.59 2.49
-5.20 -14.71 2.49
-4.91 -14.82 2.49
-4.62 -14.93 2.49
-4.32 -15.04 2.49
-4.02 -15.13 2.49
-3.72 -15.22 2.49
-3.42 -15.31 2.49
-3.11 -15.39 2.49
-2.81 -15.46 2.49
-2.50 -15.52 2.49
-2.19 -15.58 2.49
-1.88 -15.63 2.49
-1.56 -15.68 2.49
-1.25 -15.72 2.49
-0.94 -15.75 2.49
-0.62 -15.78 2.49
-0.30 -15.80 2.49
0.01 -13.79 2.49
0.29 -13.79 2.49
0.57 -13.79 2.49
0.84 -13.79 2.49
1.12 -13.77 2.49
1.34 -13.19 2.39
1.60 -13.16 2.39
1.77 -12.47 2.27
2.10 -12.89 2.35
2.29 -12.49 2.29
2.66 -13.02 2.39
2.92 -12.97 2.39
3.18 -12.91 2.39
3.44 -12.85 2.39
3.70 -12.78 2.39
3.95 -12.71 2.39
4.21 -12.63 2.39
4.46 -12.55 2.39
4.72 -12.46 2.39
4.97 -12.37 2.39
5.21 -12.27 2.39
5.84 -13.02 2.56
5.38 -11.36 2.25
6.45 -12.95 2.59
5.41 -10.34 2.09
5.42 -9.87 2.02
8.32 -14.46 2.99
8.74 -14.51 3.04
5.47 -8.68 1.84
9.32 -14.15 3.04
9.60 -13.97 3.04
9.88 -13.77 3.04
10.16 -13.58 3.04
10.43 -13.37 3.04
5.53 -6.80 1.57
5.55 -6.55 1.54
11.24 -12.75 3.05
11.50 -12.53 3.05
11.75 -12.30 3.05
12.00 -12.07 3.05
12.25 -11.83 3.05
12.49 -11.59 3.05
12.75 -11.36 3.06
13.10 -11.21 3.09
13.43 -11.04 3.12
13.77 -10.86 3.15
14.10 -10.67 3.17
14.43 -10.47 3.20
45.55 -2.11 8.32
49.09 -1.29 8.96
48.51 -0.30 8.86
46.44 0.64 8.49
46.43 1.57 8.50
48.23 2.60 8.84
48.45 3.59 8.90
48.94 4.62 9.02
5.97 5.63 1.55
14.31 14.05 3.79
13.29 13.59 3.60
12.82 13.64 3.55
12.34 13.67 3.49
11.85 13.67 3.44
11.43 13.73 3.39
11.11 13.91 3.39
10.79 14.08 3.38
10.46 14.23 3.37
10.13 14.37 3.35
6.10 9.04 2.08
9.33 14.44 3.28
8.59 13.90 3.12
6.15 10.42 2.32
4.83 8.56 1.88
4.65 8.65 1.88
4.48 8.75 1.89
4.47 9.19 1.96
5.22 11.30 2.39
4.99 11.39 2.39
4.76 11.48 2.39
4.52 11.57 2.39
4.29 11.64 2.39
4.05 11.72 2.39
3.81 11.79 2.39
3.57 11.86 2.39
3.16 11.31 2.27
3.03 11.77 2.35
2.79 11.82 2.35
2.57 11.94 2.37
2.35 12.11 2.39
2.20 12.67 2.49
1.94 12.70 2.49
1.69 12.73 2.49
1.43 12.76 2.49
1.17 12.77 2.49
0.91 12.79 2.49
0.66 12.80 2.49
0.40 12.80 2.49
0.14 12.80 2.49
-0.12 12.79 2.49
-0.37 12.78 2.49
-0.63 12.76 2.49
-0.89 12.74 2.49
-1.14 12.71 2.49
-1.40 12.68 2.49
-1.65 12.65 2.49
-1.90 12.60 2.49
-2.15 12.56 2.49
-2.41 12.51 2.49
-2.66 12.45 2.49
-2.90 12.39 2.49
-3.15 12.33 2.49
-3.40 12.26 2.49
-3.64 12.18 2.49
-3.89 12.10 2.49
-4.13 12.02 2.49
-4.37 11.93 2.49
-4.60 11.84 2.49
-4.84 11.74 2.49
-5.07 11.64 2.49
-5.31 11.53 2.49
-5.54 11.42 2.49
-5.76 11.30 2.49
-5.87 10.97 2.45
-5.95 10.60 2.39
-6.17 10.48 2.39
-6.37 10.35 2.39
-6.58 10.22 2.39
-6.78 10.09 2.39
-6.99 9.95 2.39
-7.18 9.80 2.39
-7.38 9.66 2.39
-7.57 9.51 2.39
-7.76 9.35 2.39
-7.95 9.20 2.39
-8.13 9.04 2.39
-8.31 8.87 2.39
-8.49 8.70 2.39
-8.67 8.53 2.39
-8.84 8.36 2.39
-9.00 8.18 2.39
-9.17 8.00 2.39
-9.33 7.81 2.39
-9.49 7.63 2.39
-9.64 7.44 2.39
-9.79 7.24 2.39
-9.94 7.05 2.39
-10.15 6.89 2.41
-10.29 6.69 2.41
-10.42 6.48 2.41
-10.23 6.08 2.33
-10.31 5.85 2.32
-10.38 5.62 2.31
-10.50 5.42 2.31
-10.62 5.21 2.31
-10.72 4.99 2.31
-10.83 4.78 2.31
-10.92 4.56 2.31
-11.02 4.34 2.31
-11.11 4.12 2.31
-11.20 3.90 2.31
-11.28 3.68 2.31
-11.35 3.45 2.31
-10.16 2.87 2.06
-10.34 2.69 2.08
-11.83 2.83 2.37
-11.87 2.59 2.37
-11.92 2.35 2.36
-11.96 2.11 2.36
-12.00 1.87 2.36
-10.30 1.39 2.02
-10.31 1.18 2.01
-6.36 0.60 1.24
-10.33 0.77 2.01
-10.33 0.56 2.00
-12.27 0.42 2.37
-12.28 0.17 2.37
-12.29 -0.08 2.37
-12.29 -0.32 2.37
-12.32 -0.57 2.38
-12.36 -0.82 2.39
-12.40 -1.08 2.40
-10.39 -1.11 2.01
-10.40 -1.33 2.02
-10.40 -1.54 2.02
-12.41 -2.09 2.42
-10.42 -1.97 2.03
-10.43 -2.19 2.04
-10.44 -2.41 2.05
-12.22 -3.09 2.41
-10.50 -2.88 2.08
-10.45 -3.09 2.08
-10.40 -3.30 2.08
-10.40 -3.54 2.10
-10.41 -3.78 2.11
-10.45 -4.03 2.13
-10.46 -4.27 2.15
-10.46 -4.52 2.17
-10.47 -4.78 2.19
-10.48 -5.04 2.21
-10.49 -5.31 2.23
-10.50 -5.58 2.25
-10.51 -5.86 2.28
-10.52 -6.14 2.30
-10.53 -6.44 2.33
-10.54 -6.74 2.36
-10.54 -7.04 2.39
-10.42 -7.27 2.39
-10.28 -7.48 2.39
-10.14 -7.69 2.39
-9.99 -7.90 2.39
-9.84 -8.11 2.39
-9.69 -8.31 2.39
-9.53 -8.51 2.39
-9.36 -8.71 2.39
-9.19 -8.91 2.39
-9.02 -9.10 2.39
-8.85 -9.28 2.39
-8.67 -9.47 2.39
-8.48 -9.65 2.39
-8.29 -9.83 2.39
-8.10 -10.00 2.39
-7.91 -10.17 2.39
-7.71 -10.34 2.39
-7.51 -10.50 2.39
-7.30 -10.66 2.39
-7.09 -10.81 2.39
-6.88 -10.96 2.39
-6.67 -11.11 2.39
-6.67 -11.65 2.48
-6.49 -11.88 2.49
-6.26 -12.01 2.49
-6.02 -12.15 2.49
-5.78 -12.28 2.49
-5.54 -12.40 2.49
-5.29 -12.52 2.49
-5.05 -12.63 2.49
-4.80 -12.74 2.49
-4.54 -12.85 2.49
-4.29 -12.95 2.49
-4.03 -13.04 2.49
-3.77 -13.13 2.49
-3.51 -13.21 2.49
-3.25 -13.29 2.49
-2.98 -13.36 2.49
-2.72 -13.43 2.49
-2.45 -13.49 2.49
-2.18 -13.54 2.49
-1.91 -13.60 2.49
-1.64 -13.64 2.49
-1.36 -13.68 2.49
-1.09 -13.71 2.49
-0.81 -13.74 2.49
-0.54 -13.76 2.49
-0.26 -13.78 2.49
0.01 -12.21 2.49
0.26 -12.22 2.49
0.50 -12.21 2.49
0.75 -12.21 2.49
0.99 -12.20 2.49
1.24 -12.18 2.49
1.42 -11.66 2.39
1.66 -11.63 2.39
1.79 -11.01 2.27
2.09 -11.37 2.35
2.32 -11.33 2.35
2.45 -10.89 2.27
2.82 -11.43 2.39
3.05 -11.37 2.39
3.27 -11.31 2.39
3.50 -11.25 2.39
3.73 -11.18 2.39
3.95 -11.10 2.39
4.17 -11.03 2.39
4.39 -10.94 2.39
4.61 -10.86 2.39
4.83 -10.76 2.39
5.05 -10.67 2.39
5.26 -10.56 2.39
5.76 -11.02 2.52
5.42 -9.87 2.28
6.24 -10.85 2.54
6.48 -10.76 2.54
6.82 -10.83 2.59
7.31 -11.10 2.69
7.82 -11.38 2.80
8.47 -11.80 2.94
8.80 -11.77 2.98
9.05 -11.60 2.98
9.29 -11.43 2.98
9.55 -11.29 2.99
9.82 -11.14 3.01
10.08 -10.98 3.02
10.34 -10.82 3.03
10.59 -10.65 3.04
5.58 -5.39 1.57
5.59 -5.18 1.54
11.25 -10.03 3.06
11.46 -9.81 3.06
11.67 -9.59 3.06
11.87 -9.37 3.07
12.08 -9.14 3.07
12.29 -8.92 3.08
12.49 -8.69 3.09
12.69 -8.45 3.09
12.98 -8.28 3.13
13.42 -8.18 3.19
13.86 -8.07 3.26
14.30 -7.95 3.33
14.69 -7.79 3.38
48.38 -3.23 9.97
45.71 -2.13 9.41
45.62 -1.21 9.40
46.16 -0.30 9.51
46.05 0.63 9.49
45.95 1.55 9.49
46.21 2.49 9.56
46.46 3.44 9.63
46.90 4.41 9.74
47.38 5.42 9.87
47.76 6.44 9.98
48.10 7.47 10.09
48.19 8.48 10.15
37.05 17.21 8.56
35.70 17.47 8.34
34.64 17.82 8.18
33.74 18.22 8.06
33.14 18.76 8.01
32.59 19.32 7.97
32.09 19.91 7.95
31.59 20.49 7.94
15.28 10.35 3.89
5.95 4.21 1.54
5.93 4.37 1.56
5.94 4.57 1.59
12.87 10.31 3.49
12.53 10.46 3.46
12.19 10.60 3.43
11.85 10.73 3.39
11.51 10.85 3.36
5.99 5.88 1.78
10.88 11.11 3.31
10.56 11.24 3.28
10.25 11.35 3.26
9.93 11.46 3.23
9.72 11.68 3.24
9.50 11.89 3.25
7.78 10.14 2.73
6.07 8.26 2.19
6.08 8.63 2.26
6.83 10.12 2.62
6.05 9.37 2.39
4.85 7.85 1.98
4.64 7.85 1.96
4.44 7.87 1.94
4.44 8.26 2.02
4.65 9.07 2.19
4.86 9.98 2.39
4.66 10.07 2.39
4.45 10.15 2.39
4.24 10.23 2.39
4.03 10.31 2.39
3.82 10.38 2.39
3.61 10.45 2.39
3.40 10.51 2.39
3.18 10.57 2.39
2.97 10.63 2.39
2.75 10.68 2.39
2.54 10.72 2.39
2.32 10.76 2.39
2.19 11.25 2.49
1.96 11.30 2.49
1.73 11.33 2.49
1.51 11.36 2.49
1.28 11.38 2.49
1.05 11.40 2.49
0.82 11.41 2.49
0.59 11.42 2.49
0.36 11.42 2.49
0.13 11.42 2.49
-0.10 11.42 2.49
-0.33 11.41 2.49
-0.56 11.39 2.49
-0.79 11.37 2.49
-1.02 11.35 2.49
-1.24 11.32 2.49
-1.47 11.29 2.49
-1.70 11.25 2.49
-1.92 11.21 2.49
-2.15 11.17 2.49
-2.37 11.12 2.49
-2.59 11.07 2.49
-2.81 11.01 2.49
-3.03 10.95 2.49
-3.25 10.88 2.49
-3.47 10.81 2.49
-3.68 10.73 2.49
-3.90 10.66 2.49
-4.11 10.57 2.49
-4.32 10.49 2.49
-4.53 10.39 2.49
-4.74 10.30 2.49
-4.94 10.20 2.49
-5.15 10.10 2.49
-5.35 9.99 2.49
-5.55 9.88 2.49
-5.74 9.77 2.49
-5.92 9.62 2.49
-5.94 9.23 2.42
-6.06 9.01 2.39
-6.24 8.89 2.39
-6.42 8.76 2.39
-6.59 8.63 2.39
-6.76 8.49 2.39
-6.93 8.36 2.39
-7.10 8.22 2.39
-7.27 8.07 2.39
-7.43 7.92 2.39
-7.59 7.77 2.39
-7.74 7.62 2.39
-7.89 7.46 2.39
-8.04 7.31 2.39
-8.19 7.14 2.39
-8.33 6.98 2.39
-8.47 6.81 2.39
-8.61 6.64 2.39
-8.74 6.47 2.39
-8.88 6.29 2.39
-9.00 6.11 2.39
-9.13 5.93 2.39
-9.25 5.75 2.39
-9.36 5.56 2.39
-9.48 5.38 2.39
-9.59 5.19 2.39
-9.69 5.00 2.39
-9.79 4.80 2.39
-9.89 4.61 2.39
-9.98 4.40 2.39
-10.03 4.19 2.38
-10.09 3.98 2.37
-10.14 3.76 2.37
-10.18 3.55 2.36
-10.23 3.33 2.35
-10.15 3.09 2.32
-10.16 2.87 2.31
-10.21 2.66 2.30
-10.22 2.44 2.29
-10.23 2.23 2.28
-10.23 2.02 2.27
-10.24 1.80 2.27
-10.25 1.59 2.26
-10.26 1.38 2.25
-10.26 1.18 2.25
-6.33 0.60 1.38
-6.42 0.47 1.40
-10.28 0.55 2.24
-10.29 0.35 2.23
-10.30 0.14 2.23
-10.31 -0.07 2.23
-10.31 -0.27 2.23
-10.32 -0.48 2.24
-10.33 -0.69 2.24
-10.34 -0.90 2.24
-10.34 -1.11 2.25
-10.35 -1.32 2.25
-10.36 -1.54 2.26
-10.37 -1.75 2.26
-10.37 -1.97 2.27
-10.38 -2.18 2.28
-10.39 -2.41 2.29
-10.40 -2.63 2.30
-10.41 -2.85 2.32
-10.41 -3.08 2.33
-10.42 -3.31 2.34
-10.43 -3.55 2.36
-10.44 -3.79 2.38
-10.45 -4.03 2.39
-10.36 -4.24 2.39
-10.28 -4.45 2.39
-10.20 -4.66 2.39
-10.11 -4.87 2.39
-10.02 -5.07 2.39
-9.93 -5.28 2.39
-9.83 -5.48 2.39
-9.72 -5.68 2.39
-9.61 -5.88 2.39
-9.50 -6.08 2.39
-9.39 -6.27 2.39
-9.27 -6.46 2.39
-9.14 -6.65 2.39
-9.02 -6.84 2.39
-8.88 -7.03 2.39
-8.75 -7.21 2.39
-8.61 -7.39 2.39
-8.47 -7.57 2.39
-8.32 -7.74 2.39
-8.17 -7.92 2.39
-8.02 -8.08 2.39
-7.86 -8.25 2.39
-7.70 -8.41 2.39
-7.53 -8.57 2.39
-7.37 -8.73 2.39
-7.20 -8.88 2.39
-7.02 -9.03 2.39
-6.84 -9.18 2.39
-6.66 -9.32 2.39
-6.60 -9.64 2.44
-6.57 -10.01 2.49
-6.37 -10.15 2.49
-6.17 -10.28 2.49
-5.97 -10.41 2.49
-5.76 -10.54 2.49
-5.55 -10.66 2.49
-5.34 -10.78 2.49
-5.13 -10.89 2.49
-4.91 -11.00 2.49
-4.69 -11.11 2.49
-4.47 -11.21 2.49
-4.25 -11.30 2.49
-4.03 -11.39 2.49
-3.80 -11.48 2.49
-3.57 -11.56 2.49
-3.34 -11.64 2.49
-3.11 -11.71 2.49
-2.88 -11.78 2.49
-2.64 -11.84 2.49
-2.41 -11.90 2.49
-2.17 -11.95 2.49
-1.93 -12.00 2.49
-1.69 -12.05 2.49
-1.45 -12.09 2.49
-1.21 -12.12 2.49
-0.96 -12.15 2.49
-0.72 -12.17 2.49
-0.48 -12.19 2.49
-0.23 -12.20 2.49
0.01 -10.95 2.49
0.23 -10.95 2.49
0.45 -10.95 2.49
0.67 -10.94 2.49
0.89 -10.93 2.49
1.11 -10.92 2.49
1.33 -10.90 2.49
1.48 -10.42 2.39
1.69 -10.40 2.39
1.81 -9.84 2.27
2.08 -10.16 2.35
2.28 -10.12 2.35
2.40 -9.73 2.27
2.73 -10.19 2.39
2.93 -10.14 2.39
3.14 -10.08 2.39
3.34 -10.02 2.39
3.54 -9.95 2.39
3.74 -9.88 2.39
3.94 -9.80 2.39
4.13 -9.73 2.39
4.33 -9.64 2.39
4.52 -9.55 2.39
4.71 -9.46 2.39
4.90 -9.37 2.39
5.09 -9.27 2.39
5.28 -9.17 2.39
5.46 -9.06 2.39
5.96 -9.47 2.53
5.48 -8.33 2.25
5.50 -8.00 2.19
6.58 -9.17 2.55
6.86 -9.17 2.59
5.53 -7.09 2.03
7.71 -9.49 2.76
5.55 -6.55 1.94
8.64 -9.80 2.95
8.88 -9.68 2.97
9.11 -9.53 2.98
9.33 -9.38 2.99
9.55 -9.22 3.00
9.76 -9.06 3.01
9.97 -8.89 3.02
10.18 -8.72 3.03
10.38 -8.54 3.04
10.58 -8.35 3.05
10.78 -8.16 3.06
5.63 -4.08 1.57
5.63 -3.92 1.55
5.65 -3.77 1.54
11.48 -7.32 3.09
11.66 -7.11 3.10
11.84 -6.90 3.11
12.01 -6.68 3.12
12.19 -6.46 3.13
12.35 -6.24 3.14
12.52 -6.01 3.15
12.68 -5.78 3.16
12.83 -5.54 3.18
13.07 -5.33 3.21
13.38 -5.15 3.26
13.68 -4.95 3.31
13.97 -4.74 3.36
14.26 -4.52 3.41
14.53 -4.29 3.45
14.79 -4.05 3.50
38.94 -6.56 9.03
38.85 -5.75 8.98
39.77 -5.07 9.17
41.65 -4.47 9.59
42.86 -3.73 9.86
44.32 -2.96 10.18
44.12 -2.06 10.13
44.05 -1.17 10.11
44.03 -0.29 10.11
44.03 0.59 10.12
44.06 1.48 10.13
44.27 2.37 10.20
44.52 3.28 10.28
44.93 4.22 10.40
45.43 5.19 10.54
45.93 6.18 10.69
46.34 7.19 10.82
46.57 8.18 10.92
46.71 9.17 11.00
46.82 10.18 11.08
46.93 11.19 11.17
15.25 3.96 3.65
15.14 4.26 3.65
14.98 4.54 3.63
14.80 4.81 3.61
14.63 5.08 3.60
14.45 5.35 3.58
14.25 5.60 3.56
13.94 5.80 3.52
13.61 5.99 3.47
13.29 6.17 3.42
13.15 6.43 3.41
5.88 3.02 1.54
5.88 3.18 1.56
12.59 7.12 3.38
12.39 7.34 3.37
12.19 7.56 3.36
11.96 7.75 3.34
11.73 7.94 3.32
11.49 8.12 3.30
11.26 8.30 3.29
11.05 8.50 3.28
10.81 8.66 3.26
10.55 8.81 3.24
10.30 8.96 3.22
10.05 9.10 3.20
9.80 9.24 3.18
9.55 9.37 3.16
9.10 9.29 3.07
8.21 8.73 2.83
7.52 8.33 2.66
7.23 8.33 2.61
7.14 8.58 2.65
7.03 8.79 2.67
6.79 8.86 2.65
5.96 8.11 2.39
5.80 8.22 2.39
5.63 8.33 2.39
5.45 8.43 2.39
5.28 8.54 2.39
4.78 8.09 2.24
4.57 8.10 2.22
4.75 8.82 2.39
4.56 8.91 2.39
4.38 8.99 2.39
4.20 9.07 2.39
4.01 9.15 2.39
3.82 9.22 2.39
3.64 9.29 2.39
3.45 9.35 2.39
3.26 9.42 2.39
3.06 9.47 2.39
2.87 9.53 2.39
2.68 9.58 2.39
2.48 9.62 2.39
2.29 9.67 2.39
2.14 9.93 2.45
1.98 10.16 2.49
1.77 10.19 2.49
1.57 10.22 2.49
1.36 10.24 2.49
1.15 10.26 2.49
0.94 10.28 2.49
0.74 10.29 2.49
0.53 10.30 2.49
0.32 10.30 2.49
0.12 10.30 2.49
-0.09 10.30 2.49
-0.30 10.29 2.49
-0.50 10.28 2.49
-0.71 10.26 2.49
-0.92 10.24 2.49
-1.12 10.22 2.49
-1.33 10.19 2.49
-1.53 10.16 2.49
-1.73 10.12 2.49
-1.94 10.08 2.49
-2.14 10.03 2.49
-2.34 9.99 2.49
-2.54 9.93 2.49
-2.74 9.88 2.49
-2.93 9.82 2.49
-3.13 9.76 2.49
-3.33 9.69 2.49
-3.52 9.62 2.49
-3.71 9.54 2.49
-3.90 9.46 2.49
-4.09 9.38 2.49
-4.28 9.30 2.49
-4.46 9.21 2.49
-4.65 9.11 2.49
-4.83 9.02 2.49
-5.01 8.92 2.49
-5.19 8.82 2.49
-5.36 8.71 2.49
-5.54 8.60 2.49
-5.71 8.48 2.49
-5.88 8.37 2.49
-5.97 8.15 2.47
-5.99 7.84 2.41
-6.11 7.67 2.39
-6.26 7.54 2.39
-6.41 7.42 2.39
-6.56 7.29 2.39
-6.70 7.15 2.39
-6.85 7.02 2.39
-6.99 6.88 2.39
-7.13 6.74 2.39
-7.26 6.59 2.39
-7.39 6.45 2.39
-7.52 6.30 2.39
-7.65 6.15 2.39
-7.77 5.99 2.39
-7.89 5.84 2.39
-8.01 5.68 2.39
-8.13 5.52 2.39
-8.24 5.35 2.39
-8.35 5.19 2.39
-8.45 5.02 2.39
-8.55 4.85 2.39
-8.65 4.68 2.39
-8.75 4.51 2.39
-8.84 4.33 2.39
-8.93 4.15 2.39
-9.01 3.98 2.39
-9.09 3.80 2.39
-9.17 3.61 2.39
-9.24 3.43 2.39
-9.32 3.24 2.39
-9.38 3.06 2.39
-9.45 2.87 2.39
-9.51 2.68 2.39
-9.56 2.49 2.39
-9.62 2.30 2.39
-9.66 2.10 2.39
-9.71 1.91 2.39
-9.75 1.72 2.39
-9.79 1.52 2.39
-9.82 1.32 2.39
-9.85 1.13 2.39
-6.33 0.60 1.53
-6.42 0.47 1.55
-9.92 0.53 2.39
-9.93 0.33 2.39
-9.94 0.13 2.39
-9.95 -0.07 2.39
-9.95 -0.27 2.39
-9.95 -0.47 2.39
-9.95 -0.67 2.39
-9.94 -0.87 2.39
-9.92 -1.07 2.39
-9.91 -1.27 2.39
-9.89 -1.47 2.39
-9.86 -1.67 2.39
-9.83 -1.87 2.39
-9.80 -2.06 2.39
-9.76 -2.26 2.39
-9.72 -2.46 2.39
-9.68 -2.66 2.39
-9.63 -2.85 2.39
-9.58 -3.05 2.39
-9.52 -3.24 2.39
-9.46 -3.43 2.39
-9.40 -3.63 2.39
-9.33 -3.82 2.39
-9.26 -4.01 2.39
-9.18 -4.19 2.39
-9.10 -4.38 2.39
-9.02 -4.57 2.39
-8.93 -4.75 2.39
-8.84 -4.93 2.39
-8.75 -5.11 2.39
-8.65 -5.29 2.39
-8.55 -5.47 2.39
-8.44 -5.64 2.39
-8.33 -5.82 2.39
-8.22 -5.99 2.39
-8.11 -6.16 2.39
-7.99 -6.32 2.39
-7.87 -6.49 2.39
-7.74 -6.65 2.39
-7.61 -6.81 2.39
-7.48 -6.96 2.39
-7.34 -7.12 2.39
-7.20 -7.27 2.39
-7.06 -7.42 2.39
-6.92 -7.56 2.39
-6.77 -7.71 2.39
-6.62 -7.85 2.39
-6.55 -8.09 2.42
-6.56 -8.45 2.49
-6.41 -8.60 2.49
-6.24 -8.74 2.49
-6.07 -8.87 2.49
-5.90 -8.99 2.49
-5.72 -9.12 2.49
-5.54 -9.24 2.49
-5.36 -9.35 2.49
-5.17 -9.47 2.49
-4.98 -9.57 2.49
-4.79 -9.68 2.49
-4.60 -9.78 2.49
-4.41 -9.88 2.49
-4.21 -9.97 2.49
-4.01 -10.06 2.49
-3.81 -10.14 2.49
-3.61 -10.23 2.49
-3.41 -10.30 2.49
-3.20 -10.38 2.49
-3.00 -10.44 2.49
-2.79 -10.51 2.49
-2.58 -10.57 2.49
-2.37 -10.62 2.49
-2.16 -10.68 2.49
-1.94 -10.72 2.49
-1.73 -10.77 2.49
-1.51 -10.80 2.49
-1.30 -10.84 2.49
-1.08 -10.87 2.49
-0.86 -10.89 2.49
-0.64 -10.91 2.49
-0.43 -10.93 2.49
-0.21 -10.94 2.49
0.01 -9.91 2.49
0.21 -9.92 2.49
0.41 -9.91 2.49
0.61 -9.91 2.49
0.81 -9.90 2.49
1.01 -9.88 2.49
1.20 -9.86 2.49
1.40 -9.84 2.49
1.53 -9.41 2.39
1.72 -9.38 2.39
1.83 -8.95 2.29
2.06 -9.16 2.35
2.25 -9.11 2.35
2.41 -9.01 2.34
2.52 -8.71 2.27
2.84 -9.12 2.39
3.02 -9.06 2.39
3.20 -9.00 2.39
3.38 -8.94 2.39
3.56 -8.87 2.39
3.74 -8.80 2.39
3.92 -8.72 2.39
4.09 -8.65 2.39
4.26 -8.56 2.39
4.44 -8.48 2.39
4.61 -8.39 2.39
4.77 -8.29 2.39
4.94 -8.20 2.39
5.10 -8.10 2.39
5.26 -7.99 2.39
5.42 -7.89 2.39
6.00 -8.36 2.57
6.18 -8.26 2.58
6.37 -8.16 2.59
6.55 -8.06 2.60
6.75 -7.98 2.61
7.04 -7.98 2.66
7.33 -7.99 2.71
7.63 -7.99 2.76
7.93 -7.98 2.81
8.29 -8.01 2.88
8.68 -8.06 2.96
8.90 -7.93 2.98
9.08 -7.77 2.99
9.26 -7.61 3.00
9.43 -7.44 3.01
9.60 -7.27 3.01
9.77 -7.09 3.02
9.94 -6.91 3.03
10.10 -6.73 3.04
10.25 -6.54 3.05
5.65 -3.45 1.66
10.55 -6.15 3.06
10.70 -5.95 3.07
10.84 -5.75 3.08
10.98 -5.54 3.08
5.67 -2.72 1.58
5.68 -2.59 1.57
5.68 -2.45 1.55
5.69 -2.32 1.54
5.71 -2.20 1.54
11.75 -4.25 3.14
11.85 -4.03 3.15
11.96 -3.80 3.16
12.05 -3.56 3.16
12.14 -3.33 3.17
12.24 -3.09 3.18
12.32 -2.85 3.19
12.40 -2.61 3.20
12.48 -2.36 3.20
12.55 -2.12 3.21
12.61 -1.87 3.22
12.66 -1.62 3.22
12.70 -1.36 3.23
12.74 -1.11 3.23
12.77 -0.86 3.24
12.79 -0.60 3.24
12.81 -0.34 3.25
12.82 -0.09 3.25
12.82 0.17 3.25
12.81 0.43 3.25
12.79 0.68 3.25
12.78 0.94 3.26
12.77 1.20 3.26
12.74 1.45 3.26
12.71 1.71 3.26
12.67 1.96 3.27
12.63 2.22 3.27
12.57 2.47 3.27
12.50 2.71 3.26
12.44 2.96 3.27
5.83 1.51 1.54
5.83 1.64 1.55
5.83 1.77 1.56
5.84 1.90 1.57
12.04 4.18 3.27
11.94 4.42 3.26
5.86 2.30 1.62
5.86 2.44 1.63
11.61 5.11 3.26
11.47 5.32 3.25
5.88 2.87 1.68
11.17 5.74 3.23
11.01 5.94 3.22
10.86 6.14 3.22
10.70 6.34 3.21
10.55 6.54 3.20
10.40 6.74 3.20
10.24 6.93 3.20
10.07 7.11 3.19
9.89 7.29 3.18
5.93 4.56 1.94
9.49 7.60 3.15
9.22 7.69 3.11
8.57 7.45 2.95
7.98 7.22 2.79
7.43 7.00 2.65
7.19 7.05 2.62
