ply
format ascii 1.0
element vertex 2904
property float32 x
property float32 y
property float32 z
end_header
-16.96 0.60 1.24
-10.67 0.16 0.78
-10.56 -0.05 0.77
-10.52 -0.26 0.77
-10.52 -0.48 0.77
-10.54 -0.69 0.77
-10.52 -0.90 0.77
-10.57 -1.12 0.78
-15.84 -2.00 1.17
-15.83 -2.32 1.17
-10.62 -1.77 0.79
-10.47 -1.97 0.78
-10.48 -2.19 0.78
-10.43 -2.40 0.78
-10.48 -2.63 0.79
-10.48 -2.85 0.80
-10.48 -3.08 0.80
-10.61 -3.35 0.82
-15.87 -5.37 1.23
-10.56 -3.81 0.82
-10.39 -3.99 0.82
-10.38 -4.22 0.82
-10.36 -4.46 0.83
-10.39 -4.72 0.84
-10.39 -4.97 0.84
-15.69 -7.91 1.29
-10.43 -5.52 0.86
-10.26 -5.70 0.86
-10.24 -5.96 0.87
-10.21 -6.22 0.88
-10.23 -6.52 0.89
-10.22 -6.80 0.90
-10.94 -7.60 0.98
-10.32 -7.48 0.93
-10.21 -7.72 0.94
-10.10 -7.96 0.94
-10.11 -8.30 0.96
-10.11 -8.65 0.98
-10.10 -9.00 0.99
-10.03 -9.30 1.00
-10.18 -9.83 1.04
-10.47 -10.52 1.09
-10.17 -10.64 1.08
-10.14 -11.04 1.10
-10.23 -11.60 1.13
-21.11 -24.93 2.39
-20.56 -25.30 2.39
-20.05 -25.71 2.39
-19.53 -26.10 2.39
-19.00 -26.49 2.39
-18.47 -26.87 2.39
-17.92 -27.23 2.39
-17.37 -27.58 2.39
-15.84 -26.30 2.25
-16.25 -28.26 2.39
-15.68 -28.58 2.39
-15.36 -29.38 2.43
-14.63 -29.40 2.41
-11.91 -25.20 2.04
-13.43 -29.95 2.41
-12.82 -30.21 2.41
-12.22 -30.46 2.41
-11.60 -30.70 2.41
-10.98 -30.93 2.41
-10.36 -31.14 2.41
-9.73 -31.34 2.41
-9.04 -31.32 2.39
-8.41 -31.50 2.39
-7.78 -31.66 2.39
-7.14 -31.81 2.39
-6.50 -31.95 2.39
-5.86 -32.07 2.39
-5.21 -32.18 2.39
-4.76 -33.67 2.49
-4.09 -33.76 2.49
-3.41 -33.84 2.49
-2.73 -33.90 2.49
-2.05 -33.95 2.49
-1.36 -33.98 2.49
-0.68 -34.00 2.49
-0.00 -25.97 2.49
0.52 -25.97 2.49
1.04 -25.95 2.49
1.56 -25.93 2.49
2.08 -25.89 2.49
2.60 -25.84 2.49
2.93 -24.21 2.34
2.61 -18.42 1.79
2.88 -17.77 1.73
4.47 -24.49 2.39
4.96 -24.40 2.39
5.45 -24.29 2.39
5.94 -24.18 2.39
6.42 -24.06 2.39
6.43 -20.71 2.08
6.39 -19.22 1.94
6.36 -17.91 1.83
6.33 -16.76 1.72
6.31 -15.73 1.63
6.29 -14.80 1.54
6.26 -13.97 1.47
6.25 -13.21 1.40
6.23 -12.52 1.34
6.21 -11.88 1.29
6.20 -11.30 1.24
6.19 -10.75 1.19
6.17 -10.25 1.15
6.16 -9.78 1.11
6.15 -9.34 1.07
6.14 -8.93 1.04
6.13 -8.55 1.01
6.05 -8.08 0.97
6.11 -7.84 0.95
6.10 -7.51 0.93
6.10 -7.20 0.91
6.09 -6.91 0.88
6.08 -6.63 0.86
6.08 -6.36 0.84
6.07 -6.10 0.83
6.06 -5.85 0.81
6.06 -5.62 0.79
6.05 -5.39 0.78
6.05 -5.17 0.76
6.04 -4.96 0.75
6.04 -4.76 0.74
6.03 -4.56 0.73
6.03 -4.37 0.71
5.96 -4.14 0.70
6.02 -4.00 0.69
6.01 -3.83 0.68
6.01 -3.66 0.68
6.01 -3.49 0.67
6.00 -3.33 0.66
6.00 -3.17 0.65
5.99 -3.02 0.64
5.99 -2.87 0.64
5.99 -2.72 0.63
5.98 -2.58 0.63
5.98 -2.43 0.62
5.98 -2.29 0.61
5.97 -2.15 0.61
5.97 -2.02 0.60
5.97 -1.89 0.60
5.96 -1.75 0.60
5.96 -1.62 0.59
5.96 -1.49 0.59
5.95 -1.37 0.59
5.95 -1.24 0.58
5.95 -1.12 0.58
5.94 -0.99 0.58
5.94 -0.87 0.58
5.94 -0.75 0.57
5.93 -0.63 0.57
5.93 -0.51 0.57
5.93 -0.39 0.57
5.93 -0.27 0.57
5.86 -0.15 0.56
5.86 -0.03 0.56
5.92 0.09 0.57
5.91 0.21 0.57
5.91 0.33 0.57
5.91 0.45 0.57
5.90 0.56 0.57
5.90 0.68 0.57
5.90 0.80 0.57
5.90 0.92 0.57
5.89 1.05 0.57
5.89 1.17 0.58
5.89 1.29 0.58
5.88 1.41 0.58
5.88 1.54 0.58
5.88 1.66 0.59
5.87 1.79 0.59
5.87 1.92 0.59
5.87 2.05 0.60
5.86 2.18 0.60
5.86 2.32 0.61
5.86 2.45 0.61
5.85 2.59 0.61
5.85 2.73 0.62
5.85 2.87 0.63
5.84 3.02 0.63
5.84 3.17 0.64
5.84 3.32 0.64
5.83 3.47 0.65
5.83 3.63 0.66
5.83 3.79 0.67
5.75 3.91 0.67
5.82 4.13 0.68
5.81 4.30 0.69
5.81 4.48 0.70
5.80 4.67 0.72
5.80 4.86 0.73
5.79 5.06 0.74
5.79 5.26 0.75
5.78 5.47 0.76
5.78 5.69 0.78
5.77 5.92 0.79
5.77 6.16 0.81
5.76 6.40 0.83
5.75 6.66 0.84
5.75 6.93 0.86
5.74 7.21 0.88
5.73 7.50 0.91
5.73 7.82 0.93
5.72 8.14 0.96
5.71 8.49 0.98
5.70 8.85 1.01
5.69 9.24 1.04
5.68 9.65 1.08
5.67 10.09 1.11
5.66 10.56 1.15
5.64 11.07 1.19
5.63 11.61 1.24
5.62 12.20 1.29
5.60 12.83 1.34
5.58 13.53 1.41
5.57 14.29 1.47
5.54 15.13 1.55
5.46 15.87 1.61
5.50 17.09 1.72
5.47 18.25 1.83
5.43 19.56 1.95
5.40 21.06 2.09
4.73 20.13 1.99
4.37 20.43 2.01
4.49 23.26 2.27
4.23 24.54 2.39
3.73 24.62 2.39
3.24 24.69 2.39
2.74 24.75 2.39
2.25 24.80 2.39
1.75 24.84 2.39
1.30 25.94 2.49
0.78 25.96 2.49
0.26 25.97 2.49
-0.26 25.97 2.49
-0.78 25.96 2.49
-1.30 25.94 2.49
-1.82 25.91 2.49
-2.34 25.87 2.49
-2.86 25.81 2.49
-3.38 25.75 2.49
-3.90 25.68 2.49
-4.41 25.60 2.49
-4.92 25.50 2.49
-5.43 25.40 2.49
-5.94 25.28 2.49
-6.45 25.16 2.49
-6.67 23.99 2.39
-7.15 23.85 2.39
-7.62 23.70 2.39
-8.10 23.55 2.39
-8.57 23.38 2.39
-9.04 23.20 2.39
-9.50 23.02 2.39
-9.96 22.82 2.39
-9.84 21.36 2.26
-9.74 20.08 2.14
-9.12 17.87 1.93
-9.40 17.54 1.91
-9.84 17.52 1.93
-10.31 17.51 1.95
-10.80 17.53 1.98
-9.74 15.13 1.73
-10.04 14.92 1.73
-10.45 14.88 1.75
-10.89 14.87 1.77
-12.23 16.01 1.93
-10.30 12.94 1.59
-10.48 12.63 1.58
-10.80 12.50 1.59
-11.24 12.49 1.61
-11.67 12.46 1.64
-12.23 12.54 1.68
-12.77 12.58 1.72
-13.12 12.41 1.73
-13.64 12.40 1.77
-14.23 12.42 1.81
-14.84 12.43 1.86
-15.27 12.29 1.88
-15.92 12.29 1.93
-16.70 12.37 2.00
-17.26 12.25 2.03
-17.84 12.13 2.07
-9.76 6.36 1.12
-18.49 11.52 2.09
-18.70 11.13 2.09
-18.89 10.74 2.09
-19.09 10.35 2.08
-19.27 9.95 2.08
-19.45 9.56 2.08
-19.62 9.16 2.08
-19.79 8.75 2.08
-19.94 8.35 2.08
-20.09 7.94 2.07
-17.38 6.47 1.78
-13.73 4.80 1.40
-13.72 4.49 1.39
-13.74 4.19 1.38
-13.75 3.89 1.37
-13.76 3.60 1.37
-13.76 3.31 1.36
-13.77 3.02 1.35
-13.78 2.73 1.35
-13.79 2.45 1.34
-13.81 2.17 1.34
-13.86 1.89 1.34
-14.00 1.62 1.35
-17.39 1.66 1.68
-17.39 1.31 1.67
-17.24 0.95 1.66
-16.91 0.59 1.62
-10.67 0.16 1.02
-10.51 -0.05 1.01
-10.48 -0.26 1.01
-10.49 -0.47 1.01
-10.47 -0.68 1.01
-10.48 -0.90 1.01
-10.48 -1.11 1.01
-10.56 -1.33 1.02
-15.83 -2.32 1.54
-10.62 -1.78 1.03
-10.44 -1.96 1.02
-10.45 -2.18 1.02
-10.38 -2.38 1.02
-10.43 -2.62 1.03
-10.43 -2.84 1.04
-10.43 -3.07 1.04
-10.51 -3.32 1.06
-15.87 -5.37 1.61
-10.56 -3.81 1.08
-10.37 -3.98 1.07
-10.37 -4.22 1.07
-10.35 -4.46 1.08
-10.35 -4.71 1.09
-10.35 -4.96 1.10
-10.42 -5.25 1.12
-10.40 -5.50 1.13
-10.26 -5.69 1.13
-10.23 -5.95 1.14
-10.20 -6.21 1.15
-10.20 -6.50 1.16
-10.19 -6.78 1.17
-10.25 -7.12 1.20
-10.32 -7.48 1.22
-10.20 -7.71 1.23
-10.10 -7.96 1.23
-10.11 -8.30 1.26
-10.10 -8.64 1.28
-10.11 -9.00 1.30
-10.04 -9.31 1.32
-10.18 -9.83 1.36
-10.47 -10.52 1.43
-10.19 -10.66 1.42
-10.16 -11.06 1.44
-10.17 -11.54 1.48
-16.78 -19.82 2.49
-16.38 -20.15 2.49
-15.97 -20.48 2.49
-15.56 -20.80 2.49
-15.14 -21.10 2.49
-14.71 -21.40 2.49
-14.28 -21.69 2.49
-8.70 -13.81 1.57
-8.77 -14.56 1.63
-8.55 -14.87 1.65
-8.23 -15.00 1.64
-7.45 -14.25 1.54
-11.57 -23.25 2.49
-11.10 -23.48 2.49
-10.63 -23.70 2.49
-10.15 -23.91 2.49
-9.67 -24.11 2.49
-9.18 -24.30 2.49
-8.69 -24.48 2.49
-8.20 -24.64 2.49
-7.70 -24.80 2.49
-7.20 -24.95 2.49
-6.70 -25.09 2.49
-6.20 -25.22 2.49
-5.69 -25.34 2.49
-5.18 -25.45 2.49
-4.67 -25.55 2.49
-4.15 -25.64 2.49
-3.64 -25.72 2.49
-3.12 -25.78 2.49
-2.60 -25.84 2.49
-2.08 -25.89 2.49
-1.56 -25.93 2.49
-1.04 -25.95 2.49
-0.52 -25.97 2.49
-0.00 -20.99 2.49
0.42 -20.99 2.49
0.84 -20.97 2.49
1.26 -20.95 2.49
1.68 -20.92 2.49
2.10 -20.89 2.49
2.52 -20.84 2.49
2.82 -19.91 2.39
2.57 -15.86 1.91
2.67 -14.60 1.76
4.01 -19.72 2.39
4.41 -19.64 2.39
4.80 -19.54 2.39
5.19 -19.44 2.39
5.58 -19.33 2.39
5.97 -19.22 2.39
6.35 -19.09 2.39
6.31 -16.71 2.12
6.31 -15.73 2.01
6.29 -14.80 1.91
6.26 -13.97 1.82
6.25 -13.21 1.74
6.23 -12.52 1.66
6.21 -11.88 1.59
6.20 -11.30 1.53
6.19 -10.75 1.47
6.17 -10.25 1.42
6.16 -9.78 1.37
6.15 -9.34 1.33
6.14 -8.93 1.29
6.13 -8.55 1.25
6.05 -8.08 1.20
6.11 -7.84 1.18
6.10 -7.51 1.15
6.10 -7.20 1.12
6.09 -6.91 1.09
6.08 -6.63 1.07
6.08 -6.36 1.04
6.07 -6.10 1.02
6.06 -5.85 1.00
6.06 -5.62 0.98
6.05 -5.39 0.96
6.05 -5.17 0.95
6.04 -4.96 0.93
6.04 -4.76 0.91
6.03 -4.56 0.90
6.03 -4.37 0.88
5.96 -4.14 0.86
6.02 -4.00 0.86
6.01 -3.83 0.85
6.01 -3.66 0.84
6.01 -3.49 0.83
6.00 -3.33 0.82
6.00 -3.17 0.81
5.99 -3.02 0.80
5.99 -2.87 0.79
5.99 -2.72 0.78
5.98 -2.58 0.77
5.98 -2.43 0.77
5.98 -2.29 0.76
5.97 -2.15 0.75
5.97 -2.02 0.75
5.97 -1.89 0.74
5.96 -1.75 0.74
5.96 -1.62 0.73
5.96 -1.49 0.73
5.95 -1.37 0.73
5.95 -1.24 0.72
5.95 -1.12 0.72
5.94 -0.99 0.72
5.94 -0.87 0.71
5.94 -0.75 0.71
5.93 -0.63 0.71
5.93 -0.51 0.71
5.93 -0.39 0.71
5.93 -0.27 0.70
5.86 -0.15 0.70
5.86 -0.03 0.70
5.92 0.09 0.70
5.91 0.21 0.70
5.91 0.33 0.70
5.91 0.45 0.70
5.90 0.56 0.70
5.90 0.68 0.71
5.90 0.80 0.71
5.90 0.92 0.71
5.89 1.05 0.71
5.89 1.17 0.71
5.89 1.29 0.72
5.88 1.41 0.72
5.88 1.54 0.72
5.88 1.66 0.73
5.87 1.79 0.73
5.87 1.92 0.73
5.87 2.05 0.74
5.86 2.18 0.74
5.86 2.32 0.75
5.86 2.45 0.75
5.85 2.59 0.76
5.85 2.73 0.77
5.85 2.87 0.77
5.84 3.02 0.78
5.84 3.17 0.79
5.84 3.32 0.80
5.83 3.47 0.81
5.83 3.63 0.82
5.83 3.79 0.83
5.75 3.91 0.83
5.82 4.13 0.85
5.81 4.30 0.86
5.81 4.48 0.87
5.80 4.67 0.88
5.80 4.86 0.90
5.79 5.06 0.91
5.79 5.26 0.93
5.78 5.47 0.95
5.78 5.69 0.96
5.77 5.92 0.98
5.77 6.16 1.00
5.76 6.40 1.02
5.75 6.66 1.05
5.75 6.93 1.07
5.74 7.21 1.09
5.73 7.50 1.12
5.73 7.82 1.15
5.72 8.14 1.18
5.71 8.49 1.21
5.70 8.85 1.25
5.69 9.24 1.29
5.68 9.65 1.33
5.67 10.09 1.37
5.66 10.56 1.42
5.64 11.07 1.48
5.63 11.61 1.53
5.62 12.20 1.60
5.60 12.83 1.66
5.58 13.53 1.74
5.57 14.29 1.82
5.54 15.13 1.91
5.46 15.87 1.99
5.47 17.02 2.12
4.85 17.45 2.15
4.72 18.42 2.26
4.60 19.59 2.39
4.21 19.68 2.39
3.81 19.76 2.39
3.42 19.83 2.39
3.02 19.89 2.39
2.62 19.95 2.39
2.22 20.00 2.39
1.82 20.04 2.39
1.47 20.94 2.49
1.05 20.97 2.49
0.63 20.98 2.49
0.21 20.99 2.49
-0.21 20.99 2.49
-0.63 20.98 2.49
-1.05 20.97 2.49
-1.47 20.94 2.49
-1.89 20.91 2.49
-2.31 20.86 2.49
-2.73 20.81 2.49
-3.15 20.75 2.49
-3.56 20.69 2.49
-3.98 20.61 2.49
-4.39 20.53 2.49
-4.80 20.43 2.49
-5.21 20.33 2.49
-5.62 20.23 2.49
-6.02 20.11 2.49
-6.42 19.95 2.49
-6.54 19.03 2.39
-6.92 18.89 2.39
-7.30 18.75 2.39
-7.68 18.60 2.39
-8.05 18.44 2.39
-8.42 18.28 2.39
-8.78 18.11 2.39
-9.12 17.88 2.38
-9.38 17.52 2.36
-9.83 17.49 2.38
-10.21 17.34 2.39
-10.19 16.54 2.31
-9.74 15.13 2.14
-10.03 14.91 2.14
-10.14 14.44 2.10
-10.12 13.82 2.03
-10.15 13.28 1.99
-10.33 12.97 1.97
-10.53 12.69 1.96
-10.80 12.50 1.96
-11.23 12.48 1.99
-11.75 12.55 2.04
-12.28 12.60 2.09
-12.66 12.47 2.11
-13.15 12.45 2.15
-13.69 12.45 2.20
-14.38 12.55 2.27
-14.83 12.43 2.30
-14.36 11.55 2.19
-14.53 11.22 2.18
-14.70 10.89 2.17
-14.87 10.55 2.17
-15.03 10.22 2.16
-9.70 6.31 1.37
-15.35 9.56 2.15
-15.51 9.23 2.14
-15.65 8.90 2.14
-15.80 8.57 2.13
-15.93 8.23 2.13
-16.07 7.90 2.13
-16.21 7.56 2.12
-16.34 7.23 2.12
-16.64 6.97 2.14
-17.74 7.01 2.27
-17.38 6.47 2.20
-17.37 6.07 2.19
-13.82 4.52 1.73
-13.73 4.19 1.70
-13.72 3.89 1.69
-13.73 3.59 1.69
-13.74 3.30 1.68
-13.75 3.01 1.67
-13.75 2.73 1.67
-13.76 2.44 1.66
-13.76 2.16 1.65
-13.85 1.89 1.66
-13.86 1.61 1.66
-14.53 1.39 1.73
-17.39 1.31 2.07
-17.24 0.95 2.05
-16.91 0.59 2.01
-10.57 0.16 1.26
-10.50 -0.05 1.25
-10.49 -0.26 1.25
-10.48 -0.47 1.25
-10.49 -0.69 1.25
-10.48 -0.90 1.25
-10.50 -1.11 1.25
-10.56 -1.33 1.26
-14.96 -2.19 1.80
-10.52 -1.76 1.27
-10.45 -1.96 1.26
-10.44 -2.18 1.27
-10.39 -2.39 1.27
-10.42 -2.61 1.28
-10.43 -2.84 1.28
-10.45 -3.07 1.29
-10.51 -3.32 1.31
-14.67 -4.96 1.84
-10.57 -3.81 1.33
-10.42 -4.00 1.33
-10.36 -4.22 1.33
-10.37 -4.46 1.34
-10.35 -4.71 1.35
-10.37 -4.97 1.37
-10.42 -5.25 1.39
-10.38 -5.49 1.39
-10.28 -5.71 1.40
-10.22 -5.95 1.40
-10.21 -6.22 1.42
-10.20 -6.50 1.44
-10.21 -6.79 1.46
-10.25 -7.12 1.48
-10.32 -7.48 1.51
-10.19 -7.70 1.52
-10.10 -7.96 1.53
-10.11 -8.30 1.55
-10.11 -8.65 1.58
-10.12 -9.02 1.61
-10.09 -9.36 1.63
-10.13 -9.78 1.67
-10.47 -10.53 1.76
-10.20 -10.67 1.75
-10.15 -11.06 1.78
-10.19 -11.55 1.83
-13.00 -15.36 2.39
-12.69 -15.61 2.39
-12.38 -15.87 2.39
-12.06 -16.11 2.39
-11.73 -16.35 2.39
-11.89 -17.30 2.49
-11.54 -17.53 2.49
-11.19 -17.76 2.49
-8.35 -13.87 1.92
-7.97 -13.86 1.90
-7.71 -14.06 1.90
-9.73 -18.60 2.49
-9.35 -18.79 2.49
-8.97 -18.98 2.49
-8.59 -19.15 2.49
-8.20 -19.32 2.49
-7.81 -19.48 2.49
-7.42 -19.64 2.49
-7.03 -19.78 2.49
-6.63 -19.92 2.49
-6.23 -20.05 2.49
-5.82 -20.17 2.49
-5.42 -20.28 2.49
-5.01 -20.39 2.49
-4.60 -20.48 2.49
-4.19 -20.57 2.49
-3.77 -20.65 2.49
-3.36 -20.72 2.49
-2.94 -20.78 2.49
-2.52 -20.84 2.49
-2.10 -20.89 2.49
-1.68 -20.92 2.49
-1.26 -20.95 2.49
-0.84 -20.97 2.49
-0.42 -20.99 2.49
0.00 -17.60 2.49
0.35 -17.60 2.49
0.71 -17.58 2.49
1.06 -17.57 2.49
1.41 -17.54 2.49
1.76 -17.51 2.49
2.11 -17.47 2.49
2.46 -17.43 2.49
2.70 -16.65 2.39
2.50 -13.67 1.97
2.48 -12.17 1.76
3.70 -16.46 2.39
4.02 -16.38 2.39
4.35 -16.30 2.39
4.68 -16.20 2.39
5.00 -16.11 2.39
5.33 -16.01 2.39
5.65 -15.90 2.39
5.96 -15.78 2.39
6.28 -15.66 2.39
6.21 -13.84 2.15
6.25 -13.21 2.07
6.23 -12.52 1.98
6.21 -11.88 1.90
6.20 -11.30 1.83
6.19 -10.75 1.76
6.17 -10.25 1.70
6.16 -9.78 1.64
6.15 -9.34 1.58
6.14 -8.93 1.54
6.13 -8.55 1.49
6.05 -8.08 1.43
6.11 -7.84 1.41
6.10 -7.51 1.37
6.10 -7.20 1.34
6.09 -6.91 1.30
6.08 -6.63 1.27
6.08 -6.36 1.25
6.07 -6.10 1.22
6.06 -5.85 1.19
6.06 -5.62 1.17
6.05 -5.39 1.15
6.05 -5.17 1.13
6.04 -4.96 1.11
6.04 -4.76 1.09
6.03 -4.56 1.07
6.03 -4.37 1.05
5.96 -4.14 1.03
6.02 -4.00 1.02
6.01 -3.83 1.01
6.01 -3.66 1.00
6.01 -3.49 0.98
6.00 -3.33 0.97
6.00 -3.17 0.96
5.99 -3.02 0.95
5.99 -2.87 0.94
5.99 -2.72 0.93
5.98 -2.58 0.92
5.98 -2.43 0.91
5.98 -2.29 0.91
5.97 -2.15 0.90
5.97 -2.02 0.89
5.97 -1.89 0.89
5.96 -1.75 0.88
5.96 -1.62 0.88
5.96 -1.49 0.87
5.95 -1.37 0.87
5.95 -1.24 0.86
5.95 -1.12 0.86
5.94 -0.99 0.85
5.94 -0.87 0.85
5.94 -0.75 0.85
5.93 -0.63 0.85
5.93 -0.51 0.84
5.93 -0.39 0.84
5.93 -0.27 0.84
5.86 -0.15 0.83
5.86 -0.03 0.83
5.92 0.09 0.84
5.91 0.21 0.84
5.91 0.33 0.84
5.91 0.45 0.84
5.90 0.56 0.84
5.90 0.68 0.84
5.90 0.80 0.84
5.90 0.92 0.85
5.89 1.05 0.85
5.89 1.17 0.85
5.89 1.29 0.85
5.88 1.41 0.86
5.88 1.54 0.86
5.88 1.66 0.87
5.87 1.79 0.87
5.87 1.92 0.88
5.87 2.05 0.88
5.86 2.18 0.89
5.86 2.32 0.89
5.86 2.45 0.90
5.85 2.59 0.91
5.85 2.73 0.91
5.85 2.87 0.92
5.84 3.02 0.93
5.84 3.17 0.94
5.84 3.32 0.95
5.83 3.47 0.96
5.83 3.63 0.97
5.83 3.79 0.98
5.75 3.91 0.99
5.82 4.13 1.01
5.81 4.30 1.02
5.81 4.48 1.04
5.80 4.67 1.06
5.80 4.86 1.07
5.79 5.06 1.09
5.79 5.26 1.11
5.78 5.47 1.13
5.78 5.69 1.15
5.77 5.92 1.17
5.77 6.16 1.20
5.76 6.40 1.22
5.75 6.66 1.25
5.75 6.93 1.28
5.74 7.21 1.31
5.73 7.50 1.34
5.73 7.82 1.37
5.72 8.14 1.41
5.71 8.49 1.45
5.70 8.85 1.49
5.69 9.24 1.54
5.68 9.65 1.59
5.67 10.09 1.64
5.66 10.56 1.70
5.64 11.07 1.76
5.63 11.61 1.83
5.62 12.20 1.90
5.60 12.83 1.98
5.58 13.53 2.07
5.51 14.15 2.15
10.19 27.79 4.19
5.47 15.90 2.38
5.16 16.06 2.39
4.84 16.16 2.39
4.52 16.25 2.39
4.19 16.34 2.39
3.86 16.42 2.39
3.53 16.50 2.39
3.20 16.56 2.39
2.86 16.62 2.39
2.53 16.68 2.39
2.19 16.73 2.39
1.86 16.77 2.39
1.59 17.53 2.49
1.24 17.56 2.49
0.88 17.58 2.49
0.53 17.59 2.49
0.18 17.60 2.49
-0.18 17.60 2.49
-0.53 17.59 2.49
-0.88 17.58 2.49
-1.24 17.56 2.49
-1.59 17.53 2.49
-1.94 17.49 2.49
-2.29 17.45 2.49
-2.64 17.40 2.49
-2.99 17.34 2.49
-3.34 17.28 2.49
-3.68 17.21 2.49
-4.03 17.13 2.49
-4.37 17.05 2.49
-4.71 16.96 2.49
-5.05 16.86 2.49
-5.39 16.75 2.49
-5.72 16.64 2.49
-6.06 16.52 2.49
-6.32 16.24 2.47
-6.44 15.59 2.39
-6.75 15.46 2.39
-7.06 15.32 2.39
-7.36 15.18 2.39
-7.67 15.03 2.39
-7.97 14.87 2.39
-8.26 14.71 2.39
-8.56 14.54 2.39
-8.85 14.36 2.39
-9.13 14.18 2.39
-9.42 14.00 2.39
-9.70 13.81 2.39
-9.97 13.61 2.39
-10.11 13.23 2.36
-10.32 12.96 2.35
-10.53 12.69 2.34
-10.81 12.51 2.34
-11.22 12.47 2.38
-11.61 12.39 2.41
-11.86 12.16 2.41
-11.67 11.49 2.32
-11.85 11.21 2.31
-12.03 10.93 2.30
-12.20 10.65 2.29
-12.37 10.37 2.29
-12.53 10.08 2.28
-12.69 9.80 2.27
-12.84 9.51 2.26
-9.59 6.81 1.67
-9.60 6.53 1.65
-9.60 6.25 1.62
-9.73 6.06 1.62
-10.16 6.05 1.67
-13.63 7.75 2.22
-13.75 7.45 2.22
-13.86 7.16 2.21
-14.19 6.97 2.24
-15.11 7.05 2.36
-15.21 6.73 2.36
-15.31 6.41 2.35
-15.40 6.09 2.35
-14.47 5.38 2.19
-14.55 5.08 2.18
-13.86 4.53 2.07
-14.69 4.48 2.18
-14.76 4.18 2.17
-14.82 3.88 2.17
-14.87 3.57 2.17
-14.93 3.27 2.17
-14.97 2.97 2.16
-15.01 2.66 2.16
-13.91 2.18 2.00
-13.92 1.90 1.99
-15.11 1.75 2.16
-15.14 1.45 2.15
-15.15 1.14 2.15
-16.15 0.89 2.29
-16.12 0.57 2.29
-10.56 0.16 1.50
-10.53 -0.05 1.49
-10.49 -0.26 1.49
-10.49 -0.47 1.49
-10.49 -0.69 1.49
-10.49 -0.90 1.49
-10.51 -1.11 1.50
-10.57 -1.33 1.51
-14.95 -2.19 2.14
-10.51 -1.76 1.51
-10.48 -1.97 1.51
-10.46 -2.18 1.51
-10.46 -2.40 1.52
-10.45 -2.62 1.53
-10.44 -2.84 1.53
-10.46 -3.08 1.54
-10.46 -3.31 1.55
-14.45 -4.89 2.16
-10.48 -3.78 1.58
-10.42 -4.00 1.58
-10.36 -4.22 1.59
-10.38 -4.47 1.60
-10.36 -4.71 1.61
-10.38 -4.97 1.63
-10.42 -5.25 1.65
-10.35 -5.48 1.66
-10.30 -5.72 1.67
-10.23 -5.95 1.68
-10.20 -6.21 1.69
-10.22 -6.51 1.72
-10.19 -6.78 1.73
-10.24 -7.12 1.77
-10.45 -7.58 1.83
-10.22 -7.72 1.81
-10.18 -8.03 1.84
-10.12 -8.31 1.86
-10.10 -8.64 1.88
-10.11 -9.00 1.92
-10.18 -9.44 1.97
-10.18 -9.83 2.01
-9.74 -9.78 1.96
-9.54 -9.98 1.96
-9.55 -10.41 2.00
-9.58 -10.86 2.05
-9.81 -11.58 2.15
-10.64 -13.09 2.39
-10.38 -13.30 2.39
-10.11 -13.51 2.39
-9.83 -13.71 2.39
-9.56 -13.90 2.39
-9.28 -14.09 2.39
-8.99 -14.27 2.39
-8.70 -14.45 2.39
-8.02 -13.95 2.28
-7.98 -14.55 2.35
-7.82 -14.95 2.39
-7.84 -15.76 2.49
-7.52 -15.91 2.49
-7.20 -16.06 2.49
-6.88 -16.20 2.49
-6.55 -16.33 2.49
-6.22 -16.46 2.49
-5.89 -16.58 2.49
-5.56 -16.70 2.49
-5.22 -16.81 2.49
-4.88 -16.91 2.49
-4.54 -17.00 2.49
-4.20 -17.09 2.49
-3.85 -17.17 2.49
-3.51 -17.25 2.49
-3.16 -17.31 2.49
-2.81 -17.37 2.49
-2.46 -17.43 2.49
-2.11 -17.47 2.49
-1.76 -17.51 2.49
-1.41 -17.54 2.49
-1.06 -17.57 2.49
-0.71 -17.58 2.49
-0.35 -17.60 2.49
0.00 -15.14 2.49
0.30 -15.13 2.49
0.61 -15.12 2.49
0.91 -15.11 2.49
1.21 -15.09 2.49
1.52 -15.06 2.49
1.82 -15.03 2.49
2.12 -14.99 2.49
2.42 -14.94 2.49
2.61 -14.27 2.39
2.44 -12.01 2.02
2.41 -10.75 1.81
2.62 -10.68 1.81
3.74 -14.02 2.39
4.02 -13.94 2.39
4.30 -13.86 2.39
4.58 -13.77 2.39
4.86 -13.67 2.39
5.13 -13.57 2.39
5.40 -13.47 2.39
5.67 -13.36 2.39
5.94 -13.24 2.39
6.20 -13.12 2.39
6.46 -12.99 2.39
6.15 -11.77 2.19
6.19 -11.27 2.12
6.19 -10.75 2.04
6.17 -10.25 1.97
6.16 -9.78 1.90
6.15 -9.34 1.84
6.14 -8.93 1.79
6.13 -8.55 1.73
6.05 -8.08 1.66
6.11 -7.84 1.64
6.10 -7.51 1.59
6.10 -7.20 1.55
6.09 -6.91 1.52
6.08 -6.63 1.48
6.08 -6.36 1.45
6.07 -6.10 1.42
6.06 -5.85 1.39
6.06 -5.62 1.36
6.05 -5.39 1.34
6.05 -5.17 1.31
6.04 -4.96 1.29
6.04 -4.76 1.27
6.03 -4.56 1.25
6.03 -4.37 1.23
5.96 -4.14 1.20
6.02 -4.00 1.19
6.01 -3.83 1.17
6.01 -3.66 1.16
6.01 -3.49 1.14
6.00 -3.33 1.13
6.00 -3.17 1.12
5.99 -3.02 1.11
5.99 -2.87 1.09
5.99 -2.72 1.08
5.98 -2.58 1.07
5.98 -2.43 1.06
5.98 -2.29 1.05
5.97 -2.15 1.05
5.97 -2.02 1.04
5.97 -1.89 1.03
5.96 -1.75 1.02
5.96 -1.62 1.02
5.96 -1.49 1.01
5.95 -1.37 1.01
5.95 -1.24 1.00
5.95 -1.12 1.00
5.94 -0.99 0.99
5.94 -0.87 0.99
5.94 -0.75 0.99
5.93 -0.63 0.98
5.93 -0.51 0.98
5.93 -0.39 0.98
5.93 -0.27 0.98
5.86 -0.15 0.97
5.86 -0.03 0.97
5.92 0.09 0.97
5.91 0.21 0.97
5.91 0.33 0.98
5.91 0.45 0.98
5.90 0.56 0.98
5.90 0.68 0.98
5.90 0.80 0.98
5.90 0.92 0.98
5.89 1.05 0.99
5.89 1.17 0.99
5.89 1.29 0.99
5.88 1.41 1.00
5.88 1.54 1.00
5.88 1.66 1.01
5.87 1.79 1.01
5.87 1.92 1.02
5.87 2.05 1.02
5.86 2.18 1.03
5.86 2.32 1.04
5.86 2.45 1.05
5.85 2.59 1.05
5.85 2.73 1.06
5.85 2.87 1.07
5.84 3.02 1.08
5.84 3.17 1.09
5.84 3.32 1.11
5.83 3.47 1.12
5.83 3.63 1.13
5.83 3.79 1.15
5.75 3.91 1.15
5.82 4.13 1.18
5.81 4.30 1.19
5.81 4.48 1.21
5.80 4.67 1.23
5.80 4.86 1.25
5.79 5.06 1.27
5.79 5.26 1.29
5.78 5.47 1.31
5.78 5.69 1.34
5.77 5.92 1.36
5.77 6.16 1.39
5.76 6.40 1.42
5.75 6.66 1.45
5.75 6.93 1.48
5.74 7.21 1.52
5.73 7.50 1.56
5.73 7.82 1.60
5.72 8.14 1.64
5.71 8.49 1.68
5.70 8.85 1.73
5.69 9.24 1.79
5.68 9.65 1.84
5.67 10.09 1.91
5.66 10.56 1.97
5.64 11.07 2.05
5.62 11.58 2.12
5.56 12.08 2.19
5.80 13.30 2.39
5.54 13.41 2.39
5.27 13.52 2.39
4.99 13.62 2.39
2.66 7.75 1.35
4.44 13.81 2.39
4.16 13.90 2.39
3.88 13.98 2.39
3.60 14.06 2.39
3.32 14.12 2.39
3.04 14.19 2.39
2.75 14.25 2.39
2.46 14.30 2.39
2.18 14.35 2.39
1.89 14.39 2.39
1.67 15.04 2.49
1.37 15.07 2.49
1.06 15.10 2.49
0.76 15.12 2.49
0.46 15.13 2.49
0.15 15.14 2.49
-0.15 15.14 2.49
-0.46 15.13 2.49
-0.76 15.12 2.49
-1.06 15.10 2.49
-1.37 15.07 2.49
-1.67 15.04 2.49
-1.97 15.01 2.49
-2.27 14.97 2.49
-2.57 14.92 2.49
-2.87 14.86 2.49
-3.17 14.80 2.49
-3.46 14.73 2.49
-3.76 14.66 2.49
-4.05 14.58 2.49
-4.34 14.50 2.49
-4.63 14.41 2.49
-4.92 14.31 2.49
-5.21 14.21 2.49
-5.49 14.10 2.49
-5.77 13.99 2.49
-6.05 13.87 2.49
-6.26 13.59 2.46
-6.33 13.06 2.39
-6.59 12.93 2.39
-6.85 12.79 2.39
-7.11 12.65 2.39
-7.36 12.51 2.39
-7.61 12.36 2.39
-7.86 12.20 2.39
-8.10 12.04 2.39
-8.34 11.87 2.39
-8.58 11.70 2.39
-8.81 11.53 2.39
-9.04 11.35 2.39
-9.26 11.17 2.39
-9.49 10.98 2.39
-9.71 10.79 2.39
-9.92 10.59 2.39
-10.13 10.39 2.39
-10.30 10.15 2.38
-10.47 9.91 2.37
-10.63 9.66 2.37
-10.79 9.42 2.36
-10.94 9.17 2.35
-11.09 8.92 2.34
-11.23 8.67 2.34
-11.37 8.42 2.33
-9.59 6.81 1.94
-9.60 6.53 1.91
-9.59 6.25 1.89
-9.73 6.06 1.89
-10.16 6.05 1.95
-12.30 6.99 2.33
-12.83 6.96 2.40
-12.96 6.69 2.40
-13.08 6.43 2.40
-13.20 6.16 2.40
-12.60 5.58 2.27
-12.69 5.31 2.27
-12.77 5.05 2.26
-12.85 4.78 2.26
-12.92 4.52 2.26
-12.99 4.25 2.25
-13.06 3.98 2.25
-13.12 3.72 2.25
-13.17 3.45 2.24
-13.23 3.18 2.24
-13.27 2.91 2.24
-13.32 2.64 2.24
-13.36 2.37 2.23
-13.39 2.10 2.23
-13.42 1.83 2.23
-13.45 1.56 2.23
-9.50 0.91 1.57
-9.39 0.71 1.55
-9.47 0.52 1.56
-13.99 0.49 2.31
-10.58 0.16 1.74
-10.54 -0.05 1.74
-10.48 -0.26 1.73
-10.49 -0.47 1.73
-10.51 -0.69 1.74
-10.43 -0.89 1.72
-10.52 -1.11 1.74
-10.56 -1.33 1.75
-13.44 -1.97 2.24
-10.54 -1.76 1.76
-10.51 -1.97 1.76
-10.45 -2.18 1.76
-10.38 -2.39 1.75
-10.44 -2.62 1.77
-10.46 -2.85 1.79
-10.47 -3.08 1.80
-10.47 -3.31 1.81
-13.64 -4.61 2.37
-10.69 -3.86 1.87
-10.44 -4.00 1.84
-10.37 -4.22 1.84
-10.37 -4.46 1.86
-10.35 -4.70 1.87
-10.42 -4.99 1.90
-10.42 -5.25 1.92
-10.56 -5.59 1.97
-10.30 -5.72 1.94
-10.26 -5.97 1.96
-10.21 -6.22 1.97
-10.20 -6.49 1.99
-9.88 -6.58 1.96
-9.75 -6.77 1.96
-9.61 -6.97 1.96
-9.60 -7.26 1.98
-9.60 -7.57 2.01
-9.59 -7.88 2.04
-9.58 -8.20 2.08
-9.58 -8.53 2.11
-9.57 -8.88 2.15
-9.57 -9.23 2.19
-9.56 -9.61 2.23
-9.55 -9.99 2.28
-9.55 -10.41 2.33
-9.58 -10.86 2.38
-9.38 -11.07 2.39
-9.15 -11.26 2.39
-8.92 -11.44 2.39
-8.69 -11.62 2.39
-8.46 -11.79 2.39
-8.22 -11.96 2.39
-7.98 -12.12 2.39
-6.11 -9.70 1.89
-7.48 -12.43 2.39
-7.23 -12.58 2.39
-6.98 -12.72 2.39
-6.72 -12.86 2.39
-6.51 -13.07 2.41
-6.47 -13.68 2.49
-6.19 -13.81 2.49
-5.91 -13.93 2.49
-5.63 -14.05 2.49
-5.35 -14.16 2.49
-5.07 -14.26 2.49
-4.78 -14.36 2.49
-4.49 -14.46 2.49
-4.20 -14.54 2.49
-3.91 -14.62 2.49
-3.61 -14.70 2.49
-3.32 -14.77 2.49
-3.02 -14.83 2.49
-2.72 -14.89 2.49
-2.42 -14.94 2.49
-2.12 -14.99 2.49
-1.82 -15.03 2.49
-1.52 -15.06 2.49
-1.21 -15.09 2.49
-0.91 -15.11 2.49
-0.61 -15.12 2.49
-0.30 -15.13 2.49
0.00 -13.27 2.49
0.27 -13.26 2.49
0.53 -13.26 2.49
0.80 -13.24 2.49
1.06 -13.22 2.49
1.33 -13.20 2.49
1.59 -13.17 2.49
1.86 -13.14 2.49
2.12 -13.10 2.49
2.38 -13.05 2.49
2.54 -12.46 2.39
2.66 -11.83 2.28
2.42 -9.85 1.91
2.61 -9.77 1.90
3.53 -12.22 2.39
3.77 -12.15 2.39
4.01 -12.07 2.39
4.26 -11.98 2.39
4.50 -11.90 2.39
4.73 -11.80 2.39
4.97 -11.71 2.39
5.20 -11.60 2.39
5.44 -11.50 2.39
5.67 -11.39 2.39
5.89 -11.27 2.39
6.12 -11.15 2.39
6.34 -11.02 2.39
6.10 -9.69 2.15
6.15 -9.34 2.10
6.14 -8.93 2.04
6.13 -8.55 1.98
6.05 -8.08 1.90
6.11 -7.84 1.87
6.10 -7.51 1.82
6.10 -7.20 1.77
6.09 -6.91 1.73
6.08 -6.63 1.69
6.08 -6.36 1.65
6.07 -6.10 1.62
6.06 -5.85 1.58
6.06 -5.62 1.55
6.05 -5.39 1.52
6.05 -5.17 1.50
6.04 -4.96 1.47
6.04 -4.76 1.44
6.03 -4.56 1.42
6.03 -4.37 1.40
5.96 -4.14 1.36
6.02 -4.00 1.36
6.01 -3.83 1.34
6.01 -3.66 1.32
6.01 -3.49 1.31
6.00 -3.33 1.29
6.00 -3.17 1.28
5.99 -3.02 1.26
5.99 -2.87 1.25
5.99 -2.72 1.24
5.98 -2.58 1.22
5.98 -2.43 1.21
5.98 -2.29 1.20
5.97 -2.15 1.19
5.97 -2.02 1.18
5.97 -1.89 1.18
5.96 -1.75 1.17
5.96 -1.62 1.16
5.96 -1.49 1.15
5.95 -1.37 1.15
5.95 -1.24 1.14
5.95 -1.12 1.14
5.94 -0.99 1.13
5.94 -0.87 1.13
5.94 -0.75 1.12
5.93 -0.63 1.12
5.93 -0.51 1.12
5.93 -0.39 1.12
5.93 -0.27 1.11
5.86 -0.15 1.10
5.86 -0.03 1.10
5.92 0.09 1.11
5.91 0.21 1.11
5.91 0.33 1.11
5.91 0.45 1.11
5.90 0.56 1.11
5.90 0.68 1.12
5.90 0.80 1.12
5.90 0.92 1.12
5.89 1.05 1.12
5.89 1.17 1.13
5.89 1.29 1.13
5.88 1.41 1.14
5.88 1.54 1.14
5.88 1.66 1.15
5.87 1.79 1.15
5.87 1.92 1.16
5.87 2.05 1.17
5.86 2.18 1.18
5.86 2.32 1.18
5.86 2.45 1.19
5.85 2.59 1.20
5.85 2.73 1.21
5.85 2.87 1.22
5.84 3.02 1.24
5.84 3.17 1.25
5.84 3.32 1.26
5.83 3.47 1.28
5.83 3.63 1.29
5.83 3.79 1.31
5.75 3.91 1.31
5.82 4.13 1.34
5.81 4.30 1.36
5.81 4.48 1.38
5.80 4.67 1.40
5.80 4.86 1.42
5.79 5.06 1.45
5.79 5.26 1.47
5.78 5.47 1.50
5.78 5.69 1.52
5.77 5.92 1.55
5.77 6.16 1.59
5.76 6.40 1.62
5.75 6.66 1.65
5.75 6.93 1.69
5.74 7.21 1.73
5.73 7.50 1.77
5.73 7.82 1.82
5.72 8.14 1.87
5.71 8.49 1.92
5.70 8.85 1.98
5.69 9.24 2.04
5.68 9.65 2.10
5.62 9.99 2.15
5.78 11.33 2.39
5.55 11.44 2.39
5.32 11.55 2.39
5.09 11.66 2.39
4.85 11.76 2.39
4.61 11.85 2.39
4.38 11.94 2.39
2.66 7.75 1.54
2.52 7.83 1.55
3.65 12.18 2.39
3.40 12.25 2.39
3.16 12.32 2.39
2.91 12.38 2.39
2.66 12.44 2.39
2.41 12.49 2.39
2.16 12.53 2.39
1.91 12.57 2.39
1.73 13.15 2.49
1.46 13.19 2.49
1.20 13.21 2.49
0.93 13.23 2.49
0.67 13.25 2.49
0.40 13.26 2.49
0.13 13.27 2.49
-0.13 13.27 2.49
-0.40 13.26 2.49
-0.67 13.25 2.49
-0.93 13.23 2.49
-1.20 13.21 2.49
-1.46 13.19 2.49
-1.73 13.15 2.49
-1.99 13.12 2.49
-2.25 13.07 2.49
-2.51 13.03 2.49
-2.78 12.97 2.49
-3.04 12.91 2.49
-3.29 12.85 2.49
-3.55 12.78 2.49
-3.81 12.71 2.49
-4.06 12.63 2.49
-4.31 12.55 2.49
-4.57 12.46 2.49
-4.81 12.36 2.49
-5.06 12.26 2.49
-5.31 12.16 2.49
-5.55 12.05 2.49
-5.79 11.94 2.49
-6.03 11.82 2.49
-6.21 11.59 2.47
-6.23 11.09 2.39
-6.45 10.96 2.39
-6.67 10.83 2.39
-6.89 10.69 2.39
-7.10 10.55 2.39
-7.31 10.41 2.39
-7.52 10.26 2.39
-7.72 10.11 2.39
-7.92 9.95 2.39
-8.12 9.79 2.39
-8.32 9.62 2.39
-8.51 9.45 2.39
-8.69 9.28 2.39
-8.88 9.10 2.39
-9.06 8.92 2.39
-9.24 8.74 2.39
-9.41 8.55 2.39
-9.58 8.36 2.39
-9.75 8.17 2.39
-9.91 7.97 2.39
-10.07 7.77 2.39
-10.20 7.55 2.39
-9.59 6.81 2.21
-9.60 6.53 2.18
-9.59 6.25 2.15
-9.73 6.06 2.15
-10.16 6.05 2.22
-11.13 6.33 2.41
-11.25 6.10 2.41
-11.37 5.88 2.41
-11.16 5.48 2.34
-11.25 5.25 2.33
-11.33 5.01 2.33
-11.41 4.78 2.32
-11.49 4.54 2.32
-11.56 4.30 2.32
-11.62 4.06 2.31
-11.69 3.82 2.31
-11.75 3.58 2.31
-11.80 3.34 2.31
-11.86 3.10 2.30
-11.90 2.86 2.30
-11.95 2.62 2.30
-11.99 2.38 2.30
-12.02 2.13 2.30
-12.05 1.89 2.29
-12.08 1.65 2.29
-12.11 1.40 2.29
-9.44 0.90 1.78
-9.33 0.70 1.76
-9.38 0.52 1.77
-12.68 0.45 2.39
-10.84 0.16 2.04
-10.56 -0.05 1.98
-10.49 -0.26 1.97
-10.49 -0.47 1.97
-10.49 -0.69 1.98
-10.48 -0.90 1.98
-10.56 -1.12 2.00
-10.57 -1.33 2.00
-12.57 -1.84 2.39
-10.75 -1.80 2.05
-10.51 -1.97 2.01
-10.48 -2.19 2.01
-10.43 -2.40 2.01
-10.44 -2.62 2.02
-10.44 -2.84 2.03
-9.98 -2.94 1.96
-9.92 -3.14 1.96
-9.86 -3.33 1.96
-9.79 -3.53 1.96
-9.71 -3.73 1.96
-9.68 -3.94 1.96
-9.68 -4.17 1.98
-9.68 -4.40 2.00
-9.68 -4.63 2.02
-9.67 -4.87 2.04
-9.66 -5.11 2.06
-9.66 -5.36 2.08
-9.65 -5.62 2.10
-9.65 -5.87 2.12
-9.64 -6.14 2.15
-9.63 -6.41 2.17
-9.63 -6.69 2.20
-9.62 -6.97 2.23
-9.61 -7.27 2.26
-9.60 -7.57 2.30
-9.59 -7.88 2.33
-9.58 -8.20 2.37
-9.50 -8.46 2.39
-9.32 -8.65 2.39
-9.15 -8.83 2.39
-8.97 -9.01 2.39
-8.79 -9.19 2.39
-8.60 -9.37 2.39
-8.41 -9.54 2.39
-8.22 -9.71 2.39
-8.02 -9.87 2.39
-7.82 -10.03 2.39
-7.62 -10.18 2.39
-7.41 -10.33 2.39
-7.20 -10.48 2.39
-6.99 -10.62 2.39
-6.11 -9.70 2.15
-6.56 -10.89 2.39
-6.34 -11.02 2.39
-6.12 -11.15 2.39
-5.89 -11.27 2.39
-5.78 -11.62 2.44
-5.67 -11.99 2.49
-5.43 -12.10 2.49
-5.18 -12.21 2.49
-4.94 -12.31 2.49
-4.69 -12.41 2.49
-4.44 -12.50 2.49
-4.19 -12.59 2.49
-3.93 -12.67 2.49
-3.68 -12.75 2.49
-3.42 -12.82 2.49
-3.16 -12.88 2.49
-2.91 -12.94 2.49
-2.65 -13.00 2.49
-2.38 -13.05 2.49
-2.12 -13.10 2.49
-1.86 -13.14 2.49
-1.59 -13.17 2.49
-1.33 -13.20 2.49
-1.06 -13.22 2.49
-0.80 -13.24 2.49
-0.53 -13.26 2.49
-0.27 -13.26 2.49
0.00 -11.80 2.49
0.24 -11.79 2.49
0.47 -11.79 2.49
0.71 -11.78 2.49
0.95 -11.76 2.49
1.18 -11.74 2.49
1.42 -11.71 2.49
1.65 -11.68 2.49
1.89 -11.64 2.49
2.12 -11.60 2.49
2.35 -11.56 2.49
2.48 -11.03 2.39
2.62 -10.68 2.33
2.61 -9.77 2.14
3.14 -10.87 2.39
3.35 -10.80 2.39
3.57 -10.73 2.39
3.78 -10.66 2.39
4.00 -10.58 2.39
4.21 -10.50 2.39
4.42 -10.41 2.39
4.63 -10.32 2.39
4.83 -10.22 2.39
5.04 -10.12 2.39
5.24 -10.02 2.39
5.44 -9.91 2.39
5.64 -9.80 2.39
5.83 -9.69 2.39
6.03 -9.57 2.39
6.22 -9.45 2.39
6.09 -8.49 2.21
6.05 -8.08 2.13
6.11 -7.84 2.10
6.10 -7.51 2.05
6.10 -7.20 1.99
6.09 -6.91 1.95
6.08 -6.63 1.90
6.08 -6.36 1.86
6.07 -6.10 1.82
6.06 -5.85 1.78
6.06 -5.62 1.75
6.05 -5.39 1.71
6.05 -5.17 1.68
6.04 -4.96 1.65
6.04 -4.76 1.62
6.03 -4.56 1.60
6.03 -4.37 1.57
5.96 -4.14 1.53
6.02 -4.00 1.53
6.01 -3.83 1.51
6.01 -3.66 1.49
6.01 -3.49 1.47
6.00 -3.33 1.45
6.00 -3.17 1.43
5.99 -3.02 1.42
5.99 -2.87 1.40
5.99 -2.72 1.39
5.98 -2.58 1.38
5.98 -2.43 1.36
5.98 -2.29 1.35
5.97 -2.15 1.34
5.97 -2.02 1.33
5.97 -1.89 1.32
5.96 -1.75 1.31
5.96 -1.62 1.31
5.96 -1.49 1.30
5.95 -1.37 1.29
5.95 -1.24 1.28
5.95 -1.12 1.28
5.94 -0.99 1.27
5.94 -0.87 1.27
5.94 -0.75 1.26
5.93 -0.63 1.26
5.93 -0.51 1.26
5.93 -0.39 1.26
5.93 -0.27 1.25
5.86 -0.15 1.24
5.86 -0.03 1.24
5.92 0.09 1.25
5.91 0.21 1.25
5.91 0.33 1.25
5.91 0.45 1.25
5.90 0.56 1.25
5.90 0.68 1.26
5.90 0.80 1.26
5.90 0.92 1.26
5.89 1.05 1.27
5.89 1.17 1.27
5.89 1.29 1.27
5.88 1.41 1.28
5.88 1.54 1.28
5.88 1.66 1.29
5.87 1.79 1.30
5.87 1.92 1.31
5.87 2.05 1.31
5.86 2.18 1.32
5.86 2.32 1.33
5.86 2.45 1.34
5.85 2.59 1.35
5.85 2.73 1.36
5.85 2.87 1.38
5.84 3.02 1.39
5.84 3.17 1.40
5.84 3.32 1.42
5.83 3.47 1.43
5.83 3.63 1.45
5.83 3.79 1.47
5.75 3.91 1.47
5.82 4.13 1.51
5.81 4.30 1.53
5.81 4.48 1.55
5.80 4.67 1.57
5.80 4.86 1.60
5.79 5.06 1.63
5.79 5.26 1.65
5.78 5.47 1.68
5.78 5.69 1.71
5.77 5.92 1.75
5.77 6.16 1.78
5.76 6.40 1.82
5.75 6.66 1.86
5.75 6.93 1.90
5.74 7.21 1.95
5.73 7.50 2.00
5.73 7.82 2.05
5.72 8.14 2.10
5.66 8.41 2.14
5.67 8.80 2.21
5.74 9.75 2.39
5.54 9.86 2.39
5.34 9.97 2.39
5.14 10.07 2.39
4.94 10.17 2.39
4.73 10.27 2.39
4.52 10.36 2.39
4.31 10.45 2.39
4.10 10.54 2.39
3.89 10.62 2.39
2.66 7.75 1.73
2.52 7.82 1.74
3.25 10.83 2.39
3.03 10.90 2.39
2.81 10.95 2.39
2.59 11.01 2.39
2.37 11.06 2.39
2.14 11.10 2.39
1.92 11.14 2.39
1.77 11.66 2.49
1.53 11.70 2.49
1.30 11.72 2.49
1.06 11.75 2.49
0.83 11.77 2.49
0.59 11.78 2.49
0.36 11.79 2.49
0.12 11.80 2.49
-0.12 11.80 2.49
-0.36 11.79 2.49
-0.59 11.78 2.49
-0.83 11.77 2.49
-1.06 11.75 2.49
-1.30 11.72 2.49
-1.53 11.70 2.49
-1.77 11.66 2.49
-2.00 11.63 2.49
-2.24 11.58 2.49
-2.47 11.54 2.49
-2.70 11.48 2.49
-2.93 11.43 2.49
-3.16 11.37 2.49
-3.39 11.30 2.49
-3.61 11.23 2.49
-3.84 11.16 2.49
-4.06 11.08 2.49
-4.28 10.99 2.49
-4.50 10.90 2.49
-4.72 10.81 2.49
-4.93 10.71 2.49
-5.15 10.61 2.49
-5.36 10.51 2.49
-5.57 10.40 2.49
-5.78 10.28 2.49
-5.98 10.17 2.49
-6.17 10.02 2.49
-6.17 9.58 2.41
-6.31 9.38 2.39
-6.50 9.25 2.39
-6.68 9.12 2.39
-6.87 8.99 2.39
-7.04 8.85 2.39
-7.22 8.70 2.39
-7.39 8.56 2.39
-7.56 8.41 2.39
-7.73 8.25 2.39
-7.90 8.10 2.39
-8.06 7.94 2.39
-8.21 7.77 2.39
-8.37 7.61 2.39
-8.52 7.44 2.39
-8.67 7.26 2.39
-8.81 7.09 2.39
-8.95 6.91 2.39
-9.09 6.73 2.39
-9.22 6.55 2.39
-9.35 6.36 2.39
-9.48 6.17 2.39
-9.60 5.98 2.39
-9.72 5.78 2.39
-9.83 5.59 2.39
-9.94 5.39 2.39
-10.04 5.19 2.39
-10.12 4.97 2.38
-10.21 4.76 2.38
-10.28 4.55 2.38
-10.36 4.34 2.37
-10.43 4.12 2.37
-10.49 3.91 2.37
-10.56 3.69 2.36
-10.62 3.47 2.36
-10.67 3.26 2.36
-10.72 3.04 2.36
-10.77 2.82 2.35
-10.82 2.60 2.35
-10.86 2.38 2.35
-10.89 2.16 2.35
-10.93 1.94 2.35
-10.96 1.72 2.34
-10.98 1.50 2.34
-11.00 1.28 2.34
-9.47 0.91 2.01
-9.34 0.70 1.98
-9.40 0.52 1.99
-11.38 0.40 2.41
-10.56 0.16 2.23
-9.79 -0.05 2.07
-9.78 -0.25 2.07
-9.78 -0.44 2.07
-9.77 -0.64 2.07
-9.77 -0.84 2.07
-9.77 -1.03 2.08
-9.76 -1.23 2.08
-9.76 -1.43 2.08
-9.75 -1.63 2.09
-9.75 -1.83 2.10
-9.74 -2.03 2.10
-9.74 -2.24 2.11
-9.73 -2.44 2.12
-9.73 -2.65 2.13
-9.72 -2.86 2.14
-9.71 -3.07 2.15
-9.71 -3.28 2.17
-9.70 -3.50 2.18
-9.70 -3.72 2.20
-9.69 -3.94 2.21
-9.69 -4.17 2.23
-9.68 -4.40 2.25
-9.68 -4.63 2.27
-9.67 -4.87 2.29
-9.66 -5.11 2.31
-9.66 -5.36 2.34
-9.65 -5.62 2.36
-9.65 -5.87 2.39
-9.54 -6.07 2.39
-9.41 -6.26 2.39
-9.29 -6.45 2.39
-9.15 -6.64 2.39
-9.02 -6.82 2.39
-8.88 -7.00 2.39
-8.74 -7.18 2.39
-8.59 -7.35 2.39
-8.44 -7.52 2.39
-8.29 -7.69 2.39
-8.14 -7.85 2.39
-7.98 -8.02 2.39
-7.81 -8.17 2.39
-7.65 -8.33 2.39
-7.48 -8.48 2.39
-7.31 -8.63 2.39
-7.13 -8.77 2.39
-6.95 -8.92 2.39
-6.77 -9.05 2.39
-6.59 -9.19 2.39
-6.41 -9.32 2.39
-6.22 -9.45 2.39
-6.03 -9.57 2.39
-5.83 -9.69 2.39
-5.69 -9.89 2.41
-5.67 -10.34 2.49
-5.47 -10.45 2.49
-5.25 -10.56 2.49
-5.04 -10.66 2.49
-4.83 -10.76 2.49
-4.61 -10.86 2.49
-4.39 -10.95 2.49
-4.17 -11.03 2.49
-3.95 -11.12 2.49
-3.72 -11.19 2.49
-3.50 -11.27 2.49
-3.27 -11.33 2.49
-3.04 -11.40 2.49
-2.81 -11.46 2.49
-2.58 -11.51 2.49
-2.35 -11.56 2.49
-2.12 -11.60 2.49
-1.89 -11.64 2.49
-1.65 -11.68 2.49
-1.42 -11.71 2.49
-1.18 -11.74 2.49
-0.95 -11.76 2.49
-0.71 -11.78 2.49
-0.47 -11.79 2.49
-0.24 -11.79 2.49
0.00 -10.61 2.49
0.21 -10.61 2.49
0.43 -10.60 2.49
0.64 -10.59 2.49
0.85 -10.58 2.49
1.06 -10.56 2.49
1.27 -10.53 2.49
1.49 -10.51 2.49
1.70 -10.47 2.49
1.91 -10.44 2.49
2.12 -10.40 2.49
2.32 -10.35 2.49
2.43 -9.88 2.39
2.61 -9.77 2.38
2.82 -9.77 2.39
3.02 -9.71 2.39
3.21 -9.65 2.39
3.40 -9.58 2.39
3.60 -9.51 2.39
3.79 -9.44 2.39
3.97 -9.36 2.39
4.16 -9.28 2.39
4.35 -9.20 2.39
4.53 -9.11 2.39
4.71 -9.01 2.39
4.89 -8.92 2.39
5.07 -8.82 2.39
5.25 -8.71 2.39
5.42 -8.61 2.39
5.59 -8.50 2.39
5.76 -8.38 2.39
5.93 -8.26 2.39
6.06 -8.10 2.38
6.26 -8.02 2.39
6.04 -7.13 2.20
6.03 -6.84 2.14
6.08 -6.63 2.11
6.08 -6.36 2.07
6.07 -6.10 2.02
6.06 -5.85 1.98
6.06 -5.62 1.94
6.05 -5.39 1.90
6.05 -5.17 1.87
6.04 -4.96 1.84
6.04 -4.76 1.81
6.03 -4.56 1.78
6.03 -4.37 1.75
5.96 -4.14 1.71
6.02 -4.00 1.70
6.01 -3.83 1.68
6.01 -3.66 1.65
6.01 -3.49 1.63
6.00 -3.33 1.61
6.00 -3.17 1.59
5.99 -3.02 1.58
5.99 -2.87 1.56
5.99 -2.72 1.55
5.98 -2.58 1.53
5.98 -2.43 1.52
5.98 -2.29 1.50
5.97 -2.15 1.49
5.97 -2.02 1.48
5.97 -1.89 1.47
5.96 -1.75 1.46
5.96 -1.62 1.45
5.96 -1.49 1.44
5.95 -1.37 1.44
5.95 -1.24 1.43
5.95 -1.12 1.42
5.94 -0.99 1.42
5.94 -0.87 1.41
5.94 -0.75 1.41
5.93 -0.63 1.40
5.93 -0.51 1.40
5.93 -0.39 1.40
5.93 -0.27 1.39
5.86 -0.15 1.38
5.86 -0.03 1.38
5.92 0.09 1.39
5.91 0.21 1.39
5.91 0.33 1.39
5.91 0.45 1.39
5.90 0.56 1.39
5.90 0.68 1.40
5.90 0.80 1.40
5.90 0.92 1.40
5.89 1.05 1.41
5.89 1.17 1.41
5.89 1.29 1.42
5.88 1.41 1.42
5.88 1.54 1.43
5.88 1.66 1.44
5.87 1.79 1.44
5.87 1.92 1.45
5.87 2.05 1.46
5.86 2.18 1.47
5.86 2.32 1.48
5.86 2.45 1.49
5.85 2.59 1.50
5.85 2.73 1.52
5.85 2.87 1.53
5.84 3.02 1.55
5.84 3.17 1.56
5.84 3.32 1.58
5.83 3.47 1.60
5.83 3.63 1.61
5.83 3.79 1.63
5.75 3.91 1.63
5.82 4.13 1.68
5.81 4.30 1.70
5.81 4.48 1.72
5.80 4.67 1.75
5.80 4.86 1.78
5.79 5.06 1.81
5.79 5.26 1.84
5.78 5.47 1.87
5.78 5.69 1.91
5.77 5.92 1.94
5.77 6.16 1.98
5.76 6.40 2.02
5.75 6.66 2.07
5.75 6.93 2.12
5.69 7.14 2.15
5.68 7.43 2.20
5.73 7.82 2.28
5.85 8.32 2.39
5.68 8.44 2.39
5.51 8.55 2.39
5.33 8.66 2.39
5.16 8.77 2.39
4.98 8.87 2.39
4.80 8.97 2.39
4.62 9.06 2.39
4.44 9.15 2.39
4.25 9.24 2.39
4.07 9.32 2.39
3.88 9.40 2.39
3.69 9.48 2.39
3.50 9.55 2.39
2.66 7.75 1.92
2.52 7.82 1.93
2.92 9.74 2.39
2.72 9.80 2.39
2.53 9.85 2.39
2.33 9.90 2.39
2.13 9.95 2.39
1.93 9.99 2.39
1.80 10.46 2.49
1.59 10.49 2.49
1.38 10.52 2.49
1.17 10.55 2.49
0.96 10.57 2.49
0.74 10.58 2.49
0.53 10.60 2.49
0.32 10.60 2.49
0.11 10.61 2.49
-0.11 10.61 2.49
-0.32 10.60 2.49
-0.53 10.60 2.49
-0.74 10.58 2.49
-0.96 10.57 2.49
-1.17 10.55 2.49
-1.38 10.52 2.49
-1.59 10.49 2.49
-1.80 10.46 2.49
-2.01 10.42 2.49
-2.22 10.37 2.49
-2.43 10.33 2.49
-2.63 10.28 2.49
-2.84 10.22 2.49
-3.04 10.16 2.49
-3.25 10.10 2.49
-3.45 10.03 2.49
-3.65 9.96 2.49
-3.85 9.89 2.49
-4.05 9.81 2.49
-4.24 9.72 2.49
-4.44 9.64 2.49
-4.63 9.55 2.49
-4.82 9.45 2.49
-5.01 9.35 2.49
-5.20 9.25 2.49
-5.38 9.14 2.49
-5.56 9.03 2.49
-5.74 8.92 2.49
-5.92 8.80 2.49
-6.10 8.68 2.49
-6.13 8.37 2.44
-6.17 8.08 2.39
-6.34 7.96 2.39
-6.49 7.83 2.39
-6.65 7.70 2.39
-6.80 7.56 2.39
-6.95 7.42 2.39
-7.10 7.28 2.39
-7.25 7.14 2.39
-7.39 6.99 2.39
-7.53 6.84 2.39
-7.66 6.69 2.39
-7.80 6.53 2.39
-7.92 6.38 2.39
-8.05 6.22 2.39
-8.17 6.05 2.39
-8.29 5.89 2.39
-8.41 5.72 2.39
-8.52 5.55 2.39
-8.63 5.38 2.39
-8.74 5.20 2.39
-8.84 5.03 2.39
-8.94 4.85 2.39
-9.04 4.67 2.39
-9.13 4.49 2.39
-9.22 4.30 2.39
-9.30 4.12 2.39
-9.38 3.93 2.39
-9.46 3.74 2.39
-9.53 3.55 2.39
-9.60 3.36 2.39
-9.67 3.16 2.39
-9.73 2.97 2.39
-9.79 2.77 2.39
-9.84 2.57 2.39
-9.89 2.38 2.39
-9.94 2.18 2.39
-9.97 1.98 2.39
-10.01 1.78 2.39
-10.03 1.57 2.39
-10.06 1.37 2.39
-10.08 1.17 2.38
-9.50 0.91 2.24
-9.35 0.71 2.20
-9.43 0.52 2.22
-10.23 0.36 2.41
-10.24 0.15 2.41
-9.79 -0.05 2.30
-9.78 -0.25 2.30
-9.78 -0.44 2.30
-9.77 -0.64 2.30
-9.77 -0.84 2.30
-9.77 -1.03 2.31
-9.76 -1.23 2.31
-9.76 -1.43 2.32
-9.75 -1.63 2.32
-9.75 -1.83 2.33
-9.74 -2.03 2.34
-9.74 -2.24 2.35
-9.73 -2.44 2.36
-9.73 -2.65 2.37
-9.72 -2.86 2.38
-9.70 -3.07 2.39
-9.63 -3.26 2.39
-9.57 -3.45 2.39
-9.50 -3.64 2.39
-9.42 -3.83 2.39
-9.34 -4.02 2.39
-9.26 -4.21 2.39
-9.17 -4.39 2.39
-9.08 -4.58 2.39
-8.99 -4.76 2.39
-8.89 -4.94 2.39
-8.79 -5.11 2.39
-8.69 -5.29 2.39
-8.58 -5.46 2.39
-8.47 -5.63 2.39
-8.35 -5.80 2.39
-8.23 -5.97 2.39
-8.11 -6.13 2.39
-7.99 -6.30 2.39
-7.86 -6.45 2.39
-7.73 -6.61 2.39
-7.59 -6.76 2.39
-7.46 -6.92 2.39
-7.32 -7.06 2.39
-7.17 -7.21 2.39
-7.03 -7.35 2.39
-6.88 -7.49 2.39
-6.73 -7.63 2.39
-6.57 -7.76 2.39
-6.41 -7.89 2.39
-6.26 -8.02 2.39
-6.09 -8.14 2.39
-5.93 -8.26 2.39
-5.76 -8.38 2.39
-5.70 -8.66 2.44
-5.65 -8.98 2.49
-5.47 -9.09 2.49
-5.29 -9.20 2.49
-5.10 -9.30 2.49
-4.92 -9.40 2.49
-4.73 -9.50 2.49
-4.53 -9.59 2.49
-4.34 -9.68 2.49
-4.15 -9.77 2.49
-3.95 -9.85 2.49
-3.75 -9.92 2.49
-3.55 -10.00 2.49
-3.35 -10.07 2.49
-3.15 -10.13 2.49
-2.94 -10.19 2.49
-2.74 -10.25 2.49
-2.53 -10.30 2.49
-2.32 -10.35 2.49
-2.12 -10.40 2.49
-1.91 -10.44 2.49
-1.70 -10.47 2.49
-1.49 -10.51 2.49
-1.27 -10.53 2.49
-1.06 -10.56 2.49
-0.85 -10.58 2.49
-0.64 -10.59 2.49
-0.43 -10.60 2.49
-0.21 -10.61 2.49
0.00 -9.63 2.49
0.19 -9.63 2.49
0.39 -9.62 2.49
0.58 -9.61 2.49
0.77 -9.60 2.49
0.97 -9.58 2.49
1.16 -9.56 2.49
1.35 -9.54 2.49
1.54 -9.51 2.49
1.73 -9.47 2.49
1.92 -9.44 2.49
2.11 -9.40 2.49
2.30 -9.35 2.49
2.38 -8.92 2.39
2.56 -8.87 2.39
2.74 -8.82 2.39
2.91 -8.76 2.39
3.09 -8.70 2.39
3.26 -8.64 2.39
3.44 -8.57 2.39
3.61 -8.50 2.39
3.78 -8.42 2.39
3.95 -8.35 2.39
4.11 -8.27 2.39
4.28 -8.18 2.39
4.44 -8.09 2.39
4.60 -8.00 2.39
4.76 -7.91 2.39
4.92 -7.81 2.39
5.08 -7.71 2.39
5.23 -7.61 2.39
5.38 -7.50 2.39
5.53 -7.39 2.39
5.68 -7.28 2.39
5.82 -7.16 2.39
5.97 -7.05 2.39
6.11 -6.92 2.39
6.24 -6.80 2.39
6.05 -6.08 2.22
6.01 -5.80 2.16
6.03 -5.59 2.13
6.05 -5.39 2.10
6.05 -5.17 2.06
6.04 -4.96 2.02
6.04 -4.76 1.99
6.03 -4.56 1.96
6.03 -4.37 1.93
5.96 -4.14 1.88
6.02 -4.00 1.87
6.01 -3.83 1.85
6.01 -3.66 1.82
6.01 -3.49 1.80
6.00 -3.33 1.78
6.00 -3.17 1.76
5.99 -3.02 1.74
5.99 -2.87 1.72
5.99 -2.72 1.70
5.98 -2.58 1.69
5.98 -2.43 1.67
5.98 -2.29 1.66
5.97 -2.15 1.64
5.97 -2.02 1.63
5.97 -1.89 1.62
5.96 -1.75 1.61
5.96 -1.62 1.60
5.96 -1.49 1.59
5.95 -1.37 1.58
5.95 -1.24 1.57
5.95 -1.12 1.57
5.94 -0.99 1.56
5.94 -0.87 1.55
5.94 -0.75 1.55
5.93 -0.63 1.55
5.93 -0.51 1.54
5.93 -0.39 1.54
5.93 -0.27 1.54
5.86 -0.15 1.52
5.86 -0.03 1.52
5.92 0.09 1.53
5.91 0.21 1.53
5.91 0.33 1.53
5.91 0.45 1.53
5.90 0.56 1.54
5.90 0.68 1.54
5.90 0.80 1.54
5.90 0.92 1.55
5.89 1.05 1.55
5.89 1.17 1.55
5.89 1.29 1.56
5.88 1.41 1.57
5.88 1.54 1.57
5.88 1.66 1.58
5.87 1.79 1.59
5.87 1.92 1.60
5.87 2.05 1.61
5.86 2.18 1.62
5.86 2.32 1.63
5.86 2.45 1.64
5.85 2.59 1.66
5.85 2.73 1.67
5.85 2.87 1.69
5.84 3.02 1.70
5.84 3.17 1.72
5.84 3.32 1.74
5.83 3.47 1.76
5.83 3.63 1.78
5.83 3.79 1.80
5.75 3.91 1.80
5.82 4.13 1.85
5.81 4.30 1.87
5.81 4.48 1.90
5.80 4.67 1.93
5.80 4.86 1.96
5.79 5.06 1.99
5.79 5.26 2.03
5.78 5.47 2.06
5.78 5.69 2.10
5.74 5.89 2.13
5.71 6.10 2.16
5.75 6.39 2.23
5.89 7.10 2.39
5.75 7.22 2.39
5.60 7.34 2.39
5.46 7.45 2.39
5.31 7.55 2.39
5.15 7.66 2.39
5.00 7.76 2.39
4.84 7.86 2.39
4.68 7.96 2.39
4.52 8.05 2.39
4.36 8.14 2.39
4.20 8.22 2.39
4.03 8.31 2.39
3.86 8.39 2.39
3.69 8.46 2.39
3.52 8.53 2.39
3.35 8.60 2.39
3.18 8.67 2.39
2.66 7.74 2.12
2.52 7.82 2.13
2.65 8.84 2.39
2.47 8.89 2.39
2.29 8.94 2.39
2.12 9.00 2.39
1.93 9.03 2.39
1.83 9.46 2.49
1.64 9.49 2.49
1.44 9.52 2.49
1.25 9.55 2.49
1.06 9.57 2.49
0.87 9.59 2.49
0.68 9.61 2.49
0.48 9.62 2.49
0.29 9.63 2.49
0.10 9.63 2.49
-0.10 9.63 2.49
-0.29 9.63 2.49
-0.48 9.62 2.49
-0.68 9.61 2.49
-0.87 9.59 2.49
-1.06 9.57 2.49
-1.25 9.55 2.49
-1.44 9.52 2.49
-1.64 9.49 2.49
-1.83 9.46 2.49
-2.01 9.42 2.49
-2.20 9.38 2.49
-2.39 9.33 2.49
-2.58 9.28 2.49
-2.76 9.23 2.49
-2.95 9.17 2.49
-3.13 9.11 2.49
-3.31 9.04 2.49
-3.49 8.97 2.49
-3.67 8.90 2.49
-3.85 8.83 2.49
-4.03 8.75 2.49
-4.20 8.66 2.49
-4.38 8.58 2.49
-4.55 8.49 2.49
-4.72 8.40 2.49
-4.88 8.30 2.49
-5.05 8.20 2.49
-5.21 8.10 2.49
-5.38 7.99 2.49
-5.53 7.88 2.49
-5.69 7.77 2.49
-5.85 7.65 2.49
-6.00 7.53 2.49
-6.10 7.36 2.48
-6.10 7.06 2.42
-6.18 6.86 2.39
-6.31 6.74 2.39
-6.45 6.61 2.39
-6.58 6.48 2.39
-6.71 6.35 2.39
-6.83 6.21 2.39
-6.96 6.07 2.39
-7.08 5.93 2.39
-7.19 5.79 2.39
-7.31 5.64 2.39
-7.42 5.49 2.39
-7.53 5.34 2.39
-7.63 5.19 2.39
-7.74 5.04 2.39
-7.84 4.88 2.39
-7.93 4.72 2.39
-8.03 4.56 2.39
-8.12 4.40 2.39
-8.20 4.24 2.39
-8.29 4.07 2.39
-8.37 3.90 2.39
-8.44 3.74 2.39
-8.52 3.57 2.39
-8.59 3.39 2.39
-8.65 3.22 2.39
-8.72 3.05 2.39
-8.77 2.87 2.39
-8.83 2.69 2.39
-8.88 2.52 2.39
-8.93 2.34 2.39
-8.98 2.16 2.39
-9.02 1.98 2.39
-9.06 1.80 2.39
-9.09 1.61 2.39
-9.12 1.43 2.39
-9.15 1.25 2.39
-9.17 1.06 2.39
-9.19 0.88 2.39
-9.21 0.69 2.39
-9.22 0.51 2.39
-9.23 0.32 2.39
-9.23 0.14 2.39
-9.23 -0.05 2.39
-9.23 -0.23 2.39
-9.22 -0.42 2.39
-9.21 -0.60 2.39
-9.20 -0.79 2.39
-9.18 -0.97 2.39
-9.16 -1.16 2.39
-9.13 -1.34 2.39
-9.11 -1.52 2.39
-9.07 -1.70 2.39
-9.04 -1.89 2.39
-9.00 -2.07 2.39
-8.95 -2.25 2.39
-8.91 -2.43 2.39
-8.86 -2.60 2.39
-8.80 -2.78 2.39
-8.74 -2.96 2.39
-8.68 -3.13 2.39
-8.62 -3.31 2.39
-8.55 -3.48 2.39
-8.48 -3.65 2.39
-8.40 -3.82 2.39
-8.33 -3.99 2.39
-8.24 -4.15 2.39
-8.16 -4.32 2.39
-8.07 -4.48 2.39
-7.98 -4.64 2.39
-7.88 -4.80 2.39
-7.79 -4.96 2.39
-7.69 -5.11 2.39
-7.58 -5.27 2.39
-7.47 -5.42 2.39
-7.36 -5.57 2.39
-7.25 -5.71 2.39
-7.13 -5.86 2.39
-7.02 -6.00 2.39
-6.89 -6.14 2.39
-6.77 -6.28 2.39
-6.64 -6.41 2.39
-6.51 -6.54 2.39
-6.38 -6.67 2.39
-6.24 -6.80 2.39
-6.11 -6.92 2.39
-5.97 -7.05 2.39
-5.82 -7.16 2.39
-5.73 -7.35 2.41
-5.72 -7.65 2.47
-5.61 -7.83 2.49
-5.46 -7.94 2.49
-5.30 -8.04 2.49
-5.13 -8.15 2.49
-4.97 -8.25 2.49
-4.80 -8.35 2.49
-4.63 -8.44 2.49
-4.46 -8.53 2.49
-4.29 -8.62 2.49
-4.12 -8.71 2.49
-3.94 -8.79 2.49
-3.76 -8.86 2.49
-3.58 -8.94 2.49
-3.40 -9.01 2.49
-3.22 -9.08 2.49
-3.04 -9.14 2.49
-2.86 -9.20 2.49
-2.67 -9.25 2.49
-2.48 -9.30 2.49
-2.30 -9.35 2.49
-2.11 -9.40 2.49
-1.92 -9.44 2.49
-1.73 -9.47 2.49
-1.54 -9.51 2.49
-1.35 -9.54 2.49
-1.16 -9.56 2.49
-0.97 -9.58 2.49
-0.77 -9.60 2.49
-0.58 -9.61 2.49
-0.39 -9.62 2.49
-0.19 -9.63 2.49
0.00 -8.81 2.49
0.18 -8.81 2.49
0.35 -8.80 2.49
0.53 -8.79 2.49
0.71 -8.78 2.49
0.88 -8.76 2.49
1.06 -8.74 2.49
1.23 -8.72 2.49
1.41 -8.69 2.49
1.58 -8.66 2.49
1.76 -8.63 2.49
1.93 -8.59 2.49
2.10 -8.55 2.49
2.27 -8.51 2.49
2.34 -8.11 2.39
2.52 -8.11 2.40
2.67 -8.01 2.39
2.83 -7.96 2.39
2.99 -7.90 2.39
3.14 -7.84 2.39
3.30 -7.77 2.39
3.46 -7.70 2.39
3.61 -7.63 2.39
3.76 -7.56 2.39
3.91 -7.48 2.39
4.06 -7.40 2.39
4.21 -7.32 2.39
4.36 -7.23 2.39
4.50 -7.14 2.39
4.64 -7.05 2.39
4.78 -6.96 2.39
4.92 -6.86 2.39
5.06 -6.76 2.39
5.19 -6.66 2.39
5.33 -6.55 2.39
5.46 -6.44 2.39
5.58 -6.33 2.39
5.71 -6.22 2.39
5.83 -6.10 2.39
5.96 -5.99 2.39
6.07 -5.87 2.39
6.19 -5.74 2.39
5.98 -4.91 2.19
5.98 -4.71 2.16
6.00 -4.54 2.13
6.03 -4.37 2.11
5.96 -4.14 2.05
6.02 -4.00 2.05
6.01 -3.83 2.02
6.01 -3.66 1.99
6.01 -3.49 1.97
6.00 -3.33 1.94
6.00 -3.17 1.92
5.99 -3.02 1.90
5.99 -2.87 1.88
5.99 -2.72 1.86
5.98 -2.58 1.84
5.98 -2.43 1.83
5.98 -2.29 1.81
5.97 -2.15 1.80
5.97 -2.02 1.78
5.97 -1.89 1.77
5.96 -1.75 1.76
5.96 -1.62 1.75
5.96 -1.49 1.74
5.95 -1.37 1.73
5.95 -1.24 1.72
5.95 -1.12 1.71
5.94 -0.99 1.71
5.94 -0.87 1.70
5.94 -0.75 1.69
5.93 -0.63 1.69
5.93 -0.51 1.69
5.93 -0.39 1.68
5.93 -0.27 1.68
5.86 -0.15 1.66
5.86 -0.03 1.66
5.92 0.09 1.68
5.91 0.21 1.68
5.91 0.33 1.68
5.91 0.45 1.68
5.90 0.56 1.68
5.90 0.68 1.68
5.90 0.80 1.69
5.90 0.92 1.69
5.89 1.05 1.69
5.89 1.17 1.70
5.89 1.29 1.71
5.88 1.41 1.71
5.88 1.54 1.72
5.88 1.66 1.73
5.87 1.79 1.74
5.87 1.92 1.75
5.87 2.05 1.76
5.86 2.18 1.77
5.86 2.32 1.78
5.86 2.45 1.80
5.85 2.59 1.81
5.85 2.73 1.83
5.85 2.87 1.84
5.84 3.02 1.86
5.84 3.17 1.88
5.84 3.32 1.90
5.83 3.47 1.92
5.83 3.63 1.94
5.83 3.79 1.97
5.75 3.91 1.97
5.82 4.13 2.02
5.81 4.30 2.05
5.81 4.48 2.08
5.80 4.67 2.11
5.77 4.83 2.13
5.74 5.01 2.16
5.73 5.21 2.19
5.90 6.04 2.39
5.77 6.16 2.39
5.65 6.28 2.39
5.52 6.39 2.39
5.39 6.50 2.39
5.26 6.61 2.39
5.13 6.71 2.39
4.99 6.81 2.39
4.85 6.91 2.39
4.71 7.01 2.39
4.57 7.10 2.39
4.43 7.19 2.39
4.28 7.28 2.39
4.14 7.36 2.39
3.99 7.44 2.39
3.84 7.52 2.39
3.69 7.60 2.39
3.53 7.67 2.39
3.38 7.74 2.39
3.22 7.80 2.39
3.06 7.87 2.39
2.91 7.93 2.39
2.66 7.74 2.32
2.51 7.82 2.33
2.42 8.09 2.39
2.26 8.14 2.39
2.10 8.18 2.39
1.93 8.23 2.39
1.84 8.61 2.49
1.67 8.65 2.49
1.50 8.68 2.49
1.32 8.71 2.49
1.15 8.73 2.49
0.97 8.75 2.49
0.79 8.77 2.49
0.62 8.79 2.49
0.44 8.80 2.49
0.27 8.80 2.49
0.09 8.81 2.49
-0.09 8.81 2.49
-0.27 8.80 2.49
-0.44 8.80 2.49
-0.62 8.79 2.49
-0.79 8.77 2.49
-0.97 8.75 2.49
-1.15 8.73 2.49
-1.32 8.71 2.49
-1.50 8.68 2.49
-1.67 8.65 2.49
-1.84 8.61 2.49
-2.02 8.57 2.49
-2.19 8.53 2.49
-2.36 8.49 2.49
-2.53 8.44 2.49
-2.70 8.39 2.49
-2.86 8.33 2.49
-3.03 8.27 2.49
-3.20 8.21 2.49
-3.36 8.14 2.49
-3.52 8.07 2.49
-3.68 8.00 2.49
-3.84 7.92 2.49
-4.00 7.85 2.49
-4.16 7.76 2.49
-4.31 7.68 2.49
-4.47 7.59 2.49
-4.62 7.50 2.49
-4.77 7.41 2.49
-4.92 7.31 2.49
-5.06 7.21 2.49
-5.21 7.11 2.49
-5.35 7.00 2.49
-5.49 6.89 2.49
-5.62 6.78 2.49
-5.76 6.66 2.49
-5.89 6.55 2.49
-6.02 6.43 2.49
-6.08 6.23 2.46
-6.08 5.99 2.41
-6.13 5.80 2.39
-6.26 5.69 2.39
-6.36 5.55 2.39
-6.47 5.42 2.39
-6.58 5.29 2.39
-6.68 5.16 2.39
-6.79 5.02 2.39
-6.89 4.89 2.39
-6.98 4.75 2.39
-7.08 4.61 2.39
-7.17 4.46 2.39
-7.26 4.32 2.39
-7.34 4.17 2.39
-7.42 4.02 2.39
-7.50 3.87 2.39
-7.58 3.72 2.39
-7.65 3.57 2.39
-7.72 3.42 2.39
-7.79 3.26 2.39
-7.85 3.10 2.39
-7.91 2.95 2.39
-7.97 2.79 2.39
-8.03 2.63 2.39
-8.08 2.46 2.39
-8.12 2.30 2.39
-8.17 2.14 2.39
-8.21 1.97 2.39
-8.25 1.81 2.39
-8.28 1.64 2.39
-8.31 1.48 2.39
-8.34 1.31 2.39
-8.37 1.14 2.39
-8.39 0.97 2.39
-8.41 0.80 2.39
-8.42 0.64 2.39
-8.43 0.47 2.39
-8.44 0.30 2.39
-8.44 0.13 2.39
-8.44 -0.04 2.39
-8.44 -0.21 2.39
-8.43 -0.38 2.39
-8.43 -0.55 2.39
-8.41 -0.72 2.39
-8.40 -0.89 2.39
-8.38 -1.06 2.39
-8.35 -1.22 2.39
-8.33 -1.39 2.39
-8.30 -1.56 2.39
-8.27 -1.73 2.39
-8.23 -1.89 2.39
-8.19 -2.06 2.39
-8.15 -2.22 2.39
-8.10 -2.38 2.39
-8.05 -2.54 2.39
-8.00 -2.71 2.39
-7.94 -2.87 2.39
-7.88 -3.02 2.39
-7.82 -3.18 2.39
-7.76 -3.34 2.39
-7.69 -3.49 2.39
-7.62 -3.65 2.39
-7.54 -3.80 2.39
-7.46 -3.95 2.39
-7.38 -4.10 2.39
-7.30 -4.25 2.39
-7.21 -4.39 2.39
-7.12 -4.54 2.39
-7.03 -4.68 2.39
-6.93 -4.82 2.39
-6.84 -4.96 2.39
-6.73 -5.09 2.39
-6.63 -5.23 2.39
-6.53 -5.36 2.39
-6.42 -5.49 2.39
-6.30 -5.62 2.39
-6.19 -5.74 2.39
-6.07 -5.86 2.39
-5.97 -6.00 2.40
-5.83 -6.10 2.39
-5.76 -6.27 2.41
-5.75 -6.52 2.46
-5.69 -6.72 2.49
-5.56 -6.84 2.49
-5.42 -6.95 2.49
-5.28 -7.05 2.49
-5.13 -7.16 2.49
-4.99 -7.26 2.49
-4.84 -7.36 2.49
-4.69 -7.45 2.49
-4.54 -7.55 2.49
-4.39 -7.64 2.49
-4.24 -7.72 2.49
-4.08 -7.81 2.49
-3.92 -7.89 2.49
-3.76 -7.96 2.49
-3.60 -8.04 2.49
-3.44 -8.11 2.49
-3.28 -8.18 2.49
-3.11 -8.24 2.49
-2.95 -8.30 2.49
-2.78 -8.36 2.49
-2.61 -8.41 2.49
-2.44 -8.46 2.49
-2.27 -8.51 2.49
-2.10 -8.55 2.49
-1.93 -8.59 2.49
-1.76 -8.63 2.49
-1.58 -8.66 2.49
-1.41 -8.69 2.49
-1.23 -8.72 2.49
-1.06 -8.74 2.49
-0.88 -8.76 2.49
-0.71 -8.78 2.49
-0.53 -8.79 2.49
-0.35 -8.80 2.49
-0.18 -8.81 2.49
0.00 -8.11 2.49
0.16 -8.11 2.49
0.33 -8.10 2.49
0.49 -8.09 2.49
0.65 -8.08 2.49
0.81 -8.07 2.49
0.97 -8.05 2.49
1.14 -8.03 2.49
1.30 -8.00 2.49
1.46 -7.98 2.49
1.62 -7.94 2.49
1.78 -7.91 2.49
1.93 -7.87 2.49
2.09 -7.83 2.49
2.25 -7.79 2.49
2.31 -7.43 2.39
2.45 -7.37 2.39
2.60 -7.32 2.39
2.75 -7.27 2.39
2.89 -7.21 2.39
3.04 -7.15 2.39
3.18 -7.09 2.39
