ply
format ascii 1.0
element vertex 2950
property float32 x
property float32 y
property float32 z
end_header
-10.57 -9.09 1.61
-10.59 -9.48 1.64
-10.67 -9.95 1.68
-10.48 -10.17 1.67
-10.41 -10.52 1.69
-10.46 -11.00 1.72
-10.47 -11.46 1.76
-10.63 -12.11 1.82
-10.42 -12.36 1.82
-10.41 -12.87 1.85
-10.42 -13.42 1.90
-10.52 -14.11 1.96
-10.71 -14.99 2.04
-10.00 -14.61 1.96
-9.92 -15.13 2.00
-11.56 -18.42 2.39
-11.22 -18.69 2.39
-10.87 -18.96 2.39
-10.51 -19.22 2.39
-10.15 -19.47 2.39
-9.77 -19.71 2.39
-8.84 -18.77 2.25
-6.35 -14.19 1.69
-9.00 -21.25 2.50
-8.58 -21.46 2.50
-8.16 -21.66 2.50
-7.74 -21.85 2.50
-7.31 -22.03 2.50
-6.88 -22.19 2.50
-6.44 -22.35 2.50
-6.00 -22.49 2.50
-5.55 -22.62 2.50
-5.10 -22.74 2.50
-4.65 -22.85 2.50
-4.19 -22.95 2.50
-3.73 -23.03 2.50
-3.27 -23.10 2.50
-2.81 -23.16 2.50
-2.34 -23.21 2.50
-1.88 -23.25 2.50
-1.41 -23.27 2.50
-0.95 -23.28 2.50
-0.48 -23.28 2.50
-0.01 -19.18 2.50
0.37 -19.16 2.50
0.75 -19.14 2.50
1.13 -19.10 2.50
1.51 -19.05 2.50
1.89 -19.00 2.50
2.17 -18.15 2.39
2.07 -14.78 1.96
2.33 -14.51 1.93
3.24 -17.90 2.39
3.59 -17.81 2.39
3.94 -17.70 2.39
4.28 -17.58 2.39
4.62 -17.46 2.39
4.96 -17.33 2.39
5.30 -17.19 2.39
5.63 -17.04 2.39
5.95 -16.89 2.39
5.76 -15.37 2.20
5.82 -14.62 2.11
5.82 -13.81 2.02
5.75 -12.91 1.91
5.82 -12.41 1.86
5.82 -11.79 1.79
5.82 -11.22 1.72
5.82 -10.69 1.66
5.82 -10.20 1.61
5.82 -9.75 1.56
5.82 -9.32 1.52
5.78 -8.84 1.46
5.83 -8.54 1.44
5.83 -8.18 1.40
5.83 -7.85 1.37
5.83 -7.53 1.34
5.83 -7.22 1.31
5.83 -6.94 1.28
5.83 -6.66 1.26
5.83 -6.40 1.23
5.83 -6.15 1.21
5.83 -5.91 1.19
5.83 -5.68 1.17
5.83 -5.45 1.15
5.83 -5.24 1.14
5.83 -5.03 1.12
5.82 -4.82 1.11
5.83 -4.64 1.09
5.83 -4.45 1.08
5.83 -4.27 1.07
5.83 -4.09 1.06
5.83 -3.92 1.05
5.83 -3.75 1.04
5.83 -3.59 1.03
5.83 -3.43 1.02
5.83 -3.28 1.02
5.83 -3.12 1.01
5.83 -2.98 1.00
5.83 -2.83 1.00
5.83 -2.69 0.99
5.83 -2.55 0.99
5.83 -2.41 0.98
5.83 -2.27 0.98
5.83 -2.14 0.98
5.83 -2.01 0.97
5.83 -1.88 0.97
5.83 -1.75 0.97
5.83 -1.62 0.97
5.83 -1.50 0.97
5.83 -1.37 0.97
5.83 -1.25 0.97
5.83 -1.13 0.97
5.77 -0.88 0.96
5.83 -0.77 0.97
5.83 -0.65 0.97
5.83 -0.53 0.97
5.83 -0.41 0.98
5.83 -0.30 0.98
5.83 -0.18 0.98
5.83 -0.06 0.99
5.83 0.05 0.99
5.83 0.17 1.00
5.83 0.29 1.00
5.83 0.41 1.01
5.83 0.52 1.01
5.83 0.64 1.02
5.83 0.76 1.02
5.83 0.88 1.03
5.83 1.00 1.04
5.83 1.12 1.05
5.83 1.24 1.05
5.83 1.37 1.06
5.83 1.49 1.07
5.83 1.62 1.08
5.83 1.75 1.09
5.83 1.87 1.10
5.83 2.00 1.11
5.83 2.14 1.13
5.83 2.27 1.14
5.83 2.41 1.15
5.83 2.55 1.17
5.83 2.69 1.18
5.83 2.83 1.20
5.83 2.98 1.21
5.76 3.09 1.21
5.83 3.28 1.25
5.83 3.44 1.26
5.84 3.60 1.28
5.84 3.76 1.30
5.84 3.93 1.32
5.84 4.10 1.35
5.84 4.28 1.37
5.84 4.46 1.39
5.84 4.65 1.42
5.84 4.85 1.45
5.84 5.05 1.48
5.84 5.26 1.51
5.84 5.48 1.54
5.84 5.71 1.57
5.84 5.94 1.61
5.84 6.19 1.65
2.74 3.02 0.79
2.67 3.07 0.79
5.85 7.01 1.78
5.84 7.28 1.82
5.84 7.59 1.87
5.84 7.92 1.93
5.84 8.26 1.98
5.84 8.63 2.05
5.84 9.01 2.11
5.78 9.34 2.16
11.14 18.82 4.31
5.96 10.55 2.39
5.74 10.65 2.39
5.52 10.75 2.39
5.29 10.85 2.39
5.07 10.94 2.39
4.84 11.03 2.39
4.61 11.12 2.39
4.38 11.20 2.39
4.15 11.28 2.39
3.92 11.35 2.39
3.69 11.42 2.39
3.45 11.48 2.39
3.22 11.54 2.39
2.98 11.60 2.39
2.75 11.66 2.39
2.51 11.70 2.39
2.27 11.75 2.39
2.06 11.92 2.42
1.87 12.34 2.50
1.62 12.38 2.50
1.37 12.41 2.50
1.12 12.43 2.50
0.87 12.46 2.50
0.62 12.47 2.50
0.37 12.49 2.50
0.12 12.50 2.50
-0.14 12.50 2.50
-0.39 12.51 2.50
-0.64 12.50 2.50
-0.89 12.50 2.50
-1.15 12.49 2.50
-1.40 12.47 2.50
-1.65 12.45 2.50
-1.91 12.43 2.50
-2.16 12.40 2.50
-2.41 12.37 2.50
-2.66 12.33 2.50
-2.92 12.29 2.50
-3.17 12.25 2.50
-3.42 12.20 2.50
-3.67 12.14 2.50
-3.92 12.08 2.50
-4.17 12.02 2.50
-4.42 11.96 2.50
-4.67 11.88 2.50
-4.92 11.81 2.50
-5.16 11.73 2.50
-5.41 11.65 2.50
-5.65 11.56 2.50
-5.90 11.47 2.50
-6.00 11.10 2.44
-6.12 10.80 2.39
-6.35 10.70 2.39
-6.58 10.59 2.39
-6.81 10.48 2.39
-7.04 10.37 2.39
-7.26 10.25 2.39
-7.49 10.13 2.39
-7.71 10.00 2.39
-7.93 9.87 2.39
-8.15 9.74 2.39
-8.37 9.60 2.39
-8.59 9.46 2.39
-8.80 9.31 2.39
-9.01 9.16 2.39
-9.22 9.00 2.39
-9.43 8.84 2.39
-9.64 8.68 2.39
-9.84 8.51 2.39
-10.11 8.39 2.41
-10.31 8.21 2.41
-10.51 8.03 2.41
-10.71 7.84 2.41
-10.90 7.65 2.41
-11.09 7.46 2.41
-10.98 7.07 2.35
-11.13 6.85 2.34
-11.27 6.63 2.33
-11.41 6.41 2.33
-11.55 6.18 2.32
-11.68 5.96 2.31
-11.82 5.73 2.31
-11.94 5.49 2.30
-12.07 5.26 2.30
-12.19 5.03 2.29
-12.31 4.79 2.29
-12.43 4.55 2.28
-12.54 4.30 2.27
-12.64 4.06 2.27
-12.75 3.81 2.26
-12.85 3.56 2.26
-12.94 3.31 2.26
-9.52 2.23 1.64
-9.52 2.03 1.63
-9.53 1.83 1.62
-9.51 1.63 1.60
-14.29 2.16 2.39
-14.39 1.88 2.39
-14.48 1.60 2.39
-13.59 1.22 2.23
-13.65 0.95 2.22
-13.71 0.68 2.22
-13.77 0.41 2.22
-13.82 0.13 2.22
-13.87 -0.14 2.22
-13.91 -0.42 2.21
-13.95 -0.71 2.21
-13.99 -0.99 2.21
-14.02 -1.27 2.21
-14.04 -1.56 2.21
-14.07 -1.85 2.21
-14.08 -2.14 2.21
-14.10 -2.43 2.21
-14.10 -2.72 2.21
-14.11 -3.02 2.21
-14.94 -3.51 2.34
-14.72 -3.77 2.30
-14.53 -4.04 2.28
-14.37 -4.30 2.26
-14.21 -4.57 2.23
-14.10 -4.84 2.22
-14.08 -5.15 2.23
-9.59 -3.73 1.52
-10.64 -4.38 1.69
-10.60 -4.62 1.70
-10.59 -4.87 1.70
-10.61 -5.14 1.71
-10.54 -5.37 1.71
-10.63 -5.69 1.74
-10.95 -6.14 1.80
-10.66 -6.26 1.77
-10.62 -6.52 1.78
-10.57 -6.79 1.79
-10.58 -7.10 1.80
-10.55 -7.39 1.82
-10.69 -7.81 1.86
-10.85 -8.27 1.91
-10.60 -8.41 1.89
-10.56 -8.73 1.90
-10.56 -9.09 1.93
-10.64 -9.54 1.97
-10.76 -10.04 2.03
-10.54 -10.24 2.02
-10.07 -10.18 1.96
-9.89 -10.41 1.96
-9.87 -10.81 1.99
-9.88 -11.27 2.03
-9.88 -11.73 2.07
-9.88 -12.22 2.12
-9.88 -12.73 2.17
-9.88 -13.27 2.22
-9.89 -13.85 2.28
-9.89 -14.46 2.34
-9.85 -15.03 2.39
-9.57 -15.26 2.39
-9.28 -15.48 2.39
-8.99 -15.69 2.39
-8.69 -15.90 2.39
-8.38 -16.10 2.39
-8.07 -16.29 2.39
-7.76 -16.47 2.39
-6.34 -14.19 2.04
-7.12 -16.82 2.39
-6.79 -16.98 2.39
-6.73 -17.88 2.50
-6.38 -18.03 2.50
-6.03 -18.17 2.50
-5.67 -18.30 2.50
-5.31 -18.43 2.50
-4.94 -18.54 2.50
-4.57 -18.65 2.50
-4.20 -18.75 2.50
-3.83 -18.83 2.50
-3.45 -18.91 2.50
-3.07 -18.98 2.50
-2.69 -19.04 2.50
-2.31 -19.09 2.50
-1.93 -19.13 2.50
-1.55 -19.16 2.50
-1.17 -19.18 2.50
-0.78 -19.19 2.50
-0.40 -19.19 2.50
-0.01 -16.31 2.50
0.31 -16.29 2.50
0.64 -16.27 2.50
0.96 -16.24 2.50
1.28 -16.20 2.50
1.60 -16.16 2.50
1.92 -16.10 2.50
2.15 -15.38 2.39
2.32 -14.51 2.27
2.75 -15.24 2.39
3.05 -15.16 2.39
3.35 -15.08 2.39
3.64 -14.98 2.39
3.94 -14.88 2.39
4.23 -14.77 2.39
4.51 -14.66 2.39
4.79 -14.54 2.39
5.07 -14.41 2.39
5.35 -14.28 2.39
5.62 -14.14 2.39
5.89 -13.99 2.39
5.76 -12.95 2.24
5.77 -12.30 2.15
5.82 -11.80 2.09
5.82 -11.23 2.01
5.82 -10.70 1.95
5.82 -10.21 1.88
5.82 -9.76 1.82
5.82 -9.33 1.77
5.77 -8.85 1.71
5.83 -8.55 1.67
5.83 -8.19 1.63
5.83 -7.86 1.59
5.83 -7.54 1.56
5.83 -7.23 1.52
5.83 -6.94 1.49
5.83 -6.67 1.46
5.83 -6.41 1.43
5.83 -6.16 1.41
5.83 -5.91 1.38
5.83 -5.68 1.36
5.83 -5.46 1.34
5.83 -5.24 1.32
5.83 -5.04 1.30
5.81 -4.83 1.28
5.83 -4.64 1.27
5.83 -4.46 1.25
5.83 -4.27 1.24
5.83 -4.10 1.22
5.83 -3.93 1.21
5.83 -3.76 1.20
5.83 -3.60 1.19
5.83 -3.44 1.18
5.83 -3.28 1.17
5.83 -3.13 1.16
5.83 -2.98 1.16
5.83 -2.84 1.15
5.83 -2.69 1.14
5.83 -2.55 1.14
5.83 -2.41 1.13
5.83 -2.28 1.13
5.83 -2.14 1.12
5.83 -2.01 1.12
5.83 -1.88 1.11
5.83 -1.76 1.11
5.83 -1.63 1.11
5.83 -1.50 1.11
5.83 -1.38 1.11
5.83 -1.26 1.11
5.83 -1.13 1.11
5.77 -0.88 1.09
5.83 -0.77 1.11
5.83 -0.66 1.11
5.83 -0.54 1.11
5.83 -0.42 1.11
5.83 -0.30 1.12
5.83 -0.18 1.12
5.83 -0.07 1.12
5.83 0.05 1.13
5.83 0.17 1.13
5.83 0.28 1.14
5.83 0.40 1.14
5.83 0.52 1.15
5.83 0.64 1.15
5.83 0.76 1.16
5.83 0.88 1.17
5.83 1.00 1.18
5.83 1.12 1.18
5.83 1.24 1.19
5.83 1.36 1.20
5.83 1.49 1.21
5.83 1.61 1.22
5.83 1.74 1.23
5.83 1.87 1.25
5.83 2.00 1.26
5.83 2.13 1.27
5.83 2.27 1.28
5.83 2.40 1.30
5.83 2.54 1.31
5.83 2.68 1.33
5.83 2.83 1.35
5.83 2.97 1.36
5.76 3.08 1.36
5.83 3.27 1.40
5.83 3.43 1.42
5.84 3.59 1.44
5.84 3.76 1.47
5.84 3.92 1.49
5.84 4.10 1.51
5.84 4.28 1.54
5.84 4.46 1.57
5.84 4.65 1.59
5.84 4.84 1.62
5.84 5.05 1.66
5.84 5.26 1.69
5.84 5.47 1.73
5.84 5.70 1.76
5.84 5.94 1.80
5.84 6.18 1.84
2.74 3.02 0.89
2.67 3.06 0.88
5.86 7.01 1.99
5.84 7.28 2.04
5.84 7.59 2.10
5.80 7.85 2.14
5.78 8.18 2.20
12.70 18.75 4.98
5.91 9.12 2.39
5.72 9.23 2.39
5.52 9.33 2.39
5.33 9.43 2.39
5.13 9.52 2.39
4.93 9.61 2.39
4.73 9.70 2.39
4.53 9.78 2.39
4.33 9.86 2.39
4.12 9.94 2.39
3.92 10.01 2.39
3.71 10.08 2.39
3.51 10.15 2.39
3.30 10.21 2.39
3.09 10.27 2.39
2.88 10.33 2.39
2.67 10.38 2.39
2.46 10.43 2.39
2.26 10.53 2.41
2.06 10.62 2.42
1.90 11.01 2.50
1.68 11.04 2.50
1.45 11.07 2.50
1.23 11.10 2.50
1.00 11.12 2.50
0.78 11.14 2.50
0.55 11.16 2.50
0.33 11.17 2.50
0.10 11.18 2.50
-0.12 11.19 2.50
-0.35 11.19 2.50
-0.58 11.18 2.50
-0.80 11.18 2.50
-1.03 11.17 2.50
-1.25 11.15 2.50
-1.48 11.13 2.50
-1.71 11.11 2.50
-1.93 11.09 2.50
-2.16 11.06 2.50
-2.38 11.02 2.50
-2.61 10.98 2.50
-2.83 10.94 2.50
-3.06 10.90 2.50
-3.28 10.85 2.50
-3.51 10.79 2.50
-3.73 10.74 2.50
-3.95 10.67 2.50
-4.17 10.61 2.50
-4.39 10.54 2.50
-4.61 10.47 2.50
-4.83 10.39 2.50
-5.05 10.31 2.50
-5.27 10.22 2.50
-5.48 10.13 2.50
-5.70 10.04 2.50
-5.91 9.95 2.50
-6.00 9.64 2.45
-6.07 9.34 2.39
-6.27 9.23 2.39
-6.47 9.13 2.39
-6.67 9.01 2.39
-6.87 8.90 2.39
-7.06 8.78 2.39
-7.26 8.66 2.39
-7.45 8.53 2.39
-7.64 8.40 2.39
-7.83 8.27 2.39
-8.01 8.13 2.39
-8.20 7.99 2.39
-8.38 7.84 2.39
-8.56 7.69 2.39
-8.74 7.54 2.39
-8.91 7.39 2.39
-9.09 7.23 2.39
-9.26 7.06 2.39
-9.43 6.90 2.39
-9.59 6.73 2.39
-9.76 6.55 2.39
-9.92 6.37 2.39
-10.06 6.18 2.39
-10.19 5.98 2.38
-10.32 5.78 2.38
-10.44 5.58 2.37
-10.56 5.37 2.37
-10.68 5.16 2.36
-10.79 4.95 2.36
-10.90 4.74 2.35
-11.01 4.53 2.35
-11.12 4.31 2.34
-11.22 4.09 2.34
-11.32 3.87 2.33
-11.41 3.65 2.33
-11.50 3.43 2.32
-11.59 3.20 2.32
-11.68 2.98 2.31
-9.52 2.22 1.87
-9.52 2.02 1.86
-9.52 1.82 1.84
-9.56 1.63 1.84
-12.64 1.90 2.41
-12.71 1.65 2.41
-12.79 1.40 2.41
-12.23 1.09 2.29
-12.28 0.85 2.29
-12.33 0.60 2.28
-12.38 0.36 2.28
-12.42 0.11 2.28
-12.46 -0.14 2.28
-12.49 -0.39 2.28
-12.52 -0.64 2.28
-12.55 -0.90 2.27
-12.57 -1.15 2.27
-12.59 -1.41 2.27
-12.60 -1.67 2.27
-12.62 -1.93 2.27
-12.62 -2.19 2.27
-12.62 -2.45 2.27
-12.62 -2.71 2.27
-12.61 -2.97 2.27
-12.60 -3.24 2.27
-13.04 -3.63 2.36
-13.01 -3.91 2.36
-12.99 -4.19 2.36
-12.97 -4.47 2.36
-9.54 -3.50 1.74
-9.39 -3.66 1.72
-9.40 -3.88 1.73
-10.62 -4.64 1.97
-10.59 -4.88 1.97
-10.59 -5.14 1.98
-10.56 -5.39 1.99
-10.69 -5.72 2.03
-11.01 -6.18 2.11
-10.66 -6.27 2.06
-10.07 -6.20 1.96
-9.98 -6.42 1.96
-9.88 -6.64 1.96
-9.87 -6.92 1.98
-9.88 -7.23 2.00
-9.88 -7.53 2.03
-9.88 -7.85 2.05
-9.88 -8.18 2.08
-9.88 -8.52 2.11
-9.88 -8.87 2.14
-9.88 -9.23 2.17
-9.88 -9.61 2.21
-9.88 -10.00 2.25
-9.88 -10.41 2.29
-9.88 -10.83 2.33
-9.88 -11.28 2.38
-9.74 -11.57 2.39
-9.53 -11.79 2.39
-9.31 -12.01 2.39
-9.09 -12.22 2.39
-8.86 -12.42 2.39
-8.63 -12.62 2.39
-8.39 -12.82 2.39
-8.15 -13.01 2.39
-7.90 -13.19 2.39
-7.65 -13.37 2.39
-7.40 -13.54 2.39
-7.14 -13.71 2.39
-6.87 -13.87 2.39
-6.60 -14.02 2.39
-6.33 -14.17 2.39
-6.05 -14.31 2.39
-6.02 -15.07 2.50
-5.72 -15.20 2.50
-5.43 -15.33 2.50
-5.12 -15.45 2.50
-4.82 -15.56 2.50
-4.51 -15.66 2.50
-4.20 -15.76 2.50
-3.88 -15.85 2.50
-3.57 -15.93 2.50
-3.25 -16.00 2.50
-2.93 -16.07 2.50
-2.61 -16.13 2.50
-2.29 -16.18 2.50
-1.97 -16.22 2.50
-1.64 -16.25 2.50
-1.32 -16.28 2.50
-0.99 -16.30 2.50
-0.67 -16.31 2.50
-0.34 -16.31 2.50
-0.01 -14.17 2.50
0.27 -14.15 2.50
0.55 -14.14 2.50
0.83 -14.11 2.50
1.11 -14.08 2.50
1.39 -14.04 2.50
1.67 -14.00 2.50
1.95 -13.95 2.50
2.13 -13.32 2.39
2.39 -13.26 2.39
2.65 -13.19 2.39
2.91 -13.12 2.39
3.17 -13.04 2.39
3.42 -12.95 2.39
3.67 -12.86 2.39
3.92 -12.77 2.39
4.17 -12.66 2.39
4.41 -12.56 2.39
4.66 -12.44 2.39
4.89 -12.32 2.39
5.13 -12.20 2.39
5.36 -12.07 2.39
5.59 -11.94 2.39
5.81 -11.80 2.39
6.03 -11.65 2.39
5.80 -10.67 2.22
5.78 -10.15 2.14
5.82 -9.77 2.09
5.82 -9.34 2.03
5.77 -8.85 1.95
5.83 -8.56 1.92
5.83 -8.20 1.87
5.83 -7.86 1.82
5.83 -7.55 1.78
5.83 -7.24 1.74
5.83 -6.95 1.70
5.83 -6.68 1.67
5.83 -6.41 1.63
5.83 -6.16 1.60
5.83 -5.92 1.58
5.83 -5.69 1.55
5.83 -5.47 1.53
5.83 -5.25 1.50
5.83 -5.04 1.48
5.81 -4.83 1.46
5.83 -4.65 1.44
5.83 -4.46 1.42
5.83 -4.28 1.41
5.83 -4.10 1.39
5.83 -3.93 1.38
5.83 -3.77 1.36
5.83 -3.60 1.35
5.83 -3.44 1.34
5.83 -3.29 1.33
5.83 -3.14 1.32
5.83 -2.99 1.31
5.83 -2.84 1.30
5.83 -2.70 1.29
5.83 -2.56 1.28
5.83 -2.42 1.28
5.83 -2.28 1.27
5.83 -2.15 1.27
5.83 -2.02 1.26
5.83 -1.89 1.26
5.83 -1.76 1.25
5.83 -1.63 1.25
5.83 -1.51 1.25
5.83 -1.38 1.25
5.83 -1.26 1.25
5.83 -1.14 1.24
5.83 -1.02 1.24
5.76 -0.89 1.23
5.83 -0.78 1.25
5.83 -0.66 1.25
5.83 -0.54 1.25
5.83 -0.42 1.25
5.83 -0.31 1.25
5.83 -0.19 1.26
5.83 -0.07 1.26
5.83 0.05 1.26
5.83 0.16 1.27
5.83 0.28 1.27
5.83 0.40 1.28
5.83 0.52 1.29
5.83 0.63 1.29
5.83 0.75 1.30
5.83 0.87 1.31
5.83 0.99 1.31
5.83 1.11 1.32
5.83 1.24 1.33
5.83 1.36 1.34
5.83 1.48 1.35
5.83 1.61 1.37
5.83 1.74 1.38
5.83 1.86 1.39
5.83 1.99 1.40
5.83 2.13 1.42
5.83 2.26 1.43
5.83 2.40 1.45
5.83 2.54 1.46
5.83 2.68 1.48
5.83 2.82 1.50
5.83 2.97 1.52
5.76 3.08 1.52
5.83 3.27 1.56
5.83 3.43 1.58
5.84 3.59 1.60
5.84 3.75 1.63
5.84 3.92 1.65
5.84 4.09 1.68
5.84 4.27 1.71
5.84 4.45 1.74
5.84 4.64 1.77
5.84 4.84 1.80
5.84 5.04 1.84
5.84 5.25 1.88
5.84 5.47 1.91
5.84 5.69 1.96
5.84 5.93 2.00
5.84 6.17 2.04
2.75 3.02 0.98
2.67 3.06 0.98
5.78 6.91 2.18
6.02 7.82 2.39
5.85 7.93 2.39
5.68 8.03 2.39
5.51 8.13 2.39
5.34 8.23 2.39
5.17 8.33 2.39
4.99 8.42 2.39
4.81 8.51 2.39
4.64 8.60 2.39
4.46 8.68 2.39
4.28 8.76 2.39
4.10 8.84 2.39
3.91 8.91 2.39
3.73 8.98 2.39
3.54 9.05 2.39
3.36 9.11 2.39
3.17 9.17 2.39
2.98 9.23 2.39
2.79 9.28 2.39
2.60 9.33 2.39
2.41 9.38 2.39
2.22 9.42 2.39
2.05 9.57 2.42
1.92 9.91 2.50
1.72 9.95 2.50
1.52 9.98 2.50
1.31 10.01 2.50
1.11 10.03 2.50
0.91 10.06 2.50
0.70 10.07 2.50
0.50 10.09 2.50
0.30 10.10 2.50
0.09 10.11 2.50
-0.11 10.11 2.50
-0.32 10.11 2.50
-0.52 10.11 2.50
-0.73 10.10 2.50
-0.93 10.09 2.50
-1.14 10.08 2.50
-1.34 10.06 2.50
-1.54 10.04 2.50
-1.75 10.01 2.50
-1.95 9.98 2.50
-2.16 9.95 2.50
-2.36 9.92 2.50
-2.56 9.88 2.50
-2.76 9.84 2.50
-2.97 9.79 2.50
-3.17 9.74 2.50
-3.37 9.69 2.50
-3.57 9.63 2.50
-3.77 9.57 2.50
-3.97 9.51 2.50
-4.16 9.44 2.50
-4.36 9.37 2.50
-4.56 9.29 2.50
-4.75 9.22 2.50
-4.95 9.13 2.50
-5.14 9.05 2.50
-5.33 8.96 2.50
-5.52 8.87 2.50
-5.71 8.77 2.50
-5.90 8.67 2.50
-6.00 8.45 2.46
-6.01 8.11 2.39
-6.19 8.01 2.40
-6.36 7.90 2.39
-6.53 7.78 2.39
-6.70 7.67 2.39
-6.87 7.55 2.39
-7.04 7.43 2.39
-7.21 7.30 2.39
-7.37 7.17 2.39
-7.53 7.04 2.39
-7.69 6.91 2.39
-7.85 6.77 2.39
-8.01 6.62 2.39
-8.16 6.48 2.39
-8.31 6.33 2.39
-8.46 6.18 2.39
-8.61 6.02 2.39
-8.75 5.87 2.39
-8.89 5.71 2.39
-9.03 5.54 2.39
-9.17 5.37 2.39
-9.30 5.20 2.39
-9.43 5.03 2.39
-9.56 4.86 2.39
-9.69 4.68 2.39
-9.81 4.49 2.39
-9.93 4.31 2.39
-10.03 4.12 2.39
-10.13 3.92 2.39
-10.22 3.72 2.38
-10.31 3.52 2.38
-10.39 3.32 2.37
-10.48 3.11 2.37
-10.55 2.91 2.37
-10.63 2.70 2.36
-9.52 2.22 2.10
-9.52 2.02 2.08
-9.52 1.82 2.07
-9.61 1.63 2.07
-11.24 1.68 2.41
-11.31 1.46 2.41
-11.06 1.20 2.34
-11.11 0.98 2.34
-11.16 0.76 2.34
-11.20 0.54 2.34
-11.24 0.32 2.33
-11.27 0.09 2.33
-11.30 -0.14 2.33
-11.33 -0.36 2.33
-11.36 -0.59 2.33
-11.38 -0.82 2.33
-11.40 -1.05 2.33
-11.41 -1.29 2.33
-11.42 -1.52 2.33
-11.42 -1.75 2.33
-11.43 -1.99 2.33
-11.42 -2.22 2.33
-11.42 -2.46 2.33
-11.41 -2.70 2.33
-11.39 -2.94 2.33
-11.37 -3.18 2.33
-11.73 -3.53 2.41
-11.70 -3.78 2.41
-11.66 -4.02 2.41
-9.55 -3.51 1.98
-9.40 -3.67 1.96
-9.55 -3.95 2.00
-10.08 -4.41 2.12
-9.88 -4.56 2.09
-9.88 -4.80 2.11
-9.88 -5.05 2.12
-9.88 -5.30 2.14
-9.88 -5.55 2.15
-9.88 -5.82 2.17
-9.88 -6.09 2.19
-9.88 -6.36 2.21
-9.88 -6.65 2.24
-9.88 -6.94 2.26
-9.88 -7.23 2.29
-9.88 -7.54 2.31
-9.88 -7.86 2.35
-9.88 -8.19 2.38
-9.81 -8.46 2.39
-9.66 -8.68 2.39
-9.51 -8.89 2.39
-9.35 -9.10 2.39
-9.19 -9.31 2.39
-9.02 -9.51 2.39
-8.85 -9.71 2.39
-8.67 -9.91 2.39
-8.49 -10.10 2.39
-8.30 -10.29 2.39
-8.11 -10.47 2.39
-7.92 -10.65 2.39
-7.72 -10.83 2.39
-7.51 -11.00 2.39
-7.31 -11.17 2.39
-7.09 -11.33 2.39
-6.88 -11.49 2.39
-6.66 -11.64 2.39
-6.43 -11.79 2.39
-6.22 -11.95 2.40
-6.01 -12.14 2.41
-5.99 -12.72 2.50
-5.74 -12.86 2.50
-5.49 -12.98 2.50
-5.23 -13.10 2.50
-4.97 -13.22 2.50
-4.71 -13.32 2.50
-4.45 -13.43 2.50
-4.18 -13.52 2.50
-3.92 -13.61 2.50
-3.65 -13.69 2.50
-3.37 -13.77 2.50
-3.10 -13.84 2.50
-2.82 -13.90 2.50
-2.55 -13.96 2.50
-2.27 -14.01 2.50
-1.99 -14.05 2.50
-1.71 -14.09 2.50
-1.43 -14.12 2.50
-1.14 -14.14 2.50
-0.86 -14.16 2.50
-0.58 -14.17 2.50
-0.30 -14.17 2.50
-0.01 -12.51 2.50
0.24 -12.50 2.50
0.48 -12.49 2.50
0.73 -12.47 2.50
0.98 -12.44 2.50
1.23 -12.41 2.50
1.47 -12.37 2.50
1.72 -12.33 2.50
1.96 -12.28 2.50
2.11 -11.72 2.39
2.34 -11.66 2.39
2.57 -11.60 2.39
2.80 -11.53 2.39
3.02 -11.46 2.39
3.25 -11.38 2.39
3.47 -11.30 2.39
3.69 -11.21 2.39
3.90 -11.11 2.39
4.12 -11.02 2.39
4.33 -10.91 2.39
4.54 -10.81 2.39
4.74 -10.69 2.39
4.95 -10.58 2.39
5.15 -10.46 2.39
5.34 -10.33 2.39
5.54 -10.20 2.39
5.73 -10.07 2.39
5.92 -9.93 2.39
5.77 -8.86 2.20
5.78 -8.50 2.14
5.83 -8.21 2.10
5.83 -7.87 2.05
5.83 -7.55 2.00
5.83 -7.25 1.96
5.83 -6.96 1.92
5.83 -6.69 1.88
5.83 -6.42 1.84
5.83 -6.17 1.80
5.83 -5.93 1.77
5.83 -5.70 1.74
5.83 -5.47 1.71
5.83 -5.26 1.69
5.83 -5.05 1.66
5.80 -4.83 1.63
5.83 -4.66 1.62
5.83 -4.47 1.60
5.83 -4.29 1.58
5.83 -4.11 1.56
5.83 -3.94 1.54
5.83 -3.77 1.53
5.83 -3.61 1.51
5.83 -3.45 1.50
5.83 -3.29 1.49
5.83 -3.14 1.47
5.83 -2.99 1.46
5.83 -2.85 1.45
5.83 -2.70 1.44
5.83 -2.56 1.43
5.83 -2.42 1.43
5.83 -2.29 1.42
5.83 -2.16 1.41
5.83 -2.02 1.41
5.83 -1.89 1.40
5.83 -1.77 1.40
5.83 -1.64 1.39
5.83 -1.51 1.39
5.83 -1.39 1.39
5.83 -1.27 1.39
5.83 -1.14 1.39
5.83 -1.02 1.38
5.76 -0.89 1.37
5.83 -0.78 1.38
5.83 -0.66 1.39
5.83 -0.55 1.39
5.83 -0.43 1.39
5.83 -0.31 1.39
5.83 -0.19 1.39
5.83 -0.08 1.40
5.83 0.04 1.40
5.83 0.16 1.41
5.83 0.28 1.41
5.83 0.39 1.42
5.83 0.51 1.42
5.83 0.63 1.43
5.83 0.75 1.44
5.83 0.87 1.45
5.83 0.99 1.46
5.83 1.11 1.46
5.83 1.23 1.47
5.83 1.35 1.49
5.83 1.48 1.50
5.83 1.60 1.51
5.83 1.73 1.52
5.83 1.86 1.54
5.83 1.99 1.55
5.83 2.12 1.56
5.83 2.26 1.58
5.83 2.39 1.60
5.83 2.53 1.61
5.83 2.67 1.63
5.83 2.82 1.65
5.83 2.96 1.67
5.76 3.07 1.67
5.83 3.26 1.72
5.83 3.42 1.74
5.84 3.58 1.77
5.84 3.75 1.79
5.84 3.91 1.82
5.84 4.09 1.85
5.84 4.27 1.88
5.84 4.45 1.91
5.84 4.64 1.95
5.84 4.83 1.98
5.84 5.04 2.02
5.84 5.25 2.06
5.84 5.46 2.10
5.80 5.65 2.14
5.78 5.86 2.17
2.75 3.03 1.08
2.67 3.06 1.08
5.78 6.90 2.39
5.63 7.01 2.39
5.48 7.11 2.39
5.33 7.21 2.39
5.18 7.31 2.39
5.02 7.40 2.39
4.86 7.49 2.39
4.71 7.58 2.39
4.55 7.67 2.39
4.39 7.75 2.39
4.23 7.83 2.39
4.06 7.90 2.39
3.90 7.98 2.39
3.73 8.05 2.39
3.57 8.12 2.39
3.40 8.18 2.39
3.23 8.24 2.39
3.06 8.30 2.39
2.89 8.36 2.39
2.72 8.41 2.39
2.55 8.46 2.39
2.37 8.51 2.39
2.20 8.55 2.39
2.05 8.70 2.42
1.93 9.00 2.50
1.75 9.03 2.50
1.57 9.07 2.50
1.38 9.10 2.50
1.20 9.12 2.50
1.01 9.15 2.50
0.83 9.16 2.50
0.64 9.18 2.50
0.46 9.19 2.50
0.27 9.20 2.50
0.08 9.21 2.50
-0.10 9.21 2.50
-0.29 9.21 2.50
-0.48 9.21 2.50
-0.66 9.20 2.50
-0.85 9.19 2.50
-1.04 9.18 2.50
-1.22 9.16 2.50
-1.41 9.14 2.50
-1.60 9.12 2.50
-1.78 9.09 2.50
-1.97 9.06 2.50
-2.15 9.03 2.50
-2.34 9.00 2.50
-2.52 8.96 2.50
-2.70 8.91 2.50
-2.89 8.87 2.50
-3.07 8.82 2.50
-3.25 8.76 2.50
-3.43 8.71 2.50
-3.61 8.65 2.50
-3.79 8.59 2.50
-3.97 8.52 2.50
-4.15 8.45 2.50
-4.33 8.38 2.50
-4.50 8.30 2.50
-4.68 8.22 2.50
-4.85 8.14 2.50
-5.02 8.06 2.50
-5.19 7.97 2.50
-5.36 7.88 2.50
-5.53 7.78 2.50
-5.70 7.68 2.50
-5.86 7.58 2.50
-6.00 7.44 2.48
-6.00 7.15 2.42
-6.09 6.96 2.39
-6.24 6.85 2.39
-6.39 6.74 2.39
-6.54 6.62 2.39
-6.69 6.50 2.39
-6.83 6.38 2.39
-6.98 6.26 2.39
-7.12 6.13 2.39
-7.26 6.00 2.39
-7.40 5.87 2.39
-7.53 5.73 2.39
-7.67 5.59 2.39
-7.80 5.45 2.39
-7.93 5.30 2.39
-8.05 5.16 2.39
-8.18 5.01 2.39
-8.30 4.86 2.39
-8.42 4.70 2.39
-8.53 4.54 2.39
-8.65 4.38 2.39
-8.76 4.22 2.39
-8.86 4.05 2.39
-8.97 3.88 2.39
-9.07 3.71 2.39
-9.17 3.54 2.39
-9.27 3.37 2.39
-9.36 3.19 2.39
-9.45 3.01 2.39
-9.54 2.83 2.39
-9.62 2.64 2.39
-9.50 2.41 2.34
-9.52 2.21 2.33
-9.52 2.01 2.31
-9.50 1.80 2.29
-9.66 1.63 2.31
-10.12 1.50 2.41
-10.18 1.31 2.41
-10.13 1.09 2.39
-10.17 0.89 2.38
-10.21 0.69 2.38
-10.25 0.49 2.38
-10.28 0.28 2.38
-10.31 0.07 2.38
-10.34 -0.13 2.38
-10.36 -0.34 2.38
-10.38 -0.55 2.37
-10.40 -0.76 2.37
-10.41 -0.97 2.37
-10.42 -1.18 2.37
-10.43 -1.39 2.37
-10.43 -1.61 2.37
-10.43 -1.82 2.37
-10.42 -2.04 2.37
-10.41 -2.25 2.37
-10.40 -2.47 2.38
-10.38 -2.69 2.38
-10.36 -2.90 2.38
-10.34 -3.12 2.38
-10.44 -3.38 2.41
-10.40 -3.60 2.41
-9.56 -3.52 2.22
-9.42 -3.69 2.20
-10.26 -4.25 2.41
-10.06 -4.41 2.38
-9.88 -4.57 2.35
-9.88 -4.81 2.36
-9.88 -5.05 2.38
-9.85 -5.29 2.39
-9.77 -5.50 2.39
-9.69 -5.71 2.39
-9.60 -5.92 2.39
-9.50 -6.13 2.39
-9.40 -6.33 2.39
-9.29 -6.53 2.39
-9.18 -6.73 2.39
-9.07 -6.93 2.39
-8.95 -7.13 2.39
-8.83 -7.32 2.39
-8.70 -7.52 2.39
-8.57 -7.71 2.39
-8.43 -7.89 2.39
-8.29 -8.08 2.39
-8.14 -8.26 2.39
-7.99 -8.44 2.39
-7.84 -8.61 2.39
-7.68 -8.78 2.39
-7.52 -8.95 2.39
-7.35 -9.12 2.39
-7.18 -9.28 2.39
-7.01 -9.43 2.39
-6.83 -9.59 2.39
-6.65 -9.74 2.39
-6.46 -9.88 2.39
-6.27 -10.03 2.39
-6.08 -10.16 2.39
-6.00 -10.50 2.44
-5.93 -10.87 2.50
-5.72 -11.00 2.50
-5.51 -11.13 2.50
-5.29 -11.25 2.50
-5.07 -11.36 2.50
-4.85 -11.47 2.50
-4.62 -11.58 2.50
-4.39 -11.68 2.50
-4.16 -11.77 2.50
-3.93 -11.86 2.50
-3.69 -11.94 2.50
-3.46 -12.02 2.50
-3.22 -12.09 2.50
-2.98 -12.16 2.50
-2.74 -12.22 2.50
-2.49 -12.28 2.50
-2.25 -12.33 2.50
-2.00 -12.37 2.50
-1.76 -12.41 2.50
-1.51 -12.44 2.50
-1.26 -12.47 2.50
-1.01 -12.49 2.50
-0.76 -12.50 2.50
-0.51 -12.51 2.50
-0.26 -12.51 2.50
-0.01 -11.19 2.50
0.21 -11.18 2.50
0.43 -11.17 2.50
0.65 -11.15 2.50
0.88 -11.13 2.50
1.10 -11.10 2.50
1.32 -11.07 2.50
1.53 -11.03 2.50
1.75 -10.99 2.50
1.97 -10.94 2.50
2.09 -10.44 2.39
2.30 -10.39 2.39
2.50 -10.33 2.39
2.70 -10.26 2.39
2.91 -10.19 2.39
3.10 -10.12 2.39
3.30 -10.04 2.39
3.49 -9.96 2.39
3.69 -9.88 2.39
3.88 -9.78 2.39
4.06 -9.69 2.39
4.25 -9.59 2.39
4.43 -9.49 2.39
4.61 -9.38 2.39
4.79 -9.27 2.39
4.97 -9.16 2.39
5.14 -9.04 2.39
5.31 -8.92 2.39
5.47 -8.79 2.39
5.63 -8.67 2.39
5.79 -8.53 2.39
5.95 -8.40 2.39
5.80 -7.53 2.22
5.77 -7.19 2.16
5.81 -6.95 2.12
5.83 -6.69 2.09
5.83 -6.43 2.05
5.83 -6.18 2.01
5.83 -5.94 1.97
5.83 -5.70 1.94
5.83 -5.48 1.90
5.83 -5.27 1.87
5.83 -5.06 1.85
5.80 -4.83 1.81
5.83 -4.66 1.79
5.83 -4.48 1.77
5.83 -4.29 1.75
5.83 -4.12 1.73
5.83 -3.94 1.71
5.83 -3.78 1.69
5.83 -3.61 1.68
5.83 -3.45 1.66
5.83 -3.30 1.65
5.83 -3.15 1.63
5.83 -3.00 1.62
5.83 -2.85 1.61
5.83 -2.71 1.60
5.83 -2.57 1.59
5.83 -2.43 1.58
5.83 -2.29 1.57
5.83 -2.16 1.56
5.83 -2.03 1.56
5.83 -1.90 1.55
5.83 -1.77 1.54
5.83 -1.64 1.54
5.83 -1.52 1.54
5.83 -1.39 1.53
5.83 -1.27 1.53
5.83 -1.15 1.53
5.83 -1.03 1.53
5.76 -0.90 1.51
5.83 -0.79 1.52
5.83 -0.67 1.53
5.83 -0.55 1.53
5.83 -0.43 1.53
5.83 -0.32 1.53
5.83 -0.20 1.53
5.83 -0.08 1.54
5.83 0.04 1.54
5.83 0.15 1.55
5.83 0.27 1.55
5.83 0.39 1.56
5.83 0.51 1.56
5.83 0.62 1.57
5.83 0.74 1.58
5.83 0.86 1.59
5.83 0.98 1.60
5.83 1.10 1.61
5.83 1.23 1.62
5.83 1.35 1.63
5.83 1.47 1.64
5.83 1.60 1.65
5.83 1.73 1.67
5.83 1.86 1.68
5.83 1.99 1.70
5.83 2.12 1.71
5.83 2.25 1.73
5.83 2.39 1.75
5.83 2.53 1.77
5.83 2.67 1.79
5.83 2.81 1.81
5.83 2.96 1.83
5.77 3.07 1.83
5.83 3.26 1.88
5.83 3.42 1.90
5.84 3.58 1.93
5.84 3.74 1.96
5.84 3.91 1.99
5.84 4.08 2.02
5.84 4.26 2.06
5.84 4.44 2.09
5.82 4.62 2.12
5.78 4.78 2.15
5.78 4.98 2.19
5.96 5.80 2.39
5.83 5.91 2.39
5.70 6.02 2.39
2.75 3.03 1.18
2.67 3.06 1.18
5.30 6.32 2.39
5.16 6.42 2.39
5.03 6.52 2.39
4.89 6.61 2.39
4.75 6.70 2.39
4.61 6.78 2.39
4.46 6.87 2.39
4.32 6.95 2.39
4.17 7.03 2.39
4.03 7.11 2.39
3.88 7.18 2.39
3.73 7.25 2.39
3.58 7.32 2.39
3.43 7.38 2.39
3.27 7.45 2.39
3.12 7.51 2.39
2.96 7.56 2.39
2.81 7.62 2.39
2.65 7.67 2.39
2.50 7.72 2.39
2.34 7.76 2.39
2.18 7.80 2.39
2.05 7.96 2.43
1.94 8.22 2.50
1.77 8.26 2.50
1.61 8.29 2.50
1.44 8.32 2.50
1.27 8.35 2.50
1.10 8.37 2.50
0.93 8.39 2.50
0.76 8.41 2.50
0.59 8.43 2.50
0.42 8.44 2.50
0.25 8.45 2.50
0.08 8.45 2.50
-0.10 8.45 2.50
-0.27 8.45 2.50
-0.44 8.45 2.50
-0.61 8.44 2.50
-0.78 8.43 2.50
-0.95 8.42 2.50
-1.12 8.41 2.50
-1.29 8.39 2.50
-1.47 8.37 2.50
-1.64 8.34 2.50
-1.81 8.31 2.50
-1.98 8.28 2.50
-2.15 8.25 2.50
-2.31 8.21 2.50
-2.48 8.17 2.50
-2.65 8.13 2.50
-2.82 8.08 2.50
-2.98 8.03 2.50
-3.15 7.98 2.50
-3.31 7.93 2.50
-3.48 7.87 2.50
-3.64 7.81 2.50
-3.81 7.74 2.50
-3.97 7.67 2.50
-4.13 7.60 2.50
-4.29 7.53 2.50
-4.45 7.45 2.50
-4.60 7.38 2.50
-4.76 7.29 2.50
-4.91 7.21 2.50
-5.07 7.12 2.50
-5.22 7.03 2.50
-5.37 6.93 2.50
-5.52 6.84 2.50
-5.67 6.74 2.50
-5.81 6.63 2.50
-5.96 6.53 2.50
-6.00 6.31 2.46
-6.01 6.07 2.40
-6.12 5.94 2.39
-6.25 5.83 2.39
-6.38 5.71 2.39
-6.51 5.59 2.39
-6.63 5.47 2.39
-6.76 5.35 2.39
-6.88 5.23 2.39
-7.00 5.10 2.39
-7.12 4.97 2.39
-7.24 4.84 2.39
-7.35 4.70 2.39
-7.46 4.56 2.39
-7.57 4.42 2.39
-7.68 4.28 2.39
-7.78 4.13 2.39
-7.88 3.99 2.39
-7.98 3.84 2.39
-8.08 3.69 2.39
-8.17 3.53 2.39
-8.26 3.38 2.39
-8.35 3.22 2.39
-8.44 3.06 2.39
-8.52 2.89 2.39
-8.60 2.73 2.39
-8.68 2.56 2.39
-8.75 2.40 2.39
-8.82 2.23 2.39
-8.89 2.05 2.39
-8.95 1.88 2.39
-9.01 1.70 2.39
-9.07 1.53 2.39
-9.13 1.35 2.39
-9.18 1.17 2.39
-9.23 0.99 2.39
-9.27 0.80 2.39
-9.31 0.62 2.39
-9.35 0.44 2.39
-9.38 0.25 2.39
-9.41 0.06 2.39
-9.44 -0.13 2.39
-9.46 -0.32 2.39
-9.48 -0.51 2.39
-9.49 -0.70 2.39
-9.50 -0.89 2.39
-9.51 -1.09 2.39
-9.51 -1.28 2.39
-9.51 -1.47 2.39
-9.51 -1.67 2.39
-9.50 -1.86 2.39
-9.49 -2.06 2.39
-9.47 -2.26 2.39
-9.45 -2.45 2.39
-9.42 -2.65 2.39
-9.39 -2.84 2.39
-9.36 -3.04 2.39
-9.32 -3.23 2.39
-9.28 -3.43 2.39
-9.23 -3.62 2.39
-9.18 -3.82 2.39
-9.13 -4.01 2.39
-9.07 -4.20 2.39
-9.01 -4.39 2.39
-8.94 -4.58 2.39
-8.87 -4.77 2.39
-8.79 -4.96 2.39
-8.71 -5.15 2.39
-8.63 -5.33 2.39
-8.54 -5.52 2.39
-8.45 -5.70 2.39
-8.35 -5.88 2.39
-8.25 -6.06 2.39
-8.15 -6.24 2.39
-8.04 -6.41 2.39
-7.93 -6.58 2.39
-7.81 -6.76 2.39
-7.69 -6.92 2.39
-7.57 -7.09 2.39
-7.44 -7.25 2.39
-7.30 -7.41 2.39
-7.17 -7.57 2.39
-7.03 -7.73 2.39
-6.89 -7.88 2.39
-6.74 -8.03 2.39
-6.59 -8.18 2.39
-6.43 -8.32 2.39
-6.28 -8.46 2.39
-6.12 -8.59 2.39
-6.00 -8.80 2.41
-6.00 -9.18 2.48
-5.86 -9.37 2.50
-5.68 -9.50 2.50
-5.49 -9.62 2.50
-5.31 -9.74 2.50
-5.12 -9.85 2.50
-4.93 -9.96 2.50
-4.73 -10.07 2.50
-4.53 -10.17 2.50
-4.33 -10.27 2.50
-4.13 -10.36 2.50
-3.93 -10.45 2.50
-3.72 -10.53 2.50
-3.51 -10.61 2.50
-3.30 -10.68 2.50
-3.09 -10.75 2.50
-2.88 -10.82 2.50
-2.66 -10.88 2.50
-2.45 -10.93 2.50
-2.23 -10.98 2.50
-2.01 -11.02 2.50
-1.79 -11.06 2.50
-1.57 -11.10 2.50
-1.35 -11.13 2.50
-1.13 -11.15 2.50
-0.90 -11.17 2.50
-0.68 -11.18 2.50
-0.46 -11.19 2.50
-0.24 -11.19 2.50
-0.01 -10.11 2.50
0.19 -10.11 2.50
0.39 -10.10 2.50
0.59 -10.08 2.50
0.79 -10.06 2.50
0.99 -10.04 2.50
1.19 -10.01 2.50
1.39 -9.98 2.50
1.58 -9.94 2.50
1.78 -9.90 2.50
1.97 -9.85 2.50
2.08 -9.39 2.39
2.26 -9.34 2.39
2.44 -9.28 2.39
2.63 -9.22 2.39
2.80 -9.16 2.39
2.98 -9.09 2.39
3.16 -9.02 2.39
3.33 -8.94 2.39
3.51 -8.86 2.39
3.68 -8.77 2.39
3.84 -8.69 2.39
4.01 -8.60 2.39
4.17 -8.50 2.39
4.34 -8.40 2.39
4.49 -8.30 2.39
4.65 -8.19 2.39
4.80 -8.09 2.39
4.96 -7.97 2.39
5.10 -7.86 2.39
5.25 -7.74 2.39
5.39 -7.62 2.39
5.53 -7.50 2.39
5.67 -7.37 2.39
5.80 -7.24 2.39
5.93 -7.11 2.39
5.77 -6.13 2.19
5.77 -5.89 2.15
5.81 -5.69 2.13
5.83 -5.49 2.10
5.83 -5.27 2.06
5.83 -5.07 2.03
5.79 -4.84 1.99
5.83 -4.67 1.97
5.83 -4.48 1.95
5.83 -4.30 1.92
5.83 -4.12 1.90
5.83 -3.95 1.88
5.83 -3.78 1.86
5.83 -3.62 1.84
5.83 -3.46 1.82
5.83 -3.30 1.81
5.83 -3.15 1.79
5.83 -3.00 1.78
5.83 -2.86 1.76
5.83 -2.71 1.75
5.83 -2.57 1.74
5.83 -2.44 1.73
5.83 -2.30 1.72
5.83 -2.17 1.71
5.83 -2.03 1.70
5.83 -1.90 1.70
5.83 -1.78 1.69
5.83 -1.65 1.69
5.83 -1.52 1.68
5.83 -1.40 1.68
5.83 -1.28 1.67
5.83 -1.15 1.67
5.83 -1.03 1.67
5.76 -0.90 1.65
5.83 -0.79 1.67
5.83 -0.67 1.67
5.83 -0.56 1.67
5.83 -0.44 1.67
5.83 -0.32 1.67
5.83 -0.20 1.67
5.83 -0.09 1.68
5.83 0.03 1.68
5.83 0.15 1.69
5.83 0.27 1.69
5.83 0.38 1.70
5.83 0.50 1.71
5.83 0.62 1.71
5.83 0.74 1.72
5.83 0.86 1.73
5.83 0.98 1.74
5.83 1.10 1.75
5.83 1.22 1.76
5.83 1.34 1.77
5.83 1.47 1.79
5.83 1.59 1.80
5.83 1.72 1.82
5.83 1.85 1.83
5.83 1.98 1.85
5.83 2.11 1.86
5.83 2.25 1.88
5.83 2.38 1.90
5.83 2.52 1.92
5.83 2.66 1.94
5.83 2.81 1.97
5.83 2.95 1.99
5.77 3.07 1.99
5.83 3.25 2.04
5.83 3.41 2.07
5.84 3.57 2.10
5.82 3.73 2.12
5.79 3.87 2.14
5.78 4.04 2.17
5.82 4.24 2.22
6.05 4.80 2.39
5.94 4.91 2.39
5.83 5.02 2.39
5.72 5.13 2.39
5.61 5.24 2.39
5.49 5.34 2.39
5.37 5.44 2.39
5.26 5.54 2.39
2.76 3.03 1.29
2.67 3.06 1.28
4.89 5.83 2.39
4.76 5.92 2.39
4.64 6.01 2.39
4.51 6.09 2.39
4.38 6.17 2.39
4.25 6.26 2.39
4.12 6.33 2.39
3.99 6.41 2.39
3.85 6.48 2.39
3.72 6.55 2.39
3.58 6.62 2.39
3.44 6.69 2.39
3.30 6.75 2.39
3.16 6.81 2.39
3.02 6.87 2.39
2.88 6.93 2.39
2.74 6.98 2.39
2.59 7.03 2.39
2.45 7.08 2.39
2.30 7.12 2.39
2.16 7.16 2.39
2.05 7.33 2.44
1.95 7.55 2.50
1.79 7.59 2.50
1.64 7.62 2.50
1.48 7.65 2.50
1.33 7.68 2.50
1.17 7.71 2.50
1.01 7.73 2.50
0.86 7.75 2.50
0.70 7.76 2.50
0.54 7.78 2.50
0.38 7.79 2.50
0.23 7.80 2.50
0.07 7.80 2.50
-0.09 7.80 2.50
-0.25 7.80 2.50
-0.41 7.80 2.50
-0.56 7.79 2.50
-0.72 7.78 2.50
-0.88 7.77 2.50
-1.04 7.76 2.50
-1.20 7.74 2.50
-1.35 7.72 2.50
-1.51 7.70 2.50
-1.67 7.67 2.50
-1.83 7.64 2.50
-1.98 7.61 2.50
-2.14 7.57 2.50
-2.29 7.54 2.50
-2.45 7.50 2.50
-2.60 7.45 2.50
-2.75 7.41 2.50
-2.91 7.36 2.50
-3.06 7.31 2.50
-3.21 7.25 2.50
-3.36 7.19 2.50
-3.51 7.13 2.50
-3.66 7.07 2.50
-3.81 7.01 2.50
-3.95 6.94 2.50
-4.10 6.87 2.50
-4.24 6.79 2.50
-4.39 6.72 2.50
-4.53 6.64 2.50
-4.67 6.55 2.50
-4.81 6.47 2.50
-4.95 6.38 2.50
-5.08 6.29 2.50
-5.22 6.20 2.50
-5.35 6.10 2.50
-5.49 6.00 2.50
-5.62 5.90 2.50
-5.75 5.80 2.50
-5.87 5.69 2.50
-6.00 5.59 2.50
-6.00 5.37 2.45
-6.01 5.16 2.40
-6.10 5.03 2.39
-6.22 4.91 2.39
-6.33 4.80 2.39
-6.44 4.68 2.39
-6.54 4.56 2.39
-6.65 4.44 2.39
-6.75 4.31 2.39
-6.85 4.18 2.39
-6.95 4.05 2.39
-7.05 3.92 2.39
-7.14 3.79 2.39
-7.24 3.65 2.39
-7.33 3.52 2.39
-7.41 3.38 2.39
-7.50 3.23 2.39
-7.58 3.09 2.39
-7.66 2.94 2.39
-7.74 2.80 2.39
-7.81 2.65 2.39
-7.88 2.50 2.39
-7.95 2.34 2.39
-8.02 2.19 2.39
-8.08 2.03 2.39
-8.14 1.87 2.39
-8.20 1.71 2.39
-8.25 1.55 2.39
-8.30 1.39 2.39
-8.35 1.23 2.39
-8.39 1.06 2.39
-8.44 0.90 2.39
-8.47 0.73 2.39
-8.51 0.56 2.39
-8.54 0.39 2.39
-8.57 0.22 2.39
-8.60 0.05 2.39
-8.62 -0.12 2.39
-8.64 -0.30 2.39
-8.65 -0.47 2.39
-8.66 -0.65 2.39
-8.67 -0.82 2.39
-8.68 -1.00 2.39
-8.68 -1.17 2.39
-8.67 -1.35 2.39
-8.67 -1.53 2.39
-8.66 -1.71 2.39
-8.64 -1.88 2.39
-8.63 -2.06 2.39
-8.60 -2.24 2.39
-8.58 -2.42 2.39
-8.55 -2.59 2.39
-8.52 -2.77 2.39
-8.48 -2.95 2.39
-8.44 -3.12 2.39
-8.40 -3.30 2.39
-8.35 -3.48 2.39
-8.30 -3.65 2.39
-8.24 -3.82 2.39
-8.19 -4.00 2.39
-8.12 -4.17 2.39
-8.06 -4.34 2.39
-7.99 -4.51 2.39
-7.91 -4.68 2.39
-7.83 -4.85 2.39
-7.75 -5.01 2.39
-7.67 -5.18 2.39
-7.58 -5.34 2.39
-7.49 -5.50 2.39
-7.39 -5.66 2.39
-7.29 -5.82 2.39
-7.19 -5.98 2.39
-7.08 -6.13 2.39
-6.97 -6.28 2.39
-6.85 -6.43 2.39
-6.74 -6.58 2.39
-6.62 -6.72 2.39
-6.49 -6.86 2.39
-6.36 -7.00 2.39
-6.23 -7.14 2.39
-6.10 -7.27 2.39
-6.00 -7.45 2.41
-6.00 -7.76 2.47
-5.92 -7.99 2.50
-5.77 -8.12 2.50
-5.62 -8.24 2.50
-5.46 -8.36 2.50
-5.30 -8.48 2.50
-5.13 -8.59 2.50
-4.97 -8.70 2.50
-4.80 -8.81 2.50
-4.63 -8.91 2.50
-4.45 -9.01 2.50
-4.28 -9.11 2.50
-4.10 -9.20 2.50
-3.92 -9.28 2.50
-3.73 -9.37 2.50
-3.55 -9.45 2.50
-3.36 -9.52 2.50
-3.17 -9.59 2.50
-2.98 -9.66 2.50
-2.79 -9.72 2.50
-2.60 -9.78 2.50
-2.41 -9.83 2.50
-2.21 -9.88 2.50
-2.01 -9.92 2.50
-1.82 -9.96 2.50
-1.62 -10.00 2.50
-1.42 -10.03 2.50
-1.22 -10.05 2.50
-1.02 -10.08 2.50
-0.82 -10.09 2.50
-0.62 -10.10 2.50
-0.42 -10.11 2.50
-0.21 -10.12 2.50
-0.01 -9.22 2.50
0.17 -9.21 2.50
0.35 -9.20 2.50
0.54 -9.19 2.50
0.72 -9.17 2.50
0.90 -9.15 2.50
1.08 -9.12 2.50
1.26 -9.09 2.50
1.44 -9.06 2.50
1.62 -9.02 2.50
1.80 -8.98 2.50
1.97 -8.94 2.50
2.06 -8.52 2.39
2.23 -8.47 2.40
2.39 -8.41 2.39
2.56 -8.35 2.39
2.72 -8.29 2.39
2.88 -8.23 2.39
3.04 -8.16 2.39
3.20 -8.09 2.39
3.35 -8.01 2.39
3.51 -7.93 2.39
3.66 -7.85 2.39
3.81 -7.76 2.39
3.96 -7.67 2.39
4.10 -7.58 2.39
4.24 -7.49 2.39
4.39 -7.39 2.39
4.52 -7.29 2.39
4.66 -7.18 2.39
4.79 -7.08 2.39
4.93 -6.97 2.39
5.05 -6.86 2.39
5.18 -6.74 2.39
5.30 -6.62 2.39
5.42 -6.50 2.39
5.54 -6.38 2.39
5.66 -6.26 2.39
5.77 -6.13 2.39
5.88 -6.00 2.39
5.98 -5.87 2.39
5.77 -5.02 2.20
5.77 -4.82 2.17
5.78 -4.64 2.14
5.81 -4.48 2.12
5.83 -4.31 2.10
5.83 -4.13 2.08
5.83 -3.96 2.05
5.83 -3.79 2.03
5.83 -3.63 2.01
5.83 -3.47 1.99
5.83 -3.31 1.97
5.83 -3.16 1.95
5.83 -3.01 1.94
5.83 -2.86 1.92
5.83 -2.72 1.91
5.83 -2.58 1.90
5.83 -2.44 1.88
5.83 -2.31 1.87
5.83 -2.17 1.86
5.83 -2.04 1.86
5.83 -1.91 1.85
5.83 -1.78 1.84
5.83 -1.65 1.83
5.83 -1.53 1.83
5.83 -1.40 1.82
5.83 -1.28 1.82
5.83 -1.16 1.82
5.83 -1.04 1.81
5.76 -0.91 1.79
5.83 -0.80 1.81
5.83 -0.68 1.81
5.83 -0.56 1.81
5.83 -0.44 1.81
5.83 -0.33 1.82
5.83 -0.21 1.82
5.83 -0.09 1.82
5.83 0.03 1.83
5.83 0.14 1.83
5.83 0.26 1.84
5.83 0.38 1.84
5.83 0.50 1.85
5.83 0.61 1.86
5.83 0.73 1.87
5.83 0.85 1.88
5.83 0.97 1.89
5.83 1.09 1.90
5.83 1.22 1.91
5.83 1.34 1.92
5.83 1.46 1.94
5.83 1.59 1.95
5.83 1.72 1.97
5.83 1.85 1.98
5.83 1.98 2.00
5.83 2.11 2.02
5.83 2.24 2.04
5.83 2.38 2.06
5.83 2.52 2.08
5.83 2.66 2.10
5.82 2.80 2.12
5.80 2.93 2.14
5.77 3.06 2.15
5.78 3.22 2.18
5.98 4.00 2.39
5.89 4.11 2.39
5.80 4.22 2.39
5.70 4.33 2.39
5.60 4.44 2.39
5.50 4.54 2.39
5.40 4.65 2.39
5.30 4.75 2.39
5.19 4.85 2.39
5.09 4.94 2.39
4.98 5.04 2.39
4.87 5.13 2.39
2.72 2.99 1.37
2.65 3.03 1.37
4.53 5.40 2.39
4.42 5.48 2.39
4.30 5.56 2.39
4.18 5.64 2.39
4.06 5.72 2.39
3.94 5.80 2.39
3.82 5.87 2.39
3.70 5.94 2.39
3.57 6.01 2.39
3.45 6.07 2.39
3.32 6.14 2.39
3.19 6.20 2.39
3.06 6.26 2.39
2.93 6.32 2.39
2.80 6.37 2.39
2.67 6.42 2.39
2.54 6.47 2.39
2.41 6.52 2.39
2.27 6.56 2.39
2.14 6.60 2.39
2.05 6.79 2.44
1.95 6.97 2.50
1.81 7.01 2.50
1.66 7.04 2.50
1.52 7.07 2.50
1.38 7.10 2.50
1.23 7.12 2.50
1.09 7.15 2.50
0.94 7.17 2.50
0.80 7.19 2.50
0.65 7.20 2.50
0.50 7.21 2.50
0.36 7.22 2.50
0.21 7.23 2.50
0.06 7.24 2.50
-0.08 7.24 2.50
-0.23 7.24 2.50
-0.38 7.23 2.50
-0.52 7.23 2.50
-0.67 7.22 2.50
-0.82 7.21 2.50
-0.96 7.19 2.50
-1.11 7.18 2.50
-1.26 7.16 2.50
-1.40 7.14 2.50
-1.55 7.11 2.50
-1.69 7.08 2.50
-1.84 7.05 2.50
-1.98 7.02 2.50
-2.13 6.99 2.50
-2.27 6.95 2.50
-2.41 6.91 2.50
-2.56 6.86 2.50
-2.70 6.82 2.50
-2.84 6.77 2.50
-2.98 6.72 2.50
-3.12 6.66 2.50
-3.26 6.61 2.50
-3.39 6.55 2.50
-3.53 6.49 2.50
-3.67 6.42 2.50
-3.80 6.36 2.50
-3.93 6.29 2.50
-4.07 6.22 2.50
-4.20 6.14 2.50
-4.33 6.07 2.50
-4.46 5.99 2.50
-4.58 5.90 2.50
-4.71 5.82 2.50
-4.83 5.73 2.50
-4.96 5.64 2.50
-5.08 5.55 2.50
-5.20 5.46 2.50
-5.32 5.36 2.50
-5.44 5.26 2.50
-5.55 5.16 2.50
-5.67 5.06 2.50
-5.78 4.95 2.50
-5.89 4.84 2.50
-6.00 4.73 2.50
-6.00 4.54 2.46
-6.01 4.36 2.42
-6.05 4.21 2.39
-6.15 4.09 2.39
-6.24 3.98 2.39
-6.33 3.86 2.39
-6.42 3.74 2.39
-6.51 3.62 2.39
-6.60 3.49 2.39
-6.68 3.37 2.39
-6.76 3.24 2.39
-6.84 3.11 2.39
-6.92 2.98 2.39
-6.99 2.84 2.39
-7.07 2.71 2.39
-7.14 2.57 2.39
-7.20 2.43 2.39
-7.27 2.29 2.39
-7.33 2.15 2.39
-7.39 2.01 2.39
-7.45 1.87 2.39
-7.50 1.72 2.39
-7.55 1.57 2.39
-7.60 1.42 2.39
-7.64 1.27 2.39
-7.69 1.12 2.39
-7.73 0.97 2.39
-7.76 0.82 2.39
-7.80 0.66 2.39
-7.83 0.51 2.39
-7.86 0.35 2.39
-7.88 0.20 2.39
-7.90 0.04 2.39
-7.92 -0.12 2.39
-7.94 -0.28 2.39
-7.95 -0.44 2.39
-7.96 -0.60 2.39
-7.96 -0.76 2.39
-7.97 -0.92 2.39
-7.97 -1.08 2.39
-7.96 -1.25 2.39
-7.95 -1.41 2.39
-7.94 -1.57 2.39
-7.93 -1.73 2.39
-7.91 -1.90 2.39
-7.89 -2.06 2.39
-7.87 -2.22 2.39
-7.84 -2.38 2.39
-7.81 -2.55 2.39
-7.77 -2.71 2.39
-7.73 -2.87 2.39
-7.69 -3.03 2.39
-7.65 -3.19 2.39
-7.60 -3.35 2.39
-7.55 -3.51 2.39
-7.49 -3.67 2.39
-7.43 -3.82 2.39
-7.37 -3.98 2.39
-7.31 -4.13 2.39
-7.24 -4.29 2.39
-7.16 -4.44 2.39
-7.09 -4.59 2.39
-7.01 -4.74 2.39
-6.93 -4.89 2.39
-6.84 -5.03 2.39
-6.75 -5.18 2.39
-6.66 -5.32 2.39
-6.56 -5.46 2.39
-6.46 -5.60 2.39
-6.36 -5.74 2.39
-6.26 -5.88 2.39
-6.15 -6.01 2.39
-6.04 -6.14 2.39
-6.00 -6.35 2.42
-6.00 -6.60 2.47
-5.93 -6.80 2.50
-5.80 -6.93 2.50
-5.67 -7.05 2.50
-5.54 -7.17 2.50
-5.40 -7.29 2.50
-5.26 -7.41 2.50
-5.12 -7.52 2.50
-4.98 -7.63 2.50
-4.83 -7.74 2.50
-4.68 -7.84 2.50
-4.53 -7.94 2.50
-4.37 -8.03 2.50
-4.22 -8.13 2.50
-4.06 -8.22 2.50
-3.90 -8.30 2.50
-3.73 -8.38 2.50
-3.57 -8.46 2.50
-3.40 -8.54 2.50
-3.23 -8.61 2.50
-3.06 -8.68 2.50
-2.89 -8.74 2.50
-2.72 -8.80 2.50
-2.54 -8.86 2.50
-2.37 -8.91 2.50
-2.19 -8.96 2.50
-2.01 -9.00 2.50
-1.83 -9.04 2.50
-1.65 -9.08 2.50
-1.47 -9.11 2.50
-1.29 -9.14 2.50
-1.11 -9.16 2.50
-0.93 -9.18 2.50
-0.75 -9.20 2.50
-0.56 -9.21 2.50
-0.38 -9.21 2.50
-0.20 -9.22 2.50
-0.01 -8.46 2.50
0.16 -8.45 2.50
0.32 -8.44 2.50
0.49 -8.43 2.50
0.66 -8.42 2.50
0.82 -8.40 2.50
0.99 -8.37 2.50
1.16 -8.35 2.50
1.32 -8.32 2.50
1.48 -8.28 2.50
1.65 -8.25 2.50
1.81 -8.20 2.50
1.97 -8.16 2.50
2.04 -7.78 2.39
2.19 -7.73 2.39
2.34 -7.67 2.39
2.49 -7.62 2.39
2.64 -7.56 2.39
2.79 -7.49 2.39
2.93 -7.43 2.39
3.08 -7.36 2.39
3.22 -7.29 2.39
3.36 -7.21 2.39
3.50 -7.14 2.39
3.63 -7.05 2.39
3.77 -6.97 2.39
3.90 -6.88 2.39
4.03 -6.79 2.39
4.16 -6.70 2.39
4.28 -6.61 2.39
4.41 -6.51 2.39
4.53 -6.41 2.39
4.65 -6.31 2.39
4.76 -6.20 2.39
4.88 -6.10 2.39
4.99 -5.99 2.39
5.10 -5.88 2.39
5.20 -5.76 2.39
5.31 -5.65 2.39
5.41 -5.53 2.39
5.51 -5.41 2.39
5.60 -5.29 2.39
5.70 -5.17 2.39
5.79 -5.04 2.39
5.79 -4.84 2.36
5.96 -4.79 2.39
6.04 -4.66 2.39
5.78 -3.93 2.21
5.77 -3.76 2.18
5.77 -3.60 2.16
5.79 -3.45 2.14
5.81 -3.30 2.13
5.83 -3.16 2.12
5.83 -3.02 2.10
5.83 -2.87 2.08
5.83 -2.73 2.07
5.83 -2.58 2.05
5.83 -2.45 2.04
5.83 -2.31 2.03
5.83 -2.18 2.02
5.83 -2.04 2.01
5.83 -1.91 2.00
5.83 -1.79 1.99
5.83 -1.66 1.98
5.83 -1.53 1.98
5.83 -1.41 1.97
5.83 -1.29 1.97
5.83 -1.16 1.96
5.83 -1.04 1.96
5.76 -0.91 1.93
5.83 -0.80 1.96
5.83 -0.68 1.96
5.83 -0.57 1.96
5.83 -0.45 1.96
5.83 -0.33 1.96
5.83 -0.21 1.96
5.83 -0.10 1.97
5.83 0.02 1.97
5.83 0.14 1.98
5.83 0.26 1.98
5.83 0.37 1.99
5.83 0.49 2.00
5.83 0.61 2.00
5.83 0.73 2.01
5.83 0.85 2.02
5.83 0.97 2.03
5.83 1.09 2.04
5.83 1.21 2.06
5.83 1.33 2.07
5.83 1.46 2.09
5.83 1.58 2.10
5.83 1.71 2.12
5.81 1.83 2.13
5.79 1.96 2.14
5.78 2.08 2.15
5.78 2.21 2.17
5.78 2.35 2.19
6.03 3.04 2.39
5.77 3.06 2.32
5.88 3.27 2.39
5.81 3.38 2.39
5.73 3.50 2.39
5.65 3.60 2.39
5.56 3.71 2.39
5.48 3.82 2.39
5.39 3.92 2.39
5.30 4.02 2.39
5.21 4.12 2.39
5.12 4.22 2.39
5.03 4.32 2.39
4.93 4.41 2.39
4.83 4.51 2.39
4.74 4.60 2.39
4.64 4.69 2.39
4.53 4.77 2.39
2.73 2.99 1.47
2.66 3.03 1.47
4.22 5.02 2.39
4.11 5.10 2.39
4.00 5.18 2.39
3.89 5.25 2.39
3.78 5.32 2.39
3.67 5.39 2.39
3.56 5.46 2.39
3.44 5.53 2.39
3.33 5.59 2.39
3.21 5.66 2.39
3.09 5.71 2.39
2.97 5.77 2.39
2.85 5.83 2.39
2.73 5.88 2.39
2.61 5.93 2.39
2.49 5.98 2.39
2.37 6.03 2.39
2.26 6.10 2.41
2.12 6.11 2.39
2.05 6.31 2.46
1.95 6.45 2.50
1.82 6.49 2.50
1.68 6.52 2.50
1.55 6.56 2.50
1.42 6.59 2.50
1.28 6.61 2.50
1.15 6.64 2.50
1.01 6.66 2.50
0.88 6.68 2.50
0.74 6.69 2.50
0.60 6.71 2.50
0.47 6.72 2.50
0.33 6.73 2.50
0.19 6.73 2.50
0.06 6.74 2.50
-0.08 6.74 2.50
-0.22 6.74 2.50
-0.35 6.74 2.50
-0.49 6.73 2.50
-0.63 6.72 2.50
-0.76 6.71 2.50
-0.90 6.70 2.50
-1.04 6.68 2.50
-1.17 6.66 2.50
-1.31 6.64 2.50
-1.44 6.62 2.50
-1.58 6.59 2.50
-1.71 6.57 2.50
-1.85 6.54 2.50
-1.98 6.50 2.50
-2.12 6.47 2.50
-2.25 6.43 2.50
-2.38 6.39 2.50
-2.51 6.35 2.50
-2.64 6.30 2.50
-2.77 6.25 2.50
-2.90 6.20 2.50
-3.03 6.15 2.50
-3.16 6.09 2.50
-3.29 6.04 2.50
-3.41 5.97 2.50
-3.54 5.91 2.50
-3.66 5.85 2.50
-3.79 5.78 2.50
-3.91 5.71 2.50
-4.03 5.64 2.50
-4.15 5.56 2.50
-4.27 5.49 2.50
-4.38 5.41 2.50
-4.50 5.33 2.50
-4.61 5.24 2.50
-4.73 5.16 2.50
-4.84 5.07 2.50
-4.95 4.98 2.50
-5.05 4.89 2.50
-5.16 4.79 2.50
-5.27 4.70 2.50
-5.37 4.60 2.50
-5.47 4.50 2.50
-5.57 4.39 2.50
-5.67 4.29 2.50
-5.77 4.18 2.50
-5.86 4.07 2.50
-5.95 3.96 2.50
-6.00 3.82 2.48
-6.00 3.65 2.44
-6.01 3.49 2.41
-6.04 3.35 2.39
-6.12 3.24 2.39
-6.20 3.12 2.39
-6.27 3.00 2.39
-6.35 2.88 2.39
-6.42 2.76 2.39
-6.49 2.63 2.39
-6.55 2.51 2.39
-6.62 2.38 2.39
-6.68 2.25 2.39
-6.74 2.12 2.39
-6.79 1.99 2.39
-6.85 1.86 2.39
-6.90 1.72 2.39
-6.95 1.59 2.39
-6.99 1.45 2.39
-7.04 1.31 2.39
-7.08 1.17 2.39
-7.12 1.03 2.39
-7.15 0.89 2.39
-7.18 0.75 2.39
-7.21 0.61 2.39
-7.24 0.46 2.39
-7.27 0.32 2.39
-7.29 0.17 2.39
-7.31 0.03 2.39
-7.32 -0.12 2.39
-7.34 -0.26 2.39
-7.35 -0.41 2.39
-7.35 -0.56 2.39
-7.36 -0.71 2.39
-7.36 -0.86 2.39
-7.36 -1.01 2.39
-7.35 -1.16 2.39
-7.34 -1.31 2.39
-7.33 -1.46 2.39
-7.32 -1.61 2.39
-7.30 -1.76 2.39
-7.28 -1.91 2.39
-7.25 -2.06 2.39
-7.23 -2.20 2.39
-7.20 -2.35 2.39
-7.17 -2.50 2.39
-7.13 -2.65 2.39
-7.09 -2.80 2.39
-7.05 -2.95 2.39
-7.00 -3.09 2.39
-6.95 -3.24 2.39
-6.90 -3.38 2.39
-6.84 -3.53 2.39
-6.79 -3.67 2.39
-6.73 -3.81 2.39
-6.66 -3.95 2.39
-6.59 -4.09 2.39
-6.52 -4.23 2.39
-6.45 -4.37 2.39
-6.37 -4.50 2.39
-6.29 -4.64 2.39
-6.21 -4.77 2.39
-6.12 -4.90 2.39
-6.03 -5.03 2.39
-6.00 -5.20 2.41
-6.00 -5.42 2.45
-6.00 -5.64 2.50
-5.89 -5.77 2.50
-5.79 -5.89 2.50
-5.68 -6.01 2.50
-5.56 -6.13 2.50
-5.45 -6.25 2.50
-5.33 -6.37 2.50
-5.21 -6.48 2.50
-5.09 -6.59 2.50
-4.96 -6.70 2.50
-4.83 -6.81 2.50
-4.70 -6.91 2.50
-4.57 -7.01 2.50
-4.43 -7.10 2.50
-4.29 -7.20 2.50
-4.15 -7.29 2.50
-4.01 -7.38 2.50
-3.87 -7.46 2.50
-3.72 -7.54 2.50
-3.57 -7.62 2.50
-3.42 -7.70 2.50
-3.27 -7.77 2.50
-3.12 -7.84 2.50
-2.97 -7.90 2.50
-2.81 -7.96 2.50
-2.65 -8.02 2.50
-2.49 -8.08 2.50
-2.33 -8.13 2.50
-2.17 -8.18 2.50
-2.01 -8.22 2.50
-1.85 -8.26 2.50
-1.68 -8.30 2.50
-1.52 -8.33 2.50
-1.35 -8.36 2.50
-1.19 -8.38 2.50
-1.02 -8.41 2.50
-0.85 -8.42 2.50
-0.68 -8.44 2.50
-0.52 -8.45 2.50
-0.35 -8.46 2.50
-0.18 -8.46 2.50
-0.01 -7.81 2.50
0.14 -7.80 2.50
0.30 -7.79 2.50
0.45 -7.78 2.50
0.61 -7.77 2.50
0.76 -7.75 2.50
0.91 -7.73 2.50
1.06 -7.71 2.50
1.22 -7.68 2.50
1.37 -7.65 2.50
1.52 -7.61 2.50
1.67 -7.58 2.50
1.82 -7.53 2.50
1.96 -7.49 2.50
2.03 -7.15 2.40
2.16 -7.09 2.39
2.30 -7.04 2.39
2.44 -6.98 2.39
2.57 -6.92 2.39
2.71 -6.86 2.39
2.84 -6.80 2.39
2.97 -6.74 2.39
3.10 -6.67 2.39
3.23 -6.60 2.39
3.35 -6.52 2.39
3.48 -6.44 2.39
3.60 -6.37 2.39
3.72 -6.28 2.39
3.84 -6.20 2.39
3.96 -6.11 2.39
4.07 -6.02 2.39
4.18 -5.93 2.39
4.29 -5.84 2.39
4.40 -5.74 2.39
4.51 -5.64 2.39
4.61 -5.54 2.39
4.71 -5.44 2.39
4.81 -5.34 2.39
4.91 -5.23 2.39
5.00 -5.12 2.39
5.09 -5.01 2.39
5.18 -4.90 2.39
5.27 -4.79 2.39
5.36 -4.67 2.39
5.44 -4.56 2.39
5.52 -4.44 2.39
5.59 -4.32 2.39
5.67 -4.20 2.39
5.74 -4.08 2.39
5.81 -3.95 2.39
5.87 -3.83 2.39
5.94 -3.70 2.39
6.00 -3.58 2.39
6.05 -3.45 2.39
5.80 -2.72 2.22
5.77 -2.57 2.19
5.77 -2.43 2.18
5.77 -2.29 2.17
5.77 -2.16 2.15
5.78 -2.03 2.14
5.79 -1.91 2.14
5.80 -1.78 2.13
5.81 -1.66 2.13
5.81 -1.53 2.12
5.82 -1.41 2.12
5.83 -1.29 2.12
5.83 -1.17 2.11
5.83 -1.05 2.11
5.76 -0.92 2.08
5.83 -0.81 2.11
5.83 -0.69 2.11
5.83 -0.57 2.11
5.83 -0.45 2.11
5.83 -0.34 2.11
5.83 -0.22 2.11
5.83 -0.10 2.11
5.83 0.02 2.12
5.82 0.13 2.12
5.82 0.25 2.12
5.81 0.37 2.13
5.80 0.48 2.13
5.79 0.60 2.14
5.78 0.72 2.14
5.78 0.84 2.15
5.78 0.95 2.16
5.78 1.07 2.17
5.78 1.20 2.19
5.78 1.32 2.20
6.05 2.04 2.39
5.99 2.16 2.39
5.94 2.27 2.39
5.88 2.39 2.39
5.82 2.50 2.39
5.76 2.61 2.39
5.70 2.72 2.39
5.63 2.83 2.39
5.56 2.94 2.39
5.49 3.05 2.39
5.42 3.15 2.39
5.35 3.26 2.39
5.27 3.36 2.39
5.19 3.46 2.39
5.12 3.56 2.39
5.03 3.66 2.39
4.95 3.75 2.39
4.87 3.85 2.39
4.78 3.94 2.39
4.70 4.03 2.39
4.61 4.12 2.39
4.52 4.21 2.39
4.43 4.29 2.39
4.33 4.37 2.39
4.24 4.46 2.39
2.73 2.99 1.58
2.66 3.03 1.57
3.94 4.69 2.39
3.84 4.76 2.39
3.74 4.84 2.39
3.64 4.91 2.39
3.54 4.97 2.39
3.43 5.04 2.39
3.33 5.10 2.39
3.22 5.17 2.39
3.11 5.23 2.39
3.00 5.28 2.39
2.89 5.34 2.39
2.78 5.39 2.39
2.67 5.45 2.39
2.56 5.50 2.39
2.44 5.54 2.39
2.33 5.59 2.39
2.21 5.63 2.39
2.10 5.67 2.39
2.05 5.90 2.47
1.94 6.00 2.50
1.82 6.03 2.50
1.70 6.07 2.50
1.57 6.10 2.50
1.45 6.13 2.50
1.32 6.16 2.50
1.20 6.18 2.50
1.07 6.20 2.50
0.95 6.22 2.50
0.82 6.24 2.50
0.69 6.26 2.50
0.56 6.27 2.50
0.44 6.28 2.50
0.31 6.29 2.50
0.18 6.30 2.50
0.05 6.30 2.50
-0.07 6.30 2.50
-0.20 6.30 2.50
-0.33 6.30 2.50
-0.46 6.29 2.50
-0.59 6.28 2.50
-0.72 6.27 2.50
-0.84 6.26 2.50
-0.97 6.25 2.50
-1.10 6.23 2.50
-1.22 6.21 2.50
-1.35 6.19 2.50
-1.48 6.16 2.50
-1.60 6.14 2.50
-1.73 6.11 2.50
-1.86 6.08 2.50
-1.98 6.04 2.50
-2.10 6.01 2.50
-2.23 5.97 2.50
-2.35 5.93 2.50
-2.47 5.88 2.50
-2.59 5.84 2.50
-2.72 5.79 2.50
-2.84 5.74 2.50
-2.95 5.69 2.50
-3.07 5.63 2.50
-3.19 5.58 2.50
-3.31 5.52 2.50
-3.42 5.46 2.50
-3.54 5.39 2.50
-3.65 5.33 2.50
-3.76 5.26 2.50
-3.87 5.19 2.50
-3.98 5.12 2.50
-4.09 5.05 2.50
-4.20 4.97 2.50
-4.31 4.89 2.50
-4.41 4.81 2.50
-4.52 4.73 2.50
-4.62 4.64 2.50
-4.72 4.56 2.50
-4.82 4.47 2.50
-4.92 4.38 2.50
-5.01 4.28 2.50
-5.11 4.19 2.50
-5.20 4.09 2.50
-5.29 3.99 2.50
-5.38 3.89 2.50
-5.47 3.79 2.50
-5.55 3.69 2.50
-5.64 3.58 2.50
-5.72 3.47 2.50
-5.80 3.36 2.50
-5.88 3.25 2.50
-5.95 3.14 2.50
-6.00 3.01 2.49
-6.00 2.86 2.46
-6.01 2.72 2.43
-6.01 2.57 2.41
-6.04 2.44 2.39
-6.10 2.33 2.39
-6.16 2.21 2.39
-6.22 2.09 2.39
-6.27 1.97 2.39
-6.32 1.85 2.39
-6.37 1.72 2.39
-6.42 1.60 2.39
-6.46 1.47 2.39
-6.50 1.34 2.39
-6.54 1.21 2.39
-6.58 1.09 2.39
-6.62 0.96 2.39
-6.65 0.82 2.39
-6.68 0.69 2.39
-6.70 0.56 2.39
-6.73 0.43 2.39
-6.75 0.29 2.39
-6.77 0.16 2.39
-6.79 0.02 2.39
-6.80 -0.12 2.39
-6.81 -0.25 2.39
-6.82 -0.39 2.39
-6.82 -0.53 2.39
-6.83 -0.66 2.39
-6.83 -0.80 2.39
-6.82 -0.94 2.39
-6.82 -1.08 2.39
-6.81 -1.22 2.39
-6.80 -1.36 2.39
-6.78 -1.50 2.39
-6.77 -1.63 2.39
-6.75 -1.77 2.39
-6.72 -1.91 2.39
-6.70 -2.05 2.39
-6.67 -2.19 2.39
-6.64 -2.32 2.39
-6.60 -2.46 2.39
-6.57 -2.60 2.39
-6.53 -2.73 2.39
-6.48 -2.87 2.39
-6.44 -3.00 2.39
-6.39 -3.14 2.39
-6.34 -3.27 2.39
-6.28 -3.40 2.39
-6.22 -3.53 2.39
-6.16 -3.66 2.39
-6.10 -3.79 2.39
-6.03 -3.92 2.39
-6.02 -4.08 2.41
-6.01 -4.25 2.44
-6.01 -4.43 2.47
-5.99 -4.61 2.50
-5.90 -4.73 2.50
-5.82 -4.86 2.50
-5.73 -4.98 2.50
-5.64 -5.10 2.50
-5.54 -5.22 2.50
-5.45 -5.33 2.50
-5.35 -5.45 2.50
-5.24 -5.56 2.50
-5.14 -5.67 2.50
-5.03 -5.78 2.50
-4.92 -5.89 2.50
-4.81 -5.99 2.50
-4.70 -6.09 2.50
-4.58 -6.19 2.50
-4.46 -6.29 2.50
-4.34 -6.38 2.50
-4.22 -6.47 2.50
-4.09 -6.56 2.50
-3.96 -6.65 2.50
-3.83 -6.73 2.50
-3.70 -6.81 2.50
-3.57 -6.89 2.50
-3.43 -6.97 2.50
-3.30 -7.04 2.50
-3.16 -7.11 2.50
-3.02 -7.17 2.50
-2.88 -7.24 2.50
-2.74 -7.29 2.50
-2.59 -7.35 2.50
-2.45 -7.40 2.50
-2.30 -7.45 2.50
-2.15 -7.50 2.50
-2.00 -7.55 2.50
-1.85 -7.59 2.50
-1.70 -7.62 2.50
-1.55 -7.66 2.50
-1.40 -7.69 2.50
-1.25 -7.71 2.50
-1.09 -7.74 2.50
-0.94 -7.76 2.50
-0.79 -7.77 2.50
-0.63 -7.79 2.50
-0.48 -7.80 2.50
-0.32 -7.80 2.50
-0.17 -7.81 2.50
-0.01 -7.24 2.50
0.13 -7.24 2.50
0.27 -7.23 2.50
0.42 -7.22 2.50
0.56 -7.21 2.50
0.70 -7.19 2.50
0.84 -7.17 2.50
0.99 -7.15 2.50
1.13 -7.12 2.50
1.27 -7.10 2.50
1.41 -7.06 2.50
1.55 -7.03 2.50
1.68 -6.99 2.50
1.82 -6.95 2.50
1.96 -6.91 2.50
2.02 -6.62 2.41
2.13 -6.53 2.39
2.26 -6.48 2.39
2.39 -6.43 2.39
2.51 -6.37 2.39
2.63 -6.31 2.39
2.75 -6.25 2.39
2.87 -6.19 2.39
2.99 -6.13 2.39
3.11 -6.06 2.39
3.23 -5.99 2.39
3.34 -5.91 2.39
3.45 -5.84 2.39
3.56 -5.76 2.39
3.67 -5.68 2.39
3.78 -5.60 2.39
3.88 -5.51 2.39
3.99 -5.43 2.39
4.09 -5.34 2.39
4.19 -5.25 2.39
4.28 -5.16 2.39
4.38 -5.06 2.39
4.47 -4.97 2.39
4.56 -4.87 2.39
4.65 -4.77 2.39
4.73 -4.67 2.39
4.82 -4.56 2.39
4.90 -4.46 2.39
4.98 -4.35 2.39
5.05 -4.24 2.39
5.13 -4.13 2.39
5.20 -4.02 2.39
5.27 -3.91 2.39
5.34 -3.80 2.39
5.40 -3.69 2.39
5.46 -3.57 2.39
5.52 -3.45 2.39
5.58 -3.34 2.39
5.63 -3.22 2.39
5.69 -3.10 2.39
5.74 -2.98 2.39
5.78 -2.86 2.39
5.83 -2.74 2.39
5.87 -2.61 2.39
5.91 -2.49 2.39
5.94 -2.37 2.39
5.98 -2.24 2.39
6.01 -2.12 2.39
6.04 -1.99 2.39
5.76 -0.92 2.23
6.04 0.74 2.39
6.01 0.86 2.39
5.98 0.98 2.39
5.95 1.10 2.39
5.91 1.22 2.39
5.87 1.33 2.39
5.84 1.45 2.39
5.79 1.56 2.39
5.75 1.68 2.39
5.71 1.79 2.39
5.66 1.90 2.39
5.61 2.01 2.39
5.56 2.12 2.39
5.50 2.23 2.39
5.45 2.34 2.39
5.39 2.44 2.39
5.33 2.55 2.39
5.27 2.65 2.39
5.21 2.75 2.39
5.14 2.85 2.39
5.08 2.95 2.39
5.01 3.05 2.39
4.94 3.14 2.39
4.87 3.24 2.39
4.79 3.33 2.39
4.72 3.42 2.39
4.64 3.51 2.39
4.56 3.60 2.39
4.48 3.69 2.39
4.40 3.77 2.39
4.32 3.86 2.39
4.23 3.94 2.39
4.15 4.02 2.39
4.06 4.10 2.39
3.97 4.17 2.39
2.73 2.99 1.68
2.66 3.03 1.68
2.66 3.16 1.72
3.61 4.46 2.39
3.51 4.53 2.39
3.41 4.60 2.39
3.32 4.66 2.39
3.22 4.72 2.39
3.12 4.78 2.39
3.02 4.84 2.39
2.92 4.90 2.39
2.82 4.95 2.39
2.71 5.01 2.39
2.61 5.06 2.39
2.50 5.11 2.39
2.40 5.15 2.39
2.29 5.20 2.39
2.18 5.24 2.39
