ply
format ascii 1.0
element vertex 2972
property float32 x
property float32 y
property float32 z
end_header
9.89 0.35 1.90
9.90 0.55 1.90
9.90 0.75 1.90
9.91 0.95 1.91
9.91 1.15 1.91
9.92 1.35 1.92
9.92 1.56 1.93
9.93 1.76 1.93
9.93 1.97 1.94
9.94 2.18 1.95
9.94 2.39 1.96
9.95 2.60 1.97
9.95 2.82 1.98
9.96 3.04 2.00
9.96 3.26 2.01
9.97 3.49 2.02
7.82 2.91 1.60
7.49 2.96 1.54
7.39 3.09 1.53
7.32 3.24 1.53
7.40 3.46 1.56
10.01 4.92 2.13
10.01 5.17 2.16
10.02 5.43 2.18
9.96 5.67 2.19
9.82 5.85 2.19
9.68 6.03 2.18
9.58 6.24 2.19
9.47 6.45 2.19
9.36 6.65 2.20
9.25 6.85 2.20
9.13 7.05 2.20
9.00 7.25 2.21
8.92 7.48 2.22
8.83 7.71 2.24
8.74 7.95 2.26
8.64 8.19 2.27
8.55 8.43 2.29
8.44 8.67 2.31
8.28 8.85 2.31
8.06 8.97 2.30
7.84 9.09 2.29
7.63 9.20 2.28
7.41 9.31 2.27
7.19 9.42 2.26
7.05 9.63 2.27
6.95 9.91 2.30
6.87 10.22 2.34
6.78 10.55 2.39
6.69 10.88 2.43
6.53 11.12 2.45
6.29 11.21 2.44
5.93 11.09 2.39
5.23 10.26 2.19
4.98 10.28 2.17
5.04 10.96 2.29
5.03 11.55 2.39
4.80 11.65 2.39
4.57 11.75 2.39
4.33 11.84 2.39
4.09 11.93 2.39
3.86 12.01 2.39
3.61 12.09 2.39
3.37 12.17 2.39
3.13 12.24 2.39
2.88 12.30 2.39
2.64 12.36 2.39
2.39 12.42 2.39
2.14 12.47 2.39
1.97 13.05 2.49
1.71 13.10 2.49
1.45 13.13 2.49
1.18 13.16 2.49
0.92 13.19 2.49
0.65 13.21 2.49
0.39 13.23 2.49
0.12 13.24 2.49
-0.14 13.24 2.49
-0.41 13.24 2.49
-0.67 13.24 2.49
-0.94 13.23 2.49
-1.21 13.21 2.49
-1.47 13.19 2.49
-1.74 13.16 2.49
-2.00 13.13 2.49
-2.26 13.09 2.49
-2.53 13.05 2.49
-2.79 13.00 2.49
-3.05 12.95 2.49
-3.31 12.89 2.49
-3.57 12.82 2.49
-3.83 12.75 2.49
-4.09 12.68 2.49
-4.34 12.60 2.49
-4.60 12.51 2.49
-4.85 12.42 2.49
-5.10 12.33 2.49
-5.35 12.23 2.49
-5.59 12.12 2.49
-5.84 12.01 2.49
-6.04 11.82 2.48
-6.06 11.30 2.39
-6.29 11.17 2.39
-6.51 11.05 2.39
-6.73 10.92 2.39
-6.95 10.79 2.39
-6.37 9.45 2.12
-7.39 10.51 2.39
-7.60 10.36 2.39
-7.81 10.21 2.39
-8.01 10.05 2.39
-8.22 9.89 2.39
-8.42 9.73 2.39
-8.61 9.56 2.39
-8.81 9.39 2.39
-9.00 9.21 2.39
-9.18 9.03 2.39
-9.36 8.85 2.39
-9.54 8.66 2.39
-9.72 8.47 2.39
-9.89 8.28 2.39
-10.06 8.08 2.39
-11.13 8.58 2.60
-14.00 10.36 3.23
-14.30 10.14 3.25
-14.58 9.91 3.26
-10.21 6.64 2.25
-14.99 9.33 3.27
-10.21 6.07 2.20
-10.22 5.81 2.17
-15.66 8.48 3.29
-15.95 8.23 3.32
-16.23 7.97 3.34
-16.56 7.72 3.38
-10.27 4.54 2.07
-17.19 7.19 3.44
-10.26 4.05 2.04
-17.56 6.53 3.46
-17.64 6.16 3.45
-17.79 5.82 3.46
-18.01 5.49 3.47
-17.95 5.08 3.44
-17.85 4.67 3.40
-17.72 4.26 3.36
-17.61 3.86 3.32
-10.31 2.04 1.94
-17.86 3.17 3.34
-17.97 2.82 3.35
-18.08 2.46 3.36
-18.18 2.10 3.37
-18.35 1.75 3.40
-18.58 1.40 3.43
-18.80 1.04 3.47
-19.03 0.67 3.51
-18.34 0.27 3.38
-17.25 -0.09 3.18
-17.13 -0.43 3.16
-17.12 -0.77 3.16
-17.07 -1.12 3.15
-16.99 -1.45 3.14
-17.11 -1.81 3.17
-17.22 -2.17 3.20
-17.05 -2.50 3.17
-16.86 -2.82 3.15
-10.41 -1.95 1.95
-16.60 -3.46 3.12
-16.52 -3.79 3.12
-16.44 -4.12 3.12
-16.29 -4.44 3.11
-16.12 -4.74 3.10
-10.45 -3.30 2.02
-15.83 -5.35 3.08
-15.68 -5.66 3.07
-10.46 -4.01 2.07
-15.43 -6.27 3.07
-15.31 -6.59 3.07
-15.18 -6.90 3.08
-15.05 -7.20 3.08
-14.91 -7.51 3.08
-14.71 -7.78 3.07
-10.51 -5.83 2.22
-14.30 -8.31 3.05
-10.53 -6.41 2.27
-13.96 -8.89 3.06
-11.68 -7.77 2.59
-11.41 -7.92 2.57
-10.48 -7.59 2.39
-10.32 -7.80 2.39
-10.16 -8.00 2.39
-10.00 -8.21 2.39
-9.83 -8.40 2.39
-9.66 -8.60 2.39
-9.48 -8.79 2.39
-9.30 -8.97 2.39
-9.12 -9.15 2.39
-8.93 -9.33 2.39
-8.74 -9.51 2.39
-8.54 -9.68 2.39
-8.34 -9.85 2.39
-8.14 -10.01 2.39
-7.94 -10.17 2.39
-7.73 -10.32 2.39
-7.52 -10.47 2.39
-7.31 -10.62 2.39
-7.09 -10.76 2.39
-6.87 -10.89 2.39
-6.65 -11.03 2.39
-6.62 -11.49 2.46
-6.46 -11.76 2.49
-6.22 -11.89 2.49
-5.98 -12.00 2.49
-5.74 -12.12 2.49
-5.49 -12.23 2.49
-5.24 -12.33 2.49
-4.99 -12.43 2.49
-4.74 -12.52 2.49
-4.49 -12.61 2.49
-4.23 -12.69 2.49
-3.97 -12.77 2.49
-3.72 -12.84 2.49
-3.46 -12.91 2.49
-3.20 -12.97 2.49
-2.93 -13.03 2.49
-2.67 -13.08 2.49
-2.41 -13.13 2.49
-2.14 -13.17 2.49
-1.88 -13.20 2.49
-1.61 -13.23 2.49
-1.34 -13.26 2.49
-1.08 -13.28 2.49
-0.81 -13.29 2.49
-0.54 -13.30 2.49
-0.28 -13.30 2.49
-0.01 -11.82 2.49
0.23 -11.82 2.49
0.47 -11.80 2.49
0.70 -11.79 2.49
0.94 -11.77 2.49
1.17 -11.74 2.49
1.41 -11.71 2.49
1.57 -11.19 2.39
1.80 -11.16 2.39
2.02 -11.11 2.39
2.24 -11.07 2.39
2.46 -11.02 2.39
2.68 -10.96 2.39
2.90 -10.90 2.39
3.12 -10.84 2.39
3.34 -10.77 2.39
3.55 -10.69 2.39
3.76 -10.62 2.39
3.97 -10.54 2.39
4.18 -10.45 2.39
4.39 -10.36 2.39
4.60 -10.27 2.39
4.80 -10.17 2.39
5.00 -10.07 2.39
5.20 -9.96 2.39
5.40 -9.85 2.39
5.74 -9.99 2.45
5.89 -9.80 2.44
6.05 -9.61 2.42
6.19 -9.42 2.40
6.34 -9.24 2.39
6.48 -9.05 2.37
6.63 -8.87 2.36
6.76 -8.68 2.35
6.89 -8.49 2.33
7.02 -8.30 2.32
7.15 -8.12 2.31
7.27 -7.93 2.30
7.40 -7.75 2.29
7.51 -7.56 2.28
7.63 -7.37 2.27
7.74 -7.19 2.26
7.85 -7.00 2.25
7.96 -6.82 2.24
8.10 -6.66 2.24
8.23 -6.50 2.24
8.37 -6.33 2.25
7.12 -5.17 1.88
7.08 -4.93 1.85
7.34 -4.89 1.89
7.70 -4.91 1.96
9.06 -5.53 2.28
9.21 -5.36 2.28
9.35 -5.20 2.29
9.49 -5.03 2.30
9.63 -4.86 2.31
9.70 -4.65 2.31
9.78 -4.45 2.30
9.84 -4.24 2.30
9.91 -4.04 2.30
9.97 -3.83 2.29
9.80 -3.54 2.24
9.80 -3.32 2.22
9.81 -3.10 2.21
9.81 -2.89 2.20
9.82 -2.68 2.19
9.82 -2.47 2.18
9.83 -2.26 2.17
9.83 -2.05 2.16
9.84 -1.85 2.15
9.84 -1.65 2.15
9.85 -1.45 2.14
9.85 -1.24 2.14
9.86 -1.04 2.13
9.86 -0.84 2.13
9.87 -0.65 2.13
9.87 -0.45 2.13
9.88 -0.25 2.13
9.88 -0.05 2.13
9.89 0.15 2.13
9.89 0.35 2.13
9.90 0.55 2.13
9.90 0.75 2.14
9.91 0.95 2.14
9.91 1.15 2.15
9.92 1.35 2.15
9.92 1.56 2.16
9.93 1.76 2.17
9.93 1.97 2.18
9.94 2.18 2.19
9.94 2.39 2.20
9.95 2.60 2.21
9.95 2.82 2.23
9.91 3.02 2.23
9.74 3.19 2.20
9.61 3.36 2.19
9.53 3.55 2.19
7.69 3.04 1.78
7.41 3.10 1.73
7.30 3.23 1.72
7.41 3.46 1.76
9.02 4.44 2.16
8.91 4.60 2.16
8.84 4.79 2.16
8.76 4.98 2.16
8.70 5.18 2.18
8.68 5.41 2.20
8.64 5.63 2.21
8.59 5.85 2.23
8.54 6.06 2.25
8.48 6.29 2.27
8.42 6.51 2.28
8.36 6.73 2.30
8.28 6.95 2.32
8.19 7.16 2.33
8.10 7.37 2.35
8.01 7.58 2.36
7.91 7.80 2.38
7.81 8.02 2.40
7.68 8.20 2.41
7.48 8.32 2.40
7.28 8.43 2.39
7.08 8.54 2.37
6.88 8.65 2.37
6.68 8.76 2.36
6.49 8.86 2.35
6.35 9.05 2.36
6.23 9.28 2.39
6.12 9.52 2.42
5.86 9.53 2.39
5.67 9.65 2.39
5.48 9.76 2.39
5.28 9.87 2.39
5.08 9.98 2.39
4.88 10.08 2.39
4.68 10.18 2.39
4.48 10.28 2.39
4.27 10.37 2.39
4.06 10.46 2.39
3.85 10.54 2.39
3.64 10.62 2.39
3.43 10.69 2.39
3.22 10.76 2.39
3.00 10.83 2.39
2.78 10.89 2.39
2.56 10.95 2.39
2.35 11.00 2.39
2.12 11.05 2.39
1.99 11.57 2.49
1.75 11.61 2.49
1.52 11.65 2.49
1.29 11.68 2.49
1.05 11.71 2.49
0.82 11.73 2.49
0.58 11.75 2.49
0.35 11.76 2.49
0.11 11.77 2.49
-0.13 11.78 2.49
-0.36 11.78 2.49
-0.60 11.77 2.49
-0.84 11.76 2.49
-1.07 11.75 2.49
-1.31 11.73 2.49
-1.54 11.70 2.49
-1.78 11.67 2.49
-2.01 11.64 2.49
-2.25 11.60 2.49
-2.48 11.56 2.49
-2.71 11.51 2.49
-2.95 11.46 2.49
-3.18 11.40 2.49
-3.41 11.34 2.49
-3.63 11.27 2.49
-3.86 11.20 2.49
-4.09 11.12 2.49
-4.31 11.04 2.49
-4.53 10.96 2.49
-4.75 10.87 2.49
-4.97 10.77 2.49
-5.19 10.68 2.49
-5.40 10.57 2.49
-5.62 10.47 2.49
-5.83 10.35 2.49
-6.04 10.24 2.49
-6.09 9.87 2.43
-6.18 9.58 2.39
-6.37 9.45 2.39
-6.56 9.33 2.39
-6.75 9.20 2.39
-6.94 9.07 2.39
-7.12 8.93 2.39
-7.30 8.79 2.39
-7.48 8.64 2.39
-7.65 8.49 2.39
-7.82 8.34 2.39
-7.99 8.18 2.39
-8.15 8.02 2.39
-8.32 7.86 2.39
-8.47 7.69 2.39
-8.63 7.52 2.39
-8.78 7.35 2.39
-8.93 7.18 2.39
-9.07 7.00 2.39
-9.21 6.81 2.39
-9.35 6.63 2.39
-9.48 6.44 2.39
-9.61 6.25 2.39
-9.74 6.06 2.39
-9.86 5.86 2.39
-9.98 5.67 2.39
-10.09 5.47 2.39
-10.20 5.26 2.39
-11.31 5.55 2.62
-11.38 5.31 2.61
-13.12 5.80 2.99
-13.59 5.68 3.06
-10.26 4.05 2.30
-10.27 3.82 2.28
-10.28 3.59 2.26
-10.30 3.37 2.25
-14.54 4.43 3.16
-14.71 4.16 3.18
-14.87 3.89 3.20
-15.01 3.60 3.21
-10.31 2.26 2.19
-10.31 2.04 2.18
-10.32 1.83 2.18
-15.50 2.43 3.26
-15.58 2.12 3.27
-15.61 1.81 3.26
-15.16 1.45 3.16
-14.74 1.11 3.07
-14.49 0.80 3.01
-10.36 0.36 2.15
-14.53 0.22 3.02
-14.54 -0.07 3.02
-10.38 -0.26 2.15
-14.62 -0.66 3.04
-14.67 -0.96 3.05
-14.71 -1.26 3.07
-14.69 -1.55 3.07
-14.65 -1.85 3.07
-14.60 -2.14 3.06
-10.41 -1.74 2.19
-10.41 -1.95 2.20
-14.51 -3.03 3.08
-14.44 -3.32 3.08
-14.37 -3.60 3.08
-14.29 -3.89 3.07
-10.44 -3.07 2.26
-10.45 -3.30 2.28
-14.01 -4.74 3.07
-13.91 -5.01 3.07
-10.46 -4.01 2.33
-11.51 -4.68 2.58
-11.35 -4.88 2.57
-11.17 -5.07 2.55
-10.38 -4.97 2.39
-10.27 -5.17 2.39
-10.17 -5.38 2.39
-10.06 -5.58 2.39
-9.94 -5.78 2.39
-9.82 -5.98 2.39
-9.70 -6.17 2.39
-9.57 -6.36 2.39
-9.44 -6.55 2.39
-9.30 -6.74 2.39
-9.16 -6.92 2.39
-9.02 -7.10 2.39
-8.88 -7.28 2.39
-8.73 -7.46 2.39
-8.57 -7.63 2.39
-8.42 -7.80 2.39
-8.26 -7.96 2.39
-8.09 -8.13 2.39
-7.93 -8.29 2.39
-7.76 -8.44 2.39
-7.58 -8.59 2.39
-7.41 -8.74 2.39
-7.23 -8.89 2.39
-7.05 -9.03 2.39
-6.86 -9.16 2.39
-6.68 -9.30 2.39
-6.57 -9.55 2.42
-6.57 -9.96 2.49
-6.36 -10.09 2.49
-6.16 -10.21 2.49
-5.95 -10.33 2.49
-5.74 -10.45 2.49
-5.53 -10.56 2.49
-5.31 -10.66 2.49
-5.10 -10.76 2.49
-4.88 -10.86 2.49
-4.66 -10.95 2.49
-4.44 -11.04 2.49
-4.21 -11.12 2.49
-3.99 -11.20 2.49
-3.76 -11.28 2.49
-3.53 -11.35 2.49
-3.30 -11.41 2.49
-3.07 -11.47 2.49
-2.84 -11.53 2.49
-2.61 -11.58 2.49
-2.37 -11.62 2.49
-2.14 -11.66 2.49
-1.90 -11.70 2.49
-1.67 -11.73 2.49
-1.43 -11.76 2.49
-1.20 -11.78 2.49
-0.96 -11.80 2.49
-0.72 -11.81 2.49
-0.48 -11.82 2.49
-0.25 -11.82 2.49
-0.01 -10.63 2.49
0.20 -10.63 2.49
0.42 -10.62 2.49
0.63 -10.60 2.49
0.84 -10.58 2.49
1.05 -10.56 2.49
1.27 -10.53 2.49
1.46 -10.39 2.47
1.62 -10.03 2.39
1.82 -10.00 2.39
2.02 -9.96 2.39
2.22 -9.91 2.39
2.41 -9.86 2.39
2.61 -9.81 2.39
2.81 -9.75 2.39
3.00 -9.69 2.39
3.19 -9.62 2.39
3.38 -9.55 2.39
3.57 -9.48 2.39
3.76 -9.40 2.39
3.95 -9.32 2.39
4.13 -9.24 2.39
4.32 -9.15 2.39
4.50 -9.06 2.39
4.68 -8.97 2.39
4.86 -8.87 2.39
5.03 -8.77 2.39
5.21 -8.66 2.39
5.38 -8.55 2.39
5.74 -8.73 2.47
5.88 -8.56 2.46
6.01 -8.39 2.45
6.14 -8.22 2.43
6.27 -8.06 2.42
6.40 -7.89 2.41
6.52 -7.72 2.40
6.64 -7.55 2.38
6.76 -7.38 2.37
6.88 -7.21 2.36
6.99 -7.03 2.35
7.10 -6.86 2.34
7.23 -6.71 2.34
7.36 -6.56 2.34
7.49 -6.41 2.34
7.62 -6.26 2.34
7.75 -6.11 2.35
7.87 -5.96 2.35
6.91 -5.02 2.03
7.19 -5.00 2.08
7.27 -4.84 2.08
8.36 -5.33 2.36
8.48 -5.17 2.36
8.59 -5.00 2.37
8.71 -4.84 2.37
8.77 -4.65 2.36
8.82 -4.45 2.35
8.86 -4.25 2.34
8.90 -4.05 2.33
8.93 -3.85 2.32
8.96 -3.65 2.31
8.98 -3.45 2.29
9.00 -3.25 2.28
9.02 -3.05 2.27
9.03 -2.86 2.26
9.07 -2.67 2.26
9.12 -2.49 2.26
9.17 -2.31 2.26
9.23 -2.12 2.26
9.28 -1.94 2.26
9.33 -1.75 2.27
9.37 -1.57 2.27
9.42 -1.38 2.27
9.45 -1.19 2.27
9.49 -1.01 2.28
9.52 -0.82 2.28
9.54 -0.62 2.28
9.55 -0.43 2.28
9.55 -0.24 2.28
9.56 -0.05 2.28
9.58 0.14 2.29
9.60 0.34 2.29
9.62 0.53 2.30
9.64 0.73 2.31
9.66 0.92 2.32
9.67 1.12 2.32
9.67 1.32 2.33
9.64 1.51 2.33
9.62 1.71 2.33
9.59 1.90 2.33
9.49 2.08 2.32
9.36 2.25 2.30
9.22 2.41 2.27
9.08 2.57 2.25
8.94 2.73 2.23
8.80 2.88 2.21
8.68 3.04 2.20
8.60 3.20 2.19
7.54 2.98 1.93
7.38 3.09 1.91
7.19 3.18 1.88
7.32 3.42 1.93
7.40 3.64 1.97
8.23 4.25 2.21
8.16 4.43 2.21
8.11 4.61 2.22
8.10 4.83 2.25
8.09 5.04 2.27
8.08 5.26 2.30
8.04 5.47 2.32
7.99 5.67 2.34
7.93 5.88 2.35
7.87 6.08 2.37
7.81 6.29 2.39
7.72 6.48 2.40
7.64 6.67 2.42
7.55 6.87 2.43
7.46 7.06 2.45
7.36 7.26 2.46
7.26 7.46 2.48
7.15 7.64 2.49
6.97 7.75 2.48
6.79 7.86 2.47
6.61 7.97 2.46
6.42 8.08 2.45
6.24 8.18 2.45
6.06 8.28 2.44
5.78 8.24 2.39
5.61 8.36 2.39
5.45 8.47 2.39
5.28 8.58 2.39
5.10 8.69 2.39
4.93 8.79 2.39
4.75 8.89 2.39
4.58 8.99 2.39
4.40 9.08 2.39
4.21 9.17 2.39
4.03 9.25 2.39
3.84 9.33 2.39
3.66 9.41 2.39
3.47 9.49 2.39
3.28 9.56 2.39
3.09 9.62 2.39
2.89 9.69 2.39
2.70 9.74 2.39
2.50 9.80 2.39
2.31 9.85 2.39
2.11 9.90 2.39
1.97 10.26 2.47
1.79 10.41 2.49
1.58 10.45 2.49
1.37 10.48 2.49
1.16 10.51 2.49
0.95 10.54 2.49
0.73 10.56 2.49
0.52 10.57 2.49
0.31 10.58 2.49
0.10 10.59 2.49
-0.12 10.59 2.49
-0.33 10.59 2.49
-0.54 10.59 2.49
-0.75 10.58 2.49
-0.97 10.56 2.49
-1.18 10.55 2.49
-1.39 10.52 2.49
-1.60 10.50 2.49
-1.81 10.47 2.49
-2.02 10.43 2.49
-2.23 10.39 2.49
-2.44 10.35 2.49
-2.65 10.30 2.49
-2.86 10.25 2.49
-3.06 10.19 2.49
-3.27 10.13 2.49
-3.47 10.07 2.49
-3.67 10.00 2.49
-3.88 9.93 2.49
-4.07 9.85 2.49
-4.27 9.77 2.49
-4.47 9.68 2.49
-4.66 9.60 2.49
-4.86 9.50 2.49
-5.05 9.41 2.49
-5.24 9.31 2.49
-5.43 9.20 2.49
-5.61 9.09 2.49
-5.79 8.98 2.49
-5.97 8.87 2.49
-6.12 8.69 2.48
-6.13 8.35 2.42
-6.23 8.15 2.39
-6.40 8.02 2.39
-6.56 7.89 2.39
-6.72 7.76 2.39
-6.52 7.24 2.27
-6.80 7.25 2.31
-7.06 7.23 2.35
-7.10 6.99 2.32
-7.11 6.72 2.28
-7.23 6.56 2.27
-7.75 6.76 2.39
-7.89 6.60 2.39
-8.02 6.45 2.39
-8.15 6.28 2.39
-8.28 6.12 2.39
-8.40 5.96 2.39
-8.52 5.79 2.39
-8.64 5.62 2.39
-8.75 5.44 2.39
-8.86 5.27 2.39
-8.96 5.09 2.39
-9.07 4.91 2.39
-9.16 4.73 2.39
-9.26 4.54 2.39
-9.35 4.36 2.39
-9.44 4.17 2.39
-9.52 3.98 2.39
-9.60 3.79 2.39
-9.67 3.60 2.39
-9.75 3.40 2.39
-9.81 3.21 2.39
-9.88 3.01 2.39
-9.94 2.81 2.39
-9.99 2.61 2.39
-10.04 2.41 2.39
-10.09 2.21 2.39
-10.14 2.01 2.39
-10.17 1.80 2.39
-10.21 1.60 2.39
-10.24 1.39 2.39
-10.27 1.19 2.39
-10.29 0.98 2.39
-10.31 0.78 2.39
-10.32 0.57 2.39
-10.33 0.36 2.39
-10.34 0.15 2.39
-10.34 -0.05 2.39
-10.34 -0.26 2.39
-10.33 -0.47 2.39
-10.32 -0.67 2.39
-10.30 -0.88 2.39
-10.28 -1.09 2.39
-10.26 -1.29 2.39
-10.23 -1.50 2.39
-10.20 -1.70 2.39
-10.16 -1.91 2.39
-10.12 -2.11 2.39
-10.08 -2.31 2.39
-10.03 -2.52 2.39
-9.97 -2.72 2.39
-9.92 -2.92 2.39
-9.86 -3.11 2.39
-9.79 -3.31 2.39
-9.72 -3.51 2.39
-9.65 -3.70 2.39
-9.57 -3.89 2.39
-9.49 -4.08 2.39
-9.41 -4.27 2.39
-9.32 -4.46 2.39
-9.23 -4.65 2.39
-9.13 -4.83 2.39
-9.03 -5.01 2.39
-8.93 -5.19 2.39
-8.82 -5.37 2.39
-8.71 -5.54 2.39
-8.59 -5.71 2.39
-8.48 -5.88 2.39
-8.36 -6.05 2.39
-8.23 -6.22 2.39
-8.10 -6.38 2.39
-7.97 -6.54 2.39
-7.44 -6.36 2.27
-7.33 -6.53 2.28
-7.18 -6.65 2.27
-7.42 -7.15 2.39
-7.27 -7.30 2.39
-7.12 -7.44 2.39
-6.97 -7.58 2.39
-6.81 -7.72 2.39
-6.66 -7.85 2.39
-6.54 -8.03 2.41
-6.54 -8.37 2.47
-6.43 -8.59 2.49
-6.26 -8.71 2.49
-6.08 -8.83 2.49
-5.90 -8.95 2.49
-5.72 -9.07 2.49
-5.53 -9.18 2.49
-5.35 -9.28 2.49
-5.16 -9.39 2.49
-4.97 -9.49 2.49
-4.78 -9.58 2.49
-4.58 -9.67 2.49
-4.39 -9.76 2.49
-4.19 -9.84 2.49
-3.99 -9.92 2.49
-3.79 -10.00 2.49
-3.58 -10.07 2.49
-3.38 -10.14 2.49
-3.18 -10.20 2.49
-2.97 -10.26 2.49
-2.76 -10.31 2.49
-2.55 -10.36 2.49
-2.34 -10.41 2.49
-2.13 -10.45 2.49
-1.92 -10.49 2.49
-1.71 -10.52 2.49
-1.50 -10.55 2.49
-1.29 -10.57 2.49
-1.08 -10.59 2.49
-0.86 -10.61 2.49
-0.65 -10.62 2.49
-0.44 -10.63 2.49
-0.22 -10.63 2.49
-0.01 -9.65 2.49
0.18 -9.64 2.49
0.38 -9.64 2.49
0.57 -9.62 2.49
0.76 -9.61 2.49
0.96 -9.59 2.49
1.15 -9.56 2.49
1.34 -9.53 2.49
1.49 -9.26 2.43
1.65 -9.08 2.39
1.83 -9.04 2.39
2.01 -9.00 2.39
2.19 -8.95 2.39
2.37 -8.90 2.39
2.55 -8.85 2.39
2.72 -8.80 2.39
2.90 -8.74 2.39
3.07 -8.67 2.39
3.24 -8.61 2.39
3.42 -8.54 2.39
3.59 -8.47 2.39
3.75 -8.39 2.39
3.92 -8.31 2.39
4.09 -8.23 2.39
4.25 -8.14 2.39
4.41 -8.05 2.39
4.57 -7.96 2.39
4.73 -7.87 2.39
4.88 -7.77 2.39
5.04 -7.67 2.39
5.19 -7.56 2.39
5.34 -7.45 2.39
5.48 -7.34 2.39
5.85 -7.52 2.49
5.97 -7.36 2.47
6.09 -7.21 2.46
6.21 -7.05 2.45
6.32 -6.90 2.44
6.43 -6.73 2.43
6.51 -6.55 2.41
6.59 -6.38 2.40
6.70 -6.23 2.39
6.82 -6.08 2.39
6.93 -5.94 2.39
7.04 -5.79 2.38
7.14 -5.64 2.38
7.24 -5.48 2.38
7.12 -5.17 2.30
7.19 -5.00 2.29
7.33 -4.89 2.31
7.61 -4.85 2.36
7.68 -4.69 2.36
7.74 -4.51 2.35
7.80 -4.34 2.34
7.85 -4.16 2.33
7.90 -3.98 2.32
7.94 -3.81 2.31
7.98 -3.63 2.30
8.02 -3.46 2.29
8.05 -3.28 2.28
8.08 -3.10 2.27
8.10 -2.93 2.26
8.13 -2.75 2.25
8.20 -2.59 2.26
8.26 -2.43 2.26
8.33 -2.27 2.27
8.39 -2.11 2.27
8.44 -1.94 2.27
8.50 -1.78 2.28
8.55 -1.61 2.28
8.59 -1.44 2.29
8.63 -1.27 2.29
8.67 -1.10 2.30
8.71 -0.92 2.30
8.75 -0.75 2.31
8.79 -0.58 2.31
8.82 -0.40 2.32
8.85 -0.22 2.32
8.87 -0.05 2.33
8.89 0.13 2.34
8.91 0.31 2.34
8.93 0.49 2.35
8.94 0.67 2.36
8.96 0.86 2.36
8.97 1.04 2.37
8.97 1.22 2.38
8.95 1.40 2.38
8.83 1.57 2.36
8.74 1.73 2.34
8.64 1.89 2.32
8.54 2.05 2.31
8.43 2.21 2.29
8.33 2.36 2.27
8.23 2.51 2.26
8.14 2.66 2.25
8.07 2.82 2.25
7.66 2.85 2.15
7.61 3.01 2.15
7.38 3.09 2.10
7.29 3.23 2.09
7.22 3.37 2.09
7.70 3.79 2.25
7.64 3.95 2.26
7.59 4.12 2.27
7.58 4.31 2.29
7.57 4.51 2.31
7.55 4.71 2.34
7.54 4.91 2.36
7.52 5.12 2.38
7.49 5.32 2.41
7.44 5.52 2.43
7.38 5.71 2.45
7.32 5.89 2.46
7.23 6.07 2.48
7.15 6.25 2.49
7.07 6.43 2.50
6.98 6.61 2.52
6.88 6.78 2.53
6.77 6.95 2.54
6.65 7.11 2.55
6.50 7.24 2.55
6.35 7.36 2.54
5.83 7.04 2.39
5.69 7.15 2.39
5.54 7.27 2.39
5.40 7.38 2.39
5.25 7.49 2.39
5.10 7.59 2.39
4.95 7.70 2.39
4.79 7.79 2.39
4.64 7.89 2.39
4.48 7.98 2.39
4.32 8.07 2.39
4.16 8.16 2.39
3.99 8.25 2.39
3.83 8.33 2.39
3.66 8.40 2.39
3.49 8.48 2.39
3.32 8.55 2.39
3.15 8.62 2.39
2.98 8.68 2.39
2.80 8.74 2.39
2.63 8.80 2.39
2.45 8.85 2.39
2.27 8.90 2.39
2.09 8.95 2.39
1.95 9.14 2.43
1.81 9.42 2.49
1.62 9.46 2.49
1.43 9.49 2.49
1.24 9.52 2.49
1.05 9.54 2.49
0.86 9.57 2.49
0.67 9.58 2.49
0.47 9.60 2.49
0.28 9.61 2.49
0.09 9.62 2.49
-0.11 9.62 2.49
-0.30 9.62 2.49
-0.49 9.61 2.49
-0.68 9.60 2.49
-0.88 9.59 2.49
-1.07 9.57 2.49
-1.26 9.55 2.49
-1.45 9.53 2.49
-1.65 9.50 2.49
-1.84 9.47 2.49
-2.03 9.43 2.49
-2.22 9.39 2.49
-2.41 9.35 2.49
-2.59 9.30 2.49
-2.78 9.25 2.49
-2.97 9.19 2.49
-3.15 9.14 2.49
-3.33 9.07 2.49
-3.52 9.01 2.49
-3.70 8.94 2.49
-3.88 8.86 2.49
-4.06 8.79 2.49
-4.23 8.71 2.49
-4.41 8.62 2.49
-4.58 8.53 2.49
-4.75 8.44 2.49
-4.92 8.35 2.49
-5.09 8.25 2.49
-5.26 8.15 2.49
-5.42 8.04 2.49
-5.58 7.93 2.49
-5.74 7.82 2.49
-5.90 7.71 2.49
-6.05 7.59 2.49
-6.15 7.40 2.47
-6.16 7.12 2.42
-6.24 6.92 2.39
-6.37 6.79 2.39
-6.51 6.67 2.39
-6.53 6.42 2.35
-6.53 6.17 2.31
-6.55 5.95 2.27
-6.67 5.82 2.27
-7.04 5.89 2.35
-7.13 5.73 2.34
-7.14 5.50 2.31
-7.15 5.28 2.28
-7.23 5.13 2.27
-7.73 5.25 2.39
-7.83 5.09 2.39
-7.93 4.93 2.39
-8.03 4.78 2.39
-8.13 4.61 2.39
-8.22 4.45 2.39
-8.31 4.29 2.39
-8.39 4.12 2.39
-8.48 3.95 2.39
-8.56 3.78 2.39
-8.63 3.61 2.39
-8.70 3.44 2.39
-8.77 3.26 2.39
-8.84 3.08 2.39
-8.90 2.91 2.39
-8.96 2.73 2.39
-9.01 2.55 2.39
-9.06 2.37 2.39
-9.11 2.19 2.39
-9.15 2.00 2.39
-9.19 1.82 2.39
-9.22 1.63 2.39
-9.26 1.45 2.39
-9.28 1.26 2.39
-9.31 1.08 2.39
-9.33 0.89 2.39
-9.34 0.70 2.39
-9.36 0.52 2.39
-9.37 0.33 2.39
-9.37 0.14 2.39
-9.37 -0.05 2.39
-9.37 -0.24 2.39
-9.36 -0.42 2.39
-9.35 -0.61 2.39
-9.34 -0.80 2.39
-9.32 -0.99 2.39
-9.30 -1.17 2.39
-9.27 -1.36 2.39
-9.24 -1.54 2.39
-9.21 -1.73 2.39
-9.17 -1.91 2.39
-9.13 -2.10 2.39
-9.09 -2.28 2.39
-9.04 -2.46 2.39
-8.99 -2.64 2.39
-8.94 -2.82 2.39
-8.88 -3.00 2.39
-8.81 -3.18 2.39
-8.75 -3.35 2.39
-8.68 -3.53 2.39
-8.60 -3.70 2.39
-8.53 -3.87 2.39
-8.45 -4.04 2.39
-8.36 -4.21 2.39
-8.28 -4.38 2.39
-8.19 -4.54 2.39
-8.09 -4.70 2.39
-8.00 -4.87 2.39
-7.49 -4.77 2.27
-7.41 -4.92 2.27
-7.40 -5.14 2.30
-7.41 -5.37 2.34
-7.34 -5.54 2.35
-7.23 -5.69 2.35
-6.86 -5.63 2.27
-6.83 -5.84 2.30
-6.84 -6.08 2.34
-6.85 -6.35 2.39
-6.73 -6.49 2.39
-6.59 -6.62 2.39
-6.51 -6.80 2.41
-6.51 -7.08 2.46
-6.45 -7.30 2.49
-6.30 -7.43 2.49
-6.15 -7.55 2.49
-5.99 -7.67 2.49
-5.84 -7.79 2.49
-5.68 -7.90 2.49
-5.52 -8.01 2.49
-5.35 -8.12 2.49
-5.19 -8.22 2.49
-5.02 -8.32 2.49
-4.85 -8.42 2.49
-4.68 -8.51 2.49
-4.51 -8.60 2.49
-4.33 -8.69 2.49
-4.16 -8.77 2.49
-3.98 -8.85 2.49
-3.80 -8.93 2.49
-3.62 -9.00 2.49
-3.44 -9.07 2.49
-3.25 -9.13 2.49
-3.07 -9.19 2.49
-2.88 -9.25 2.49
-2.69 -9.30 2.49
-2.51 -9.35 2.49
-2.32 -9.40 2.49
-2.13 -9.44 2.49
-1.94 -9.48 2.49
-1.75 -9.51 2.49
-1.55 -9.55 2.49
-1.36 -9.57 2.49
-1.17 -9.59 2.49
-0.98 -9.61 2.49
-0.78 -9.63 2.49
-0.59 -9.64 2.49
-0.40 -9.65 2.49
-0.20 -9.65 2.49
-0.01 -8.82 2.49
0.17 -8.82 2.49
0.35 -8.81 2.49
0.52 -8.80 2.49
0.70 -8.79 2.49
0.87 -8.77 2.49
1.05 -8.75 2.49
1.22 -8.72 2.49
1.40 -8.69 2.49
1.52 -8.36 2.41
1.67 -8.27 2.39
1.84 -8.23 2.39
2.00 -8.19 2.39
2.17 -8.14 2.39
2.33 -8.10 2.39
2.49 -8.05 2.39
2.65 -7.99 2.39
2.81 -7.94 2.39
2.97 -7.88 2.39
3.12 -7.81 2.39
3.28 -7.75 2.39
3.43 -7.68 2.39
3.59 -7.60 2.39
3.74 -7.53 2.39
3.89 -7.45 2.39
4.03 -7.37 2.39
4.18 -7.28 2.39
4.32 -7.20 2.39
4.47 -7.11 2.39
4.61 -7.01 2.39
4.75 -6.92 2.39
4.88 -6.82 2.39
5.02 -6.72 2.39
5.15 -6.62 2.39
5.28 -6.51 2.39
5.41 -6.40 2.39
5.54 -6.29 2.39
5.93 -6.47 2.50
6.01 -6.30 2.49
6.10 -6.14 2.47
6.18 -5.97 2.45
6.25 -5.81 2.44
6.33 -5.64 2.42
6.40 -5.48 2.41
6.47 -5.32 2.39
6.53 -5.16 2.38
6.60 -4.99 2.37
6.66 -4.84 2.35
6.74 -4.69 2.35
6.81 -4.54 2.34
6.87 -4.38 2.33
6.93 -4.23 2.32
6.99 -4.07 2.31
7.04 -3.91 2.31
7.09 -3.76 2.30
7.14 -3.60 2.29
7.18 -3.44 2.28
7.22 -3.28 2.27
7.25 -3.13 2.26
7.28 -2.97 2.25
7.31 -2.81 2.24
7.37 -2.66 2.24
7.43 -2.52 2.25
7.49 -2.37 2.25
7.55 -2.22 2.26
7.61 -2.08 2.26
7.66 -1.93 2.27
7.71 -1.77 2.27
7.78 -1.63 2.28
7.84 -1.48 2.29
7.91 -1.32 2.30
7.97 -1.17 2.31
8.02 -1.01 2.32
8.08 -0.86 2.33
8.13 -0.70 2.34
8.16 -0.53 2.35
8.19 -0.37 2.35
8.21 -0.21 2.36
8.24 -0.04 2.36
8.26 0.12 2.37
8.27 0.29 2.38
8.29 0.46 2.38
8.30 0.63 2.39
8.31 0.79 2.40
8.29 0.96 2.40
8.27 1.13 2.40
8.24 1.29 2.39
8.16 1.45 2.38
8.07 1.60 2.36
7.99 1.75 2.35
7.90 1.90 2.33
7.81 2.04 2.32
7.71 2.19 2.30
7.66 2.34 2.30
7.61 2.49 2.30
7.55 2.64 2.29
7.49 2.79 2.29
7.43 2.94 2.29
7.34 3.07 2.28
7.30 3.23 2.29
7.24 3.38 2.29
7.18 3.53 2.29
7.14 3.69 2.30
7.13 3.87 2.32
7.11 4.05 2.35
7.10 4.23 2.37
7.08 4.41 2.39
7.06 4.60 2.41
7.03 4.79 2.44
7.01 4.98 2.46
6.98 5.17 2.49
6.95 5.37 2.51
6.87 5.54 2.53
6.78 5.69 2.54
6.69 5.85 2.54
6.60 6.00 2.55
6.50 6.16 2.56
6.40 6.31 2.57
5.83 5.99 2.39
5.71 6.10 2.39
5.59 6.22 2.39
5.46 6.33 2.39
5.34 6.44 2.39
5.21 6.55 2.39
5.07 6.65 2.39
4.94 6.75 2.39
4.80 6.85 2.39
4.67 6.95 2.39
4.53 7.04 2.39
4.39 7.13 2.39
4.24 7.22 2.39
4.10 7.31 2.39
3.95 7.39 2.39
3.80 7.47 2.39
3.65 7.55 2.39
3.50 7.62 2.39
3.35 7.69 2.39
3.19 7.76 2.39
3.04 7.82 2.39
2.88 7.88 2.39
2.72 7.94 2.39
2.56 8.00 2.39
2.40 8.05 2.39
2.24 8.10 2.39
2.08 8.14 2.39
1.93 8.25 2.41
1.83 8.58 2.49
1.65 8.62 2.49
1.48 8.65 2.49
1.31 8.68 2.49
1.13 8.71 2.49
0.96 8.73 2.49
0.78 8.75 2.49
0.61 8.77 2.49
0.43 8.78 2.49
0.26 8.79 2.49
0.08 8.80 2.49
-0.10 8.80 2.49
-0.27 8.80 2.49
-0.45 8.79 2.49
-0.63 8.78 2.49
-0.80 8.77 2.49
-0.98 8.76 2.49
-1.16 8.74 2.49
-1.33 8.71 2.49
-1.51 8.69 2.49
-1.68 8.66 2.49
-1.85 8.62 2.49
-2.03 8.59 2.49
-2.20 8.55 2.49
-2.37 8.50 2.49
-2.54 8.46 2.49
-2.71 8.41 2.49
-2.88 8.35 2.49
-3.05 8.30 2.49
-3.22 8.24 2.49
-3.38 8.17 2.49
-3.55 8.10 2.49
-3.71 8.03 2.49
-3.87 7.96 2.49
-4.03 7.88 2.49
-4.19 7.80 2.49
-4.35 7.72 2.49
-4.50 7.63 2.49
-4.65 7.54 2.49
-4.81 7.45 2.49
-4.96 7.35 2.49
-5.10 7.25 2.49
-5.25 7.15 2.49
-5.39 7.05 2.49
-5.53 6.94 2.49
-5.67 6.83 2.49
-5.81 6.71 2.49
-5.95 6.60 2.49
-6.08 6.48 2.49
-6.17 6.32 2.48
-6.18 6.08 2.43
-6.20 5.85 2.39
-6.31 5.73 2.39
-6.43 5.60 2.39
-6.54 5.47 2.39
-6.56 5.27 2.36
-6.56 5.06 2.32
-6.57 4.86 2.29
-6.61 4.68 2.27
-6.70 4.55 2.27
-7.04 4.58 2.35
-7.13 4.44 2.35
-7.17 4.26 2.34
-7.17 4.07 2.31
-7.18 3.89 2.29
-7.21 3.72 2.27
-7.28 3.57 2.27
-7.75 3.61 2.39
-7.82 3.45 2.39
-7.89 3.30 2.39
-7.95 3.14 2.39
-8.01 2.98 2.39
-8.07 2.82 2.39
-8.13 2.66 2.39
-8.18 2.49 2.39
-8.23 2.33 2.39
-8.28 2.16 2.39
-8.32 2.00 2.39
-8.36 1.83 2.39
-8.39 1.66 2.39
-8.43 1.49 2.39
-8.46 1.32 2.39
-8.48 1.15 2.39
-8.50 0.98 2.39
-8.52 0.81 2.39
-8.54 0.64 2.39
-8.55 0.47 2.39
-8.56 0.30 2.39
-8.56 0.13 2.39
-8.56 -0.04 2.39
-8.56 -0.22 2.39
-8.55 -0.39 2.39
-8.54 -0.56 2.39
-8.53 -0.73 2.39
-8.52 -0.90 2.39
-8.50 -1.07 2.39
-8.47 -1.24 2.39
-8.45 -1.41 2.39
-8.42 -1.58 2.39
-8.38 -1.75 2.39
-8.35 -1.92 2.39
-8.30 -2.08 2.39
-8.26 -2.25 2.39
-8.21 -2.41 2.39
-8.16 -2.58 2.39
-8.11 -2.74 2.39
-8.05 -2.90 2.39
-7.99 -3.06 2.39
-7.93 -3.22 2.39
-7.46 -3.21 2.27
-7.39 -3.36 2.27
-7.36 -3.52 2.28
-7.37 -3.71 2.30
-7.37 -3.90 2.33
-7.36 -4.08 2.35
-7.27 -4.23 2.35
-7.19 -4.37 2.35
-6.85 -4.36 2.27
-6.80 -4.52 2.28
-6.80 -4.72 2.32
-6.81 -4.93 2.35
-6.82 -5.15 2.39
-6.71 -5.29 2.39
-6.61 -5.42 2.39
-6.49 -5.55 2.39
-6.48 -5.76 2.43
-6.48 -6.00 2.47
-6.41 -6.18 2.49
-6.28 -6.31 2.49
-6.16 -6.43 2.49
-6.02 -6.55 2.49
-5.89 -6.67 2.49
-5.75 -6.79 2.49
-5.62 -6.90 2.49
-5.48 -7.01 2.49
-5.33 -7.12 2.49
-5.19 -7.22 2.49
-5.04 -7.32 2.49
-4.89 -7.42 2.49
-4.74 -7.51 2.49
-4.59 -7.61 2.49
-4.43 -7.70 2.49
-4.28 -7.78 2.49
-4.12 -7.86 2.49
-3.96 -7.94 2.49
-3.80 -8.02 2.49
-3.64 -8.09 2.49
-3.47 -8.16 2.49
-3.31 -8.23 2.49
-3.14 -8.29 2.49
-2.97 -8.35 2.49
-2.81 -8.41 2.49
-2.64 -8.46 2.49
-2.46 -8.51 2.49
-2.29 -8.55 2.49
-2.12 -8.59 2.49
-1.95 -8.63 2.49
-1.77 -8.67 2.49
-1.60 -8.70 2.49
-1.42 -8.73 2.49
-1.25 -8.75 2.49
-1.07 -8.77 2.49
-0.89 -8.79 2.49
-0.72 -8.80 2.49
-0.54 -8.81 2.49
-0.36 -8.82 2.49
-0.19 -8.82 2.49
-0.01 -8.12 2.49
0.15 -8.12 2.49
0.32 -8.11 2.49
0.48 -8.10 2.49
0.64 -8.09 2.49
0.80 -8.07 2.49
0.97 -8.05 2.49
1.13 -8.03 2.49
1.29 -8.00 2.49
1.45 -7.97 2.49
1.54 -7.62 2.39
1.69 -7.58 2.39
1.84 -7.54 2.39
1.99 -7.50 2.39
2.14 -7.45 2.39
2.29 -7.41 2.39
2.44 -7.36 2.39
2.59 -7.31 2.39
2.73 -7.25 2.39
2.88 -7.19 2.39
3.02 -7.13 2.39
3.16 -7.07 2.39
3.30 -7.00 2.39
3.44 -6.93 2.39
3.58 -6.86 2.39
3.71 -6.79 2.39
3.85 -6.71 2.39
3.98 -6.63 2.39
4.11 -6.54 2.39
4.24 -6.46 2.39
4.37 -6.37 2.39
4.50 -6.28 2.39
4.62 -6.19 2.39
4.74 -6.09 2.39
4.86 -5.99 2.39
4.98 -5.89 2.39
5.10 -5.79 2.39
5.21 -5.69 2.39
5.32 -5.58 2.39
5.43 -5.47 2.39
5.54 -5.36 2.39
5.88 -5.46 2.49
5.96 -5.32 2.48
6.04 -5.18 2.47
6.12 -5.03 2.46
6.19 -4.89 2.45
6.26 -4.74 2.44
6.30 -4.58 2.42
6.35 -4.42 2.40
6.39 -4.26 2.38
6.42 -4.10 2.37
6.46 -3.94 2.35
6.49 -3.78 2.34
6.52 -3.63 2.32
6.55 -3.47 2.31
6.58 -3.32 2.29
6.61 -3.17 2.28
6.63 -3.02 2.26
6.65 -2.87 2.25
6.68 -2.72 2.24
6.74 -2.59 2.25
6.81 -2.46 2.25
6.88 -2.33 2.26
6.95 -2.20 2.27
7.02 -2.07 2.28
7.09 -1.93 2.29
7.15 -1.80 2.29
7.21 -1.66 2.30
7.27 -1.52 2.31
7.33 -1.38 2.32
7.39 -1.24 2.33
7.44 -1.09 2.34
7.49 -0.95 2.35
7.54 -0.80 2.36
7.58 -0.65 2.37
7.61 -0.50 2.37
7.63 -0.35 2.38
7.66 -0.19 2.39
7.68 -0.04 2.39
7.69 0.12 2.40
7.70 0.27 2.40
7.69 0.42 2.40
7.68 0.58 2.40
7.67 0.73 2.40
7.65 0.89 2.40
7.63 1.04 2.40
7.61 1.19 2.40
7.57 1.34 2.40
7.50 1.49 2.38
7.42 1.63 2.37
7.34 1.77 2.35
7.28 1.91 2.35
7.24 2.05 2.34
7.19 2.19 2.34
7.14 2.34 2.34
7.09 2.48 2.34
7.03 2.62 2.34
6.97 2.76 2.34
6.91 2.90 2.33
6.85 3.03 2.33
6.80 3.18 2.34
6.75 3.32 2.34
6.73 3.48 2.36
6.72 3.65 2.38
6.70 3.81 2.40
6.69 3.98 2.42
6.67 4.16 2.44
6.64 4.33 2.47
6.62 4.51 2.49
6.59 4.68 2.51
6.56 4.86 2.54
6.52 5.04 2.56
6.43 5.18 2.57
6.34 5.32 2.57
5.79 5.06 2.39
5.69 5.18 2.39
5.59 5.29 2.39
5.48 5.40 2.39
5.37 5.51 2.39
5.26 5.62 2.39
5.15 5.73 2.39
5.03 5.83 2.39
4.91 5.93 2.39
4.79 6.03 2.39
4.67 6.13 2.39
4.55 6.22 2.39
4.42 6.31 2.39
4.30 6.40 2.39
4.17 6.49 2.39
4.04 6.57 2.39
3.91 6.65 2.39
3.77 6.73 2.39
3.64 6.81 2.39
3.50 6.88 2.39
3.36 6.95 2.39
3.22 7.02 2.39
3.08 7.08 2.39
2.94 7.14 2.39
2.80 7.20 2.39
2.65 7.26 2.39
2.51 7.31 2.39
2.36 7.36 2.39
2.21 7.41 2.39
2.06 7.46 2.39
1.92 7.51 2.39
1.84 7.86 2.49
1.68 7.90 2.49
1.52 7.93 2.49
1.36 7.96 2.49
1.20 7.99 2.49
1.04 8.02 2.49
0.88 8.04 2.49
0.72 8.06 2.49
0.56 8.07 2.49
0.40 8.08 2.49
0.23 8.09 2.49
0.07 8.10 2.49
-0.09 8.10 2.49
-0.25 8.10 2.49
-0.42 8.09 2.49
-0.58 8.08 2.49
-0.74 8.07 2.49
-0.90 8.06 2.49
-1.06 8.04 2.49
-1.23 8.02 2.49
-1.39 8.00 2.49
-1.55 7.97 2.49
-1.71 7.94 2.49
-1.87 7.90 2.49
-2.03 7.87 2.49
-2.18 7.83 2.49
-2.34 7.78 2.49
-2.50 7.74 2.49
-2.65 7.69 2.49
-2.81 7.63 2.49
-2.96 7.58 2.49
-3.11 7.52 2.49
-3.26 7.46 2.49
-3.41 7.39 2.49
-3.56 7.32 2.49
-3.71 7.25 2.49
-3.85 7.18 2.49
-4.00 7.10 2.49
-4.14 7.02 2.49
-4.28 6.94 2.49
-4.42 6.85 2.49
-4.56 6.76 2.49
-4.70 6.67 2.49
-4.83 6.58 2.49
-4.96 6.48 2.49
-5.09 6.38 2.49
-5.22 6.28 2.49
-5.35 6.18 2.49
-5.47 6.07 2.49
-5.59 5.96 2.49
-5.71 5.85 2.49
-5.83 5.73 2.49
-5.94 5.61 2.49
-6.06 5.50 2.49
-6.17 5.37 2.49
-6.20 5.19 2.47
-6.21 4.99 2.43
-6.22 4.80 2.39
-6.31 4.66 2.39
-6.41 4.54 2.39
-6.49 4.41 2.39
-6.58 4.28 2.39
-6.59 4.10 2.36
-6.59 3.92 2.33
-6.59 3.74 2.31
-6.60 3.57 2.28
-6.63 3.42 2.27
-6.70 3.28 2.27
-7.01 3.26 2.35
-7.07 3.12 2.35
-7.13 2.98 2.35
-6.94 2.74 2.27
-7.00 2.60 2.27
-7.27 2.54 2.34
-7.48 2.44 2.39
-7.52 2.29 2.39
-7.57 2.14 2.39
-7.61 1.99 2.39
-7.65 1.84 2.39
-7.69 1.68 2.39
-7.72 1.53 2.39
-7.75 1.37 2.39
-7.78 1.22 2.39
-7.80 1.06 2.39
-7.82 0.90 2.39
-7.84 0.75 2.39
-7.85 0.59 2.39
-7.86 0.43 2.39
-7.87 0.28 2.39
-7.87 0.12 2.39
-7.87 -0.04 2.39
-7.87 -0.20 2.39
-7.87 -0.36 2.39
-7.86 -0.51 2.39
-7.85 -0.67 2.39
-7.83 -0.83 2.39
-7.81 -0.99 2.39
-7.79 -1.14 2.39
-7.77 -1.30 2.39
-7.74 -1.45 2.39
-7.71 -1.61 2.39
-7.67 -1.76 2.39
-7.26 -1.82 2.27
-7.21 -1.96 2.27
-7.33 -2.15 2.32
-7.33 -2.32 2.34
-7.33 -2.48 2.35
-7.28 -2.63 2.35
-7.23 -2.77 2.35
-7.17 -2.92 2.35
-6.86 -2.95 2.27
-6.80 -3.09 2.27
-6.77 -3.24 2.28
-6.77 -3.41 2.30
-6.78 -3.58 2.33
-6.78 -3.76 2.36
-6.79 -3.95 2.39
-6.72 -4.09 2.39
-6.63 -4.22 2.39
-6.55 -4.35 2.39
-6.46 -4.48 2.39
-6.45 -4.67 2.42
-6.45 -4.87 2.46
-6.44 -5.07 2.49
-6.34 -5.20 2.49
-6.23 -5.32 2.49
-6.12 -5.45 2.49
-6.01 -5.57 2.49
-5.90 -5.69 2.49
-5.78 -5.80 2.49
-5.66 -5.92 2.49
-5.54 -6.03 2.49
-5.42 -6.14 2.49
-5.29 -6.24 2.49
-5.17 -6.35 2.49
-5.04 -6.45 2.49
-4.91 -6.55 2.49
-4.77 -6.64 2.49
-4.64 -6.73 2.49
-4.50 -6.82 2.49
-4.36 -6.91 2.49
-4.22 -7.00 2.49
-4.08 -7.08 2.49
-3.94 -7.16 2.49
-3.79 -7.23 2.49
-3.64 -7.31 2.49
-3.50 -7.38 2.49
-3.35 -7.44 2.49
-3.20 -7.51 2.49
-3.04 -7.57 2.49
-2.89 -7.63 2.49
-2.74 -7.68 2.49
-2.58 -7.73 2.49
-2.43 -7.78 2.49
-2.27 -7.83 2.49
-2.11 -7.87 2.49
-1.95 -7.91 2.49
-1.79 -7.94 2.49
-1.63 -7.98 2.49
-1.47 -8.00 2.49
-1.31 -8.03 2.49
-1.15 -8.05 2.49
-0.99 -8.07 2.49
-0.82 -8.09 2.49
-0.66 -8.10 2.49
-0.50 -8.11 2.49
-0.33 -8.12 2.49
-0.17 -8.12 2.49
-0.01 -7.51 2.49
0.14 -7.51 2.49
0.29 -7.50 2.49
0.44 -7.49 2.49
0.59 -7.48 2.49
0.74 -7.47 2.49
0.89 -7.45 2.49
1.04 -7.43 2.49
1.19 -7.40 2.49
1.34 -7.38 2.49
1.49 -7.35 2.49
1.56 -7.01 2.39
1.70 -6.98 2.39
1.84 -6.94 2.39
1.98 -6.90 2.39
2.12 -6.86 2.39
2.26 -6.81 2.39
2.39 -6.76 2.39
2.53 -6.71 2.39
2.66 -6.66 2.39
2.79 -6.60 2.39
2.92 -6.54 2.39
3.05 -6.48 2.39
3.18 -6.42 2.39
3.31 -6.35 2.39
3.44 -6.28 2.39
3.56 -6.21 2.39
3.68 -6.13 2.39
3.81 -6.06 2.39
3.93 -5.98 2.39
4.05 -5.90 2.39
4.16 -5.81 2.39
4.28 -5.73 2.39
4.39 -5.64 2.39
4.50 -5.55 2.39
4.61 -5.46 2.39
4.72 -5.36 2.39
4.82 -5.27 2.39
4.93 -5.17 2.39
5.03 -5.07 2.39
5.13 -4.96 2.39
5.23 -4.86 2.39
5.32 -4.75 2.39
5.42 -4.64 2.39
5.51 -4.53 2.39
5.60 -4.42 2.39
5.94 -4.50 2.50
5.98 -4.34 2.48
6.02 -4.19 2.46
6.06 -4.04 2.45
6.10 -3.89 2.43
6.14 -3.74 2.41
6.17 -3.60 2.40
6.20 -3.45 2.38
6.23 -3.30 2.37
6.26 -3.16 2.36
6.31 -3.03 2.35
6.36 -2.89 2.35
6.40 -2.76 2.34
6.45 -2.63 2.34
6.49 -2.49 2.34
6.53 -2.36 2.33
6.57 -2.23 2.33
6.61 -2.09 2.33
6.65 -1.96 2.33
6.68 -1.82 2.33
6.72 -1.69 2.33
6.77 -1.56 2.33
6.82 -1.43 2.34
6.87 -1.29 2.35
6.92 -1.16 2.36
6.97 -1.02 2.37
7.02 -0.89 2.38
7.06 -0.75 2.39
7.09 -0.61 2.39
7.12 -0.47 2.40
7.14 -0.32 2.40
7.14 -0.18 2.40
7.15 -0.04 2.40
7.15 0.11 2.40
7.14 0.25 2.40
7.14 0.39 2.40
7.13 0.54 2.40
7.11 0.68 2.40
7.10 0.82 2.40
7.08 0.97 2.40
7.06 1.11 2.40
7.04 1.25 2.40
6.99 1.39 2.40
6.93 1.52 2.39
6.90 1.66 2.39
6.85 1.80 2.38
6.81 1.93 2.38
6.78 2.07 2.38
6.74 2.21 2.38
6.70 2.34 2.39
6.66 2.48 2.39
6.61 2.62 2.39
6.57 2.75 2.39
6.52 2.89 2.40
6.47 3.02 2.40
6.43 3.16 2.41
6.39 3.30 2.42
6.36 3.45 2.43
6.34 3.61 2.45
6.32 3.77 2.47
6.30 3.93 2.49
6.28 4.09 2.52
6.25 4.25 2.54
5.80 4.12 2.39
5.72 4.24 2.39
5.63 4.35 2.39
5.54 4.47 2.39
5.45 4.58 2.39
5.36 4.69 2.39
5.27 4.79 2.39
5.17 4.90 2.39
5.07 5.00 2.39
4.97 5.11 2.39
4.87 5.21 2.39
4.76 5.30 2.39
4.66 5.40 2.39
4.55 5.49 2.39
4.44 5.58 2.39
4.33 5.67 2.39
4.21 5.76 2.39
4.10 5.84 2.39
3.98 5.93 2.39
3.86 6.01 2.39
3.74 6.08 2.39
3.62 6.16 2.39
3.49 6.23 2.39
3.37 6.30 2.39
3.24 6.37 2.39
3.11 6.43 2.39
2.98 6.50 2.39
2.85 6.56 2.39
2.72 6.61 2.39
2.59 6.67 2.39
2.45 6.72 2.39
2.32 6.77 2.39
2.18 6.82 2.39
2.05 6.86 2.39
1.91 6.90 2.39
1.85 7.24 2.49
1.70 7.28 2.49
1.56 7.31 2.49
1.41 7.34 2.49
1.26 7.37 2.49
1.11 7.40 2.49
0.96 7.42 2.49
0.82 7.44 2.49
0.67 7.46 2.49
0.52 7.47 2.49
0.37 7.48 2.49
0.22 7.49 2.49
0.07 7.49 2.49
-0.08 7.49 2.49
-0.23 7.49 2.49
-0.39 7.49 2.49
-0.54 7.48 2.49
-0.69 7.47 2.49
-0.84 7.46 2.49
-0.99 7.44 2.49
-1.13 7.42 2.49
-1.28 7.40 2.49
-1.43 7.37 2.49
-1.58 7.34 2.49
-1.73 7.31 2.49
-1.87 7.28 2.49
-2.02 7.24 2.49
-2.17 7.20 2.49
-2.31 7.16 2.49
-2.45 7.11 2.49
-2.60 7.06 2.49
-2.74 7.01 2.49
-2.88 6.96 2.49
-3.02 6.90 2.49
-3.16 6.84 2.49
-3.30 6.77 2.49
-3.43 6.71 2.49
-3.57 6.64 2.49
-3.70 6.57 2.49
-3.83 6.49 2.49
-3.96 6.42 2.49
-4.09 6.34 2.49
-4.22 6.26 2.49
-4.34 6.17 2.49
-4.47 6.08 2.49
-4.59 5.99 2.49
-4.71 5.90 2.49
-4.83 5.81 2.49
-4.94 5.71 2.49
-5.06 5.61 2.49
-5.17 5.51 2.49
-5.28 5.41 2.49
-5.39 5.30 2.49
-5.50 5.19 2.49
-5.60 5.08 2.49
-5.70 4.97 2.49
-5.80 4.85 2.49
-5.90 4.74 2.49
-5.99 4.62 2.49
-6.09 4.50 2.49
-6.18 4.38 2.49
-6.23 4.23 2.48
-6.23 4.05 2.45
-6.24 3.88 2.42
-6.25 3.71 2.39
-6.32 3.59 2.39
-6.39 3.46 2.39
-6.46 3.33 2.39
-6.52 3.20 2.39
-6.59 3.07 2.39
-6.62 2.92 2.38
-6.62 2.77 2.36
-6.62 2.61 2.34
-6.82 2.53 2.39
-6.87 2.40 2.39
-6.91 2.26 2.39
-6.96 2.12 2.39
-7.00 1.98 2.39
-7.04 1.84 2.39
-7.07 1.70 2.39
-7.11 1.56 2.39
-7.14 1.41 2.39
-7.16 1.27 2.39
-7.19 1.13 2.39
-7.21 0.98 2.39
-7.23 0.84 2.39
-7.25 0.69 2.39
-7.26 0.55 2.39
-7.27 0.40 2.39
-7.27 0.25 2.39
-7.28 0.11 2.39
-7.28 -0.04 2.39
-7.28 -0.18 2.39
-7.27 -0.33 2.39
-7.26 -0.48 2.39
-7.25 -0.62 2.39
-7.24 -0.77 2.39
-7.22 -0.91 2.39
-7.20 -1.06 2.39
-7.18 -1.20 2.39
-7.15 -1.34 2.39
-7.13 -1.49 2.39
-7.09 -1.63 2.39
-7.06 -1.77 2.39
-6.74 -1.83 2.29
-6.74 -1.98 2.31
-6.74 -2.13 2.32
-6.74 -2.28 2.34
-6.75 -2.43 2.36
-6.75 -2.59 2.38
-6.74 -2.74 2.39
-6.68 -2.87 2.39
-6.62 -3.01 2.39
-6.56 -3.14 2.39
-6.50 -3.27 2.39
-6.43 -3.40 2.39
-6.42 -3.56 2.42
-6.42 -3.73 2.44
-6.43 -3.91 2.47
-6.40 -4.07 2.49
-6.32 -4.20 2.49
-6.23 -4.32 2.49
-6.14 -4.45 2.49
-6.05 -4.57 2.49
-5.96 -4.69 2.49
-5.86 -4.81 2.49
-5.76 -4.92 2.49
-5.66 -5.04 2.49
-5.56 -5.15 2.49
-5.45 -5.26 2.49
-5.35 -5.36 2.49
-5.24 -5.47 2.49
-5.12 -5.57 2.49
-5.01 -5.67 2.49
-4.90 -5.77 2.49
-4.78 -5.87 2.49
-4.66 -5.96 2.49
-4.54 -6.05 2.49
-4.41 -6.14 2.49
-4.29 -6.23 2.49
-4.16 -6.31 2.49
-4.03 -6.39 2.49
-3.90 -6.47 2.49
-3.77 -6.55 2.49
-3.64 -6.62 2.49
-3.51 -6.69 2.49
-3.37 -6.76 2.49
-3.23 -6.82 2.49
-3.10 -6.88 2.49
-2.96 -6.94 2.49
-2.82 -7.00 2.49
-2.67 -7.05 2.49
-2.53 -7.10 2.49
-2.39 -7.15 2.49
-2.24 -7.20 2.49
-2.10 -7.24 2.49
-1.95 -7.28 2.49
-1.81 -7.31 2.49
-1.66 -7.35 2.49
-1.51 -7.38 2.49
-1.36 -7.40 2.49
-1.21 -7.43 2.49
-1.06 -7.45 2.49
-0.91 -7.47 2.49
-0.76 -7.48 2.49
-0.61 -7.50 2.49
-0.46 -7.50 2.49
-0.31 -7.51 2.49
-0.16 -7.51 2.49
-0.01 -6.98 2.49
0.13 -6.98 2.49
0.27 -6.97 2.49
0.41 -6.97 2.49
0.55 -6.95 2.49
0.69 -6.94 2.49
0.83 -6.92 2.49
0.97 -6.90 2.49
1.11 -6.88 2.49
1.24 -6.86 2.49
1.38 -6.83 2.49
1.52 -6.80 2.49
1.58 -6.48 2.39
1.71 -6.45 2.39
1.84 -6.41 2.39
1.97 -6.37 2.39
2.10 -6.33 2.39
2.22 -6.29 2.39
2.35 -6.24 2.39
2.47 -6.19 2.39
2.60 -6.14 2.39
2.72 -6.08 2.39
2.84 -6.03 2.39
2.96 -5.97 2.39
3.08 -5.90 2.39
3.20 -5.84 2.39
3.31 -5.77 2.39
3.43 -5.70 2.39
3.54 -5.63 2.39
3.65 -5.56 2.39
3.76 -5.48 2.39
3.87 -5.41 2.39
3.98 -5.33 2.39
4.08 -5.24 2.39
4.19 -5.16 2.39
4.29 -5.07 2.39
4.39 -4.99 2.39
4.49 -4.90 2.39
4.58 -4.80 2.39
4.68 -4.71 2.39
4.77 -4.61 2.39
4.86 -4.52 2.39
4.95 -4.42 2.39
5.04 -4.32 2.39
5.12 -4.21 2.39
5.20 -4.11 2.39
5.29 -4.00 2.39
5.36 -3.90 2.39
5.44 -3.79 2.39
5.51 -3.68 2.39
5.59 -3.56 2.39
5.84 -3.57 2.47
5.90 -3.44 2.46
5.95 -3.31 2.46
6.00 -3.18 2.45
6.05 -3.05 2.44
6.09 -2.92 2.44
6.14 -2.80 2.44
6.18 -2.67 2.43
6.23 -2.54 2.43
6.27 -2.41 2.43
6.31 -2.28 2.42
6.35 -2.15 2.42
6.38 -2.02 2.42
6.42 -1.89 2.42
6.45 -1.76 2.42
6.49 -1.63 2.42
6.52 -1.50 2.42
6.55 -1.37 2.42
6.58 -1.24 2.42
6.61 -1.11 2.42
6.64 -0.97 2.42
6.66 -0.84 2.43
6.64 -0.70 2.42
6.65 -0.57 2.41
6.66 -0.44 2.41
6.67 -0.30 2.41
6.67 -0.17 2.41
6.68 -0.03 2.41
6.68 0.10 2.41
6.67 0.23 2.41
6.67 0.37 2.42
6.66 0.50 2.42
6.65 0.64 2.42
6.64 0.77 2.42
6.63 0.90 2.42
6.61 1.04 2.42
6.61 1.17 2.43
6.61 1.31 2.44
6.59 1.45 2.44
6.56 1.58 2.44
6.53 1.71 2.44
6.50 1.84 2.44
6.46 1.97 2.44
6.42 2.10 2.44
6.39 2.23 2.45
6.35 2.36 2.45
6.30 2.49 2.45
6.26 2.62 2.45
6.21 2.75 2.46
6.18 2.89 2.46
6.14 3.02 2.47
6.09 3.15 2.48
5.81 3.16 2.39
5.75 3.27 2.39
5.68 3.39 2.39
5.62 3.50 2.39
5.54 3.61 2.39
5.47 3.73 2.39
5.40 3.84 2.39
5.32 3.94 2.39
5.24 4.05 2.39
5.16 4.15 2.39
5.07 4.26 2.39
4.99 4.36 2.39
4.90 4.46 2.39
4.81 4.56 2.39
4.72 4.65 2.39
4.62 4.75 2.39
4.53 4.84 2.39
4.43 4.93 2.39
4.33 5.02 2.39
4.23 5.11 2.39
4.13 5.19 2.39
4.02 5.27 2.39
3.92 5.36 2.39
3.81 5.43 2.39
3.70 5.51 2.39
3.59 5.58 2.39
3.48 5.66 2.39
3.36 5.73 2.39
3.25 5.79 2.39
3.13 5.86 2.39
3.01 5.92 2.39
2.89 5.98 2.39
2.77 6.04 2.39
2.65 6.10 2.39
2.53 6.15 2.39
2.41 6.20 2.39
2.28 6.25 2.39
2.16 6.29 2.39
2.03 6.34 2.39
1.90 6.38 2.39
1.85 6.69 2.49
1.72 6.73 2.49
1.58 6.77 2.49
1.45 6.80 2.49
1.31 6.83 2.49
1.17 6.85 2.49
1.03 6.88 2.49
0.90 6.90 2.49
0.76 6.92 2.49
0.62 6.93 2.49
0.48 6.94 2.49
0.34 6.95 2.49
0.20 6.96 2.49
0.06 6.96 2.49
-0.08 6.97 2.49
-0.22 6.96 2.49
-0.36 6.96 2.49
-0.50 6.95 2.49
-0.64 6.94 2.49
-0.78 6.93 2.49
-0.92 6.92 2.49
-1.06 6.90 2.49
-1.19 6.88 2.49
-1.33 6.85 2.49
-1.47 6.83 2.49
-1.61 6.80 2.49
-1.74 6.76 2.49
-1.88 6.73 2.49
-2.01 6.69 2.49
-2.15 6.65 2.49
-2.28 6.61 2.49
-2.41 6.56 2.49
-2.55 6.51 2.49
-2.68 6.46 2.49
-2.81 6.41 2.49
-2.94 6.35 2.49
-3.06 6.30 2.49
-3.19 6.23 2.49
-3.31 6.17 2.49
-3.44 6.10 2.49
-3.56 6.03 2.49
-3.68 5.96 2.49
-3.80 5.89 2.49
-3.92 5.81 2.49
-4.04 5.73 2.49
-4.15 5.65 2.49
-4.27 5.57 2.49
-4.38 5.48 2.49
-4.49 5.40 2.49
-4.59 5.31 2.49
-4.70 5.21 2.49
-4.81 5.12 2.49
-4.91 5.02 2.49
-5.01 4.92 2.49
-5.11 4.82 2.49
-5.20 4.72 2.49
-5.30 4.62 2.49
-5.39 4.51 2.49
-5.48 4.40 2.49
-5.57 4.29 2.49
-5.66 4.18 2.49
-5.74 4.07 2.49
-5.82 3.95 2.49
-5.90 3.83 2.49
-5.98 3.72 2.49
-6.05 3.60 2.49
-6.12 3.47 2.49
-6.19 3.35 2.49
-6.25 3.22 2.49
-6.25 3.07 2.47
-6.26 2.92 2.45
-6.27 2.77 2.43
-6.27 2.62 2.41
-6.28 2.48 2.39
-6.33 2.35 2.39
-6.38 2.23 2.39
-6.42 2.10 2.39
-6.47 1.97 2.39
-6.50 1.84 2.39
-6.54 1.71 2.39
-6.57 1.58 2.39
-6.60 1.44 2.39
-6.63 1.31 2.39
-6.66 1.18 2.39
-6.68 1.05 2.39
-6.70 0.91 2.39
-6.72 0.78 2.39
-6.73 0.64 2.39
-6.74 0.51 2.39
-6.75 0.37 2.39
-6.76 0.24 2.39
-6.76 0.10 2.39
-6.76 -0.03 2.39
-6.76 -0.17 2.39
-6.76 -0.31 2.39
-6.75 -0.44 2.39
-6.74 -0.58 2.39
-6.72 -0.71 2.39
-6.71 -0.85 2.39
-6.69 -0.98 2.39
-6.67 -1.11 2.39
-6.65 -1.25 2.39
-6.62 -1.38 2.39
-6.59 -1.51 2.39
-6.56 -1.65 2.39
-6.52 -1.78 2.39
-6.49 -1.91 2.39
-6.45 -2.04 2.39
-6.40 -2.16 2.39
-6.40 -2.31 2.40
-6.40 -2.45 2.42
-6.39 -2.60 2.44
-6.40 -2.75 2.46
-6.40 -2.91 2.49
-6.36 -3.04 2.49
-6.30 -3.17 2.49
-6.23 -3.29 2.49
-6.16 -3.42 2.49
-6.09 -3.54 2.49
-6.02 -3.66 2.49
-5.95 -3.78 2.49
-5.87 -3.90 2.49
-5.79 -4.02 2.49
-5.71 -4.13 2.49
-5.62 -4.24 2.49
-5.53 -4.36 2.49
-5.44 -4.46 2.49
-5.35 -4.57 2.49
-5.26 -4.68 2.49
-5.16 -4.78 2.49
-5.07 -4.88 2.49
-4.97 -4.98 2.49
-4.87 -5.08 2.49
-4.76 -5.18 2.49
-4.66 -5.27 2.49
-4.55 -5.36 2.49
-4.44 -5.45 2.49
-4.33 -5.54 2.49
-4.22 -5.62 2.49
-4.10 -5.71 2.49
-3.99 -5.79 2.49
-3.87 -5.86 2.49
-3.75 -5.94 2.49
-3.63 -6.01 2.49
-3.51 -6.08 2.49
-3.38 -6.15 2.49
-3.26 -6.22 2.49
-3.13 -6.28 2.49
-3.01 -6.34 2.49
-2.88 -6.40 2.49
-2.75 -6.45 2.49
-2.62 -6.50 2.49
-2.49 -6.55 2.49
-2.35 -6.60 2.49
-2.22 -6.65 2.49
-2.09 -6.69 2.49
-1.95 -6.73 2.49
-1.81 -6.76 2.49
-1.68 -6.80 2.49
-1.54 -6.83 2.49
-1.40 -6.86 2.49
-1.27 -6.88 2.49
-1.13 -6.90 2.49
-0.99 -6.92 2.49
-0.85 -6.94 2.49
-0.71 -6.95 2.49
-0.57 -6.97 2.49
-0.43 -6.97 2.49
-0.29 -6.98 2.49
-0.15 -6.98 2.49
-0.01 -6.52 2.49
0.12 -6.51 2.49
0.25 -6.51 2.49
0.38 -6.50 2.49
0.51 -6.49 2.49
0.64 -6.48 2.49
0.77 -6.46 2.49
0.90 -6.44 2.49
1.03 -6.42 2.49
1.16 -6.40 2.49
1.29 -6.37 2.49
1.42 -6.34 2.49
1.54 -6.31 2.49
1.60 -6.02 2.39
1.72 -5.99 2.39
1.84 -5.95 2.39
1.96 -5.91 2.39
2.07 -5.87 2.39
2.19 -5.82 2.39
2.31 -5.78 2.39
2.42 -5.73 2.39
2.54 -5.68 2.39
2.65 -5.62 2.39
2.76 -5.57 2.39
2.87 -5.51 2.39
2.98 -5.45 2.39
3.09 -5.39 2.39
3.20 -5.32 2.39
3.30 -5.26 2.39
3.41 -5.19 2.39
3.51 -5.12 2.39
3.61 -5.05 2.39
3.71 -4.97 2.39
3.81 -4.90 2.39
3.91 -4.82 2.39
4.00 -4.74 2.39
4.10 -4.66 2.39
4.19 -4.57 2.39
4.28 -4.49 2.39
4.37 -4.40 2.39
4.45 -4.31 2.39
4.54 -4.22 2.39
4.62 -4.12 2.39
4.70 -4.03 2.39
4.78 -3.93 2.39
4.86 -3.84 2.39
4.93 -3.74 2.39
5.01 -3.64 2.39
5.08 -3.54 2.39
5.15 -3.43 2.39
5.22 -3.33 2.39
5.28 -3.22 2.39
5.34 -3.11 2.39
5.40 -3.01 2.39
5.46 -2.90 2.39
5.52 -2.79 2.39
5.57 -2.67 2.39
5.63 -2.56 2.39
5.68 -2.45 2.39
6.02 -2.45 2.51
6.06 -2.33 2.51
6.10 -2.20 2.51
6.13 -2.08 2.51
6.17 -1.95 2.50
6.20 -1.83 2.50
6.24 -1.70 2.50
6.27 -1.58 2.50
6.30 -1.45 2.50
6.33 -1.32 2.50
6.36 -1.20 2.51
6.39 -1.07 2.51
6.35 -0.93 2.49
6.31 -0.80 2.46
6.28 -0.67 2.45
6.29 -0.54 2.44
6.30 -0.41 2.44
6.30 -0.29 2.44
6.31 -0.16 2.44
6.31 -0.03 2.44
6.31 0.09 2.44
6.31 0.22 2.44
6.30 0.35 2.45
6.30 0.47 2.45
6.29 0.60 2.45
6.28 0.73 2.45
6.27 0.86 2.45
6.28 0.99 2.46
6.29 1.12 2.48
6.30 1.25 2.49
6.29 1.38 2.49
6.26 1.51 2.50
6.23 1.63 2.50
6.20 1.76 2.50
6.17 1.88 2.50
6.13 2.01 2.50
6.10 2.13 2.50
5.79 2.16 2.39
5.74 2.27 2.39
5.70 2.39 2.39
5.65 2.50 2.39
5.60 2.61 2.39
5.54 2.73 2.39
5.49 2.84 2.39
5.43 2.95 2.39
5.37 3.06 2.39
5.31 3.16 2.39
5.24 3.27 2.39
5.18 3.37 2.39
5.11 3.48 2.39
5.04 3.58 2.39
4.97 3.68 2.39
4.89 3.78 2.39
4.81 3.88 2.39
4.74 3.98 2.39
4.66 4.07 2.39
4.57 4.16 2.39
4.49 4.26 2.39
4.40 4.35 2.39
4.32 4.43 2.39
4.23 4.52 2.39
4.14 4.60 2.39
4.04 4.69 2.39
3.95 4.77 2.39
3.85 4.85 2.39
3.75 4.92 2.39
3.66 5.00 2.39
3.55 5.07 2.39
3.45 5.14 2.39
3.35 5.21 2.39
3.24 5.28 2.39
3.14 5.35 2.39
3.03 5.41 2.39
2.92 5.47 2.39
2.81 5.53 2.39
2.70 5.58 2.39
2.59 5.64 2.39
2.48 5.69 2.39
2.36 5.74 2.39
2.25 5.79 2.39
2.13 5.83 2.39
2.01 5.88 2.39
1.89 5.92 2.39
1.85 6.21 2.49
1.73 6.25 2.49
1.60 6.28 2.49
1.48 6.31 2.49
1.35 6.34 2.49
1.22 6.37 2.49
1.09 6.40 2.49
0.96 6.42 2.49
0.84 6.44 2.49
0.71 6.45 2.49
0.58 6.47 2.49
0.45 6.48 2.49
0.32 6.49 2.49
0.19 6.50 2.49
0.06 6.50 2.49
-0.07 6.50 2.49
-0.20 6.50 2.49
-0.34 6.50 2.49
-0.47 6.49 2.49
-0.60 6.48 2.49
-0.73 6.47 2.49
-0.86 6.45 2.49
-0.99 6.44 2.49
-1.11 6.42 2.49
-1.24 6.39 2.49
-1.37 6.37 2.49
-1.50 6.34 2.49
-1.63 6.31 2.49
-1.75 6.28 2.49
-1.88 6.24 2.49
-2.01 6.21 2.49
-2.13 6.17 2.49
-2.25 6.12 2.49
-2.38 6.08 2.49
-2.50 6.03 2.49
-2.62 5.98 2.49
-2.74 5.93 2.49
-2.86 5.87 2.49
-2.98 5.82 2.49
-3.09 5.76 2.49
-3.21 5.69 2.49
-3.32 5.63 2.49
-3.44 5.56 2.49
-3.55 5.49 2.49
-3.66 5.42 2.49
-3.77 5.35 2.49
-3.87 5.27 2.49
-3.98 5.20 2.49
-4.08 5.12 2.49
-4.19 5.03 2.49
-4.29 4.95 2.49
-4.39 4.86 2.49
-4.48 4.78 2.49
-4.58 4.69 2.49
-4.67 4.59 2.49
-4.76 4.50 2.49
-4.86 4.40 2.49
-4.94 4.31 2.49
-5.03 4.21 2.49
-5.11 4.11 2.49
-5.20 4.00 2.49
-5.28 3.90 2.49
-5.35 3.79 2.49
-5.43 3.69 2.49
-5.50 3.58 2.49
-5.57 3.47 2.49
-5.64 3.35 2.49
-5.71 3.24 2.49
-5.77 3.13 2.49
-5.84 3.01 2.49
-5.90 2.89 2.49
-5.95 2.77 2.49
-6.01 2.65 2.49
-6.06 2.53 2.49
-6.11 2.41 2.49
-6.16 2.29 2.49
-6.21 2.16 2.49
-6.25 2.04 2.49
-6.28 1.91 2.49
-6.29 1.78 2.48
-6.29 1.64 2.47
-6.29 1.51 2.46
-6.30 1.38 2.44
-6.30 1.25 2.44
-6.31 1.12 2.43
-6.31 0.99 2.42
-6.31 0.86 2.42
-6.32 0.73 2.41
-6.32 0.60 2.41
-6.33 0.48 2.41
-6.33 0.35 2.40
-6.33 0.22 2.40
-6.34 0.09 2.40
-6.34 -0.03 2.40
-6.34 -0.16 2.41
-6.35 -0.29 2.41
-6.35 -0.42 2.41
-6.35 -0.54 2.42
-6.35 -0.67 2.42
-6.35 -0.80 2.43
-6.36 -0.93 2.43
-6.36 -1.06 2.44
-6.36 -1.19 2.45
-6.36 -1.33 2.46
-6.37 -1.46 2.48
-6.37 -1.60 2.49
-6.35 -1.73 2.49
-6.31 -1.85 2.49
-6.27 -1.98 2.49
-6.23 -2.11 2.49
-6.19 -2.23 2.49
-6.14 -2.35 2.49
-6.09 -2.48 2.49
-6.04 -2.60 2.49
-5.99 -2.72 2.49
-5.93 -2.84 2.49
-5.87 -2.96 2.49
-5.81 -3.07 2.49
-5.75 -3.19 2.49
-5.68 -3.30 2.49
-5.62 -3.42 2.49
-5.54 -3.53 2.49
-5.47 -3.64 2.49
-5.40 -3.75 2.49
-5.32 -3.85 2.49
-5.24 -3.96 2.49
-5.16 -4.06 2.49
-5.08 -4.16 2.49
-4.99 -4.26 2.49
-4.91 -4.36 2.49
-4.82 -4.46 2.49
-4.73 -4.56 2.49
-4.63 -4.65 2.49
-4.54 -4.74 2.49
-4.44 -4.83 2.49
-4.34 -4.92 2.49
-4.24 -5.00 2.49
-4.14 -5.09 2.49
-4.04 -5.17 2.49
-3.93 -5.25 2.49
-3.83 -5.32 2.49
-3.72 -5.40 2.49
-3.61 -5.47 2.49
-3.50 -5.54 2.49
-3.39 -5.61 2.49
-3.27 -5.67 2.49
-3.16 -5.74 2.49
-3.04 -5.80 2.49
-2.92 -5.86 2.49
-2.80 -5.91 2.49
-2.68 -5.97 2.49
-2.56 -6.02 2.49
-2.44 -6.07 2.49
-2.32 -6.11 2.49
-2.20 -6.16 2.49
-2.07 -6.20 2.49
-1.95 -6.24 2.49
-1.82 -6.28 2.49
-1.69 -6.31 2.49
-1.57 -6.34 2.49
-1.44 -6.37 2.49
-1.31 -6.40 2.49
-1.18 -6.42 2.49
-1.05 -6.44 2.49
-0.92 -6.46 2.49
-0.79 -6.48 2.49
-0.66 -6.49 2.49
-0.53 -6.50 2.49
-0.40 -6.51 2.49
-0.27 -6.51 2.49
-0.14 -6.52 2.49
-0.01 -6.10 2.49
0.11 -6.10 2.49
0.24 -6.09 2.49
0.36 -6.09 2.49
0.48 -6.08 2.49
0.60 -6.06 2.49
0.72 -6.05 2.49
0.84 -6.03 2.49
0.97 -6.01 2.49
1.09 -5.99 2.49
1.21 -5.97 2.49
1.32 -5.94 2.49
1.44 -5.91 2.49
1.56 -5.88 2.49
1.61 -5.60 2.39
1.72 -5.57 2.39
1.83 -5.53 2.39
1.94 -5.49 2.39
2.05 -5.45 2.39
2.16 -5.41 2.39
2.27 -5.36 2.39
2.38 -5.32 2.39
2.48 -5.27 2.39
2.59 -5.22 2.39
2.69 -5.16 2.39
2.79 -5.11 2.39
2.89 -5.05 2.39
2.99 -4.99 2.39
3.09 -4.92 2.39
3.19 -4.86 2.39
3.29 -4.79 2.39
3.38 -4.73 2.39
3.48 -4.66 2.39
3.57 -4.59 2.39
3.66 -4.51 2.39
3.75 -4.44 2.39
3.84 -4.36 2.39
3.92 -4.28 2.39
4.01 -4.20 2.39
4.09 -4.12 2.39
4.17 -4.04 2.39
4.25 -3.95 2.39
4.33 -3.86 2.39
4.40 -3.78 2.39
4.48 -3.69 2.39
4.55 -3.59 2.39
4.62 -3.50 2.39
4.69 -3.41 2.39
4.76 -3.31 2.39
4.82 -3.22 2.39
4.89 -3.12 2.39
4.95 -3.02 2.39
5.01 -2.92 2.39
5.06 -2.82 2.39
5.12 -2.71 2.39
5.17 -2.61 2.39
5.22 -2.51 2.39
5.27 -2.40 2.39
5.32 -2.29 2.39
5.36 -2.19 2.39
5.40 -2.08 2.39
5.44 -1.97 2.39
5.48 -1.86 2.39
5.52 -1.75 2.39
5.55 -1.64 2.39
5.58 -1.52 2.39
5.61 -1.41 2.39
5.64 -1.30 2.39
5.66 -1.18 2.39
5.68 -1.07 2.39
5.70 -0.96 2.39
6.00 -0.88 2.51
5.96 -0.75 2.48
5.95 -0.63 2.47
5.96 -0.51 2.47
5.96 -0.39 2.47
5.97 -0.27 2.47
5.97 -0.15 2.47
5.98 -0.03 2.47
5.98 0.09 2.47
5.97 0.21 2.47
5.97 0.33 2.47
5.96 0.45 2.47
5.96 0.57 2.48
5.74 0.67 2.39
5.73 0.78 2.39
5.71 0.90 2.39
5.69 1.01 2.39
5.67 1.13 2.39
5.65 1.24 2.39
5.62 1.35 2.39
5.59 1.47 2.39
5.56 1.58 2.39
5.53 1.69 2.39
5.50 1.80 2.39
5.46 1.91 2.39
5.42 2.02 2.39
5.38 2.13 2.39
5.33 2.24 2.39
5.29 2.34 2.39
5.24 2.45 2.39
5.19 2.55 2.39
5.14 2.66 2.39
5.09 2.76 2.39
5.03 2.86 2.39
4.97 2.96 2.39
4.91 3.06 2.39
4.85 3.16 2.39
4.78 3.26 2.39
4.72 3.35 2.39
4.65 3.45 2.39
4.58 3.54 2.39
4.51 3.63 2.39
4.44 3.72 2.39
4.36 3.81 2.39
4.28 3.90 2.39
4.20 3.99 2.39
4.12 4.07 2.39
4.04 4.15 2.39
3.96 4.23 2.39
3.87 4.31 2.39
3.79 4.39 2.39
3.70 4.47 2.39
3.61 4.54 2.39
3.52 4.61 2.39
3.42 4.68 2.39
3.33 4.75 2.39
3.23 4.82 2.39
3.14 4.88 2.39
3.04 4.95 2.39
2.94 5.01 2.39
2.84 5.07 2.39
2.74 5.12 2.39
2.63 5.18 2.39
2.53 5.23 2.39
2.42 5.28 2.39
2.32 5.33 2.39
2.21 5.38 2.39
2.10 5.42 2.39
1.99 5.46 2.39
1.88 5.50 2.39
1.85 5.78 2.49
1.73 5.82 2.49
1.62 5.85 2.49
1.50 5.88 2.49
1.38 5.91 2.49
1.26 5.94 2.49
1.14 5.97 2.49
1.02 5.99 2.49
0.90 6.01 2.49
0.78 6.03 2.49
0.66 6.04 2.49
0.54 6.06 2.49
0.42 6.07 2.49
0.30 6.08 2.49
0.17 6.08 2.49
0.05 6.09 2.49
-0.07 6.09 2.49
-0.19 6.09 2.49
-0.31 6.08 2.49
-0.44 6.08 2.49
-0.56 6.07 2.49
-0.68 6.06 2.49
-0.80 6.04 2.49
-0.92 6.03 2.49
-1.04 6.01 2.49
-1.16 5.99 2.49
-1.28 5.96 2.49
-1.40 5.94 2.49
-1.52 5.91 2.49
-1.64 5.88 2.49
-1.76 5.85 2.49
-1.88 5.81 2.49
-1.99 5.77 2.49
-2.11 5.73 2.49
-2.23 5.69 2.49
-2.34 5.65 2.49
-2.45 5.60 2.49
-2.57 5.55 2.49
-2.68 5.50 2.49
-2.79 5.44 2.49
-2.90 5.39 2.49
-3.00 5.33 2.49
-3.11 5.27 2.49
-3.22 5.21 2.49
-3.32 5.14 2.49
-3.42 5.08 2.49
-3.53 5.01 2.49
-3.63 4.94 2.49
-3.73 4.86 2.49
-3.82 4.79 2.49
-3.92 4.71 2.49
-4.01 4.63 2.49
-4.11 4.55 2.49
-4.20 4.47 2.49
-4.29 4.39 2.49
-4.37 4.30 2.49
-4.46 4.21 2.49
-4.54 4.12 2.49
-4.63 4.03 2.49
-4.71 3.94 2.49
-4.79 3.84 2.49
-4.86 3.75 2.49
-4.94 3.65 2.49
-5.01 3.55 2.49
-5.08 3.45 2.49
-5.15 3.35 2.49
-5.22 3.24 2.49
-5.28 3.14 2.49
-5.34 3.03 2.49
-5.40 2.92 2.49
-5.46 2.82 2.49
-5.52 2.71 2.49
-5.57 2.60 2.49
-5.62 2.48 2.49
-5.67 2.37 2.49
-5.72 2.26 2.49
-5.77 2.14 2.49
-5.81 2.03 2.49
-5.85 1.91 2.49
-5.88 1.79 2.49
-5.92 1.67 2.49
-5.95 1.55 2.49
-5.98 1.43 2.49
-6.01 1.31 2.49
-6.04 1.19 2.49
-6.06 1.07 2.49
-6.08 0.95 2.49
-6.10 0.83 2.49
-6.11 0.71 2.49
-6.13 0.58 2.49
-6.14 0.46 2.49
-6.15 0.34 2.49
-6.15 0.21 2.49
-6.16 0.09 2.49
