ply
format ascii 1.0
element vertex 2901
property float32 x
property float32 y
property float32 z
end_header
8.94 -21.10 2.19
9.24 -20.63 2.16
9.60 -20.34 2.15
10.11 -20.36 2.18
10.49 -20.10 2.18
7.70 -14.05 1.54
7.90 -13.75 1.53
10.42 -17.34 1.95
10.40 -16.54 1.89
10.39 -15.80 1.83
10.37 -15.10 1.77
10.35 -14.45 1.72
10.33 -13.83 1.68
10.32 -13.25 1.63
10.31 -12.69 1.59
10.29 -12.17 1.55
10.28 -11.67 1.52
10.27 -11.20 1.48
10.26 -10.74 1.45
10.25 -10.31 1.42
10.23 -9.89 1.40
10.22 -9.49 1.37
10.21 -9.11 1.34
10.21 -8.74 1.32
10.20 -8.38 1.30
7.46 -5.89 0.94
7.52 -5.70 0.93
7.67 -5.57 0.94
7.97 -5.54 0.96
10.15 -6.77 1.21
10.15 -6.47 1.19
10.14 -6.18 1.18
10.13 -5.90 1.17
10.13 -5.63 1.15
10.12 -5.36 1.14
10.11 -5.10 1.13
10.11 -4.85 1.12
10.10 -4.60 1.11
10.09 -4.35 1.10
10.09 -4.11 1.09
10.08 -3.87 1.08
10.08 -3.64 1.07
10.07 -3.41 1.07
10.06 -3.19 1.06
10.06 -2.96 1.05
10.05 -2.74 1.05
10.05 -2.53 1.04
10.04 -2.31 1.04
10.04 -2.10 1.03
10.03 -1.89 1.03
10.03 -1.68 1.03
10.02 -1.47 1.02
10.02 -1.27 1.02
10.02 -1.06 1.02
10.02 -0.86 1.02
10.01 -0.66 1.02
10.01 -0.46 1.02
10.01 -0.25 1.02
10.01 -0.05 1.02
10.01 0.15 1.02
14.03 0.49 1.43
14.02 0.77 1.43
14.01 1.05 1.43
14.00 1.34 1.43
14.00 1.62 1.44
13.99 1.90 1.44
13.98 2.19 1.44
13.97 2.48 1.45
13.97 2.77 1.45
13.96 3.06 1.46
13.95 3.35 1.47
13.94 3.65 1.47
13.94 3.95 1.48
12.49 3.81 1.33
13.92 4.55 1.50
13.93 4.87 1.51
13.92 5.18 1.52
13.91 5.50 1.53
13.89 5.81 1.54
13.88 6.14 1.55
13.87 6.47 1.57
12.63 6.21 1.44
15.03 7.76 1.73
15.02 8.14 1.75
15.01 8.53 1.77
15.00 8.93 1.79
14.99 9.34 1.81
14.98 9.75 1.83
14.97 10.18 1.85
14.96 10.62 1.88
14.95 11.07 1.90
14.93 11.53 1.93
14.92 12.01 1.96
14.91 12.50 1.99
14.90 13.01 2.02
14.88 13.53 2.05
14.87 14.07 2.09
14.85 14.64 2.13
14.84 15.22 2.17
14.82 15.83 2.21
14.77 16.42 2.25
14.45 16.72 2.25
14.10 17.00 2.25
13.75 17.27 2.25
13.30 17.42 2.23
12.96 17.69 2.23
12.61 17.96 2.23
12.25 18.22 2.23
11.89 18.47 2.23
11.64 18.92 2.25
11.29 19.20 2.26
10.92 19.45 2.26
10.52 19.66 2.26
10.14 19.90 2.26
9.77 20.15 2.26
9.34 20.31 2.26
8.92 20.46 2.25
8.50 20.61 2.25
8.14 20.93 2.26
7.82 21.36 2.29
7.48 21.79 2.32
5.42 16.89 1.78
5.20 17.40 1.82
4.67 16.85 1.75
5.08 19.87 2.06
5.41 23.07 2.37
4.99 23.38 2.39
4.53 23.50 2.39
4.06 23.61 2.39
3.59 23.71 2.39
3.11 23.80 2.39
2.64 23.89 2.39
1.56 17.28 1.72
1.68 24.02 2.39
1.21 24.27 2.41
0.74 25.17 2.49
0.24 25.21 2.49
-0.27 25.23 2.49
-0.77 25.25 2.49
-1.28 25.26 2.49
-1.79 25.26 2.49
-2.30 25.25 2.49
-2.81 25.23 2.49
-3.32 25.20 2.49
-3.83 25.15 2.49
-4.34 25.10 2.49
-4.85 25.04 2.49
-5.36 24.97 2.49
-5.87 24.89 2.49
-6.37 24.80 2.49
-6.86 24.63 2.49
-7.08 23.57 2.39
-7.17 22.26 2.27
-7.75 22.49 2.31
-8.51 23.19 2.39
-8.99 23.04 2.39
-9.46 22.89 2.39
-9.93 22.72 2.39
-10.40 22.55 2.39
-11.93 24.55 2.62
-14.45 28.29 3.05
-10.81 20.14 2.19
-15.74 27.98 3.08
-16.33 27.71 3.08
-16.77 27.20 3.05
-17.21 26.68 3.03
-17.63 26.17 3.01
-18.11 25.76 3.00
-18.70 25.49 3.00
-10.63 13.89 1.66
-10.59 12.75 1.57
-7.63 6.65 0.95
-7.99 6.69 0.98
-8.31 6.68 1.00
-8.59 6.63 1.01
-8.72 6.45 1.01
-8.71 6.18 0.99
-8.70 5.91 0.98
-8.70 5.66 0.96
-8.69 5.41 0.95
-8.68 5.16 0.94
-8.68 4.93 0.92
-8.67 4.70 0.91
-8.67 4.47 0.90
-8.66 4.25 0.89
-7.62 3.55 0.78
-8.02 3.54 0.81
-8.45 3.53 0.84
-6.50 -0.16 0.59
-9.92 -13.82 1.54
-9.90 -14.39 1.58
-18.80 -29.83 3.19
-9.85 -16.35 1.73
-16.71 -29.03 3.04
-9.81 -17.86 1.85
-15.47 -29.57 3.03
-14.87 -29.85 3.03
-14.25 -30.12 3.03
-13.63 -30.37 3.03
-9.69 -22.80 2.26
-11.05 -27.52 2.71
-9.27 -24.49 2.39
-8.77 -24.65 2.39
-8.26 -24.80 2.39
-7.75 -24.93 2.39
-7.25 -25.06 2.39
-6.73 -25.17 2.39
-6.22 -25.28 2.39
-5.71 -25.37 2.39
-5.42 -26.55 2.49
-4.88 -26.62 2.49
-4.34 -26.69 2.49
-3.80 -26.74 2.49
-3.25 -26.78 2.49
-2.71 -26.81 2.49
-2.17 -26.83 2.49
-1.63 -26.84 2.49
-1.09 -26.83 2.49
-0.55 -26.82 2.49
-0.01 -21.53 2.49
0.42 -21.50 2.49
0.85 -21.47 2.49
1.28 -21.42 2.49
1.71 -21.37 2.49
2.13 -21.31 2.49
2.45 -20.37 2.39
2.86 -20.29 2.39
3.26 -20.21 2.39
3.66 -20.12 2.39
4.06 -20.02 2.39
4.46 -19.91 2.39
4.85 -19.80 2.39
5.24 -19.68 2.39
5.63 -19.55 2.39
6.01 -19.41 2.39
6.55 -19.72 2.45
6.84 -19.30 2.41
7.12 -18.89 2.38
7.40 -18.49 2.35
7.69 -18.15 2.33
7.97 -17.80 2.31
8.21 -17.40 2.28
8.45 -17.01 2.25
8.67 -16.62 2.23
7.68 -14.02 1.90
7.95 -13.85 1.90
9.39 -15.62 2.17
9.70 -15.43 2.17
10.07 -15.32 2.19
10.37 -15.11 2.19
10.35 -14.45 2.13
10.34 -13.83 2.07
10.32 -13.25 2.01
10.31 -12.70 1.96
10.29 -12.17 1.92
10.28 -11.68 1.87
10.27 -11.20 1.83
10.26 -10.75 1.79
10.25 -10.31 1.75
10.23 -9.90 1.72
10.22 -9.50 1.69
10.21 -9.11 1.66
10.21 -8.74 1.63
10.20 -8.38 1.60
7.53 -5.95 1.16
7.47 -5.66 1.14
7.67 -5.57 1.15
10.16 -7.07 1.51
10.15 -6.77 1.49
10.15 -6.47 1.47
10.14 -6.18 1.45
10.13 -5.90 1.43
10.13 -5.63 1.42
10.12 -5.36 1.40
10.11 -5.10 1.39
10.11 -4.85 1.37
10.10 -4.60 1.36
10.09 -4.35 1.35
10.09 -4.11 1.34
10.08 -3.87 1.33
10.08 -3.64 1.32
10.07 -3.41 1.31
10.06 -3.19 1.30
10.06 -2.96 1.29
10.05 -2.74 1.29
10.05 -2.53 1.28
10.04 -2.31 1.27
10.04 -2.10 1.27
10.03 -1.89 1.26
10.03 -1.68 1.26
10.02 -1.47 1.26
10.02 -1.27 1.25
10.02 -1.06 1.25
10.02 -0.86 1.25
10.01 -0.66 1.25
10.01 -0.46 1.25
10.01 -0.26 1.24
10.01 -0.05 1.24
10.01 0.15 1.25
14.03 0.49 1.75
14.02 0.77 1.75
14.01 1.05 1.75
14.00 1.34 1.75
14.00 1.62 1.76
13.99 1.90 1.76
13.98 2.19 1.77
13.97 2.48 1.77
13.97 2.77 1.78
13.96 3.06 1.78
13.95 3.35 1.79
13.94 3.65 1.80
13.94 3.95 1.81
12.49 3.81 1.63
13.92 4.55 1.83
13.92 4.86 1.84
13.91 5.17 1.86
13.90 5.49 1.87
13.89 5.81 1.88
13.88 6.14 1.90
13.76 6.42 1.90
12.64 6.21 1.76
15.03 7.76 2.12
15.02 8.14 2.14
15.01 8.53 2.16
15.00 8.93 2.18
14.99 9.34 2.21
14.98 9.75 2.24
14.94 10.16 2.26
14.74 10.46 2.26
14.54 10.77 2.26
14.35 11.08 2.27
14.15 11.38 2.27
13.94 11.69 2.27
13.70 11.97 2.27
13.42 12.21 2.27
13.14 12.44 2.26
12.86 12.67 2.25
12.59 12.92 2.25
12.36 13.20 2.26
12.11 13.47 2.26
11.86 13.74 2.26
11.60 13.99 2.27
11.33 14.24 2.27
11.06 14.49 2.27
10.70 14.61 2.25
10.39 14.80 2.25
10.11 15.04 2.25
9.82 15.26 2.26
9.53 15.49 2.26
9.24 15.72 2.26
8.95 15.95 2.27
8.66 16.18 2.28
8.64 16.94 2.36
8.30 17.13 2.36
7.96 17.31 2.36
7.62 17.48 2.36
7.29 17.68 2.36
6.98 17.95 2.38
6.66 18.21 2.39
6.34 18.46 2.41
5.42 16.89 2.19
5.20 17.41 2.24
4.68 16.87 2.15
4.82 18.83 2.39
4.44 18.94 2.39
4.06 19.04 2.39
3.68 19.14 2.39
3.30 19.22 2.39
2.92 19.30 2.39
2.53 19.37 2.39
2.14 19.43 2.39
1.55 17.28 2.12
1.36 19.54 2.39
1.01 20.42 2.49
0.60 20.46 2.49
0.19 20.49 2.49
-0.22 20.51 2.49
-0.63 20.52 2.49
-1.04 20.52 2.49
-1.46 20.51 2.49
-1.87 20.50 2.49
-2.28 20.48 2.49
-2.70 20.45 2.49
-3.11 20.41 2.49
-3.52 20.36 2.49
-3.94 20.31 2.49
-4.35 20.25 2.49
-4.76 20.18 2.49
-5.17 20.10 2.49
-5.57 20.01 2.49
-5.98 19.91 2.49
-6.39 19.81 2.49
-6.73 19.52 2.47
-6.90 18.79 2.39
-7.05 18.06 2.32
-7.53 18.21 2.35
-7.63 17.45 2.27
-8.41 18.23 2.39
-8.79 18.08 2.39
-9.16 17.92 2.39
-9.53 17.75 2.39
-9.89 17.57 2.39
-10.25 17.39 2.39
-10.61 17.20 2.39
-11.77 18.25 2.57
-10.67 15.84 2.26
-14.61 20.78 3.00
-15.36 20.93 3.06
-10.63 13.89 2.06
-10.61 13.30 2.00
-16.73 20.13 3.07
-17.09 19.75 3.06
-17.45 19.36 3.05
-17.80 18.98 3.05
-18.23 18.67 3.05
-18.78 18.48 3.08
-19.34 18.28 3.11
-19.90 18.07 3.13
-7.63 6.65 1.18
-7.99 6.69 1.21
-8.31 6.68 1.24
-8.59 6.63 1.26
-8.72 6.45 1.26
-8.71 6.17 1.24
-8.70 5.91 1.22
-8.70 5.65 1.20
-8.69 5.41 1.18
-8.69 5.16 1.17
-8.68 4.93 1.15
-8.67 4.70 1.14
-8.67 4.47 1.12
-8.66 4.25 1.11
-7.63 3.55 0.97
-8.02 3.54 1.01
-8.45 3.53 1.05
-6.50 -0.17 0.74
-10.03 -9.29 1.54
-10.02 -9.67 1.57
-10.01 -10.06 1.60
-17.78 -20.99 3.11
-16.93 -20.81 3.03
-16.55 -21.20 3.04
-16.16 -21.58 3.05
-9.91 -13.81 1.92
-15.29 -22.23 3.05
-14.84 -22.53 3.06
-14.36 -22.78 3.05
-13.87 -23.02 3.05
-13.39 -23.26 3.04
-9.81 -17.86 2.31
-9.76 -18.65 2.39
-9.38 -18.83 2.39
-8.99 -19.00 2.39
-8.60 -19.16 2.39
-8.21 -19.32 2.39
-7.82 -19.47 2.39
-7.42 -19.60 2.39
-7.02 -19.73 2.39
-6.62 -19.86 2.39
-6.21 -19.97 2.39
-5.81 -20.07 2.39
-5.63 -21.04 2.49
-5.20 -21.13 2.49
-4.77 -21.21 2.49
-4.34 -21.29 2.49
-3.91 -21.35 2.49
-3.48 -21.41 2.49
-3.05 -21.45 2.49
-2.61 -21.49 2.49
-2.18 -21.52 2.49
-1.75 -21.54 2.49
-1.31 -21.55 2.49
-0.88 -21.55 2.49
-0.45 -21.54 2.49
-0.01 -17.98 2.49
0.35 -17.96 2.49
0.71 -17.93 2.49
1.06 -17.90 2.49
1.42 -17.86 2.49
1.78 -17.81 2.49
2.13 -17.76 2.49
2.39 -16.96 2.39
2.72 -16.90 2.39
3.06 -16.83 2.39
3.39 -16.75 2.39
3.72 -16.66 2.39
4.05 -16.57 2.39
4.38 -16.47 2.39
4.71 -16.36 2.39
5.03 -16.25 2.39
5.35 -16.13 2.39
5.67 -16.01 2.39
5.98 -15.87 2.39
6.57 -16.41 2.49
6.82 -16.10 2.47
7.04 -15.75 2.44
7.23 -15.32 2.40
7.51 -15.12 2.39
7.80 -14.95 2.39
7.69 -14.04 2.27
7.97 -13.89 2.27
8.64 -14.38 2.38
8.91 -14.17 2.38
9.15 -13.93 2.37
9.40 -13.70 2.37
9.60 -13.41 2.35
9.78 -13.09 2.33
9.95 -12.77 2.31
10.11 -12.46 2.29
10.26 -12.14 2.27
10.28 -11.68 2.23
10.27 -11.20 2.18
10.26 -10.75 2.13
10.25 -10.31 2.09
10.23 -9.90 2.05
10.22 -9.50 2.01
10.21 -9.11 1.97
10.21 -8.74 1.94
10.20 -8.39 1.90
7.58 -5.98 1.39
7.53 -5.70 1.36
7.63 -5.54 1.36
7.76 -5.40 1.37
10.15 -6.77 1.77
10.15 -6.47 1.74
10.14 -6.19 1.72
10.13 -5.91 1.70
10.13 -5.63 1.68
10.12 -5.37 1.66
10.11 -5.10 1.65
10.11 -4.85 1.63
10.10 -4.60 1.62
10.09 -4.35 1.60
10.09 -4.11 1.59
10.08 -3.88 1.58
10.08 -3.64 1.56
10.07 -3.41 1.55
10.06 -3.19 1.54
10.06 -2.97 1.53
10.05 -2.75 1.53
10.05 -2.53 1.52
10.04 -2.31 1.51
10.04 -2.10 1.50
10.03 -1.89 1.50
10.03 -1.68 1.49
10.02 -1.47 1.49
10.02 -1.27 1.48
10.02 -1.06 1.48
10.02 -0.86 1.48
10.01 -0.66 1.48
10.01 -0.46 1.48
10.01 -0.26 1.47
10.01 -0.05 1.47
10.01 0.15 1.47
14.03 0.49 2.07
14.02 0.77 2.07
14.01 1.05 2.07
14.00 1.33 2.08
14.00 1.62 2.08
13.03 1.77 1.94
13.02 2.04 1.95
13.02 2.31 1.95
13.01 2.58 1.96
13.96 3.06 2.11
13.95 3.35 2.12
13.26 3.47 2.03
12.43 3.52 1.91
12.43 3.79 1.92
12.42 4.06 1.93
12.41 4.34 1.95
12.41 4.62 1.96
12.40 4.90 1.97
12.39 5.19 1.99
12.38 5.48 2.00
12.38 5.78 2.02
12.37 6.08 2.04
12.36 6.38 2.06
13.36 7.24 2.25
13.23 7.52 2.25
13.10 7.80 2.26
12.96 8.07 2.26
12.81 8.34 2.26
12.66 8.61 2.27
12.52 8.89 2.27
12.37 9.16 2.28
12.21 9.43 2.28
12.05 9.70 2.29
11.87 9.95 2.29
11.65 10.18 2.29
11.43 10.39 2.28
11.21 10.61 2.28
10.96 10.80 2.27
10.75 11.02 2.27
10.55 11.27 2.28
10.36 11.52 2.29
10.16 11.77 2.30
9.96 12.02 2.30
9.82 12.35 2.33
9.67 12.67 2.35
9.47 12.94 2.36
9.27 13.21 2.38
9.04 13.46 2.39
8.81 13.70 2.40
8.58 13.94 2.41
8.13 13.83 2.36
7.73 13.78 2.32
7.46 13.94 2.32
7.20 14.12 2.33
6.93 14.31 2.33
6.67 14.50 2.34
6.40 14.68 2.35
6.13 14.86 2.36
5.85 15.04 2.36
5.56 15.21 2.37
5.28 15.38 2.38
5.00 15.57 2.39
4.69 15.68 2.39
4.37 15.78 2.39
4.06 15.88 2.39
3.74 15.96 2.39
3.42 16.05 2.39
3.10 16.12 2.39
2.78 16.19 2.39
2.45 16.26 2.39
2.13 16.32 2.39
1.80 16.37 2.39
1.47 16.41 2.39
1.19 17.16 2.49
0.85 17.19 2.49
0.51 17.22 2.49
0.16 17.24 2.49
-0.19 17.25 2.49
-0.53 17.26 2.49
-0.88 17.26 2.49
-1.23 17.25 2.49
-1.58 17.24 2.49
-1.92 17.22 2.49
-2.27 17.19 2.49
-2.62 17.16 2.49
-2.96 17.11 2.49
-3.31 17.07 2.49
-3.65 17.01 2.49
-4.00 16.95 2.49
-4.34 16.88 2.49
-4.68 16.80 2.49
-5.02 16.72 2.49
-5.36 16.63 2.49
-5.70 16.53 2.49
-6.04 16.43 2.49
-6.37 16.32 2.49
-6.64 16.05 2.47
-6.74 15.42 2.39
-6.97 15.11 2.36
-7.00 14.39 2.27
-7.54 14.76 2.35
-7.58 14.12 2.27
-8.29 14.73 2.39
-8.59 14.57 2.39
-8.89 14.41 2.39
-9.19 14.24 2.39
-9.48 14.07 2.39
-9.77 13.89 2.39
-10.06 13.70 2.39
-10.34 13.51 2.39
-11.54 14.47 2.60
-11.78 14.18 2.59
-10.58 12.22 2.27
-14.31 15.88 2.99
-14.48 15.43 2.96
-14.69 15.04 2.94
-14.89 14.65 2.92
-15.09 14.25 2.90
-15.16 13.76 2.86
-7.63 6.65 1.41
-7.99 6.69 1.45
-8.32 6.68 1.48
-8.60 6.63 1.51
-8.72 6.44 1.51
-8.71 6.17 1.48
-8.70 5.91 1.46
-8.70 5.65 1.44
-8.69 5.40 1.42
-8.69 5.16 1.40
-8.68 4.93 1.38
-8.67 4.69 1.36
-8.67 4.47 1.35
-8.66 4.25 1.33
-7.63 3.55 1.16
-8.02 3.54 1.21
-8.45 3.53 1.26
-6.50 -0.17 0.88
-10.15 -5.11 1.54
-10.13 -5.36 1.55
-10.12 -5.62 1.57
-10.11 -5.88 1.58
-10.06 -7.93 1.73
-10.05 -8.59 1.79
-17.98 -16.66 3.32
-16.75 -16.16 3.16
-16.29 -16.37 3.13
-15.83 -16.55 3.11
-15.34 -16.70 3.08
-14.99 -16.99 3.08
-14.65 -17.29 3.08
-9.96 -12.24 2.14
-13.90 -17.81 3.07
-9.94 -13.27 2.25
-9.91 -13.80 2.31
-10.67 -15.50 2.56
-9.66 -14.67 2.39
-9.36 -14.85 2.39
-9.06 -15.03 2.39
-8.75 -15.20 2.39
-8.44 -15.36 2.39
-8.13 -15.52 2.39
-7.81 -15.67 2.39
-7.49 -15.82 2.39
-6.80 -15.15 2.27
-6.73 -15.82 2.35
-6.20 -15.43 2.28
-6.18 -16.32 2.39
-5.85 -16.44 2.39
-5.75 -17.26 2.49
-5.40 -17.36 2.49
-5.05 -17.45 2.49
-4.70 -17.54 2.49
-4.34 -17.61 2.49
-3.98 -17.68 2.49
-3.62 -17.75 2.49
-3.27 -17.80 2.49
-2.91 -17.85 2.49
-2.54 -17.89 2.49
-2.18 -17.93 2.49
-1.82 -17.96 2.49
-1.46 -17.97 2.49
-1.10 -17.99 2.49
-0.74 -17.99 2.49
-0.38 -17.99 2.49
-0.01 -15.42 2.49
0.30 -15.40 2.49
0.60 -15.38 2.49
0.91 -15.36 2.49
1.22 -15.32 2.49
1.52 -15.29 2.49
1.83 -15.24 2.49
2.13 -15.19 2.49
2.34 -14.51 2.39
2.62 -14.45 2.39
2.91 -14.38 2.39
3.20 -14.31 2.39
3.48 -14.23 2.39
3.76 -14.15 2.39
4.04 -14.06 2.39
4.32 -13.96 2.39
4.60 -13.86 2.39
4.87 -13.76 2.39
5.14 -13.64 2.39
5.41 -13.53 2.39
5.68 -13.41 2.39
5.94 -13.28 2.39
6.50 -13.79 2.51
6.62 -13.35 2.45
6.74 -12.92 2.40
6.85 -12.51 2.35
6.95 -12.11 2.30
7.08 -11.78 2.27
7.25 -11.54 2.25
7.48 -11.39 2.25
7.71 -11.24 2.26
7.94 -11.10 2.26
8.18 -10.95 2.27
8.41 -10.81 2.27
8.64 -10.66 2.28
8.87 -10.50 2.28
9.10 -10.34 2.29
9.30 -10.15 2.29
9.49 -9.95 2.29
9.68 -9.74 2.29
9.84 -9.52 2.28
10.00 -9.29 2.28
10.16 -9.07 2.27
10.31 -8.84 2.27
10.20 -8.39 2.21
7.41 -5.85 1.58
7.48 -5.67 1.57
7.49 -5.44 1.55
10.16 -7.08 2.08
10.15 -6.77 2.05
10.15 -6.48 2.02
10.14 -6.19 2.00
10.13 -5.91 1.97
10.13 -5.63 1.95
10.12 -5.37 1.93
10.11 -5.11 1.91
10.11 -4.85 1.89
10.10 -4.60 1.87
10.09 -4.35 1.86
10.09 -4.11 1.84
10.08 -3.88 1.83
10.08 -3.64 1.81
10.07 -3.41 1.80
10.06 -3.19 1.79
10.06 -2.97 1.78
10.05 -2.75 1.77
10.05 -2.53 1.76
10.04 -2.31 1.75
10.04 -2.10 1.74
10.03 -1.89 1.73
10.03 -1.68 1.73
10.02 -1.48 1.72
10.02 -1.27 1.72
10.02 -1.07 1.71
10.02 -0.86 1.71
10.01 -0.66 1.71
10.01 -0.46 1.71
10.01 -0.26 1.71
10.01 -0.06 1.71
10.01 0.15 1.71
13.15 0.46 2.24
13.13 0.72 2.24
13.12 0.98 2.24
13.10 1.25 2.25
13.07 1.51 2.25
13.04 1.77 2.25
13.01 2.04 2.25
12.97 2.30 2.25
12.92 2.56 2.25
12.88 2.82 2.25
12.84 3.08 2.26
12.79 3.34 2.26
12.22 3.46 2.17
12.22 3.72 2.18
12.21 3.99 2.20
12.19 4.26 2.21
12.10 4.50 2.21
12.01 4.75 2.21
11.91 4.99 2.21
11.81 5.22 2.21
11.70 5.46 2.21
11.59 5.69 2.21
11.47 5.92 2.21
11.35 6.15 2.21
11.49 6.53 2.26
11.38 6.78 2.27
11.27 7.02 2.27
11.14 7.25 2.27
11.00 7.48 2.28
10.86 7.71 2.28
10.71 7.93 2.28
10.55 8.15 2.28
10.40 8.37 2.28
10.29 8.63 2.30
10.14 8.85 2.30
9.98 9.07 2.31
9.81 9.29 2.31
9.65 9.51 2.31
9.48 9.72 2.32
9.30 9.94 2.32
9.12 10.15 2.33
8.94 10.35 2.34
8.75 10.56 2.34
8.60 10.80 2.36
8.44 11.05 2.37
8.27 11.30 2.39
8.11 11.55 2.41
7.93 11.80 2.42
7.71 11.99 2.43
7.47 12.14 2.43
7.22 12.29 2.43
6.97 12.43 2.42
6.72 12.57 2.42
6.47 12.70 2.42
6.21 12.82 2.42
5.95 12.95 2.42
5.69 13.07 2.42
5.37 13.03 2.39
5.11 13.14 2.39
4.85 13.25 2.39
4.58 13.35 2.39
4.31 13.45 2.39
4.05 13.54 2.39
3.77 13.63 2.39
3.50 13.71 2.39
3.23 13.78 2.39
2.95 13.85 2.39
2.68 13.92 2.39
2.40 13.98 2.39
2.12 14.03 2.39
1.84 14.08 2.39
1.55 14.12 2.39
1.33 14.77 2.49
1.03 14.80 2.49
0.73 14.83 2.49
0.43 14.85 2.49
0.14 14.87 2.49
-0.16 14.88 2.49
-0.46 14.88 2.49
-0.76 14.88 2.49
-1.06 14.87 2.49
-1.36 14.86 2.49
-1.66 14.84 2.49
-1.96 14.81 2.49
-2.26 14.78 2.49
-2.56 14.75 2.49
-2.85 14.70 2.49
-3.15 14.65 2.49
-3.45 14.60 2.49
-3.74 14.54 2.49
-4.04 14.47 2.49
-4.33 14.40 2.49
-4.62 14.32 2.49
-4.91 14.23 2.49
-5.20 14.14 2.49
-5.49 14.05 2.49
-5.77 13.94 2.49
-6.05 13.84 2.49
-6.34 13.72 2.49
-6.58 13.52 2.48
-6.61 12.92 2.39
-6.87 12.79 2.39
-7.13 12.66 2.39
-7.39 12.53 2.39
-7.65 12.39 2.39
-7.90 12.24 2.39
-8.15 12.09 2.39
-8.40 11.93 2.39
-8.64 11.77 2.39
-8.88 11.60 2.39
-9.12 11.43 2.39
-9.36 11.26 2.39
-9.59 11.07 2.39
-9.82 10.89 2.39
-10.04 10.70 2.39
-10.26 10.50 2.39
-10.48 10.30 2.39
-12.02 11.35 2.69
-12.68 11.50 2.78
-7.63 6.65 1.64
-7.99 6.69 1.69
-8.32 6.68 1.73
-8.60 6.63 1.76
-8.67 6.41 1.75
-8.71 6.17 1.73
-8.70 5.91 1.70
-8.70 5.65 1.68
-8.69 5.40 1.65
-8.69 5.16 1.63
-8.65 4.91 1.60
-8.67 4.69 1.59
-8.67 4.47 1.57
-8.66 4.25 1.55
-7.63 3.55 1.35
-8.03 3.54 1.41
-8.46 3.53 1.47
-10.37 4.09 1.79
-19.03 7.07 3.26
-19.72 6.88 3.35
-10.28 0.36 1.64
-10.27 0.15 1.63
-6.50 -0.17 1.03
-10.21 -1.92 1.65
-10.22 -2.13 1.65
-10.18 -3.45 1.70
-10.16 -3.90 1.72
-10.11 -5.88 1.85
-17.08 -10.88 3.21
-16.18 -10.76 3.08
-10.09 -7.01 1.95
-15.21 -11.02 2.98
-15.12 -11.43 3.00
-10.06 -7.93 2.03
-14.89 -12.22 3.05
-14.66 -12.54 3.06
-14.45 -12.86 3.07
-14.22 -13.18 3.07
-13.96 -13.47 3.08
-10.02 -10.07 2.25
-13.39 -14.00 3.07
-11.02 -12.00 2.59
-10.62 -12.03 2.55
-9.73 -11.49 2.39
-9.50 -11.68 2.39
-9.26 -11.86 2.39
-9.02 -12.04 2.39
-8.77 -12.21 2.39
-8.52 -12.38 2.39
-8.27 -12.55 2.39
-8.01 -12.70 2.39
-7.75 -12.86 2.39
-7.49 -13.00 2.39
-6.87 -12.50 2.27
-6.83 -13.05 2.35
-6.34 -12.73 2.27
-6.25 -13.20 2.33
-6.13 -13.66 2.39
-5.89 -13.84 2.40
-5.82 -14.48 2.49
-5.52 -14.58 2.49
-5.23 -14.68 2.49
-4.93 -14.77 2.49
-4.63 -14.86 2.49
-4.33 -14.94 2.49
-4.02 -15.02 2.49
-3.72 -15.09 2.49
-3.41 -15.15 2.49
-3.11 -15.21 2.49
-2.80 -15.26 2.49
-2.49 -15.30 2.49
-2.18 -15.34 2.49
-1.87 -15.37 2.49
-1.56 -15.39 2.49
-1.25 -15.41 2.49
-0.94 -15.42 2.49
-0.63 -15.43 2.49
-0.32 -15.42 2.49
-0.01 -13.48 2.49
0.26 -13.47 2.49
0.53 -13.46 2.49
0.80 -13.43 2.49
1.06 -13.41 2.49
1.33 -13.37 2.49
1.60 -13.34 2.49
1.87 -13.29 2.49
2.13 -13.24 2.49
2.29 -12.64 2.39
2.55 -12.59 2.39
2.80 -12.53 2.39
3.05 -12.46 2.39
3.29 -12.39 2.39
3.54 -12.31 2.39
3.78 -12.23 2.39
4.02 -12.14 2.39
4.26 -12.05 2.39
4.50 -11.95 2.39
4.74 -11.85 2.39
4.97 -11.75 2.39
5.20 -11.64 2.39
5.43 -11.52 2.39
5.66 -11.40 2.39
5.88 -11.28 2.39
6.10 -11.15 2.39
6.57 -11.45 2.49
6.71 -11.17 2.45
6.84 -10.89 2.42
6.97 -10.62 2.40
7.10 -10.36 2.37
7.29 -10.18 2.36
7.49 -10.03 2.37
7.69 -9.88 2.37
7.89 -9.73 2.37
8.07 -9.55 2.37
8.25 -9.37 2.37
8.42 -9.19 2.36
8.59 -9.01 2.36
8.76 -8.83 2.36
8.93 -8.64 2.36
9.09 -8.45 2.36
9.25 -8.25 2.36
9.39 -8.05 2.36
9.54 -7.85 2.35
7.52 -5.94 1.83
7.31 -5.54 1.75
7.64 -5.55 1.80
7.82 -5.44 1.82
10.08 -6.72 2.31
10.10 -6.45 2.29
10.07 -6.14 2.26
10.03 -5.85 2.22
10.03 -5.58 2.20
10.12 -5.37 2.20
10.11 -5.11 2.17
10.11 -4.85 2.15
10.10 -4.60 2.13
10.09 -4.36 2.11
10.09 -4.12 2.09
10.08 -3.88 2.08
10.08 -3.65 2.06
10.07 -3.42 2.05
10.06 -3.19 2.03
10.06 -2.97 2.02
10.05 -2.75 2.01
10.05 -2.53 2.00
10.04 -2.32 1.99
10.04 -2.10 1.98
10.03 -1.89 1.97
10.03 -1.68 1.96
10.02 -1.48 1.96
10.02 -1.27 1.95
10.02 -1.07 1.95
10.02 -0.86 1.94
10.01 -0.66 1.94
10.01 -0.46 1.94
10.01 -0.26 1.94
10.01 -0.06 1.94
10.01 0.15 1.94
11.36 0.39 2.20
11.33 0.62 2.20
11.32 0.85 2.20
11.33 1.08 2.21
11.33 1.31 2.21
11.34 1.54 2.22
11.34 1.77 2.23
11.34 2.01 2.24
11.33 2.24 2.24
11.32 2.48 2.25
11.28 2.71 2.25
11.23 2.94 2.26
11.17 3.16 2.25
11.09 3.38 2.25
11.02 3.60 2.25
10.94 3.82 2.25
10.65 3.96 2.21
10.56 4.17 2.21
10.48 4.38 2.21
10.39 4.59 2.21
10.29 4.80 2.21
10.19 5.01 2.21
10.09 5.21 2.21
9.99 5.41 2.21
9.88 5.61 2.21
9.76 5.81 2.21
9.65 6.01 2.21
9.79 6.38 2.27
9.66 6.57 2.27
9.52 6.76 2.27
9.39 6.95 2.27
9.26 7.15 2.27
9.17 7.38 2.29
9.07 7.61 2.30
8.97 7.83 2.31
8.86 8.06 2.33
8.75 8.28 2.34
8.63 8.51 2.35
8.48 8.70 2.36
8.31 8.88 2.36
8.15 9.06 2.36
7.98 9.24 2.37
7.81 9.42 2.37
7.63 9.59 2.38
7.46 9.78 2.38
7.29 9.96 2.39
7.12 10.14 2.40
6.94 10.32 2.41
6.75 10.50 2.42
6.56 10.66 2.42
6.35 10.80 2.42
6.13 10.93 2.42
5.91 11.05 2.42
5.69 11.17 2.42
5.12 10.58 2.27
5.01 10.89 2.31
4.84 11.12 2.34
4.48 10.88 2.27
4.49 11.56 2.39
4.26 11.65 2.39
4.03 11.74 2.39
3.79 11.83 2.39
3.56 11.90 2.39
3.32 11.98 2.39
3.08 12.05 2.39
2.84 12.12 2.39
2.59 12.18 2.39
2.35 12.23 2.39
2.10 12.28 2.39
1.86 12.33 2.39
1.61 12.37 2.39
1.42 12.94 2.49
1.16 12.98 2.49
0.90 13.01 2.49
0.64 13.03 2.49
0.38 13.05 2.49
0.12 13.06 2.49
-0.14 13.07 2.49
-0.41 13.07 2.49
-0.67 13.07 2.49
-0.93 13.06 2.49
-1.20 13.05 2.49
-1.46 13.03 2.49
-1.72 13.00 2.49
-1.98 12.97 2.49
-2.24 12.94 2.49
-2.51 12.90 2.49
-2.77 12.86 2.49
-3.03 12.81 2.49
-3.28 12.75 2.49
-3.54 12.69 2.49
-3.80 12.63 2.49
-4.05 12.56 2.49
-4.31 12.48 2.49
-4.56 12.40 2.49
-4.81 12.32 2.49
-5.06 12.22 2.49
-5.31 12.13 2.49
-5.56 12.03 2.49
-5.80 11.92 2.49
-6.04 11.81 2.49
-6.28 11.70 2.49
-6.52 11.58 2.49
-6.52 11.05 2.41
-6.70 10.85 2.39
-6.92 10.72 2.39
-7.14 10.59 2.39
-7.36 10.45 2.39
-7.57 10.31 2.39
-7.78 10.16 2.39
-7.99 10.01 2.39
-8.19 9.85 2.39
-8.40 9.69 2.39
-8.59 9.53 2.39
-8.79 9.36 2.39
-8.98 9.19 2.39
-9.17 9.01 2.39
-9.36 8.83 2.39
-9.54 8.65 2.39
-7.64 6.65 1.88
-7.94 6.64 1.92
-8.26 6.63 1.96
-8.65 6.66 2.02
-10.39 7.68 2.39
-11.59 8.21 2.63
-8.43 5.72 1.88
-13.78 8.95 3.04
-10.43 6.48 2.27
-10.43 6.19 2.24
-14.34 8.13 3.04
-8.63 4.67 1.81
-8.61 4.44 1.78
-8.60 4.22 1.76
-7.63 3.55 1.55
-8.03 3.54 1.61
-8.46 3.53 1.69
-10.37 4.09 2.05
-15.74 5.84 3.08
-16.09 5.61 3.13
-10.36 3.38 2.00
-16.81 5.11 3.22
-10.34 2.92 1.97
-17.54 4.57 3.32
-17.89 4.29 3.37
-18.24 3.98 3.42
-18.59 3.67 3.47
-18.94 3.35 3.52
-19.30 3.01 3.57
-19.66 2.67 3.62
-20.17 2.33 3.71
-20.68 1.97 3.79
-20.90 1.56 3.82
-20.39 1.11 3.72
-20.35 0.70 3.71
-10.27 0.15 1.87
-20.51 -0.11 3.74
-6.50 -0.17 1.18
-20.33 -0.93 3.71
-20.21 -1.33 3.69
-20.09 -1.73 3.67
-19.96 -2.12 3.65
-19.94 -2.52 3.66
-19.63 -2.88 3.61
-18.94 -3.17 3.49
-10.21 -1.92 1.89
-18.42 -3.85 3.42
-18.33 -4.22 3.42
-18.35 -4.61 3.44
-10.20 -2.78 1.92
-18.48 -5.44 3.50
-18.02 -5.70 3.43
-17.57 -5.95 3.37
-17.18 -6.20 3.32
-10.16 -3.90 1.98
-16.94 -6.89 3.32
-16.82 -7.24 3.32
-16.69 -7.59 3.33
-16.52 -7.91 3.32
-16.32 -8.22 3.32
-10.13 -5.36 2.08
-15.71 -8.72 3.26
-10.11 -5.88 2.12
-10.11 -6.16 2.15
-14.16 -9.02 3.05
-13.91 -9.26 3.03
-13.78 -9.57 3.05
-10.08 -7.31 2.26
-13.49 -10.20 3.07
-10.06 -7.93 2.33
-10.99 -9.02 2.58
-10.00 -8.55 2.39
-9.83 -8.75 2.39
-9.65 -8.94 2.39
-9.47 -9.13 2.39
-9.28 -9.32 2.39
-9.09 -9.50 2.39
-8.89 -9.68 2.39
-8.70 -9.85 2.39
-8.49 -10.02 2.39
-8.29 -10.19 2.39
-8.08 -10.35 2.39
-7.87 -10.51 2.39
-7.66 -10.66 2.39
-7.44 -10.81 2.39
-7.22 -10.95 2.39
-6.99 -11.09 2.39
-6.77 -11.22 2.39
-6.54 -11.35 2.39
-6.31 -11.48 2.39
-6.07 -11.60 2.39
-5.93 -11.90 2.43
-5.84 -12.33 2.49
-5.59 -12.44 2.49
-5.34 -12.54 2.49
-5.08 -12.64 2.49
-4.82 -12.74 2.49
-4.57 -12.82 2.49
-4.31 -12.91 2.49
-4.04 -12.98 2.49
-3.78 -13.06 2.49
-3.52 -13.12 2.49
-3.25 -13.18 2.49
-2.98 -13.24 2.49
-2.72 -13.29 2.49
-2.45 -13.33 2.49
-2.18 -13.37 2.49
-1.91 -13.40 2.49
-1.64 -13.43 2.49
-1.37 -13.46 2.49
-1.10 -13.47 2.49
-0.83 -13.48 2.49
-0.56 -13.49 2.49
-0.28 -13.49 2.49
-0.01 -11.97 2.49
0.23 -11.96 2.49
0.47 -11.95 2.49
0.70 -11.93 2.49
0.94 -11.91 2.49
1.18 -11.88 2.49
1.42 -11.84 2.49
1.66 -11.81 2.49
1.89 -11.76 2.49
2.11 -11.66 2.48
2.26 -11.18 2.39
2.48 -11.13 2.39
2.70 -11.07 2.39
2.92 -11.01 2.39
3.14 -10.94 2.39
3.36 -10.87 2.39
3.57 -10.79 2.39
3.79 -10.71 2.39
4.00 -10.63 2.39
4.21 -10.54 2.39
4.42 -10.44 2.39
4.62 -10.35 2.39
4.83 -10.24 2.39
5.03 -10.14 2.39
5.23 -10.03 2.39
5.42 -9.92 2.39
5.62 -9.80 2.39
5.81 -9.68 2.39
6.00 -9.56 2.39
6.38 -9.72 2.47
6.54 -9.54 2.45
6.69 -9.35 2.44
6.84 -9.16 2.43
6.98 -8.97 2.42
7.13 -8.79 2.41
7.29 -8.64 2.41
7.46 -8.48 2.40
7.62 -8.32 2.40
7.77 -8.15 2.40
7.93 -7.99 2.40
8.08 -7.82 2.40
8.18 -7.61 2.39
8.22 -7.34 2.36
8.26 -7.08 2.33
8.29 -6.83 2.30
7.58 -5.99 2.07
7.49 -5.68 2.01
7.52 -5.46 1.99
8.49 -5.91 2.22
8.55 -5.70 2.20
8.62 -5.51 2.20
8.70 -5.31 2.19
8.77 -5.11 2.18
8.83 -4.92 2.17
8.90 -4.72 2.17
8.96 -4.53 2.16
9.02 -4.33 2.16
9.12 -4.15 2.16
9.20 -3.97 2.16
9.29 -3.79 2.16
9.37 -3.61 2.17
9.45 -3.42 2.17
9.54 -3.24 2.17
9.61 -3.05 2.18
9.69 -2.86 2.18
9.78 -2.67 2.19
9.85 -2.48 2.20
9.93 -2.29 2.20
10.00 -2.10 2.21
10.03 -1.89 2.21
10.03 -1.68 2.20
10.02 -1.48 2.19
10.02 -1.27 2.19
10.02 -1.07 2.18
10.02 -0.86 2.18
10.01 -0.66 2.18
10.01 -0.46 2.18
10.01 -0.26 2.17
10.01 -0.06 2.17
10.01 0.14 2.17
10.13 0.35 2.20
10.14 0.55 2.21
10.15 0.76 2.21
10.16 0.97 2.22
10.16 1.17 2.22
10.16 1.38 2.23
10.16 1.59 2.24
10.16 1.80 2.25
10.19 2.02 2.26
10.22 2.24 2.28
10.25 2.46 2.30
10.22 2.67 2.30
10.18 2.88 2.30
10.13 3.09 2.31
10.08 3.30 2.31
10.03 3.50 2.31
9.96 3.70 2.31
9.44 3.73 2.21
9.37 3.92 2.21
9.29 4.11 2.21
9.20 4.29 2.21
9.11 4.48 2.21
9.02 4.66 2.21
8.93 4.84 2.21
8.83 5.02 2.21
8.73 5.20 2.21
8.63 5.37 2.21
8.52 5.55 2.21
8.41 5.72 2.21
8.29 5.89 2.22
8.44 6.25 2.29
8.33 6.43 2.29
8.23 6.62 2.30
8.14 6.83 2.31
8.05 7.03 2.33
7.96 7.24 2.34
7.86 7.44 2.36
7.75 7.64 2.37
7.61 7.81 2.37
7.47 7.99 2.38
7.33 8.16 2.38
7.18 8.32 2.39
7.03 8.49 2.40
6.88 8.64 2.40
6.72 8.80 2.41
6.56 8.96 2.41
6.38 9.10 2.41
6.21 9.24 2.42
6.03 9.37 2.42
5.85 9.50 2.42
5.58 9.50 2.39
5.12 9.13 2.27
5.05 9.43 2.32
4.93 9.67 2.35
4.57 9.43 2.27
4.45 9.69 2.31
4.41 10.13 2.39
4.21 10.22 2.39
4.00 10.31 2.39
3.80 10.39 2.39
3.59 10.47 2.39
3.38 10.54 2.39
3.17 10.61 2.39
2.96 10.68 2.39
2.74 10.74 2.39
2.53 10.80 2.39
2.31 10.85 2.39
2.09 10.90 2.39
1.87 10.95 2.39
1.65 10.99 2.39
1.50 11.50 2.49
1.27 11.53 2.49
1.03 11.56 2.49
0.80 11.59 2.49
0.57 11.61 2.49
0.34 11.62 2.49
0.10 11.63 2.49
-0.13 11.64 2.49
-0.36 11.64 2.49
-0.60 11.64 2.49
-0.83 11.63 2.49
-1.07 11.62 2.49
-1.30 11.60 2.49
-1.53 11.58 2.49
-1.77 11.55 2.49
-2.00 11.52 2.49
-2.23 11.48 2.49
-2.46 11.44 2.49
-2.69 11.40 2.49
-2.92 11.35 2.49
-3.15 11.29 2.49
-3.38 11.24 2.49
-3.61 11.17 2.49
-3.83 11.10 2.49
-4.06 11.03 2.49
-4.28 10.95 2.49
-4.50 10.87 2.49
-4.72 10.79 2.49
-4.94 10.70 2.49
-5.16 10.60 2.49
-5.38 10.50 2.49
-5.59 10.40 2.49
-5.80 10.29 2.49
-6.01 10.18 2.49
-6.22 10.06 2.49
-6.42 9.94 2.49
-6.48 9.60 2.44
-6.54 9.29 2.39
-6.73 9.16 2.39
-6.92 9.03 2.39
-7.10 8.89 2.39
-7.28 8.75 2.39
-7.46 8.61 2.39
-7.64 8.47 2.39
-7.81 8.32 2.39
-7.98 8.16 2.39
-8.15 8.01 2.39
-8.31 7.84 2.39
-8.47 7.68 2.39
-8.63 7.51 2.39
-8.78 7.34 2.39
-8.93 7.17 2.39
-8.65 6.66 2.28
-9.22 6.81 2.39
-9.36 6.63 2.39
-9.50 6.45 2.39
-9.63 6.26 2.39
-9.76 6.07 2.39
-9.89 5.87 2.39
-8.25 4.68 1.97
-8.28 4.48 1.96
-8.37 4.31 1.96
-8.46 4.15 1.96
-7.64 3.55 1.75
-8.03 3.54 1.82
-8.46 3.53 1.90
-10.37 4.09 2.31
-14.28 5.30 3.15
-10.36 3.61 2.27
-10.36 3.38 2.25
-14.68 4.47 3.17
-14.79 4.18 3.18
-14.90 3.88 3.18
-15.15 3.63 3.22
-15.40 3.36 3.25
-15.68 3.09 3.30
-10.32 1.82 2.16
-16.41 2.56 3.42
-16.77 2.27 3.49
-17.14 1.98 3.55
-17.42 1.65 3.60
-17.55 1.31 3.62
-10.28 0.56 2.12
-17.69 0.61 3.64
-10.27 0.15 2.11
-17.79 -0.10 3.66
-6.48 -0.17 1.33
-6.52 -0.30 1.34
-16.85 -1.11 3.47
-16.44 -1.41 3.39
-16.26 -1.73 3.36
-16.07 -2.03 3.32
-10.23 -1.50 2.12
-15.76 -2.64 3.28
-10.21 -1.92 2.13
-15.63 -3.27 3.28
-15.55 -3.58 3.27
-15.46 -3.88 3.27
-15.35 -4.19 3.26
-15.17 -4.47 3.24
-14.98 -4.74 3.22
-14.77 -5.00 3.20
-14.56 -5.26 3.17
-10.16 -3.90 2.23
-14.22 -5.79 3.15
-10.16 -4.37 2.27
-13.87 -6.31 3.12
-13.68 -6.55 3.11
-13.47 -6.79 3.09
-11.25 -5.95 2.61
-11.06 -6.14 2.59
-10.09 -5.87 2.39
-9.97 -6.07 2.39
-9.84 -6.27 2.39
-9.72 -6.46 2.39
-9.58 -6.66 2.39
-9.45 -6.85 2.39
-9.31 -7.03 2.39
-9.16 -7.22 2.39
-9.02 -7.40 2.39
-8.86 -7.58 2.39
-8.71 -7.75 2.39
-8.55 -7.92 2.39
-8.39 -8.09 2.39
-8.22 -8.26 2.39
-8.05 -8.42 2.39
-7.88 -8.58 2.39
-7.71 -8.73 2.39
-7.53 -8.88 2.39
-7.35 -9.03 2.39
-7.16 -9.17 2.39
-6.98 -9.31 2.39
-6.79 -9.45 2.39
-6.59 -9.58 2.39
-6.40 -9.71 2.39
-6.20 -9.83 2.39
-6.00 -9.95 2.39
-5.97 -10.36 2.46
-5.83 -10.61 2.49
-5.62 -10.72 2.49
-5.40 -10.83 2.49
-5.18 -10.93 2.49
-4.96 -11.03 2.49
-4.73 -11.12 2.49
-4.51 -11.21 2.49
-4.28 -11.29 2.49
-4.05 -11.37 2.49
-3.82 -11.45 2.49
-3.59 -11.52 2.49
-3.35 -11.58 2.49
-3.12 -11.64 2.49
-2.89 -11.69 2.49
-2.65 -11.74 2.49
-2.41 -11.79 2.49
-2.17 -11.83 2.49
-1.93 -11.86 2.49
-1.70 -11.89 2.49
-1.46 -11.92 2.49
-1.22 -11.94 2.49
-0.98 -11.96 2.49
-0.74 -11.97 2.49
-0.49 -11.97 2.49
-0.25 -11.97 2.49
-0.01 -10.75 2.49
0.20 -10.74 2.49
0.42 -10.73 2.49
0.63 -10.72 2.49
0.85 -10.70 2.49
1.06 -10.67 2.49
1.27 -10.64 2.49
1.49 -10.61 2.49
1.70 -10.57 2.49
1.91 -10.53 2.49
2.08 -10.29 2.45
2.23 -10.00 2.39
2.43 -9.95 2.39
2.63 -9.89 2.39
2.82 -9.83 2.39
3.02 -9.77 2.39
3.21 -9.70 2.39
3.40 -9.63 2.39
3.59 -9.55 2.39
3.78 -9.47 2.39
3.97 -9.39 2.39
4.16 -9.30 2.39
4.34 -9.21 2.39
4.52 -9.12 2.39
4.70 -9.02 2.39
4.88 -8.92 2.39
5.05 -8.82 2.39
5.23 -8.71 2.39
5.40 -8.60 2.39
5.57 -8.48 2.39
5.73 -8.36 2.39
5.89 -8.24 2.39
6.29 -8.43 2.48
6.43 -8.27 2.47
6.57 -8.10 2.46
6.70 -7.93 2.46
6.83 -7.77 2.45
6.91 -7.55 2.42
6.99 -7.34 2.40
7.07 -7.13 2.38
7.16 -6.93 2.36
7.25 -6.74 2.35
7.33 -6.55 2.33
7.41 -6.36 2.32
7.49 -6.17 2.31
7.44 -5.88 2.25
7.45 -5.65 2.22
7.70 -5.60 2.27
7.79 -5.42 2.26
7.86 -5.25 2.25
7.94 -5.07 2.24
8.01 -4.89 2.24
8.07 -4.71 2.23
8.14 -4.53 2.22
8.22 -4.37 2.22
8.31 -4.20 2.22
8.39 -4.03 2.22
8.47 -3.86 2.23
8.55 -3.69 2.23
8.61 -3.51 2.22
8.65 -3.33 2.22
8.70 -3.15 2.22
8.74 -2.97 2.21
8.79 -2.79 2.21
8.83 -2.61 2.21
8.87 -2.42 2.20
8.90 -2.24 2.20
8.93 -2.06 2.20
8.98 -1.88 2.20
9.04 -1.71 2.21
9.08 -1.53 2.21
9.10 -1.34 2.21
9.12 -1.16 2.21
9.15 -0.98 2.21
9.17 -0.79 2.21
9.18 -0.61 2.21
9.19 -0.42 2.22
9.20 -0.24 2.22
9.21 -0.05 2.22
9.21 0.13 2.22
9.21 0.32 2.22
9.21 0.50 2.22
9.22 0.69 2.23
9.24 0.88 2.24
9.28 1.07 2.25
9.31 1.26 2.27
9.34 1.46 2.28
9.37 1.66 2.30
9.39 1.86 2.31
9.42 2.06 2.33
9.44 2.26 2.34
9.45 2.47 2.36
9.41 2.66 2.36
9.37 2.86 2.37
9.31 3.04 2.36
9.21 3.22 2.36
9.10 3.39 2.35
9.00 3.55 2.34
8.48 3.55 2.22
8.41 3.72 2.22
8.33 3.89 2.22
8.25 4.05 2.22
8.17 4.22 2.22
8.09 4.39 2.22
8.00 4.55 2.22
7.92 4.71 2.23
7.83 4.88 2.23
7.74 5.04 2.23
7.64 5.20 2.23
7.55 5.36 2.24
7.45 5.52 2.24
7.35 5.67 2.24
7.56 6.08 2.34
7.44 6.24 2.35
7.33 6.40 2.35
7.22 6.57 2.36
7.13 6.75 2.37
7.02 6.92 2.38
6.90 7.08 2.38
6.77 7.23 2.39
6.64 7.38 2.39
6.50 7.53 2.40
6.36 7.67 2.40
6.21 7.81 2.41
6.07 7.95 2.41
5.91 8.08 2.41
5.75 8.20 2.41
5.54 8.24 2.39
5.10 7.93 2.27
5.08 8.25 2.33
4.95 8.43 2.35
4.62 8.23 2.27
4.48 8.39 2.29
4.47 8.79 2.37
4.34 8.96 2.39
4.16 9.04 2.39
3.97 9.13 2.39
3.79 9.21 2.39
3.61 9.29 2.39
3.42 9.36 2.39
3.23 9.43 2.39
3.04 9.50 2.39
2.85 9.56 2.39
2.66 9.62 2.39
2.47 9.68 2.39
2.28 9.73 2.39
2.08 9.78 2.39
1.88 9.82 2.39
1.69 9.86 2.39
1.55 10.32 2.49
1.35 10.36 2.49
1.14 10.39 2.49
0.93 10.41 2.49
0.72 10.44 2.49
0.51 10.45 2.49
0.30 10.47 2.49
0.09 10.48 2.49
-0.12 10.48 2.49
-0.33 10.48 2.49
-0.54 10.48 2.49
-0.75 10.47 2.49
-0.96 10.46 2.49
-1.17 10.44 2.49
-1.38 10.42 2.49
-1.59 10.40 2.49
-1.80 10.37 2.49
-2.01 10.34 2.49
-2.22 10.30 2.49
-2.43 10.26 2.49
-2.63 10.21 2.49
-2.84 10.16 2.49
-3.04 10.11 2.49
-3.25 10.05 2.49
-3.45 9.99 2.49
-3.65 9.92 2.49
-3.85 9.85 2.49
-4.05 9.78 2.49
-4.25 9.70 2.49
-4.45 9.62 2.49
-4.64 9.54 2.49
-4.84 9.45 2.49
-5.03 9.35 2.49
-5.22 9.25 2.49
-5.40 9.15 2.49
-5.59 9.05 2.49
-5.77 8.94 2.49
-5.96 8.83 2.49
-6.14 8.71 2.49
-6.31 8.59 2.49
-6.45 8.41 2.48
-6.44 8.07 2.41
-6.55 7.87 2.39
-6.71 7.74 2.39
-6.86 7.61 2.39
-7.02 7.47 2.39
-7.17 7.33 2.39
-7.32 7.19 2.39
-7.47 7.05 2.39
-7.61 6.90 2.39
-7.75 6.75 2.39
-7.89 6.60 2.39
-8.03 6.44 2.39
-8.16 6.28 2.39
-8.29 6.12 2.39
-8.41 5.95 2.39
-8.53 5.79 2.39
-8.65 5.62 2.39
-8.77 5.45 2.39
-8.88 5.27 2.39
-8.99 5.10 2.39
-9.09 4.92 2.39
-9.19 4.73 2.39
-9.29 4.55 2.39
-7.59 3.53 1.93
-8.03 3.54 2.03
-8.46 3.53 2.12
-9.64 3.80 2.39
-9.72 3.61 2.39
-9.80 3.41 2.39
-9.87 3.22 2.39
-9.93 3.02 2.39
-10.00 2.82 2.39
-10.05 2.62 2.39
-10.11 2.42 2.39
-10.16 2.22 2.39
-10.20 2.01 2.39
-10.25 1.81 2.39
-10.28 1.60 2.39
-11.23 1.52 2.60
-11.30 1.30 2.61
-11.36 1.08 2.62
-11.42 0.85 2.63
-13.96 0.76 3.21
-14.01 0.48 3.21
-10.27 0.15 2.35
-14.07 -0.08 3.23
-6.47 -0.17 1.48
-6.52 -0.30 1.50
-13.84 -0.91 3.18
-11.66 -1.00 2.68
-11.38 -1.21 2.62
-11.33 -1.43 2.61
-11.27 -1.66 2.61
-11.21 -1.88 2.60
-10.21 -1.92 2.38
-11.06 -2.31 2.59
-10.19 -2.35 2.39
-10.14 -2.55 2.39
-10.09 -2.75 2.39
-10.04 -2.95 2.39
-9.98 -3.16 2.39
-9.91 -3.36 2.39
-9.84 -3.55 2.39
-9.77 -3.75 2.39
-9.69 -3.95 2.39
-9.61 -4.14 2.39
-9.53 -4.33 2.39
-9.44 -4.52 2.39
-9.35 -4.71 2.39
-9.25 -4.90 2.39
-9.15 -5.08 2.39
-9.05 -5.26 2.39
-8.94 -5.44 2.39
-8.83 -5.62 2.39
-8.71 -5.80 2.39
-8.59 -5.97 2.39
-8.47 -6.14 2.39
-8.35 -6.31 2.39
-8.22 -6.47 2.39
-8.09 -6.64 2.39
-7.95 -6.80 2.39
-7.81 -6.95 2.39
-7.67 -7.11 2.39
-7.52 -7.26 2.39
-7.00 -7.03 2.27
-6.86 -7.17 2.27
-7.07 -7.69 2.39
-6.91 -7.83 2.39
-6.75 -7.97 2.39
-6.59 -8.10 2.39
-6.43 -8.23 2.39
-6.26 -8.35 2.39
-6.09 -8.47 2.39
-6.01 -8.73 2.43
-5.99 -9.08 2.49
-5.80 -9.20 2.49
-5.62 -9.31 2.49
-5.43 -9.42 2.49
-5.23 -9.52 2.49
-5.04 -9.62 2.49
-4.85 -9.72 2.49
-4.65 -9.81 2.49
-4.45 -9.90 2.49
-4.25 -9.98 2.49
-4.05 -10.06 2.49
-3.84 -10.14 2.49
-3.64 -10.21 2.49
-3.43 -10.27 2.49
-3.22 -10.34 2.49
-3.01 -10.39 2.49
-2.80 -10.45 2.49
-2.59 -10.50 2.49
-2.38 -10.54 2.49
-2.17 -10.58 2.49
-1.95 -10.62 2.49
-1.74 -10.65 2.49
-1.52 -10.68 2.49
-1.31 -10.70 2.49
-1.09 -10.72 2.49
-0.88 -10.74 2.49
-0.66 -10.75 2.49
-0.45 -10.75 2.49
-0.23 -10.75 2.49
-0.01 -9.75 2.49
0.18 -9.74 2.49
0.38 -9.73 2.49
0.57 -9.72 2.49
0.77 -9.70 2.49
0.96 -9.68 2.49
1.15 -9.65 2.49
1.35 -9.62 2.49
1.54 -9.59 2.49
1.73 -9.55 2.49
1.92 -9.51 2.49
2.05 -9.22 2.43
2.20 -9.03 2.39
2.38 -8.98 2.39
2.56 -8.92 2.39
2.74 -8.86 2.39
2.91 -8.80 2.39
3.09 -8.74 2.39
3.26 -8.67 2.39
3.43 -8.60 2.39
3.60 -8.52 2.39
3.77 -8.45 2.39
3.94 -8.36 2.39
4.10 -8.28 2.39
4.27 -8.19 2.39
4.43 -8.10 2.39
4.59 -8.00 2.39
4.74 -7.91 2.39
4.90 -7.81 2.39
5.05 -7.70 2.39
5.20 -7.59 2.39
5.35 -7.48 2.39
5.50 -7.37 2.39
5.64 -7.26 2.39
5.78 -7.14 2.39
5.92 -7.02 2.39
6.35 -7.23 2.51
6.43 -7.03 2.48
6.51 -6.83 2.46
6.58 -6.64 2.44
6.65 -6.44 2.42
6.72 -6.25 2.40
6.78 -6.06 2.38
6.85 -5.87 2.36
6.92 -5.70 2.34
7.01 -5.54 2.34
7.11 -5.39 2.33
7.20 -5.24 2.33
7.29 -5.08 2.33
7.38 -4.93 2.33
7.47 -4.77 2.33
7.56 -4.62 2.32
7.64 -4.46 2.32
7.73 -4.30 2.32
7.81 -4.15 2.32
7.89 -3.99 2.32
7.96 -3.83 2.32
8.04 -3.67 2.32
8.09 -3.50 2.32
8.14 -3.32 2.32
8.19 -3.15 2.31
8.23 -2.98 2.31
8.28 -2.81 2.30
8.32 -2.64 2.30
8.36 -2.47 2.30
8.39 -2.30 2.30
8.43 -2.12 2.29
8.45 -1.95 2.29
8.47 -1.78 2.29
8.49 -1.60 2.28
8.51 -1.43 2.28
8.52 -1.26 2.28
8.54 -1.09 2.28
8.55 -0.91 2.27
8.56 -0.74 2.27
8.57 -0.57 2.27
8.58 -0.39 2.27
8.58 -0.22 2.27
8.58 -0.05 2.27
8.57 0.12 2.27
8.49 0.29 2.25
8.43 0.46 2.24
8.48 0.63 2.25
8.52 0.81 2.27
8.55 0.99 2.28
8.59 1.17 2.30
8.62 1.35 2.31
8.64 1.53 2.33
8.67 1.71 2.34
8.69 1.90 2.36
8.71 2.09 2.38
8.72 2.28 2.39
8.73 2.47 2.41
8.64 2.63 2.40
8.55 2.79 2.39
8.45 2.95 2.38
8.36 3.11 2.37
8.26 3.26 2.36
8.16 3.42 2.35
7.71 3.41 2.24
7.64 3.56 2.24
7.57 3.72 2.24
7.51 3.88 2.24
7.43 4.03 2.25
7.36 4.19 2.25
7.29 4.34 2.25
7.21 4.49 2.26
7.14 4.65 2.26
7.05 4.80 2.27
6.97 4.95 2.27
6.89 5.10 2.28
6.81 5.26 2.28
6.72 5.41 2.29
6.64 5.57 2.30
6.78 5.93 2.39
6.67 6.07 2.39
6.54 6.19 2.39
6.41 6.32 2.39
6.29 6.45 2.39
6.17 6.59 2.39
6.04 6.72 2.40
5.92 6.85 2.40
5.79 6.98 2.40
5.62 7.06 2.39
5.20 6.81 2.27
5.11 6.98 2.29
5.09 7.26 2.35
4.95 7.37 2.35
4.64 7.21 2.27
4.51 7.34 2.28
4.50 7.67 2.35
4.42 7.89 2.39
4.26 7.98 2.39
4.10 8.06 2.39
3.94 8.14 2.39
3.78 8.22 2.39
3.61 8.30 2.39
3.45 8.38 2.39
3.28 8.45 2.39
3.11 8.51 2.39
2.94 8.58 2.39
2.77 8.64 2.39
2.59 8.69 2.39
2.42 8.75 2.39
2.24 8.80 2.39
2.07 8.84 2.39
1.89 8.89 2.39
1.71 8.93 2.39
1.58 9.25 2.47
1.41 9.38 2.49
1.22 9.42 2.49
1.03 9.44 2.49
0.84 9.46 2.49
0.65 9.48 2.49
0.46 9.50 2.49
0.27 9.51 2.49
0.08 9.52 2.49
-0.11 9.52 2.49
-0.30 9.52 2.49
-0.49 9.52 2.49
-0.68 9.51 2.49
-0.87 9.50 2.49
-1.07 9.49 2.49
-1.26 9.47 2.49
-1.45 9.44 2.49
-1.64 9.42 2.49
-1.83 9.39 2.49
-2.02 9.35 2.49
-2.21 9.32 2.49
-2.39 9.27 2.49
-2.58 9.23 2.49
-2.77 9.18 2.49
-2.95 9.13 2.49
-3.14 9.07 2.49
-3.32 9.01 2.49
-3.50 8.95 2.49
-3.68 8.88 2.49
-3.86 8.81 2.49
-4.04 8.73 2.49
-4.22 8.66 2.49
-4.39 8.57 2.49
-4.56 8.49 2.49
-4.74 8.40 2.49
-4.91 8.31 2.49
-5.07 8.21 2.49
-5.24 8.11 2.49
-5.41 8.01 2.49
-5.57 7.90 2.49
-5.73 7.79 2.49
-5.89 7.68 2.49
-6.04 7.56 2.49
-6.20 7.45 2.49
-6.35 7.32 2.49
-6.41 7.10 2.46
-6.41 6.83 2.41
-6.51 6.65 2.39
-6.64 6.52 2.39
-6.78 6.39 2.39
-6.91 6.26 2.39
-7.03 6.12 2.39
-7.16 5.98 2.39
-7.28 5.84 2.39
-7.40 5.69 2.39
-7.52 5.55 2.39
-7.63 5.40 2.39
-7.74 5.25 2.39
-7.85 5.09 2.39
-7.95 4.94 2.39
-8.05 4.78 2.39
-8.15 4.62 2.39
-8.24 4.46 2.39
-8.33 4.29 2.39
-8.42 4.12 2.39
-7.64 3.55 2.15
-8.01 3.53 2.23
-8.56 3.57 2.36
-8.74 3.44 2.39
-8.81 3.27 2.39
-8.88 3.09 2.39
-8.94 2.91 2.39
-9.00 2.74 2.39
-9.06 2.56 2.39
-9.11 2.37 2.39
-9.16 2.19 2.39
-9.20 2.01 2.39
-9.25 1.82 2.39
-9.28 1.64 2.39
-9.32 1.45 2.39
-9.35 1.27 2.39
-9.37 1.08 2.39
-9.40 0.89 2.39
-9.42 0.70 2.39
-9.43 0.51 2.39
-9.44 0.32 2.39
-9.45 0.14 2.39
-9.45 -0.05 2.39
-6.47 -0.17 1.64
-6.52 -0.30 1.65
-9.44 -0.62 2.39
-9.42 -0.81 2.39
-9.41 -1.00 2.39
-9.39 -1.19 2.39
-9.36 -1.38 2.39
-9.34 -1.57 2.39
-9.30 -1.75 2.39
-9.27 -1.94 2.39
-9.23 -2.12 2.39
-9.19 -2.31 2.39
-9.14 -2.49 2.39
-9.09 -2.68 2.39
-9.03 -2.86 2.39
-8.98 -3.04 2.39
-8.91 -3.22 2.39
-8.85 -3.40 2.39
-8.78 -3.57 2.39
-8.71 -3.75 2.39
-8.63 -3.92 2.39
-8.55 -4.09 2.39
-8.46 -4.27 2.39
-8.38 -4.43 2.39
-8.29 -4.60 2.39
-8.19 -4.77 2.39
-8.10 -4.93 2.39
-7.99 -5.09 2.39
-7.89 -5.25 2.39
-7.78 -5.41 2.39
-7.67 -5.56 2.39
-7.56 -5.71 2.39
-7.06 -5.56 2.27
-7.03 -5.77 2.30
-7.02 -6.00 2.33
-6.96 -6.19 2.35
-6.83 -6.33 2.35
-6.47 -6.24 2.27
-6.42 -6.45 2.30
-6.42 -6.71 2.35
-6.40 -6.97 2.39
-6.26 -7.09 2.39
-6.12 -7.22 2.39
-6.05 -7.43 2.42
-6.03 -7.73 2.48
-5.91 -7.89 2.49
-5.75 -8.01 2.49
-5.59 -8.12 2.49
-5.42 -8.23 2.49
-5.26 -8.33 2.49
-5.09 -8.43 2.49
-4.92 -8.53 2.49
-4.74 -8.63 2.49
-4.57 -8.72 2.49
-4.39 -8.80 2.49
-4.21 -8.89 2.49
-4.03 -8.97 2.49
-3.85 -9.04 2.49
-3.67 -9.11 2.49
-3.48 -9.18 2.49
-3.30 -9.25 2.49
-3.11 -9.31 2.49
-2.92 -9.37 2.49
-2.73 -9.42 2.49
-2.54 -9.47 2.49
-2.35 -9.51 2.49
-2.16 -9.56 2.49
-1.96 -9.59 2.49
-1.77 -9.63 2.49
-1.58 -9.66 2.49
-1.38 -9.68 2.49
-1.19 -9.70 2.49
-0.99 -9.72 2.49
-0.80 -9.73 2.49
-0.60 -9.74 2.49
-0.41 -9.75 2.49
-0.21 -9.75 2.49
-0.01 -8.91 2.49
0.16 -8.90 2.49
0.34 -8.89 2.49
0.52 -8.88 2.49
0.70 -8.87 2.49
0.88 -8.85 2.49
1.05 -8.82 2.49
1.23 -8.80 2.49
1.40 -8.77 2.49
1.58 -8.73 2.49
1.75 -8.69 2.49
1.93 -8.65 2.49
2.04 -8.35 2.42
2.18 -8.21 2.39
2.34 -8.16 2.39
2.50 -8.10 2.39
2.66 -8.05 2.39
2.82 -7.99 2.39
2.98 -7.93 2.39
3.14 -7.86 2.39
3.29 -7.79 2.39
3.45 -7.72 2.39
3.60 -7.65 2.39
3.75 -7.57 2.39
3.90 -7.49 2.39
4.05 -7.41 2.39
4.19 -7.32 2.39
4.34 -7.23 2.39
4.48 -7.14 2.39
4.62 -7.05 2.39
4.76 -6.95 2.39
4.89 -6.85 2.39
5.03 -6.75 2.39
5.16 -6.64 2.39
5.29 -6.53 2.39
5.42 -6.42 2.39
5.54 -6.31 2.39
5.67 -6.19 2.39
5.79 -6.08 2.39
5.91 -5.96 2.39
6.25 -6.06 2.48
6.33 -5.89 2.47
6.40 -5.72 2.45
6.49 -5.57 2.44
6.59 -5.43 2.44
6.68 -5.28 2.43
6.77 -5.13 2.43
6.85 -4.98 2.42
6.94 -4.84 2.42
7.02 -4.69 2.42
7.11 -4.54 2.42
7.19 -4.39 2.41
7.27 -4.24 2.41
7.35 -4.09 2.41
7.43 -3.94 2.41
7.50 -3.79 2.41
7.57 -3.64 2.41
7.62 -3.48 2.41
7.67 -3.32 2.40
7.72 -3.15 2.40
7.77 -2.99 2.39
7.81 -2.83 2.39
7.85 -2.67 2.38
7.88 -2.50 2.38
7.91 -2.34 2.37
7.93 -2.17 2.37
7.96 -2.01 2.36
7.98 -1.84 2.36
8.00 -1.68 2.36
8.02 -1.52 2.35
8.04 -1.35 2.35
8.06 -1.19 2.35
8.07 -1.03 2.35
8.08 -0.86 2.35
8.09 -0.70 2.35
8.10 -0.54 2.35
8.10 -0.37 2.34
8.03 -0.21 2.32
7.96 -0.05 2.30
7.89 0.11 2.28
7.82 0.27 2.26
7.76 0.42 2.25
7.79 0.58 2.26
7.82 0.74 2.27
7.85 0.91 2.29
7.88 1.07 2.30
7.90 1.24 2.32
7.93 1.40 2.33
7.94 1.57 2.34
7.95 1.74 2.36
7.96 1.91 2.37
4.97 1.30 1.49
7.96 2.25 2.40
7.96 2.42 2.41
7.88 2.58 2.40
5.03 1.76 1.54
4.94 1.84 1.53
4.91 1.94 1.53
4.92 2.06 1.55
5.00 2.21 1.59
7.09 3.31 2.27
7.03 3.45 2.27
6.97 3.60 2.27
6.91 3.75 2.28
6.84 3.89 2.28
6.78 4.04 2.29
6.71 4.18 2.29
6.64 4.33 2.30
6.57 4.47 2.30
6.50 4.61 2.31
6.42 4.76 2.32
6.35 4.90 2.32
6.27 5.05 2.33
6.18 5.19 2.34
6.10 5.33 2.35
6.01 5.47 2.35
5.92 5.61 2.36
5.90 5.82 2.40
5.79 5.94 2.40
5.64 6.03 2.39
5.52 6.15 2.39
5.40 6.26 2.39
5.27 6.36 2.39
5.09 6.41 2.37
4.88 6.40 2.33
4.68 6.40 2.29
4.53 6.47 2.28
4.53 6.74 2.35
4.47 6.96 2.39
4.33 7.05 2.39
4.19 7.14 2.39
4.05 7.22 2.39
3.90 7.31 2.39
3.76 7.38 2.39
3.61 7.46 2.39
3.46 7.53 2.39
3.31 7.60 2.39
3.16 7.67 2.39
3.00 7.74 2.39
2.85 7.80 2.39
2.69 7.86 2.39
2.53 7.91 2.39
2.37 7.96 2.39
2.21 8.01 2.39
2.05 8.06 2.39
1.89 8.10 2.39
1.73 8.14 2.39
1.60 8.37 2.45
1.46 8.56 2.49
1.29 8.59 2.49
1.12 8.62 2.49
0.95 8.64 2.49
0.77 8.67 2.49
0.60 8.68 2.49
0.42 8.70 2.49
0.25 8.71 2.49
0.07 8.71 2.49
-0.10 8.72 2.49
-0.28 8.72 2.49
-0.45 8.71 2.49
-0.63 8.71 2.49
-0.80 8.70 2.49
-0.98 8.68 2.49
-1.15 8.66 2.49
-1.33 8.64 2.49
-1.50 8.62 2.49
-1.67 8.59 2.49
-1.85 8.56 2.49
-2.02 8.52 2.49
-2.19 8.49 2.49
-2.36 8.44 2.49
-2.53 8.40 2.49
-2.70 8.35 2.49
-2.87 8.30 2.49
-3.04 8.24 2.49
-3.20 8.18 2.49
-3.37 8.12 2.49
-3.53 8.06 2.49
-3.70 7.99 2.49
-3.86 7.92 2.49
-4.02 7.84 2.49
-4.18 7.76 2.49
-4.33 7.68 2.49
-4.49 7.60 2.49
-4.64 7.51 2.49
-4.79 7.42 2.49
-4.94 7.32 2.49
-5.09 7.22 2.49
-5.24 7.12 2.49
-5.38 7.02 2.49
-5.53 6.92 2.49
-5.67 6.81 2.49
-5.80 6.69 2.49
-5.94 6.58 2.49
-6.07 6.46 2.49
-6.21 6.34 2.49
-6.33 6.22 2.49
-6.39 6.02 2.47
-6.38 5.78 2.42
-6.43 5.59 2.39
-6.56 5.48 2.40
-6.65 5.34 2.39
-6.76 5.20 2.39
-6.87 5.07 2.39
-6.97 4.93 2.39
-7.07 4.79 2.39
-7.17 4.65 2.39
-7.26 4.51 2.39
-7.36 4.36 2.39
-7.45 4.22 2.39
-7.53 4.07 2.39
-7.62 3.92 2.39
-7.70 3.77 2.39
-7.77 3.61 2.39
-7.85 3.46 2.39
-7.92 3.30 2.39
-7.98 3.14 2.39
-8.05 2.98 2.39
-8.11 2.82 2.39
-8.17 2.66 2.39
-8.22 2.50 2.39
-8.27 2.33 2.39
-8.32 2.17 2.39
-8.37 2.00 2.39
-8.41 1.83 2.39
-8.44 1.66 2.39
-8.48 1.50 2.39
-8.51 1.33 2.39
-8.54 1.16 2.39
-8.56 0.98 2.39
-8.58 0.81 2.39
-8.60 0.64 2.39
-8.61 0.47 2.39
-8.62 0.30 2.39
-8.63 0.12 2.39
-8.63 -0.05 2.39
-6.47 -0.17 1.79
-6.52 -0.30 1.81
-8.62 -0.57 2.39
-8.60 -0.74 2.39
-8.59 -0.91 2.39
-8.57 -1.09 2.39
-8.55 -1.26 2.39
-8.52 -1.43 2.39
-8.49 -1.60 2.39
-8.46 -1.77 2.39
-8.43 -1.94 2.39
-8.39 -2.11 2.39
-8.34 -2.28 2.39
-8.30 -2.44 2.39
-8.25 -2.61 2.39
-8.19 -2.77 2.39
-8.14 -2.94 2.39
-8.08 -3.10 2.39
-8.01 -3.26 2.39
-7.95 -3.42 2.39
-7.88 -3.58 2.39
-7.80 -3.74 2.39
-7.73 -3.89 2.39
-7.65 -4.05 2.39
-7.18 -3.99 2.27
-7.10 -4.13 2.27
-7.07 -4.30 2.29
-7.06 -4.50 2.31
-7.06 -4.69 2.34
-6.99 -4.85 2.35
-6.89 -4.99 2.35
-6.55 -4.95 2.27
-6.46 -5.09 2.28
-6.45 -5.30 2.31
-6.45 -5.51 2.35
-6.44 -5.73 2.39
-6.34 -5.88 2.39
-6.22 -6.00 2.39
-6.10 -6.12 2.39
-6.07 -6.35 2.43
-6.06 -6.60 2.48
-5.96 -6.75 2.49
-5.83 -6.87 2.49
-5.69 -6.99 2.49
-5.54 -7.10 2.49
-5.40 -7.20 2.49
-5.25 -7.31 2.49
-5.10 -7.41 2.49
-4.95 -7.51 2.49
-4.80 -7.61 2.49
-4.65 -7.70 2.49
-4.49 -7.79 2.49
-4.33 -7.88 2.49
-4.17 -7.96 2.49
-4.01 -8.04 2.49
-3.85 -8.12 2.49
-3.68 -8.19 2.49
-3.52 -8.26 2.49
-3.35 -8.32 2.49
-3.18 -8.39 2.49
-3.01 -8.45 2.49
-2.84 -8.50 2.49
-2.67 -8.55 2.49
-2.50 -8.60 2.49
-2.32 -8.65 2.49
-2.15 -8.69 2.49
-1.97 -8.73 2.49
-1.80 -8.76 2.49
-1.62 -8.79 2.49
-1.44 -8.82 2.49
-1.26 -8.84 2.49
-1.09 -8.86 2.49
-0.91 -8.88 2.49
-0.73 -8.89 2.49
-0.55 -8.90 2.49
-0.37 -8.91 2.49
-0.19 -8.91 2.49
-0.01 -8.19 2.49
0.15 -8.19 2.49
0.31 -8.18 2.49
0.48 -8.17 2.49
0.64 -8.15 2.49
0.80 -8.14 2.49
0.97 -8.12 2.49
1.13 -8.09 2.49
1.29 -8.06 2.49
1.45 -8.03 2.49
1.61 -8.00 2.49
1.77 -7.96 2.49
1.93 -7.92 2.49
2.02 -7.62 2.41
2.15 -7.51 2.39
2.30 -7.46 2.39
2.45 -7.41 2.39
2.60 -7.35 2.39
2.74 -7.30 2.39
2.89 -7.24 2.39
3.03 -7.17 2.39
3.17 -7.11 2.39
3.31 -7.04 2.39
3.45 -6.97 2.39
3.59 -6.90 2.39
3.72 -6.82 2.39
3.86 -6.74 2.39
3.99 -6.66 2.39
4.12 -6.57 2.39
4.25 -6.49 2.39
4.38 -6.40 2.39
4.51 -6.31 2.39
4.63 -6.21 2.39
4.75 -6.11 2.39
4.87 -6.01 2.39
4.99 -5.91 2.39
5.10 -5.81 2.39
5.22 -5.70 2.39
5.33 -5.59 2.39
5.44 -5.48 2.39
5.54 -5.37 2.39
5.65 -5.26 2.39
5.75 -5.14 2.39
5.85 -5.02 2.39
5.95 -4.90 2.39
6.37 -5.04 2.52
6.45 -4.90 2.52
6.54 -4.76 2.51
6.62 -4.62 2.51
6.70 -4.47 2.50
6.78 -4.33 2.50
6.85 -4.19 2.50
6.93 -4.05 2.50
7.00 -3.90 2.50
7.08 -3.76 2.50
7.14 -3.61 2.49
7.19 -3.46 2.49
7.24 -3.30 2.48
7.28 -3.15 2.47
7.32 -2.99 2.47
7.36 -2.83 2.46
7.39 -2.68 2.45
7.42 -2.52 2.45
7.45 -2.37 2.44
7.48 -2.21 2.44
7.51 -2.06 2.43
7.53 -1.90 2.43
7.56 -1.75 2.43
7.58 -1.59 2.42
7.60 -1.44 2.42
7.61 -1.28 2.42
7.63 -1.13 2.42
7.64 -0.97 2.41
7.64 -0.82 2.41
7.58 -0.66 2.39
7.53 -0.50 2.37
7.47 -0.35 2.35
7.42 -0.19 2.33
7.36 -0.04 2.31
7.30 0.10 2.29
7.23 0.25 2.27
7.17 0.39 2.25
7.20 0.54 2.27
7.23 0.69 2.28
7.25 0.84 2.29
7.27 0.99 2.30
7.28 1.14 2.31
7.29 1.29 2.33
7.30 1.44 2.34
4.88 1.07 1.57
4.81 1.15 1.55
4.76 1.24 1.55
4.75 1.34 1.55
4.77 1.45 1.57
4.91 1.61 1.63
4.88 1.70 1.62
4.76 1.77 1.60
4.76 1.88 1.61
4.76 1.99 1.62
6.99 3.09 2.40
6.94 3.24 2.41
6.69 3.28 2.34
6.52 3.37 2.31
6.46 3.50 2.31
6.40 3.64 2.32
6.34 3.78 2.32
6.28 3.91 2.33
6.22 4.05 2.33
6.15 4.19 2.34
6.08 4.32 2.35
6.01 4.45 2.35
5.94 4.59 2.36
5.86 4.72 2.36
5.78 4.85 2.37
5.70 4.98 2.38
5.61 5.11 2.38
5.53 5.23 2.39
5.42 5.35 2.39
5.31 5.45 2.39
5.20 5.56 2.39
5.09 5.66 2.39
4.98 5.77 2.39
4.86 5.87 2.39
4.74 5.96 2.39
4.62 6.06 2.39
4.50 6.15 2.39
4.38 6.24 2.39
4.25 6.33 2.39
4.12 6.42 2.39
3.99 6.50 2.39
3.86 6.58 2.39
3.73 6.66 2.39
3.60 6.73 2.39
3.46 6.81 2.39
3.33 6.88 2.39
3.19 6.94 2.39
3.05 7.01 2.39
2.91 7.07 2.39
2.77 7.13 2.39
2.62 7.18 2.39
2.48 7.24 2.39
2.33 7.29 2.39
2.19 7.34 2.39
2.04 7.38 2.39
1.89 7.42 2.39
1.74 7.46 2.39
1.62 7.64 2.44
1.50 7.86 2.49
1.35 7.89 2.49
1.19 7.92 2.49
1.03 7.94 2.49
0.87 7.96 2.49
0.71 7.98 2.49
0.55 8.00 2.49
0.39 8.01 2.49
0.23 8.02 2.49
0.07 8.03 2.49
-0.09 8.03 2.49
-0.26 8.03 2.49
-0.42 8.02 2.49
-0.58 8.02 2.49
-0.74 8.01 2.49
-0.90 7.99 2.49
-1.06 7.98 2.49
-1.22 7.96 2.49
-1.38 7.94 2.49
-1.54 7.91 2.49
-1.70 7.88 2.49
-1.86 7.85 2.49
-2.02 7.81 2.49
-2.18 7.77 2.49
-2.33 7.73 2.49
-2.49 7.69 2.49
-2.64 7.64 2.49
-2.80 7.59 2.49
-2.95 7.53 2.49
-3.10 7.48 2.49
-3.25 7.42 2.49
-3.40 7.35 2.49
-3.55 7.29 2.49
-3.70 7.22 2.49
-3.84 7.14 2.49
-3.99 7.07 2.49
-4.13 6.99 2.49
-4.27 6.91 2.49
-4.41 6.82 2.49
-4.55 6.74 2.49
-4.69 6.65 2.49
-4.82 6.55 2.49
-4.95 6.46 2.49
-5.09 6.36 2.49
-5.21 6.26 2.49
-5.34 6.16 2.49
-5.47 6.05 2.49
-5.59 5.94 2.49
-5.71 5.83 2.49
-5.83 5.72 2.49
-5.94 5.60 2.49
-6.06 5.49 2.49
-6.17 5.37 2.49
-6.28 5.24 2.49
-6.36 5.10 2.49
-6.36 4.89 2.44
-6.36 4.69 2.41
-6.41 4.54 2.39
-6.50 4.41 2.39
-6.59 4.28 2.39
-6.68 4.15 2.39
-6.77 4.01 2.39
-6.85 3.88 2.39
-6.93 3.74 2.39
-7.00 3.60 2.39
-7.08 3.46 2.39
-7.15 3.32 2.39
-7.21 3.18 2.39
-7.28 3.03 2.39
-7.34 2.89 2.39
-7.40 2.74 2.39
-7.46 2.59 2.39
-7.51 2.45 2.39
-7.56 2.29 2.39
-7.61 2.14 2.39
-7.65 1.99 2.39
-7.69 1.84 2.39
-7.73 1.68 2.39
-7.76 1.53 2.39
-7.79 1.37 2.39
-7.82 1.22 2.39
-7.85 1.06 2.39
-7.87 0.90 2.39
-7.89 0.75 2.39
-7.90 0.59 2.39
-7.91 0.43 2.39
-7.92 0.27 2.39
-7.93 0.11 2.39
-7.93 -0.05 2.39
-6.47 -0.17 1.95
-6.52 -0.30 1.97
-7.92 -0.52 2.39
-7.91 -0.68 2.39
-7.89 -0.84 2.39
-7.88 -1.00 2.39
-7.86 -1.16 2.39
-7.83 -1.31 2.39
-7.81 -1.47 2.39
-7.78 -1.63 2.39
-7.74 -1.78 2.39
-7.71 -1.94 2.39
-7.67 -2.09 2.39
-7.62 -2.25 2.39
-7.21 -2.28 2.27
-7.15 -2.42 2.27
-7.11 -2.57 2.28
-7.11 -2.73 2.29
-7.10 -2.89 2.31
-7.10 -3.06 2.32
-7.09 -3.22 2.34
-7.05 -3.38 2.35
-6.98 -3.52 2.35
-6.91 -3.66 2.35
-6.60 -3.66 2.27
-6.52 -3.79 2.27
-6.49 -3.95 2.28
-6.48 -4.13 2.31
-6.48 -4.31 2.34
-6.47 -4.50 2.37
-6.44 -4.66 2.39
-6.34 -4.79 2.39
-6.24 -4.92 2.39
-6.14 -5.04 2.39
-6.10 -5.22 2.42
-6.09 -5.42 2.46
-6.08 -5.63 2.49
-5.96 -5.75 2.49
-5.85 -5.87 2.49
-5.73 -5.98 2.49
-5.61 -6.10 2.49
-5.48 -6.21 2.49
-5.35 -6.31 2.49
-5.23 -6.42 2.49
-5.10 -6.52 2.49
-4.96 -6.62 2.49
-4.83 -6.72 2.49
-4.69 -6.81 2.49
-4.55 -6.90 2.49
-4.41 -6.99 2.49
-4.27 -7.08 2.49
-4.13 -7.16 2.49
-3.98 -7.24 2.49
-3.84 -7.32 2.49
-3.69 -7.39 2.49
-3.54 -7.46 2.49
-3.39 -7.53 2.49
-3.23 -7.59 2.49
-3.08 -7.65 2.49
-2.92 -7.71 2.49
-2.77 -7.76 2.49
-2.61 -7.82 2.49
-2.45 -7.86 2.49
-2.30 -7.91 2.49
-2.14 -7.95 2.49
-1.97 -7.99 2.49
-1.81 -8.02 2.49
-1.65 -8.06 2.49
-1.49 -8.09 2.49
-1.33 -8.11 2.49
-1.16 -8.13 2.49
-1.00 -8.15 2.49
-0.84 -8.17 2.49
-0.67 -8.18 2.49
-0.51 -8.19 2.49
-0.34 -8.19 2.49
-0.18 -8.19 2.49
-0.01 -7.58 2.49
0.14 -7.57 2.49
0.29 -7.57 2.49
0.44 -7.56 2.49
0.59 -7.54 2.49
0.74 -7.53 2.49
0.89 -7.51 2.49
1.04 -7.48 2.49
