ply
format ascii 1.0
element vertex 2955
property float32 x
property float32 y
property float32 z
end_header
-16.81 -8.92 3.21
-9.94 -5.53 1.92
-15.84 -9.23 3.09
-15.29 -9.33 3.02
-14.95 -9.54 2.99
-14.88 -9.93 3.01
-14.81 -10.31 3.03
-14.73 -10.70 3.06
-14.55 -11.03 3.07
-14.17 -11.19 3.03
-13.78 -11.34 2.99
-10.01 -8.58 2.21
-12.28 -10.96 2.76
-11.13 -10.35 2.54
-11.02 -10.66 2.56
-10.89 -10.97 2.58
-9.89 -10.37 2.39
-9.69 -10.57 2.39
-9.48 -10.78 2.39
-9.27 -10.97 2.39
-9.06 -11.16 2.39
-8.84 -11.35 2.39
-8.61 -11.54 2.39
-8.39 -11.72 2.39
-8.16 -11.89 2.39
-7.92 -12.07 2.39
-7.69 -12.23 2.39
-7.44 -12.39 2.39
-7.20 -12.55 2.39
-6.95 -12.70 2.39
-6.70 -12.85 2.39
-6.45 -12.99 2.39
-6.20 -13.15 2.39
-6.01 -13.45 2.43
-5.91 -13.97 2.49
-5.64 -14.10 2.49
-5.36 -14.22 2.49
-5.07 -14.34 2.49
-4.79 -14.45 2.49
-4.50 -14.55 2.49
-4.21 -14.65 2.49
-3.92 -14.75 2.49
-3.63 -14.83 2.49
-3.33 -14.92 2.49
-3.03 -14.99 2.49
-2.73 -15.06 2.49
-2.43 -15.13 2.49
-2.13 -15.18 2.49
-1.83 -15.24 2.49
-1.52 -15.28 2.49
-1.22 -15.32 2.49
-0.91 -15.35 2.49
-0.60 -15.38 2.49
-0.29 -15.40 2.49
0.02 -13.48 2.49
0.29 -13.49 2.49
0.56 -13.49 2.49
0.83 -13.49 2.49
1.10 -13.48 2.49
1.37 -13.46 2.49
1.64 -13.44 2.49
1.91 -13.41 2.49
2.09 -12.82 2.39
2.35 -12.79 2.39
2.61 -12.75 2.39
2.86 -12.70 2.39
3.12 -12.65 2.39
3.37 -12.59 2.39
3.63 -12.52 2.39
3.88 -12.46 2.39
4.13 -12.38 2.39
4.38 -12.30 2.39
4.63 -12.22 2.39
4.88 -12.13 2.39
5.12 -12.04 2.39
5.36 -11.94 2.39
5.61 -11.83 2.39
5.84 -11.72 2.39
5.97 -11.39 2.35
6.12 -11.13 2.32
6.29 -10.92 2.30
6.48 -10.75 2.29
6.70 -10.62 2.29
6.93 -10.51 2.29
7.19 -10.45 2.31
7.49 -10.42 2.33
7.77 -10.37 2.36
7.94 -10.17 2.34
8.10 -9.96 2.33
7.99 -9.42 2.24
8.14 -9.22 2.23
8.29 -9.02 2.22
8.52 -8.90 2.24
8.67 -8.71 2.23
8.82 -8.51 2.22
8.97 -8.32 2.22
9.12 -8.12 2.21
9.26 -7.92 2.21
9.40 -7.71 2.20
9.62 -7.58 2.22
10.04 -7.59 2.28
10.26 -7.43 2.30
10.38 -7.21 2.29
10.50 -6.99 2.28
10.62 -6.76 2.28
10.73 -6.53 2.27
10.83 -6.30 2.27
10.94 -6.07 2.27
11.05 -5.85 2.26
11.14 -5.61 2.26
11.22 -5.37 2.25
11.32 -5.14 2.25
11.42 -4.92 2.25
11.51 -4.69 2.25
11.29 -4.33 2.19
11.36 -4.10 2.19
11.43 -3.87 2.19
11.50 -3.64 2.18
11.56 -3.40 2.18
11.61 -3.17 2.18
11.67 -2.93 2.18
11.71 -2.69 2.18
11.76 -2.46 2.18
12.22 -2.30 2.25
12.26 -2.05 2.25
12.30 -1.81 2.25
11.43 -1.45 2.09
12.35 -1.31 2.25
12.36 -1.06 2.25
12.37 -0.81 2.25
12.38 -0.57 2.25
12.39 -0.32 2.25
12.40 -0.07 2.25
12.40 0.18 2.25
12.39 0.43 2.25
12.37 0.68 2.25
8.95 0.67 1.63
12.31 1.17 2.25
12.27 1.42 2.25
12.23 1.66 2.25
11.86 1.85 2.19
12.12 2.14 2.24
12.06 2.38 2.24
12.01 2.62 2.24
11.95 2.86 2.24
11.32 2.95 2.14
10.50 2.96 1.99
9.77 2.97 1.87
9.14 2.98 1.76
8.57 2.99 1.66
8.07 2.99 1.58
7.61 3.00 1.50
7.20 3.01 1.43
6.82 3.01 1.37
6.48 3.01 1.31
6.20 3.04 1.27
6.20 3.20 1.28
10.07 5.45 2.10
9.96 5.65 2.11
9.86 5.85 2.11
10.63 6.60 2.31
10.06 6.53 2.21
9.74 6.61 2.17
9.63 6.82 2.18
9.51 7.03 2.18
9.39 7.23 2.19
9.26 7.44 2.20
9.14 7.64 2.20
9.00 7.84 2.21
8.87 8.04 2.22
8.73 8.24 2.23
8.58 8.43 2.23
8.43 8.63 2.24
8.87 9.44 2.41
8.67 9.61 2.41
8.47 9.78 2.41
8.26 9.94 2.41
8.06 10.09 2.41
7.85 10.24 2.41
7.63 10.39 2.41
7.42 10.54 2.41
7.20 10.68 2.41
6.98 10.81 2.41
6.76 10.94 2.41
6.53 11.06 2.41
6.26 11.11 2.39
6.03 11.23 2.39
5.80 11.34 2.39
5.57 11.44 2.39
5.33 11.54 2.39
5.10 11.64 2.39
4.86 11.73 2.39
4.62 11.82 2.39
4.38 11.90 2.39
4.13 11.98 2.39
3.89 12.05 2.39
3.65 12.11 2.39
3.40 12.18 2.39
3.15 12.23 2.39
2.90 12.28 2.39
2.65 12.33 2.39
2.40 12.37 2.39
2.25 12.95 2.49
1.99 12.98 2.49
1.72 13.01 2.49
1.46 13.03 2.49
1.20 13.05 2.49
0.93 13.06 2.49
0.67 13.07 2.49
0.41 13.07 2.49
0.15 13.07 2.49
-0.12 13.06 2.49
-0.38 13.05 2.49
-0.64 13.03 2.49
-0.90 13.00 2.49
-1.16 12.97 2.49
-1.42 12.94 2.49
-1.68 12.90 2.49
-1.94 12.86 2.49
-2.19 12.81 2.49
-2.45 12.75 2.49
-2.70 12.70 2.49
-2.96 12.63 2.49
-3.21 12.56 2.49
-3.46 12.49 2.49
-3.71 12.41 2.49
-3.95 12.33 2.49
-4.20 12.24 2.49
-4.44 12.15 2.49
-4.68 12.05 2.49
-4.92 11.95 2.49
-5.16 11.84 2.49
-5.39 11.73 2.49
-5.62 11.61 2.49
-5.70 11.20 2.43
-5.83 10.90 2.39
-6.04 10.77 2.39
-6.07 10.33 2.32
-6.14 9.98 2.27
-6.56 10.21 2.35
-6.66 9.92 2.32
-6.72 9.58 2.27
-7.28 9.94 2.39
-7.47 9.79 2.39
-7.67 9.64 2.39
-7.86 9.48 2.39
-8.04 9.32 2.39
-8.23 9.15 2.39
-8.41 8.98 2.39
-8.58 8.81 2.39
-8.76 8.63 2.39
-8.93 8.45 2.39
-9.09 8.27 2.39
-9.25 8.08 2.39
-9.41 7.89 2.39
-9.57 7.70 2.39
-9.72 7.51 2.39
-11.08 8.21 2.68
-11.43 8.12 2.73
-9.79 6.66 2.31
-9.80 6.38 2.28
-9.82 6.12 2.25
-12.74 7.59 2.89
-13.02 7.40 2.92
-9.81 5.32 2.18
-9.83 5.08 2.16
-9.82 4.82 2.13
-13.69 6.39 2.94
-13.87 6.14 2.96
-14.05 5.88 2.97
-14.22 5.62 2.98
-9.83 3.66 2.04
-14.54 5.08 3.00
-14.70 4.81 3.01
-14.84 4.52 3.02
-14.98 4.24 3.03
-15.09 3.95 3.04
-15.18 3.64 3.04
-15.26 3.34 3.04
-15.34 3.04 3.04
-15.41 2.73 3.05
-15.49 2.42 3.05
-15.55 2.11 3.05
-15.60 1.80 3.06
-15.65 1.49 3.06
-15.69 1.18 3.06
-9.87 0.54 1.92
-15.73 0.54 3.06
-15.70 0.23 3.05
-15.70 -0.09 3.05
-15.71 -0.40 3.05
-15.73 -0.72 3.05
-15.73 -1.04 3.06
-15.73 -1.36 3.06
-6.12 -0.65 1.19
-15.80 -2.00 3.09
-15.77 -2.32 3.09
-9.90 -1.66 1.94
-9.90 -1.87 1.95
-15.58 -3.27 3.08
-15.45 -3.56 3.07
-9.90 -2.49 1.97
-15.37 -4.20 3.08
-15.35 -4.53 3.09
-15.34 -4.86 3.11
-15.31 -5.20 3.12
-9.92 -3.59 2.03
-15.23 -5.86 3.15
-9.92 -4.05 2.06
-14.97 -6.46 3.14
-14.80 -6.74 3.13
-14.61 -7.02 3.12
-14.33 -7.24 3.09
-14.05 -7.46 3.06
-9.94 -5.53 2.18
-13.38 -7.80 2.97
-13.18 -8.04 2.96
-9.96 -6.36 2.26
-11.87 -7.92 2.73
-11.22 -7.82 2.62
-11.03 -8.02 2.61
-10.91 -8.27 2.62
-9.82 -7.76 2.39
-9.67 -7.96 2.39
-9.52 -8.16 2.39
-9.36 -8.35 2.39
-9.19 -8.55 2.39
-9.03 -8.74 2.39
-8.85 -8.92 2.39
-8.68 -9.10 2.39
-8.50 -9.28 2.39
-8.32 -9.46 2.39
-8.13 -9.63 2.39
-7.94 -9.80 2.39
-7.75 -9.96 2.39
-7.55 -10.12 2.39
-6.98 -9.76 2.27
-6.91 -10.08 2.31
-6.83 -10.41 2.35
-6.40 -10.18 2.27
-6.33 -10.54 2.32
-6.31 -11.01 2.39
-6.09 -11.14 2.39
-5.99 -11.49 2.44
-5.89 -11.88 2.49
-5.66 -12.01 2.49
-5.42 -12.13 2.49
-5.18 -12.24 2.49
-4.94 -12.35 2.49
-4.69 -12.46 2.49
-4.44 -12.56 2.49
-4.19 -12.66 2.49
-3.94 -12.75 2.49
-3.69 -12.83 2.49
-3.43 -12.91 2.49
-3.17 -12.99 2.49
-2.91 -13.06 2.49
-2.65 -13.12 2.49
-2.39 -13.18 2.49
-2.13 -13.24 2.49
-1.86 -13.29 2.49
-1.60 -13.33 2.49
-1.33 -13.37 2.49
-1.06 -13.41 2.49
-0.79 -13.43 2.49
-0.52 -13.46 2.49
-0.26 -13.47 2.49
0.02 -11.97 2.49
0.26 -11.98 2.49
0.50 -11.97 2.49
0.74 -11.97 2.49
0.98 -11.96 2.49
1.22 -11.94 2.49
1.46 -11.92 2.49
1.70 -11.90 2.49
1.94 -11.87 2.49
2.09 -11.34 2.39
2.31 -11.31 2.39
2.54 -11.26 2.39
2.77 -11.22 2.39
2.99 -11.16 2.39
3.22 -11.11 2.39
3.44 -11.05 2.39
3.67 -10.98 2.39
3.89 -10.91 2.39
4.11 -10.84 2.39
4.33 -10.76 2.39
4.54 -10.67 2.39
4.76 -10.58 2.39
4.97 -10.49 2.39
5.18 -10.39 2.39
5.39 -10.29 2.39
5.60 -10.19 2.39
5.80 -10.07 2.39
6.01 -9.96 2.39
6.25 -9.91 2.41
6.45 -9.78 2.41
6.50 -9.44 2.35
6.65 -9.26 2.34
6.80 -9.08 2.33
6.95 -8.89 2.32
7.09 -8.72 2.30
7.24 -8.54 2.30
7.38 -8.36 2.29
7.52 -8.18 2.28
7.66 -8.00 2.27
7.79 -7.82 2.26
7.92 -7.64 2.25
8.14 -7.54 2.27
8.48 -7.55 2.32
8.79 -7.51 2.37
8.94 -7.34 2.37
9.09 -7.16 2.37
9.23 -6.98 2.37
9.36 -6.78 2.36
9.48 -6.58 2.36
9.60 -6.39 2.36
9.72 -6.19 2.36
9.83 -5.98 2.35
9.94 -5.78 2.35
10.03 -5.57 2.34
10.11 -5.35 2.34
10.19 -5.13 2.33
10.27 -4.92 2.33
10.34 -4.70 2.32
10.02 -4.32 2.23
10.09 -4.11 2.23
10.16 -3.90 2.23
10.23 -3.69 2.22
10.29 -3.48 2.22
10.35 -3.27 2.22
10.40 -3.06 2.22
10.45 -2.85 2.22
10.50 -2.64 2.21
10.54 -2.42 2.21
10.91 -2.28 2.28
10.94 -2.06 2.28
10.97 -1.84 2.28
11.00 -1.62 2.28
11.02 -1.39 2.27
11.04 -1.17 2.27
11.06 -0.95 2.27
11.07 -0.73 2.27
11.08 -0.51 2.27
11.09 -0.28 2.27
11.09 -0.06 2.28
11.10 0.16 2.28
11.09 0.38 2.28
11.07 0.60 2.28
8.95 0.67 1.84
11.04 1.05 2.28
11.01 1.27 2.28
10.98 1.49 2.28
10.95 1.71 2.28
10.92 1.93 2.28
10.88 2.15 2.28
10.85 2.37 2.29
10.81 2.59 2.29
10.77 2.81 2.29
10.50 2.96 2.25
9.78 2.97 2.11
9.14 2.98 1.98
8.58 2.99 1.87
8.07 2.99 1.78
7.61 3.00 1.69
7.20 3.01 1.61
6.82 3.01 1.54
6.48 3.01 1.48
6.20 3.04 1.43
6.20 3.20 1.45
9.05 4.89 2.13
8.96 5.08 2.14
8.86 5.26 2.14
8.76 5.44 2.14
8.66 5.63 2.15
8.57 5.81 2.15
8.47 6.00 2.16
8.89 6.56 2.30
8.53 6.57 2.24
8.39 6.73 2.24
8.28 6.92 2.25
8.16 7.11 2.26
8.04 7.29 2.27
7.92 7.48 2.28
7.80 7.66 2.28
7.67 7.84 2.29
7.54 8.03 2.30
7.40 8.21 2.31
7.27 8.39 2.32
7.12 8.56 2.34
7.16 8.97 2.41
6.97 9.10 2.41
6.79 9.23 2.41
6.59 9.36 2.41
6.40 9.49 2.41
6.16 9.54 2.39
5.97 9.66 2.39
5.77 9.77 2.39
5.57 9.88 2.39
5.36 9.98 2.39
5.16 10.08 2.39
4.95 10.17 2.39
4.74 10.26 2.39
4.53 10.35 2.39
4.32 10.43 2.39
4.11 10.51 2.39
3.90 10.58 2.39
3.68 10.65 2.39
3.46 10.72 2.39
3.25 10.78 2.39
3.03 10.83 2.39
2.81 10.88 2.39
2.59 10.93 2.39
2.36 10.97 2.39
2.23 11.49 2.49
2.00 11.52 2.49
1.77 11.55 2.49
1.54 11.58 2.49
1.30 11.60 2.49
1.07 11.62 2.49
0.83 11.63 2.49
0.60 11.64 2.49
0.37 11.64 2.49
0.13 11.64 2.49
-0.10 11.63 2.49
-0.34 11.62 2.49
-0.57 11.60 2.49
-0.80 11.58 2.49
-1.03 11.56 2.49
-1.26 11.53 2.49
-1.49 11.50 2.49
-1.72 11.46 2.49
-1.95 11.41 2.49
-2.18 11.37 2.49
-2.41 11.31 2.49
-2.63 11.26 2.49
-2.86 11.20 2.49
-3.08 11.13 2.49
-3.30 11.06 2.49
-3.52 10.99 2.49
-3.74 10.91 2.49
-3.96 10.83 2.49
-4.17 10.74 2.49
-4.38 10.65 2.49
-4.60 10.56 2.49
-4.80 10.46 2.49
-5.01 10.35 2.49
-5.22 10.25 2.49
-5.42 10.14 2.49
-5.62 10.02 2.49
-5.72 9.74 2.45
-5.77 9.38 2.39
-5.95 9.26 2.39
-6.09 9.06 2.37
-6.09 8.68 2.31
-6.16 8.42 2.27
-6.56 8.59 2.35
-6.68 8.40 2.34
-6.69 8.07 2.28
-6.81 7.89 2.27
-7.34 8.16 2.39
-7.50 8.01 2.39
-7.66 7.86 2.39
-7.81 7.70 2.39
-7.96 7.54 2.39
-8.11 7.38 2.39
-8.26 7.21 2.39
-8.40 7.04 2.39
-8.54 6.87 2.39
-8.67 6.70 2.39
-8.80 6.52 2.39
-8.93 6.34 2.39
-9.06 6.16 2.39
-9.18 5.98 2.39
-9.30 5.79 2.39
-9.41 5.60 2.39
-9.52 5.41 2.39
-9.63 5.22 2.39
-9.73 5.03 2.39
-10.70 5.26 2.60
-10.75 5.02 2.59
-10.71 4.74 2.56
-10.74 4.49 2.54
-10.86 4.29 2.55
-9.83 3.66 2.29
-9.84 3.44 2.27
-9.84 3.22 2.26
-12.48 3.80 2.85
-12.93 3.66 2.93
-13.12 3.43 2.96
-13.24 3.18 2.97
-13.35 2.92 2.98
-9.85 1.95 2.19
-13.52 2.39 3.00
-13.58 2.12 3.00
-13.67 1.86 3.01
-13.76 1.59 3.02
-13.84 1.32 3.03
-9.89 0.74 2.16
-9.87 0.54 2.15
-9.88 0.34 2.15
-14.06 0.20 3.06
-14.08 -0.08 3.06
-14.09 -0.36 3.07
-14.10 -0.65 3.07
-14.11 -0.93 3.08
-6.14 -0.53 1.34
-6.10 -0.65 1.33
-14.07 -1.79 3.08
-14.03 -2.07 3.08
-13.99 -2.35 3.08
-13.91 -2.63 3.07
-13.84 -2.90 3.07
-13.75 -3.17 3.06
-9.90 -2.50 2.21
-13.64 -3.73 3.06
-13.58 -4.01 3.07
-9.93 -3.15 2.25
-9.92 -3.37 2.27
-13.04 -4.72 3.00
-12.20 -4.69 2.83
-9.92 -4.05 2.32
-11.69 -5.05 2.75
-11.42 -5.21 2.71
-11.14 -5.35 2.67
-9.90 -5.00 2.39
-9.80 -5.20 2.39
-9.70 -5.40 2.39
-9.59 -5.60 2.39
-9.48 -5.79 2.39
-9.37 -5.98 2.39
-9.25 -6.17 2.39
-9.13 -6.36 2.39
-9.01 -6.55 2.39
-8.88 -6.73 2.39
-8.75 -6.91 2.39
-8.61 -7.09 2.39
-8.47 -7.27 2.39
-8.33 -7.44 2.39
-8.19 -7.61 2.39
-8.04 -7.78 2.39
-7.88 -7.94 2.39
-7.73 -8.11 2.39
-7.57 -8.26 2.39
-7.40 -8.42 2.39
-6.89 -8.16 2.28
-6.89 -8.50 2.33
-6.78 -8.72 2.35
-6.38 -8.55 2.27
-6.31 -8.82 2.31
-6.31 -9.21 2.37
-6.18 -9.42 2.39
-5.99 -9.54 2.39
-5.97 -9.94 2.46
-5.85 -10.21 2.49
-5.65 -10.33 2.49
-5.45 -10.45 2.49
-5.24 -10.57 2.49
-5.03 -10.68 2.49
-4.82 -10.78 2.49
-4.60 -10.88 2.49
-4.39 -10.98 2.49
-4.17 -11.08 2.49
-3.95 -11.16 2.49
-3.72 -11.25 2.49
-3.50 -11.33 2.49
-3.27 -11.40 2.49
-3.05 -11.47 2.49
-2.82 -11.54 2.49
-2.59 -11.60 2.49
-2.36 -11.66 2.49
-2.12 -11.71 2.49
-1.89 -11.76 2.49
-1.65 -11.80 2.49
-1.42 -11.84 2.49
-1.18 -11.88 2.49
-0.94 -11.90 2.49
-0.70 -11.93 2.49
-0.46 -11.95 2.49
-0.22 -11.96 2.49
0.02 -10.75 2.49
0.23 -10.76 2.49
0.45 -10.75 2.49
0.66 -10.75 2.49
0.88 -10.74 2.49
1.09 -10.73 2.49
1.31 -10.71 2.49
1.53 -10.68 2.49
1.74 -10.66 2.49
1.95 -10.62 2.49
2.09 -10.19 2.40
2.29 -10.14 2.40
2.49 -10.07 2.39
2.69 -10.02 2.39
2.89 -9.97 2.39
3.09 -9.91 2.39
3.29 -9.85 2.39
3.49 -9.79 2.39
3.69 -9.72 2.39
3.88 -9.65 2.39
4.08 -9.58 2.39
4.27 -9.50 2.39
4.46 -9.41 2.39
4.65 -9.32 2.39
4.84 -9.23 2.39
5.02 -9.14 2.39
5.21 -9.04 2.39
5.39 -8.93 2.39
5.57 -8.83 2.39
5.75 -8.72 2.39
5.92 -8.60 2.39
6.09 -8.48 2.39
6.23 -8.32 2.38
6.37 -8.15 2.37
6.50 -7.99 2.36
6.63 -7.82 2.35
6.76 -7.66 2.33
6.91 -7.51 2.33
7.19 -7.52 2.38
7.46 -7.49 2.41
7.61 -7.34 2.41
7.75 -7.18 2.41
7.89 -7.02 2.41
8.03 -6.86 2.41
8.17 -6.70 2.41
8.30 -6.54 2.41
8.43 -6.37 2.41
8.55 -6.20 2.41
8.67 -6.02 2.41
8.79 -5.85 2.41
8.90 -5.67 2.41
9.02 -5.49 2.41
9.13 -5.31 2.41
9.23 -5.12 2.41
9.31 -4.93 2.40
9.38 -4.73 2.40
8.99 -4.30 2.27
9.06 -4.12 2.27
9.13 -3.93 2.27
9.20 -3.74 2.26
9.26 -3.55 2.26
9.32 -3.36 2.26
9.38 -3.17 2.26
9.43 -2.98 2.26
9.48 -2.79 2.25
9.52 -2.60 2.25
9.57 -2.40 2.25
10.04 -2.31 2.35
10.07 -2.11 2.35
10.10 -1.90 2.35
10.13 -1.70 2.35
10.16 -1.49 2.34
10.18 -1.29 2.34
10.20 -1.08 2.34
10.22 -0.88 2.34
10.23 -0.67 2.34
10.24 -0.47 2.34
10.25 -0.26 2.34
10.25 -0.06 2.34
10.25 0.15 2.34
10.25 0.35 2.35
10.23 0.56 2.35
8.95 0.67 2.05
10.20 0.97 2.35
10.17 1.17 2.35
10.15 1.38 2.35
10.12 1.58 2.35
10.10 1.78 2.35
10.06 1.99 2.35
10.03 2.19 2.36
9.99 2.39 2.36
9.95 2.59 2.36
9.91 2.80 2.37
9.78 2.97 2.35
9.15 2.98 2.21
6.50 2.26 1.58
6.38 2.37 1.57
6.35 2.50 1.57
6.41 2.67 1.60
6.83 3.01 1.72
6.48 3.01 1.65
6.20 3.04 1.59
6.20 3.19 1.61
8.29 4.48 2.18
8.21 4.65 2.18
8.13 4.83 2.19
8.05 5.00 2.19
7.97 5.17 2.20
7.88 5.34 2.20
7.79 5.51 2.21
7.69 5.68 2.22
7.60 5.85 2.22
8.09 6.49 2.41
7.96 6.65 2.41
7.58 6.59 2.33
7.38 6.69 2.31
7.26 6.85 2.32
7.15 7.02 2.33
7.03 7.19 2.34
6.91 7.35 2.35
6.78 7.51 2.36
6.65 7.67 2.37
6.52 7.83 2.38
6.38 7.99 2.39
6.23 8.13 2.39
6.06 8.24 2.39
5.89 8.36 2.39
5.72 8.47 2.39
5.54 8.58 2.39
5.37 8.68 2.39
5.19 8.78 2.39
5.01 8.88 2.39
4.83 8.97 2.39
4.64 9.06 2.39
4.46 9.15 2.39
4.27 9.23 2.39
4.08 9.31 2.39
3.89 9.38 2.39
3.70 9.45 2.39
3.51 9.52 2.39
3.31 9.58 2.39
3.12 9.64 2.39
2.92 9.70 2.39
2.72 9.75 2.39
2.54 9.84 2.40
2.34 9.88 2.40
2.22 10.30 2.49
2.01 10.34 2.49
1.80 10.37 2.49
1.59 10.40 2.49
1.38 10.42 2.49
1.17 10.44 2.49
0.96 10.46 2.49
0.75 10.47 2.49
0.54 10.48 2.49
0.33 10.48 2.49
0.12 10.48 2.49
-0.09 10.48 2.49
-0.30 10.47 2.49
-0.51 10.45 2.49
-0.72 10.43 2.49
-0.93 10.41 2.49
-1.14 10.39 2.49
-1.35 10.36 2.49
-1.55 10.32 2.49
-1.76 10.28 2.49
-1.96 10.24 2.49
-2.17 10.19 2.49
-2.37 10.14 2.49
-2.57 10.09 2.49
-2.77 10.03 2.49
-2.97 9.97 2.49
-3.17 9.90 2.49
-3.37 9.83 2.49
-3.56 9.76 2.49
-3.76 9.68 2.49
-3.95 9.60 2.49
-4.14 9.52 2.49
-4.33 9.43 2.49
-4.52 9.33 2.49
-4.70 9.24 2.49
-4.89 9.14 2.49
-5.07 9.04 2.49
-5.24 8.93 2.49
-5.42 8.82 2.49
-5.60 8.71 2.49
-5.73 8.54 2.48
-5.75 8.19 2.41
-5.85 8.00 2.39
-6.01 7.88 2.39
-6.10 7.67 2.37
-6.11 7.37 2.31
-6.14 7.12 2.27
-6.51 7.24 2.35
-6.65 7.11 2.35
-6.70 6.88 2.32
-6.71 6.61 2.28
-6.82 6.46 2.27
-7.32 6.66 2.39
-7.45 6.51 2.39
-7.58 6.35 2.39
-7.70 6.20 2.39
-7.82 6.04 2.39
-7.94 5.88 2.39
-8.06 5.72 2.39
-8.17 5.56 2.39
-8.28 5.39 2.39
-8.39 5.22 2.39
-8.49 5.06 2.39
-8.59 4.88 2.39
-8.68 4.71 2.39
-8.78 4.53 2.39
-8.87 4.36 2.39
-8.95 4.18 2.39
-9.03 4.00 2.39
-9.11 3.81 2.39
-9.19 3.63 2.39
-9.26 3.44 2.39
-9.33 3.26 2.39
-9.39 3.07 2.39
-9.45 2.88 2.39
-9.51 2.69 2.39
-9.56 2.50 2.39
-9.61 2.31 2.39
-9.66 2.11 2.39
-9.70 1.92 2.39
-9.74 1.72 2.39
-9.77 1.53 2.39
-9.80 1.33 2.39
-9.83 1.13 2.39
-10.73 1.02 2.60
-10.79 0.81 2.61
-9.87 0.54 2.39
-10.81 0.37 2.61
-10.84 0.16 2.62
-10.85 -0.06 2.62
-10.86 -0.28 2.62
-10.86 -0.50 2.62
-10.86 -0.72 2.62
-6.14 -0.53 1.49
-6.09 -0.65 1.48
-9.85 -1.25 2.39
-9.82 -1.45 2.39
-9.79 -1.65 2.39
-9.76 -1.84 2.39
-9.73 -2.04 2.39
-9.69 -2.24 2.39
-9.64 -2.43 2.39
-9.60 -2.63 2.39
-9.55 -2.82 2.39
-9.49 -3.01 2.39
-9.43 -3.20 2.39
-9.37 -3.39 2.39
-9.30 -3.58 2.39
-9.23 -3.77 2.39
-9.16 -3.96 2.39
-9.08 -4.14 2.39
-9.00 -4.32 2.39
-8.92 -4.51 2.39
-8.83 -4.69 2.39
-8.74 -4.87 2.39
-8.64 -5.04 2.39
-8.54 -5.22 2.39
-8.44 -5.39 2.39
-8.33 -5.56 2.39
-8.23 -5.73 2.39
-8.11 -5.90 2.39
-8.00 -6.06 2.39
-7.88 -6.23 2.39
-7.76 -6.39 2.39
-7.63 -6.55 2.39
-7.50 -6.70 2.39
-6.99 -6.51 2.27
-6.88 -6.66 2.27
-6.87 -6.93 2.32
-6.84 -7.18 2.35
-6.70 -7.32 2.35
-6.32 -7.19 2.27
-6.29 -7.45 2.31
-6.30 -7.77 2.37
-6.21 -7.98 2.39
-6.05 -8.11 2.39
-5.95 -8.32 2.42
-5.95 -8.69 2.49
-5.80 -8.84 2.49
-5.62 -8.96 2.49
-5.44 -9.07 2.49
-5.26 -9.19 2.49
-5.08 -9.30 2.49
-4.90 -9.40 2.49
-4.71 -9.51 2.49
-4.52 -9.60 2.49
-4.33 -9.70 2.49
-4.14 -9.79 2.49
-3.94 -9.88 2.49
-3.75 -9.96 2.49
-3.55 -10.04 2.49
-3.35 -10.11 2.49
-3.15 -10.18 2.49
-2.94 -10.25 2.49
-2.74 -10.32 2.49
-2.53 -10.37 2.49
-2.32 -10.43 2.49
-2.12 -10.48 2.49
-1.91 -10.53 2.49
-1.70 -10.57 2.49
-1.48 -10.61 2.49
-1.27 -10.64 2.49
-1.06 -10.67 2.49
-0.84 -10.69 2.49
-0.63 -10.72 2.49
-0.42 -10.73 2.49
-0.20 -10.74 2.49
0.02 -9.75 2.49
0.21 -9.75 2.49
0.41 -9.75 2.49
0.60 -9.75 2.49
0.80 -9.74 2.49
0.99 -9.72 2.49
1.19 -9.71 2.49
1.38 -9.68 2.49
1.58 -9.66 2.49
1.77 -9.63 2.49
1.97 -9.60 2.49
2.09 -9.27 2.42
2.25 -9.12 2.39
2.44 -9.08 2.39
2.62 -9.03 2.39
2.80 -8.98 2.39
2.98 -8.93 2.39
3.16 -8.87 2.39
3.34 -8.81 2.39
3.52 -8.74 2.39
3.69 -8.68 2.39
3.87 -8.60 2.39
4.04 -8.53 2.39
4.21 -8.45 2.39
4.38 -8.36 2.39
4.55 -8.28 2.39
4.72 -8.19 2.39
4.88 -8.09 2.39
5.05 -8.00 2.39
5.21 -7.89 2.39
5.37 -7.79 2.39
5.52 -7.68 2.39
5.68 -7.57 2.39
5.83 -7.46 2.39
5.98 -7.34 2.39
6.13 -7.22 2.39
6.32 -7.16 2.41
6.46 -7.03 2.41
6.60 -6.90 2.41
6.74 -6.77 2.41
6.88 -6.63 2.41
7.01 -6.49 2.41
7.14 -6.35 2.41
7.27 -6.21 2.41
7.39 -6.06 2.41
7.51 -5.91 2.41
7.62 -5.76 2.41
7.74 -5.61 2.41
7.85 -5.45 2.41
7.96 -5.29 2.41
8.06 -5.13 2.41
8.16 -4.97 2.41
8.26 -4.81 2.41
8.36 -4.64 2.41
8.09 -4.28 2.31
8.17 -4.12 2.30
8.24 -3.95 2.30
8.31 -3.78 2.30
8.37 -3.61 2.30
8.44 -3.43 2.29
8.50 -3.26 2.29
8.55 -3.09 2.29
8.60 -2.91 2.29
8.65 -2.74 2.29
8.70 -2.56 2.28
8.74 -2.38 2.28
9.28 -2.33 2.41
9.32 -2.14 2.41
9.35 -1.96 2.41
9.38 -1.77 2.41
9.41 -1.58 2.40
9.43 -1.39 2.40
9.45 -1.20 2.40
9.47 -1.01 2.40
9.48 -0.82 2.40
9.50 -0.63 2.40
9.51 -0.44 2.40
9.51 -0.25 2.40
9.52 -0.05 2.40
9.52 0.14 2.40
9.51 0.33 2.40
9.50 0.52 2.40
9.49 0.71 2.40
9.47 0.90 2.41
9.45 1.09 2.41
9.43 1.28 2.41
9.41 1.47 2.41
9.38 1.66 2.41
9.35 1.84 2.41
9.32 2.03 2.42
9.27 2.22 2.42
9.22 2.40 2.41
9.16 2.58 2.41
9.10 2.77 2.41
9.04 2.95 2.41
6.43 2.24 1.73
6.28 2.33 1.70
6.28 2.47 1.71
6.29 2.62 1.73
6.83 3.01 1.90
6.48 3.01 1.82
6.20 3.04 1.76
6.20 3.19 1.78
7.67 4.14 2.22
7.60 4.31 2.23
7.52 4.46 2.23
7.45 4.62 2.24
7.37 4.78 2.24
7.28 4.94 2.25
7.20 5.09 2.25
7.11 5.25 2.26
7.02 5.40 2.26
6.93 5.55 2.27
6.83 5.71 2.28
6.73 5.86 2.28
6.96 6.31 2.41
6.83 6.44 2.41
6.70 6.58 2.41
6.49 6.63 2.38
6.36 6.77 2.39
6.24 6.91 2.39
6.09 7.03 2.39
5.95 7.15 2.39
5.80 7.26 2.39
5.65 7.37 2.39
5.50 7.48 2.39
5.34 7.58 2.39
5.19 7.68 2.39
5.03 7.78 2.39
4.87 7.88 2.39
4.71 7.97 2.39
4.55 8.06 2.39
4.38 8.14 2.39
4.21 8.23 2.39
4.05 8.30 2.39
3.88 8.38 2.39
3.71 8.45 2.39
3.53 8.52 2.39
3.36 8.58 2.39
3.18 8.64 2.39
3.01 8.70 2.39
2.83 8.75 2.39
2.65 8.81 2.39
2.48 8.85 2.39
2.32 9.00 2.42
2.21 9.32 2.49
2.02 9.36 2.49
1.83 9.39 2.49
1.64 9.42 2.49
1.45 9.45 2.49
1.26 9.47 2.49
1.07 9.49 2.49
0.88 9.50 2.49
0.68 9.51 2.49
0.49 9.52 2.49
0.30 9.52 2.49
0.11 9.52 2.49
-0.08 9.52 2.49
-0.27 9.51 2.49
-0.46 9.50 2.49
-0.65 9.48 2.49
-0.84 9.46 2.49
-1.03 9.44 2.49
-1.22 9.41 2.49
-1.41 9.38 2.49
-1.60 9.35 2.49
-1.78 9.31 2.49
-1.97 9.27 2.49
-2.15 9.22 2.49
-2.34 9.17 2.49
-2.52 9.12 2.49
-2.70 9.06 2.49
-2.88 9.01 2.49
-3.06 8.94 2.49
-3.24 8.88 2.49
-3.42 8.80 2.49
-3.59 8.73 2.49
-3.77 8.65 2.49
-3.94 8.57 2.49
-4.11 8.49 2.49
-4.28 8.40 2.49
-4.44 8.31 2.49
-4.61 8.22 2.49
-4.77 8.12 2.49
-4.93 8.02 2.49
-5.09 7.92 2.49
-5.25 7.81 2.49
-5.40 7.70 2.49
-5.55 7.59 2.49
-5.70 7.48 2.49
-5.75 7.23 2.45
-5.76 6.96 2.40
-5.89 6.82 2.39
-6.02 6.70 2.39
-6.12 6.54 2.38
-6.12 6.28 2.33
-6.15 6.06 2.29
-6.40 6.06 2.34
-6.66 6.06 2.39
-6.78 5.92 2.39
-6.89 5.78 2.39
-7.01 5.64 2.39
-7.12 5.50 2.39
-7.23 5.35 2.39
-7.33 5.21 2.39
-7.43 5.06 2.39
-7.53 4.91 2.39
-7.63 4.75 2.39
-7.72 4.60 2.39
-7.81 4.44 2.39
-7.90 4.28 2.39
-7.99 4.13 2.39
-8.07 3.96 2.39
-8.15 3.80 2.39
-8.22 3.64 2.39
-8.29 3.47 2.39
-8.36 3.30 2.39
-8.43 3.13 2.39
-8.49 2.96 2.39
-8.55 2.79 2.39
-8.60 2.62 2.39
-8.65 2.45 2.39
-8.70 2.27 2.39
-8.75 2.10 2.39
-8.79 1.92 2.39
-8.82 1.75 2.39
-8.86 1.57 2.39
-8.89 1.39 2.39
-8.92 1.21 2.39
-8.94 1.03 2.39
-8.96 0.85 2.39
-8.98 0.67 2.39
-8.99 0.49 2.39
-9.00 0.31 2.39
-9.01 0.13 2.39
-9.01 -0.05 2.39
-9.01 -0.23 2.39
-9.01 -0.41 2.39
-9.00 -0.60 2.39
-6.14 -0.53 1.63
-6.09 -0.65 1.62
-8.95 -1.14 2.39
-8.93 -1.32 2.39
-8.91 -1.50 2.39
-8.88 -1.68 2.39
-8.85 -1.86 2.39
-8.81 -2.03 2.39
-8.77 -2.21 2.39
-8.73 -2.39 2.39
-8.68 -2.56 2.39
-8.63 -2.74 2.39
-8.58 -2.91 2.39
-8.52 -3.09 2.39
-8.46 -3.26 2.39
-8.39 -3.43 2.39
-8.33 -3.60 2.39
-8.26 -3.77 2.39
-8.18 -3.93 2.39
-8.11 -4.10 2.39
-8.03 -4.26 2.39
-7.94 -4.42 2.39
-7.85 -4.59 2.39
-7.76 -4.74 2.39
-7.67 -4.90 2.39
-7.57 -5.06 2.39
-7.47 -5.21 2.39
-7.37 -5.36 2.39
-7.27 -5.51 2.39
-7.16 -5.66 2.39
-7.05 -5.80 2.39
-6.81 -5.84 2.35
-6.54 -5.85 2.30
-6.35 -5.91 2.27
-6.28 -6.08 2.28
-6.28 -6.33 2.33
-6.28 -6.59 2.38
-6.19 -6.76 2.39
-6.05 -6.89 2.39
-5.94 -7.04 2.40
-5.93 -7.33 2.46
-5.88 -7.56 2.49
-5.73 -7.68 2.49
-5.58 -7.80 2.49
-5.42 -7.91 2.49
-5.26 -8.03 2.49
-5.10 -8.13 2.49
-4.94 -8.24 2.49
-4.78 -8.34 2.49
-4.61 -8.44 2.49
-4.44 -8.54 2.49
-4.27 -8.63 2.49
-4.10 -8.72 2.49
-3.93 -8.80 2.49
-3.75 -8.89 2.49
-3.58 -8.96 2.49
-3.40 -9.04 2.49
-3.22 -9.11 2.49
-3.04 -9.18 2.49
-2.85 -9.24 2.49
-2.67 -9.30 2.49
-2.48 -9.36 2.49
-2.30 -9.41 2.49
-2.11 -9.46 2.49
-1.92 -9.51 2.49
-1.73 -9.55 2.49
-1.54 -9.59 2.49
-1.34 -9.62 2.49
-1.15 -9.65 2.49
-0.96 -9.68 2.49
-0.76 -9.70 2.49
-0.57 -9.72 2.49
-0.38 -9.73 2.49
-0.18 -9.74 2.49
0.02 -8.91 2.49
0.19 -8.91 2.49
0.37 -8.91 2.49
0.55 -8.90 2.49
0.73 -8.90 2.49
0.91 -8.88 2.49
1.09 -8.87 2.49
1.27 -8.85 2.49
1.44 -8.82 2.49
1.62 -8.80 2.49
1.80 -8.77 2.49
1.97 -8.73 2.49
2.10 -8.49 2.44
2.23 -8.29 2.39
2.39 -8.25 2.39
2.56 -8.20 2.39
2.73 -8.15 2.39
2.89 -8.10 2.39
3.05 -8.04 2.39
3.21 -7.98 2.39
3.37 -7.92 2.39
3.53 -7.86 2.39
3.69 -7.79 2.39
3.85 -7.71 2.39
4.00 -7.64 2.39
4.16 -7.56 2.39
4.31 -7.47 2.39
4.46 -7.39 2.39
4.61 -7.30 2.39
4.75 -7.21 2.39
4.90 -7.11 2.39
5.04 -7.01 2.39
5.18 -6.91 2.39
5.32 -6.81 2.39
5.46 -6.70 2.39
5.59 -6.59 2.39
5.72 -6.48 2.39
5.85 -6.37 2.39
5.98 -6.25 2.39
6.11 -6.13 2.39
6.28 -6.05 2.41
6.40 -5.93 2.41
6.52 -5.80 2.41
6.63 -5.67 2.41
6.75 -5.54 2.41
6.86 -5.40 2.41
6.97 -5.27 2.41
7.08 -5.13 2.41
7.18 -4.99 2.41
7.28 -4.84 2.41
7.38 -4.70 2.41
7.47 -4.55 2.41
7.32 -4.26 2.34
7.39 -4.10 2.33
7.47 -3.95 2.33
7.54 -3.80 2.33
7.60 -3.64 2.33
7.67 -3.48 2.32
7.73 -3.33 2.32
7.79 -3.17 2.32
7.84 -3.01 2.32
7.89 -2.85 2.32
7.94 -2.69 2.31
7.99 -2.53 2.31
8.03 -2.36 2.31
8.38 -2.29 2.40
8.49 -2.13 2.42
8.52 -1.96 2.41
8.55 -1.79 2.41
8.59 -1.62 2.41
8.62 -1.44 2.41
8.65 -1.27 2.41
8.67 -1.10 2.41
8.69 -0.93 2.42
8.71 -0.75 2.42
8.73 -0.58 2.42
8.74 -0.40 2.42
8.74 -0.23 2.42
8.75 -0.05 2.42
8.75 0.12 2.42
8.74 0.30 2.42
8.73 0.47 2.42
8.71 0.65 2.42
8.70 0.82 2.42
8.67 1.00 2.42
8.64 1.17 2.42
8.61 1.34 2.42
8.58 1.51 2.42
8.54 1.68 2.42
8.51 1.85 2.42
8.46 2.02 2.42
8.42 2.19 2.42
8.37 2.36 2.42
8.32 2.53 2.41
8.26 2.69 2.41
6.44 2.24 1.90
6.29 2.33 1.86
6.29 2.47 1.88
6.35 2.65 1.92
6.83 3.01 2.08
6.48 3.01 1.99
6.20 3.04 1.92
6.20 3.19 1.94
7.13 3.85 2.26
7.06 4.00 2.26
6.99 4.15 2.27
6.92 4.30 2.27
6.85 4.44 2.28
6.77 4.59 2.28
6.69 4.73 2.29
6.60 4.87 2.30
6.52 5.02 2.30
6.43 5.16 2.31
6.41 5.35 2.34
6.41 5.57 2.38
6.36 5.76 2.41
6.20 5.85 2.39
6.08 5.97 2.39
5.96 6.09 2.39
5.83 6.20 2.39
5.70 6.31 2.39
5.57 6.42 2.39
5.44 6.53 2.39
5.30 6.64 2.39
5.17 6.74 2.39
5.03 6.84 2.39
4.89 6.93 2.39
4.75 7.03 2.39
4.60 7.12 2.39
4.46 7.20 2.39
4.31 7.29 2.39
4.16 7.37 2.39
4.01 7.45 2.39
3.86 7.52 2.39
3.70 7.59 2.39
3.55 7.66 2.39
3.39 7.73 2.39
3.23 7.79 2.39
3.07 7.85 2.39
2.91 7.91 2.39
2.75 7.96 2.39
2.59 8.01 2.39
2.43 8.06 2.39
2.31 8.25 2.44
2.19 8.49 2.49
2.02 8.53 2.49
1.85 8.56 2.49
1.68 8.59 2.49
1.50 8.62 2.49
1.33 8.65 2.49
1.15 8.67 2.49
0.98 8.68 2.49
0.80 8.70 2.49
0.63 8.71 2.49
0.45 8.71 2.49
0.28 8.72 2.49
0.10 8.72 2.49
-0.07 8.71 2.49
-0.25 8.71 2.49
-0.42 8.70 2.49
-0.60 8.68 2.49
-0.77 8.66 2.49
-0.94 8.64 2.49
-1.12 8.62 2.49
-1.29 8.59 2.49
-1.46 8.56 2.49
-1.63 8.53 2.49
-1.80 8.49 2.49
-1.97 8.45 2.49
-2.14 8.40 2.49
-2.31 8.35 2.49
-2.47 8.30 2.49
-2.64 8.25 2.49
-2.80 8.19 2.49
-2.97 8.13 2.49
-3.13 8.06 2.49
-3.29 8.00 2.49
-3.45 7.93 2.49
-3.61 7.85 2.49
-3.76 7.78 2.49
-3.92 7.70 2.49
-4.07 7.62 2.49
-4.22 7.53 2.49
-4.37 7.44 2.49
-4.52 7.35 2.49
-4.66 7.26 2.49
-4.81 7.16 2.49
-4.95 7.06 2.49
-5.09 6.96 2.49
-5.22 6.85 2.49
-5.36 6.74 2.49
-5.49 6.63 2.49
-5.62 6.52 2.49
-5.75 6.40 2.49
-5.76 6.16 2.45
-5.78 5.93 2.40
-5.87 5.79 2.39
-5.99 5.67 2.39
-6.10 5.55 2.39
-6.21 5.42 2.39
-6.32 5.30 2.39
-6.42 5.17 2.39
-6.52 5.04 2.39
-6.62 4.91 2.39
-6.72 4.77 2.39
-6.81 4.64 2.39
-6.90 4.50 2.39
-6.99 4.36 2.39
-7.08 4.22 2.39
-7.16 4.07 2.39
-7.24 3.93 2.39
-7.32 3.78 2.39
-7.39 3.63 2.39
-7.46 3.48 2.39
-7.53 3.33 2.39
-7.60 3.18 2.39
-7.66 3.03 2.39
-7.72 2.87 2.39
-7.78 2.72 2.39
-7.83 2.56 2.39
-7.88 2.40 2.39
-7.93 2.24 2.39
-7.97 2.08 2.39
-8.01 1.92 2.39
-8.05 1.76 2.39
-8.09 1.60 2.39
-8.12 1.44 2.39
-8.15 1.27 2.39
-8.17 1.11 2.39
-8.19 0.94 2.39
-8.21 0.78 2.39
-8.23 0.61 2.39
-8.24 0.45 2.39
-8.25 0.28 2.39
-8.25 0.12 2.39
-8.26 -0.05 2.39
-8.26 -0.21 2.39
-8.25 -0.38 2.39
-8.25 -0.55 2.39
-6.14 -0.53 1.78
-6.09 -0.65 1.77
-8.20 -1.04 2.39
-8.18 -1.21 2.39
-8.16 -1.37 2.39
-8.13 -1.54 2.39
-8.10 -1.70 2.39
-8.07 -1.86 2.39
-8.03 -2.03 2.39
-7.99 -2.19 2.39
-7.95 -2.35 2.39
-7.90 -2.51 2.39
-7.85 -2.67 2.39
-7.80 -2.83 2.39
-7.75 -2.98 2.39
-7.69 -3.14 2.39
-7.63 -3.30 2.39
-7.56 -3.45 2.39
-7.49 -3.60 2.39
-7.42 -3.75 2.39
-7.35 -3.90 2.39
-7.27 -4.05 2.39
-7.19 -4.20 2.39
-7.11 -4.34 2.39
-7.02 -4.49 2.39
-6.93 -4.63 2.39
-6.84 -4.77 2.39
-6.75 -4.91 2.39
-6.65 -5.05 2.39
-6.55 -5.18 2.39
-6.45 -5.31 2.39
-6.34 -5.45 2.39
-6.24 -5.57 2.39
-6.13 -5.70 2.39
-6.01 -5.83 2.39
-5.93 -5.98 2.40
-5.92 -6.22 2.45
-5.90 -6.45 2.49
-5.78 -6.57 2.49
-5.64 -6.69 2.49
-5.51 -6.81 2.49
-5.38 -6.92 2.49
-5.24 -7.03 2.49
-5.10 -7.14 2.49
-4.96 -7.24 2.49
-4.81 -7.34 2.49
-4.67 -7.44 2.49
-4.52 -7.54 2.49
-4.37 -7.63 2.49
-4.22 -7.72 2.49
-4.06 -7.81 2.49
-3.91 -7.89 2.49
-3.75 -7.97 2.49
-3.59 -8.05 2.49
-3.43 -8.13 2.49
-3.27 -8.20 2.49
-3.11 -8.27 2.49
-2.94 -8.33 2.49
-2.77 -8.39 2.49
-2.61 -8.45 2.49
-2.44 -8.51 2.49
-2.27 -8.56 2.49
-2.10 -8.61 2.49
-1.92 -8.65 2.49
-1.75 -8.69 2.49
-1.58 -8.73 2.49
-1.40 -8.76 2.49
-1.23 -8.79 2.49
-1.05 -8.82 2.49
-0.87 -8.84 2.49
-0.70 -8.86 2.49
-0.52 -8.88 2.49
-0.34 -8.89 2.49
-0.16 -8.90 2.49
0.02 -8.19 2.49
0.18 -8.20 2.49
0.34 -8.19 2.49
0.51 -8.19 2.49
0.67 -8.18 2.49
0.84 -8.17 2.49
1.00 -8.15 2.49
1.16 -8.13 2.49
1.33 -8.11 2.49
1.49 -8.09 2.49
1.65 -8.06 2.49
1.82 -8.03 2.49
1.98 -7.99 2.49
2.11 -7.84 2.46
2.20 -7.59 2.39
2.35 -7.54 2.39
2.51 -7.50 2.39
2.66 -7.45 2.39
2.81 -7.39 2.39
2.96 -7.34 2.39
3.10 -7.28 2.39
3.25 -7.22 2.39
3.39 -7.16 2.39
3.54 -7.09 2.39
3.68 -7.02 2.39
3.82 -6.94 2.39
3.96 -6.87 2.39
4.10 -6.79 2.39
4.24 -6.71 2.39
4.37 -6.62 2.39
4.50 -6.54 2.39
4.63 -6.45 2.39
4.76 -6.35 2.39
4.89 -6.26 2.39
5.02 -6.16 2.39
5.14 -6.06 2.39
5.26 -5.96 2.39
5.38 -5.85 2.39
5.50 -5.74 2.39
5.61 -5.63 2.39
5.72 -5.52 2.39
5.84 -5.41 2.39
5.94 -5.29 2.39
6.05 -5.17 2.39
6.15 -5.05 2.39
6.32 -4.98 2.42
6.42 -4.85 2.42
6.52 -4.72 2.42
6.61 -4.59 2.42
6.71 -4.46 2.42
6.63 -4.22 2.36
6.71 -4.08 2.36
6.78 -3.94 2.36
6.85 -3.80 2.35
6.92 -3.66 2.35
6.99 -3.52 2.35
7.05 -3.38 2.35
7.11 -3.23 2.34
7.17 -3.09 2.34
7.22 -2.94 2.34
7.27 -2.79 2.34
7.32 -2.64 2.34
7.37 -2.49 2.34
7.41 -2.34 2.33
7.71 -2.27 2.41
7.75 -2.11 2.41
7.78 -1.96 2.41
7.82 -1.80 2.41
7.85 -1.64 2.41
7.88 -1.48 2.41
7.91 -1.33 2.41
7.94 -1.17 2.41
7.96 -1.01 2.41
7.98 -0.85 2.41
8.00 -0.69 2.41
8.01 -0.53 2.41
8.02 -0.37 2.42
8.03 -0.21 2.42
8.03 -0.05 2.42
8.03 0.11 2.42
8.02 0.27 2.42
8.02 0.44 2.42
8.00 0.60 2.42
7.98 0.76 2.42
7.96 0.91 2.42
7.94 1.07 2.42
7.91 1.23 2.42
7.88 1.39 2.42
7.85 1.55 2.42
7.82 1.70 2.42
7.78 1.86 2.42
7.74 2.01 2.42
7.69 2.17 2.42
7.65 2.32 2.42
7.60 2.47 2.41
6.45 2.24 2.07
6.30 2.33 2.03
6.29 2.48 2.05
6.42 2.68 2.10
6.83 3.01 2.26
6.49 3.01 2.17
6.20 3.03 2.09
6.20 3.19 2.12
6.66 3.60 2.29
6.59 3.73 2.30
6.53 3.87 2.30
6.46 4.01 2.31
6.44 4.18 2.33
6.44 4.36 2.36
6.43 4.55 2.40
6.37 4.70 2.41
6.23 4.79 2.39
6.13 4.91 2.39
6.03 5.03 2.39
5.92 5.15 2.39
5.81 5.27 2.39
5.71 5.38 2.39
5.59 5.49 2.39
5.48 5.60 2.39
5.36 5.70 2.39
5.25 5.81 2.39
5.13 5.91 2.39
5.00 6.01 2.39
4.88 6.10 2.39
4.76 6.20 2.39
4.63 6.29 2.39
4.50 6.38 2.39
4.37 6.46 2.39
4.23 6.55 2.39
4.10 6.63 2.39
3.97 6.71 2.39
3.83 6.78 2.39
3.69 6.85 2.39
3.55 6.92 2.39
3.41 6.99 2.39
3.27 7.05 2.39
3.12 7.11 2.39
2.98 7.17 2.39
2.83 7.23 2.39
2.68 7.28 2.39
2.54 7.33 2.39
2.39 7.37 2.39
2.30 7.62 2.46
2.18 7.78 2.49
2.02 7.82 2.49
1.86 7.85 2.49
1.70 7.88 2.49
1.54 7.91 2.49
1.38 7.94 2.49
1.22 7.96 2.49
1.06 7.98 2.49
0.90 8.00 2.49
0.74 8.01 2.49
0.58 8.02 2.49
0.42 8.03 2.49
0.26 8.03 2.49
0.10 8.03 2.49
-0.07 8.03 2.49
-0.23 8.02 2.49
-0.39 8.01 2.49
-0.55 8.00 2.49
-0.71 7.98 2.49
-0.87 7.96 2.49
-1.03 7.94 2.49
-1.19 7.91 2.49
-1.35 7.89 2.49
-1.50 7.85 2.49
-1.66 7.82 2.49
-1.82 7.78 2.49
-1.97 7.74 2.49
-2.13 7.70 2.49
-2.28 7.65 2.49
-2.43 7.60 2.49
-2.58 7.55 2.49
-2.73 7.49 2.49
-2.88 7.43 2.49
-3.03 7.37 2.49
-3.18 7.31 2.49
-3.32 7.24 2.49
-3.47 7.17 2.49
-3.61 7.09 2.49
-3.75 7.02 2.49
-3.89 6.94 2.49
-4.03 6.86 2.49
-4.16 6.77 2.49
-4.30 6.69 2.49
-4.43 6.60 2.49
-4.56 6.51 2.49
-4.69 6.41 2.49
-4.82 6.32 2.49
-4.94 6.22 2.49
-5.06 6.11 2.49
-5.18 6.01 2.49
-5.30 5.90 2.49
-5.42 5.79 2.49
-5.53 5.68 2.49
-5.65 5.57 2.49
-5.76 5.45 2.49
-5.78 5.26 2.46
-5.78 5.05 2.42
-5.82 4.88 2.39
-5.92 4.77 2.39
-6.01 4.65 2.39
-6.10 4.52 2.39
-6.19 4.40 2.39
-6.28 4.27 2.39
-6.36 4.15 2.39
-6.45 4.02 2.39
-6.53 3.89 2.39
-6.60 3.75 2.39
-6.68 3.62 2.39
-6.75 3.49 2.39
-6.82 3.35 2.39
-6.88 3.21 2.39
-6.94 3.07 2.39
-7.01 2.93 2.39
-7.06 2.79 2.39
-7.12 2.65 2.39
-7.17 2.50 2.39
-7.22 2.36 2.39
-7.27 2.21 2.39
-7.31 2.07 2.39
-7.35 1.92 2.39
-7.39 1.77 2.39
-7.42 1.62 2.39
-7.46 1.47 2.39
-7.48 1.32 2.39
-7.51 1.17 2.39
-7.53 1.02 2.39
-7.55 0.87 2.39
-7.57 0.72 2.39
-7.58 0.57 2.39
-7.60 0.41 2.39
-7.60 0.26 2.39
-7.61 0.11 2.39
-7.61 -0.05 2.39
-7.61 -0.20 2.39
-7.61 -0.35 2.39
-7.60 -0.50 2.39
-6.13 -0.53 1.93
-6.09 -0.65 1.92
-7.56 -0.96 2.39
-7.54 -1.11 2.39
-7.52 -1.27 2.39
-7.50 -1.42 2.39
-7.47 -1.57 2.39
-7.44 -1.72 2.39
-7.40 -1.87 2.39
-7.37 -2.02 2.39
-7.33 -2.17 2.39
-7.28 -2.31 2.39
-7.24 -2.46 2.39
-7.19 -2.61 2.39
-7.14 -2.75 2.39
-7.08 -2.89 2.39
-7.03 -3.04 2.39
-6.97 -3.18 2.39
-6.90 -3.32 2.39
-6.84 -3.46 2.39
-6.77 -3.60 2.39
-6.70 -3.73 2.39
-6.62 -3.87 2.39
-6.55 -4.00 2.39
-6.47 -4.14 2.39
-6.39 -4.27 2.39
-6.30 -4.40 2.39
-6.22 -4.52 2.39
-6.13 -4.65 2.39
-6.03 -4.77 2.39
-5.94 -4.90 2.39
-5.91 -5.08 2.42
-5.91 -5.28 2.46
-5.88 -5.48 2.49
-5.78 -5.60 2.49
-5.66 -5.72 2.49
-5.55 -5.83 2.49
-5.44 -5.94 2.49
-5.32 -6.05 2.49
-5.20 -6.16 2.49
-5.07 -6.27 2.49
-4.95 -6.37 2.49
-4.82 -6.47 2.49
-4.69 -6.57 2.49
-4.56 -6.67 2.49
-4.43 -6.76 2.49
-4.30 -6.85 2.49
-4.16 -6.94 2.49
-4.02 -7.03 2.49
-3.88 -7.11 2.49
-3.74 -7.19 2.49
-3.60 -7.27 2.49
-3.45 -7.34 2.49
-3.31 -7.41 2.49
-3.16 -7.48 2.49
-3.01 -7.54 2.49
-2.86 -7.61 2.49
-2.71 -7.67 2.49
-2.55 -7.72 2.49
-2.40 -7.78 2.49
-2.24 -7.83 2.49
-2.09 -7.87 2.49
-1.93 -7.92 2.49
-1.77 -7.96 2.49
-1.61 -8.00 2.49
-1.45 -8.03 2.49
-1.29 -8.06 2.49
-1.13 -8.09 2.49
-0.97 -8.11 2.49
-0.80 -8.14 2.49
-0.64 -8.15 2.49
-0.48 -8.17 2.49
-0.31 -8.18 2.49
-0.15 -8.19 2.49
0.02 -7.58 2.49
0.17 -7.58 2.49
0.32 -7.58 2.49
0.47 -7.57 2.49
0.62 -7.56 2.49
0.78 -7.55 2.49
0.93 -7.54 2.49
1.08 -7.52 2.49
1.23 -7.50 2.49
1.38 -7.48 2.49
1.53 -7.45 2.49
1.68 -7.42 2.49
1.83 -7.39 2.49
1.98 -7.35 2.49
2.11 -7.27 2.48
2.18 -6.97 2.39
2.33 -6.96 2.40
2.46 -6.88 2.39
2.60 -6.83 2.39
2.73 -6.78 2.39
2.87 -6.73 2.39
3.00 -6.67 2.39
3.14 -6.61 2.39
3.27 -6.55 2.39
3.40 -6.49 2.39
3.53 -6.42 2.39
3.66 -6.35 2.39
3.79 -6.27 2.39
3.91 -6.20 2.39
4.04 -6.12 2.39
4.16 -6.04 2.39
4.28 -5.96 2.39
4.40 -5.87 2.39
4.52 -5.78 2.39
4.64 -5.69 2.39
4.75 -5.60 2.39
4.86 -5.50 2.39
4.97 -5.41 2.39
5.08 -5.31 2.39
5.19 -5.20 2.39
5.29 -5.10 2.39
5.39 -4.99 2.39
5.49 -4.89 2.39
5.59 -4.78 2.39
5.68 -4.66 2.39
5.78 -4.55 2.39
5.87 -4.43 2.39
5.96 -4.31 2.39
6.03 -4.18 2.39
6.10 -4.06 2.38
6.18 -3.93 2.38
6.25 -3.80 2.38
6.32 -3.67 2.37
6.38 -3.54 2.37
6.45 -3.41 2.37
6.51 -3.28 2.37
6.56 -3.14 2.37
6.62 -3.01 2.36
6.67 -2.87 2.36
6.73 -2.74 2.36
6.77 -2.60 2.36
6.82 -2.46 2.36
6.86 -2.32 2.36
7.07 -2.24 2.41
7.11 -2.09 2.41
7.15 -1.95 2.41
7.18 -1.81 2.41
7.21 -1.66 2.41
7.25 -1.52 2.41
7.28 -1.37 2.41
7.30 -1.23 2.41
7.33 -1.08 2.41
7.35 -0.93 2.41
7.37 -0.78 2.41
7.38 -0.64 2.41
7.39 -0.49 2.41
7.40 -0.34 2.41
7.41 -0.19 2.41
7.41 -0.04 2.41
7.41 0.10 2.41
7.41 0.25 2.42
7.40 0.40 2.42
7.39 0.55 2.42
7.37 0.70 2.42
7.36 0.84 2.42
7.34 0.99 2.42
7.31 1.14 2.42
7.29 1.28 2.42
7.26 1.43 2.41
7.23 1.57 2.41
7.19 1.72 2.41
7.15 1.86 2.41
7.11 2.00 2.41
7.07 2.14 2.41
7.02 2.28 2.41
6.46 2.25 2.24
6.31 2.34 2.20
6.30 2.48 2.22
6.49 2.70 2.30
6.60 2.91 2.36
6.47 3.01 2.34
6.20 3.03 2.26
6.20 3.19 2.29
6.46 3.49 2.41
6.38 3.61 2.41
6.27 3.71 2.39
6.19 3.84 2.39
6.11 3.96 2.39
6.02 4.08 2.39
5.94 4.20 2.39
5.85 4.31 2.39
5.76 4.43 2.39
5.67 4.54 2.39
5.57 4.65 2.39
5.48 4.76 2.39
5.38 4.87 2.39
5.28 4.97 2.39
5.17 5.08 2.39
5.07 5.18 2.39
4.96 5.28 2.39
4.85 5.37 2.39
4.74 5.47 2.39
4.63 5.56 2.39
4.52 5.65 2.39
4.40 5.73 2.39
4.28 5.82 2.39
4.16 5.90 2.39
4.04 5.98 2.39
3.92 6.06 2.39
3.79 6.13 2.39
3.67 6.20 2.39
3.54 6.27 2.39
3.41 6.34 2.39
3.29 6.40 2.39
3.15 6.47 2.39
3.02 6.53 2.39
2.89 6.58 2.39
2.76 6.64 2.39
2.62 6.69 2.39
2.50 6.77 2.41
2.35 6.78 2.39
2.29 7.08 2.48
2.16 7.16 2.49
2.02 7.20 2.49
1.87 7.23 2.49
1.72 7.27 2.49
1.58 7.30 2.49
1.43 7.32 2.49
1.28 7.35 2.49
1.13 7.37 2.49
0.99 7.39 2.49
0.84 7.40 2.49
0.69 7.41 2.49
0.54 7.42 2.49
0.39 7.43 2.49
0.24 7.43 2.49
0.09 7.43 2.49
-0.06 7.43 2.49
-0.21 7.43 2.49
-0.36 7.42 2.49
-0.51 7.41 2.49
-0.66 7.39 2.49
-0.80 7.37 2.49
-0.95 7.35 2.49
-1.10 7.33 2.49
-1.24 7.30 2.49
-1.39 7.27 2.49
-1.54 7.24 2.49
-1.68 7.21 2.49
-1.82 7.17 2.49
-1.97 7.13 2.49
-2.11 7.09 2.49
-2.25 7.04 2.49
-2.39 6.99 2.49
-2.53 6.94 2.49
-2.67 6.88 2.49
-2.81 6.83 2.49
-2.94 6.77 2.49
-3.08 6.71 2.49
-3.21 6.64 2.49
-3.34 6.57 2.49
-3.47 6.50 2.49
-3.60 6.43 2.49
-3.73 6.35 2.49
-3.86 6.28 2.49
-3.98 6.20 2.49
-4.10 6.11 2.49
-4.22 6.03 2.49
-4.34 5.94 2.49
-4.46 5.85 2.49
-4.58 5.76 2.49
-4.69 5.66 2.49
-4.80 5.57 2.49
-4.91 5.47 2.49
-5.02 5.37 2.49
-5.13 5.27 2.49
-5.23 5.16 2.49
-5.33 5.05 2.49
-5.43 4.95 2.49
-5.53 4.83 2.49
-5.63 4.72 2.49
-5.72 4.61 2.49
-5.79 4.47 2.48
-5.79 4.29 2.45
-5.80 4.12 2.42
-5.82 3.96 2.39
-5.90 3.84 2.39
-5.99 3.73 2.40
-6.05 3.60 2.39
-6.12 3.48 2.39
-6.19 3.35 2.39
-6.25 3.23 2.39
-6.32 3.10 2.39
-6.38 2.98 2.39
-6.44 2.85 2.39
-6.49 2.72 2.39
-6.54 2.59 2.39
-6.60 2.45 2.39
-6.64 2.32 2.39
-6.69 2.19 2.39
-6.73 2.05 2.39
-6.77 1.92 2.39
-6.81 1.78 2.39
-6.85 1.64 2.39
-6.88 1.50 2.39
-6.91 1.37 2.39
-6.93 1.23 2.39
-6.96 1.09 2.39
-6.98 0.95 2.39
-7.00 0.81 2.39
-7.01 0.67 2.39
-7.03 0.52 2.39
-7.04 0.38 2.39
-7.05 0.24 2.39
-7.05 0.10 2.39
-7.05 -0.04 2.39
-7.05 -0.18 2.39
-7.05 -0.33 2.39
-7.04 -0.47 2.39
-6.13 -0.53 2.08
-6.09 -0.65 2.07
-7.00 -0.89 2.39
-6.99 -1.03 2.39
-6.97 -1.17 2.39
-6.94 -1.31 2.39
-6.92 -1.45 2.39
-6.89 -1.59 2.39
-6.86 -1.73 2.39
-6.82 -1.87 2.39
-6.79 -2.01 2.39
-6.75 -2.14 2.39
-6.70 -2.28 2.39
-6.66 -2.41 2.39
-6.61 -2.55 2.39
-6.56 -2.68 2.39
-6.51 -2.81 2.39
-6.45 -2.95 2.39
-6.39 -3.08 2.39
-6.33 -3.20 2.39
-6.27 -3.33 2.39
-6.20 -3.46 2.39
-6.13 -3.58 2.39
-6.08 -3.72 2.40
-5.99 -3.83 2.39
-5.91 -3.95 2.39
-5.90 -4.12 2.42
-5.90 -4.29 2.45
-5.90 -4.48 2.49
-5.83 -4.61 2.49
-5.74 -4.73 2.49
-5.64 -4.85 2.49
-5.55 -4.96 2.49
-5.45 -5.07 2.49
-5.35 -5.18 2.49
-5.24 -5.29 2.49
-5.14 -5.40 2.49
-5.03 -5.50 2.49
-4.92 -5.60 2.49
-4.81 -5.71 2.49
-4.70 -5.80 2.49
-4.58 -5.90 2.49
-4.46 -5.99 2.49
-4.34 -6.08 2.49
-4.22 -6.17 2.49
-4.10 -6.26 2.49
-3.97 -6.34 2.49
-3.85 -6.42 2.49
-3.72 -6.50 2.49
-3.59 -6.58 2.49
-3.46 -6.65 2.49
-3.33 -6.72 2.49
-3.19 -6.79 2.49
-3.06 -6.86 2.49
-2.92 -6.92 2.49
-2.78 -6.98 2.49
-2.64 -7.04 2.49
-2.50 -7.09 2.49
-2.36 -7.15 2.49
-2.22 -7.19 2.49
-2.07 -7.24 2.49
-1.93 -7.28 2.49
-1.78 -7.32 2.49
-1.64 -7.36 2.49
-1.49 -7.40 2.49
-1.34 -7.43 2.49
-1.19 -7.46 2.49
-1.04 -7.48 2.49
-0.89 -7.51 2.49
-0.74 -7.52 2.49
-0.59 -7.54 2.49
-0.44 -7.55 2.49
-0.29 -7.57 2.49
-0.14 -7.57 2.49
0.02 -7.04 2.49
0.16 -7.04 2.49
0.30 -7.04 2.49
0.44 -7.03 2.49
0.58 -7.03 2.49
0.72 -7.02 2.49
0.86 -7.00 2.49
1.00 -6.99 2.49
1.14 -6.97 2.49
1.28 -6.94 2.49
1.42 -6.92 2.49
1.56 -6.89 2.49
1.70 -6.86 2.49
1.84 -6.83 2.49
1.97 -6.79 2.49
2.11 -6.75 2.49
2.15 -6.43 2.39
2.28 -6.39 2.39
2.41 -6.35 2.39
2.54 -6.30 2.39
2.66 -6.25 2.39
2.79 -6.20 2.39
2.91 -6.14 2.39
3.04 -6.08 2.39
3.16 -6.02 2.39
3.28 -5.96 2.39
3.40 -5.89 2.39
3.52 -5.83 2.39
3.64 -5.76 2.39
3.75 -5.68 2.39
3.86 -5.61 2.39
3.98 -5.53 2.39
4.09 -5.45 2.39
4.20 -5.37 2.39
4.30 -5.28 2.39
4.41 -5.20 2.39
4.51 -5.11 2.39
4.62 -5.02 2.39
4.72 -4.93 2.39
4.82 -4.83 2.39
4.91 -4.73 2.39
5.01 -4.64 2.39
5.10 -4.54 2.39
5.19 -4.43 2.39
5.28 -4.33 2.39
5.36 -4.22 2.39
5.45 -4.11 2.39
5.53 -4.01 2.39
5.61 -3.89 2.39
5.69 -3.78 2.39
5.76 -3.67 2.39
5.83 -3.55 2.39
5.90 -3.43 2.39
5.96 -3.31 2.39
6.02 -3.19 2.39
6.08 -3.06 2.38
6.14 -2.94 2.38
6.19 -2.81 2.38
6.24 -2.69 2.38
6.29 -2.56 2.38
6.33 -2.43 2.38
6.38 -2.30 2.37
6.52 -2.21 2.41
6.56 -2.08 2.41
6.60 -1.94 2.41
6.64 -1.81 2.41
6.67 -1.68 2.41
6.70 -1.54 2.41
6.73 -1.41 2.41
6.76 -1.27 2.41
6.79 -1.14 2.41
6.81 -1.00 2.41
6.83 -0.87 2.41
6.84 -0.73 2.41
6.86 -0.59 2.41
6.87 -0.45 2.41
6.88 -0.32 2.41
6.88 -0.18 2.41
6.88 -0.04 2.41
6.88 0.10 2.41
6.87 0.23 2.41
6.87 0.37 2.41
6.86 0.51 2.41
6.84 0.65 2.41
6.83 0.78 2.41
6.81 0.92 2.41
6.79 1.06 2.41
6.76 1.19 2.41
6.73 1.33 2.41
6.70 1.46 2.41
6.67 1.59 2.41
6.64 1.73 2.41
6.60 1.86 2.41
6.56 1.99 2.41
6.51 2.12 2.41
6.47 2.25 2.41
6.32 2.34 2.38
6.31 2.48 2.39
6.31 2.63 2.41
6.20 2.73 2.39
6.15 2.85 2.39
6.09 2.98 2.39
6.02 3.10 2.39
5.96 3.22 2.39
5.89 3.33 2.39
5.82 3.45 2.39
5.75 3.56 2.39
5.67 3.68 2.39
5.60 3.79 2.39
5.52 3.90 2.39
5.44 4.01 2.39
5.35 4.11 2.39
5.27 4.22 2.39
5.18 4.32 2.39
5.09 4.42 2.39
5.00 4.52 2.39
4.90 4.62 2.39
4.81 4.72 2.39
4.71 4.81 2.39
4.61 4.90 2.39
4.51 4.99 2.39
4.41 5.08 2.39
4.30 5.16 2.39
4.20 5.25 2.39
4.09 5.33 2.39
3.98 5.41 2.39
3.87 5.48 2.39
3.76 5.56 2.39
3.64 5.63 2.39
3.53 5.70 2.39
3.41 5.77 2.39
3.29 5.83 2.39
3.17 5.89 2.39
3.05 5.95 2.39
2.93 6.01 2.39
2.81 6.07 2.39
2.69 6.12 2.39
2.56 6.17 2.39
2.44 6.22 2.39
2.31 6.26 2.39
2.28 6.58 2.49
2.15 6.62 2.49
2.01 6.66 2.49
1.88 6.69 2.49
1.74 6.73 2.49
1.60 6.76 2.49
1.47 6.78 2.49
1.33 6.81 2.49
1.19 6.83 2.49
1.06 6.85 2.49
0.92 6.87 2.49
0.78 6.88 2.49
0.64 6.90 2.49
0.50 6.90 2.49
0.36 6.91 2.49
0.22 6.91 2.49
0.08 6.91 2.49
-0.05 6.91 2.49
-0.19 6.91 2.49
-0.33 6.90 2.49
-0.47 6.89 2.49
-0.61 6.87 2.49
-0.75 6.86 2.49
-0.88 6.84 2.49
-1.02 6.82 2.49
-1.16 6.79 2.49
-1.29 6.77 2.49
-1.43 6.74 2.49
-1.56 6.70 2.49
-1.70 6.67 2.49
-1.83 6.63 2.49
-1.96 6.59 2.49
-2.09 6.55 2.49
-2.22 6.50 2.49
-2.35 6.46 2.49
-2.48 6.41 2.49
-2.61 6.35 2.49
-2.74 6.30 2.49
-2.86 6.24 2.49
-2.99 6.18 2.49
-3.11 6.12 2.49
-3.23 6.05 2.49
-3.35 5.98 2.49
-3.47 5.91 2.49
-3.59 5.84 2.49
-3.70 5.77 2.49
-3.82 5.69 2.49
-3.93 5.61 2.49
-4.04 5.53 2.49
-4.15 5.45 2.49
-4.26 5.36 2.49
-4.36 5.27 2.49
-4.47 5.18 2.49
-4.57 5.09 2.49
-4.67 5.00 2.49
-4.77 4.90 2.49
-4.87 4.80 2.49
-4.96 4.70 2.49
-5.06 4.60 2.49
-5.15 4.50 2.49
-5.24 4.39 2.49
-5.32 4.29 2.49
-5.41 4.18 2.49
-5.49 4.07 2.49
-5.57 3.96 2.49
-5.65 3.84 2.49
-5.72 3.73 2.49
-5.80 3.61 2.49
-5.80 3.45 2.46
-5.80 3.30 2.44
-5.81 3.15 2.41
-5.82 3.01 2.39
-5.88 2.89 2.39
-5.93 2.77 2.39
-6.00 2.65 2.40
-6.04 2.53 2.39
-6.09 2.41 2.39
-6.14 2.28 2.39
-6.18 2.16 2.39
-6.23 2.03 2.39
-6.27 1.91 2.39
-6.30 1.78 2.39
-6.34 1.66 2.39
-6.37 1.53 2.39
-6.40 1.40 2.39
-6.43 1.27 2.39
-6.45 1.14 2.39
-6.48 1.01 2.39
-6.50 0.88 2.39
-6.51 0.75 2.39
-6.53 0.62 2.39
-6.54 0.49 2.39
-6.55 0.36 2.39
-6.56 0.22 2.39
-6.56 0.09 2.39
-6.56 -0.04 2.39
-6.56 -0.17 2.39
-6.56 -0.30 2.39
-6.55 -0.44 2.39
-6.13 -0.53 2.24
-6.08 -0.65 2.23
-6.52 -0.83 2.39
-6.50 -0.96 2.39
-6.48 -1.09 2.39
-6.46 -1.22 2.39
-6.44 -1.35 2.39
-6.41 -1.48 2.39
-6.38 -1.61 2.39
-6.35 -1.74 2.39
-6.31 -1.87 2.39
-6.28 -2.00 2.39
-6.24 -2.12 2.39
-6.19 -2.25 2.39
-6.15 -2.37 2.39
-6.10 -2.50 2.39
-6.07 -2.62 2.40
-6.00 -2.74 2.39
-5.95 -2.86 2.39
-5.89 -2.98 2.39
-5.89 -3.13 2.41
-5.88 -3.28 2.44
-5.89 -3.44 2.47
-5.88 -3.60 2.49
-5.81 -3.72 2.49
-5.74 -3.83 2.49
-5.66 -3.95 2.49
-5.58 -4.07 2.49
-5.50 -4.18 2.49
-5.42 -4.29 2.49
-5.33 -4.40 2.49
-5.25 -4.51 2.49
-5.16 -4.61 2.49
-5.06 -4.72 2.49
-4.97 -4.82 2.49
-4.87 -4.92 2.49
-4.78 -5.02 2.49
-4.68 -5.12 2.49
-4.57 -5.21 2.49
-4.47 -5.31 2.49
-4.37 -5.40 2.49
-4.26 -5.49 2.49
-4.15 -5.57 2.49
-4.04 -5.66 2.49
-3.92 -5.74 2.49
-3.81 -5.82 2.49
-3.69 -5.90 2.49
-3.58 -5.97 2.49
-3.46 -6.05 2.49
-3.34 -6.12 2.49
-3.21 -6.18 2.49
-3.09 -6.25 2.49
-2.97 -6.31 2.49
-2.84 -6.37 2.49
-2.71 -6.43 2.49
-2.58 -6.49 2.49
-2.45 -6.54 2.49
-2.32 -6.59 2.49
-2.19 -6.64 2.49
-2.06 -6.69 2.49
-1.93 -6.73 2.49
-1.79 -6.77 2.49
-1.66 -6.81 2.49
-1.52 -6.84 2.49
-1.38 -6.87 2.49
-1.24 -6.90 2.49
-1.11 -6.93 2.49
-0.97 -6.95 2.49
-0.83 -6.97 2.49
-0.69 -6.99 2.49
-0.55 -7.01 2.49
-0.41 -7.02 2.49
-0.27 -7.03 2.49
-0.13 -7.04 2.49
0.02 -6.57 2.49
0.15 -6.57 2.49
0.28 -6.56 2.49
0.41 -6.56 2.49
0.54 -6.55 2.49
0.67 -6.54 2.49
0.80 -6.53 2.49
0.94 -6.51 2.49
1.07 -6.50 2.49
1.20 -6.48 2.49
1.33 -6.45 2.49
1.46 -6.43 2.49
1.59 -6.40 2.49
1.71 -6.37 2.49
1.84 -6.33 2.49
1.97 -6.30 2.49
2.10 -6.26 2.49
2.14 -5.99 2.40
2.25 -5.92 2.39
2.37 -5.87 2.39
2.49 -5.83 2.39
2.60 -5.78 2.39
2.72 -5.73 2.39
2.83 -5.67 2.39
2.95 -5.61 2.39
3.06 -5.56 2.39
3.17 -5.49 2.39
3.28 -5.43 2.39
3.39 -5.37 2.39
3.50 -5.30 2.39
3.60 -5.23 2.39
3.71 -5.16 2.39
3.81 -5.08 2.39
3.91 -5.00 2.39
4.01 -4.93 2.39
4.11 -4.85 2.39
4.21 -4.76 2.39
4.30 -4.68 2.39
4.40 -4.59 2.39
4.49 -4.50 2.39
4.58 -4.41 2.39
4.67 -4.32 2.39
4.75 -4.23 2.39
4.84 -4.13 2.39
4.92 -4.03 2.39
5.00 -3.94 2.39
5.08 -3.84 2.39
5.15 -3.73 2.39
5.23 -3.63 2.39
5.30 -3.52 2.39
5.37 -3.42 2.39
5.44 -3.31 2.39
5.50 -3.20 2.39
5.57 -3.09 2.39
5.63 -2.98 2.39
5.69 -2.86 2.39
5.74 -2.75 2.39
5.80 -2.63 2.39
5.85 -2.52 2.39
5.90 -2.40 2.39
5.94 -2.28 2.39
5.99 -2.16 2.39
6.03 -2.04 2.39
6.07 -1.92 2.39
6.11 -1.80 2.39
6.14 -1.68 2.39
6.17 -1.55 2.39
6.20 -1.43 2.39
6.28 -1.32 2.41
6.31 -1.19 2.41
6.33 -1.06 2.41
6.35 -0.94 2.41
6.37 -0.81 2.41
6.38 -0.68 2.41
6.40 -0.55 2.41
6.41 -0.42 2.41
6.41 -0.30 2.41
6.41 -0.17 2.41
6.41 -0.04 2.41
6.41 0.09 2.41
6.40 0.22 2.41
6.40 0.35 2.41
6.39 0.47 2.41
6.37 0.60 2.41
6.36 0.73 2.41
6.34 0.86 2.41
6.32 0.98 2.41
6.30 1.11 2.41
6.22 1.22 2.39
6.19 1.35 2.39
6.16 1.47 2.39
6.13 1.59 2.39
6.10 1.72 2.39
6.06 1.84 2.39
6.02 1.96 2.39
5.98 2.08 2.39
5.93 2.20 2.39
5.89 2.31 2.39
5.84 2.43 2.39
5.79 2.55 2.39
5.73 2.66 2.39
5.68 2.77 2.39
5.62 2.89 2.39
5.56 3.00 2.39
5.49 3.11 2.39
5.43 3.22 2.39
5.36 3.32 2.39
5.29 3.43 2.39
5.22 3.53 2.39
5.15 3.64 2.39
5.07 3.74 2.39
4.99 3.84 2.39
4.91 3.93 2.39
4.83 4.03 2.39
4.75 4.13 2.39
4.66 4.22 2.39
4.58 4.31 2.39
4.49 4.40 2.39
4.40 4.49 2.39
4.30 4.57 2.39
4.21 4.65 2.39
4.11 4.74 2.39
4.02 4.82 2.39
3.92 4.89 2.39
3.82 4.97 2.39
3.71 5.04 2.39
3.61 5.11 2.39
3.51 5.18 2.39
3.40 5.25 2.39
3.29 5.32 2.39
3.18 5.38 2.39
3.07 5.44 2.39
2.96 5.50 2.39
2.85 5.55 2.39
2.74 5.61 2.39
2.62 5.66 2.39
2.51 5.71 2.39
2.39 5.76 2.39
2.29 5.83 2.40
2.25 6.09 2.49
2.13 6.14 2.49
2.00 6.18 2.49
1.88 6.21 2.49
1.75 6.25 2.49
1.63 6.28 2.49
1.50 6.31 2.49
1.37 6.33 2.49
1.24 6.36 2.49
1.12 6.38 2.49
0.99 6.40 2.49
0.86 6.41 2.49
0.73 6.43 2.49
0.60 6.44 2.49
0.47 6.44 2.49
0.34 6.45 2.49
0.21 6.45 2.49
0.08 6.45 2.49
-0.05 6.45 2.49
-0.18 6.45 2.49
-0.31 6.44 2.49
-0.44 6.43 2.49
-0.57 6.42 2.49
-0.70 6.40 2.49
-0.82 6.39 2.49
-0.95 6.37 2.49
-1.08 6.34 2.49
-1.21 6.32 2.49
-1.33 6.29 2.49
-1.46 6.26 2.49
-1.58 6.23 2.49
-1.71 6.19 2.49
-1.83 6.16 2.49
-1.95 6.12 2.49
-2.08 6.07 2.49
-2.20 6.03 2.49
-2.32 5.98 2.49
-2.44 5.93 2.49
-2.56 5.88 2.49
-2.67 5.83 2.49
-2.79 5.77 2.49
-2.90 5.71 2.49
-3.02 5.65 2.49
-3.13 5.59 2.49
-3.24 5.52 2.49
-3.35 5.46 2.49
-3.46 5.39 2.49
-3.56 5.31 2.49
-3.67 5.24 2.49
-3.77 5.16 2.49
-3.88 5.09 2.49
-3.98 5.01 2.49
-4.08 4.92 2.49
-4.17 4.84 2.49
-4.27 4.76 2.49
-4.36 4.67 2.49
-4.46 4.58 2.49
-4.55 4.49 2.49
-4.64 4.39 2.49
-4.72 4.30 2.49
-4.81 4.20 2.49
-4.89 4.10 2.49
-4.97 4.01 2.49
-5.05 3.90 2.49
-5.13 3.80 2.49
-5.20 3.70 2.49
-5.28 3.59 2.49
-5.35 3.48 2.49
-5.42 3.38 2.49
-5.48 3.27 2.49
-5.55 3.15 2.49
-5.61 3.04 2.49
-5.67 2.93 2.49
-5.73 2.81 2.49
-5.78 2.70 2.49
-5.81 2.57 2.48
-5.81 2.43 2.46
-5.81 2.30 2.44
-5.82 2.16 2.43
-5.82 2.03 2.41
-5.83 1.90 2.40
-5.85 1.78 2.39
-5.89 1.67 2.39
-5.92 1.55 2.39
-5.95 1.43 2.39
-5.98 1.31 2.39
-6.02 1.19 2.40
-6.03 1.07 2.39
-6.05 0.94 2.39
-6.07 0.82 2.39
-6.08 0.70 2.39
-6.10 0.58 2.39
-6.11 0.45 2.39
-6.12 0.33 2.39
-6.12 0.21 2.39
-6.13 0.09 2.39
-6.13 -0.04 2.39
-6.13 -0.16 2.39
-6.13 -0.28 2.39
-6.12 -0.41 2.39
-6.11 -0.53 2.39
-6.08 -0.65 2.38
-6.09 -0.78 2.39
-6.07 -0.90 2.39
-6.05 -1.02 2.39
-6.05 -1.15 2.40
-6.01 -1.26 2.39
-5.99 -1.39 2.39
-5.96 -1.51 2.39
-5.93 -1.63 2.39
-5.90 -1.75 2.39
-5.88 -1.87 2.40
-5.87 -2.00 2.41
-5.87 -2.13 2.43
-5.87 -2.26 2.44
-5.87 -2.40 2.46
-5.87 -2.54 2.49
-5.85 -2.67 2.49
-5.79 -2.79 2.49
-5.74 -2.91 2.49
-5.68 -3.02 2.49
-5.62 -3.14 2.49
-5.56 -3.25 2.49
-5.49 -3.36 2.49
-5.43 -3.47 2.49
-5.36 -3.58 2.49
-5.28 -3.69 2.49
-5.21 -3.80 2.49
-5.14 -3.90 2.49
-5.06 -4.01 2.49
-4.98 -4.11 2.49
-4.90 -4.21 2.49
-4.81 -4.31 2.49
-4.73 -4.41 2.49
-4.64 -4.50 2.49
-4.55 -4.59 2.49
-4.46 -4.69 2.49
-4.36 -4.78 2.49
-4.27 -4.87 2.49
-4.17 -4.95 2.49
-4.07 -5.04 2.49
-3.97 -5.12 2.49
-3.87 -5.20 2.49
-3.77 -5.28 2.49
-3.66 -5.36 2.49
-3.56 -5.43 2.49
-3.45 -5.50 2.49
-3.34 -5.57 2.49
-3.23 -5.64 2.49
-3.11 -5.71 2.49
-3.00 -5.77 2.49
-2.88 -5.83 2.49
-2.77 -5.89 2.49
-2.65 -5.95 2.49
-2.53 -6.00 2.49
-2.41 -6.06 2.49
-2.29 -6.10 2.49
-2.17 -6.15 2.49
-2.04 -6.20 2.49
-1.92 -6.24 2.49
-1.80 -6.28 2.49
-1.67 -6.32 2.49
-1.54 -6.35 2.49
-1.42 -6.38 2.49
-1.29 -6.41 2.49
-1.16 -6.44 2.49
-1.03 -6.46 2.49
-0.90 -6.49 2.49
-0.77 -6.51 2.49
-0.64 -6.52 2.49
-0.51 -6.54 2.49
-0.38 -6.55 2.49
-0.25 -6.56 2.49
-0.12 -6.56 2.49
0.02 -6.15 2.49
0.14 -6.15 2.49
0.26 -6.14 2.49
0.38 -6.14 2.49
0.51 -6.13 2.49
0.63 -6.12 2.49
0.75 -6.11 2.49
0.88 -6.10 2.49
1.00 -6.08 2.49
1.12 -6.06 2.49
1.24 -6.04 2.49
1.36 -6.01 2.49
1.48 -5.99 2.49
1.60 -5.96 2.49
1.72 -5.93 2.49
1.84 -5.89 2.49
1.96 -5.86 2.49
2.08 -5.82 2.49
2.14 -5.62 2.43
2.22 -5.50 2.39
2.34 -5.49 2.41
2.44 -5.40 2.39
2.54 -5.36 2.39
2.65 -5.31 2.39
2.76 -5.25 2.39
2.86 -5.20 2.39
2.97 -5.14 2.39
3.07 -5.08 2.39
3.17 -5.02 2.39
3.27 -4.96 2.39
3.37 -4.89 2.39
3.47 -4.82 2.39
3.57 -4.75 2.39
3.66 -4.68 2.39
3.75 -4.61 2.39
3.85 -4.53 2.39
3.94 -4.46 2.39
4.03 -4.38 2.39
4.11 -4.30 2.39
4.20 -4.21 2.39
4.28 -4.13 2.39
4.37 -4.04 2.39
4.45 -3.95 2.39
4.53 -3.87 2.39
4.60 -3.77 2.39
4.68 -3.68 2.39
4.75 -3.59 2.39
4.82 -3.49 2.39
4.89 -3.40 2.39
4.96 -3.30 2.39
5.02 -3.20 2.39
5.09 -3.10 2.39
5.15 -2.99 2.39
5.21 -2.89 2.39
5.26 -2.79 2.39
5.32 -2.68 2.39
5.37 -2.57 2.39
5.42 -2.46 2.39
5.47 -2.36 2.39
5.52 -2.25 2.39
5.56 -2.13 2.39
5.60 -2.02 2.39
5.64 -1.91 2.39
5.68 -1.80 2.39
5.71 -1.68 2.39
5.74 -1.57 2.39
5.77 -1.45 2.39
5.80 -1.34 2.39
5.83 -1.22 2.39
5.85 -1.10 2.39
5.87 -0.99 2.39
5.89 -0.87 2.39
5.90 -0.75 2.39
5.92 -0.63 2.39
5.93 -0.51 2.39
5.93 -0.39 2.39
5.94 -0.27 2.39
5.94 -0.16 2.39
5.94 -0.04 2.39
5.94 0.08 2.39
5.94 0.20 2.39
5.93 0.32 2.39
5.92 0.44 2.39
5.91 0.56 2.39
