ply
format ascii 1.0
element vertex 2969
property float32 x
property float32 y
property float32 z
end_header
7.19 -10.01 2.31
7.36 -9.82 2.30
7.52 -9.63 2.29
7.68 -9.44 2.28
7.83 -9.24 2.27
7.98 -9.05 2.26
8.13 -8.85 2.25
8.27 -8.65 2.24
8.53 -8.57 2.26
8.88 -8.57 2.30
9.25 -8.57 2.35
9.41 -8.37 2.35
9.55 -8.17 2.35
9.70 -7.96 2.34
9.84 -7.75 2.34
9.98 -7.54 2.33
10.11 -7.33 2.33
10.24 -7.11 2.32
10.37 -6.90 2.32
10.49 -6.67 2.32
10.58 -6.44 2.31
10.68 -6.21 2.30
10.77 -5.98 2.29
10.86 -5.74 2.29
10.59 -5.33 2.21
10.69 -5.12 2.21
10.78 -4.90 2.20
10.87 -4.67 2.20
10.95 -4.45 2.20
11.03 -4.23 2.20
11.10 -4.00 2.20
11.17 -3.78 2.19
11.24 -3.55 2.19
11.31 -3.32 2.19
11.69 -3.18 2.25
11.75 -2.95 2.25
11.81 -2.71 2.25
11.52 -2.40 2.19
11.77 -2.21 2.23
11.95 -1.99 2.25
11.99 -1.76 2.25
12.03 -1.52 2.25
8.96 -0.95 1.67
12.09 -1.03 2.25
12.12 -0.79 2.25
12.13 -0.55 2.25
12.13 -0.30 2.25
12.13 -0.06 2.25
12.13 0.18 2.25
12.11 0.43 2.25
12.09 0.67 2.25
11.82 0.89 2.20
11.47 1.10 2.14
12.00 1.39 2.24
11.97 1.63 2.24
11.94 1.87 2.24
11.14 1.98 2.10
9.96 1.98 1.88
9.00 1.97 1.71
8.20 1.97 1.56
7.52 1.97 1.44
6.94 1.97 1.34
6.44 1.97 1.25
6.17 2.02 1.20
6.17 2.16 1.21
10.55 3.93 2.09
10.48 4.14 2.09
10.41 4.36 2.09
10.33 4.57 2.10
10.24 4.78 2.10
10.16 4.99 2.10
10.73 5.54 2.24
10.21 5.54 2.16
10.07 5.73 2.15
9.98 5.94 2.16
9.88 6.15 2.16
9.78 6.36 2.17
9.67 6.58 2.17
9.56 6.79 2.18
9.45 6.99 2.18
9.33 7.20 2.19
9.21 7.41 2.20
9.08 7.61 2.20
9.64 8.41 2.38
9.51 8.64 2.39
9.38 8.87 2.40
9.23 9.09 2.41
9.04 9.27 2.41
8.85 9.45 2.41
8.66 9.62 2.41
8.47 9.79 2.41
8.27 9.96 2.41
8.06 10.12 2.41
7.86 10.28 2.41
7.65 10.43 2.41
7.44 10.58 2.41
7.22 10.73 2.41
7.00 10.87 2.41
6.78 11.01 2.41
6.56 11.14 2.41
6.33 11.26 2.41
6.06 11.31 2.39
5.83 11.43 2.39
5.54 11.42 2.37
5.37 11.65 2.39
5.13 11.75 2.39
4.90 11.85 2.39
4.66 11.94 2.39
4.41 12.03 2.39
4.17 12.12 2.39
3.93 12.19 2.39
3.68 12.27 2.39
3.43 12.34 2.39
3.18 12.40 2.39
2.93 12.46 2.39
2.68 12.51 2.39
2.43 12.56 2.39
2.19 12.68 2.41
2.01 13.19 2.49
1.74 13.22 2.49
1.47 13.25 2.49
1.21 13.28 2.49
0.94 13.29 2.49
0.67 13.31 2.49
0.41 13.32 2.49
0.14 13.32 2.49
-0.13 13.31 2.49
-0.40 13.31 2.49
-0.66 13.29 2.49
-0.93 13.27 2.49
-1.19 13.25 2.49
-1.46 13.22 2.49
-1.72 13.18 2.49
-1.99 13.14 2.49
-2.25 13.10 2.49
-2.51 13.04 2.49
-2.77 12.99 2.49
-3.03 12.93 2.49
-3.29 12.86 2.49
-3.55 12.79 2.49
-3.80 12.71 2.49
-4.06 12.63 2.49
-4.31 12.54 2.49
-4.56 12.45 2.49
-4.80 12.35 2.49
-5.05 12.25 2.49
-5.29 12.14 2.49
-5.53 12.03 2.49
-5.77 11.92 2.49
-5.86 11.51 2.43
-5.99 11.19 2.39
-6.21 11.06 2.39
-6.43 10.93 2.39
-6.64 10.80 2.39
-6.86 10.66 2.39
-7.07 10.52 2.39
-7.28 10.37 2.39
-7.48 10.22 2.39
-7.68 10.06 2.39
-7.88 9.91 2.39
-8.08 9.74 2.39
-8.27 9.58 2.39
-8.46 9.41 2.39
-8.64 9.23 2.39
-8.82 9.06 2.39
-9.00 8.87 2.39
-9.18 8.69 2.39
-9.35 8.50 2.39
-9.51 8.31 2.39
-9.68 8.12 2.39
-9.84 7.92 2.39
-11.04 8.53 2.64
-11.42 8.46 2.69
-11.82 8.39 2.75
-9.89 6.73 2.27
-13.21 8.60 2.99
-13.36 8.33 2.98
-13.51 8.05 2.98
-9.88 5.62 2.16
-9.88 5.36 2.13
-13.94 7.20 2.98
-14.11 6.94 2.98
-14.28 6.67 2.99
-14.44 6.39 3.00
-14.59 6.11 3.00
-14.74 5.83 3.01
-14.87 5.54 3.01
-15.00 5.25 3.02
-9.88 3.23 1.97
-15.24 4.65 3.03
-15.34 4.35 3.03
-15.43 4.04 3.03
-15.51 3.73 3.03
-15.59 3.42 3.03
-15.65 3.11 3.03
-15.71 2.79 3.03
-15.77 2.48 3.04
-15.83 2.16 3.04
-15.88 1.84 3.04
-15.92 1.53 3.04
-9.86 0.75 1.88
-16.01 0.89 3.05
-16.05 0.57 3.05
-16.08 0.24 3.06
-9.87 -0.05 1.88
-16.08 -0.40 3.06
-16.08 -0.72 3.06
-16.02 -1.05 3.06
-15.95 -1.36 3.05
-15.90 -1.68 3.04
-15.89 -2.00 3.05
-9.86 -1.45 1.90
-15.84 -2.65 3.06
-15.83 -2.97 3.07
-15.84 -3.31 3.08
-9.86 -2.26 1.92
-15.73 -3.95 3.09
-15.63 -4.26 3.08
-6.12 -1.80 1.21
-15.39 -4.86 3.07
-15.26 -5.16 3.07
-15.22 -5.49 3.08
-9.85 -3.78 2.01
-15.14 -6.16 3.11
-15.09 -6.50 3.13
-15.00 -6.82 3.14
-14.81 -7.10 3.13
-14.62 -7.37 3.12
-14.42 -7.63 3.11
-14.21 -7.89 3.09
-13.93 -8.10 3.07
-13.61 -8.29 3.03
-13.30 -8.47 3.00
-9.86 -6.56 2.25
-9.84 -6.84 2.28
-11.61 -8.42 2.73
-11.00 -8.32 2.62
-10.85 -8.55 2.63
-9.71 -7.98 2.39
-9.55 -8.17 2.39
-9.39 -8.37 2.39
-9.22 -8.55 2.39
-9.05 -8.74 2.39
-8.87 -8.92 2.39
-8.69 -9.10 2.39
-8.51 -9.27 2.39
-8.32 -9.44 2.39
-8.13 -9.61 2.39
-7.94 -9.77 2.39
-7.74 -9.93 2.39
-7.54 -10.08 2.39
-7.34 -10.23 2.39
-6.77 -9.85 2.27
-6.75 -10.26 2.33
-6.60 -10.49 2.35
-6.17 -10.26 2.27
-6.16 -10.72 2.35
-6.06 -11.05 2.39
-5.84 -11.17 2.39
-5.80 -11.67 2.47
-5.62 -11.90 2.49
-5.38 -12.01 2.49
-5.14 -12.12 2.49
-4.90 -12.22 2.49
-4.65 -12.32 2.49
-4.40 -12.41 2.49
-4.15 -12.50 2.49
-3.90 -12.58 2.49
-3.65 -12.66 2.49
-3.40 -12.74 2.49
-3.14 -12.80 2.49
-2.88 -12.87 2.49
-2.62 -12.93 2.49
-2.37 -12.98 2.49
-2.10 -13.03 2.49
-1.84 -13.07 2.49
-1.58 -13.11 2.49
-1.32 -13.14 2.49
-1.05 -13.17 2.49
-0.79 -13.19 2.49
-0.52 -13.20 2.49
-0.26 -13.21 2.49
0.01 -11.76 2.49
0.24 -11.76 2.49
0.48 -11.76 2.49
0.71 -11.75 2.49
0.95 -11.73 2.49
1.19 -11.71 2.49
1.42 -11.69 2.49
1.66 -11.66 2.49
1.89 -11.63 2.49
2.12 -11.59 2.49
2.26 -11.07 2.39
2.48 -11.03 2.39
2.70 -10.98 2.39
2.92 -10.92 2.39
3.14 -10.86 2.39
3.36 -10.80 2.39
3.58 -10.73 2.39
3.79 -10.66 2.39
4.01 -10.59 2.39
4.22 -10.51 2.39
4.43 -10.42 2.39
4.64 -10.33 2.39
4.85 -10.24 2.39
5.05 -10.14 2.39
5.26 -10.04 2.39
5.46 -9.94 2.39
5.66 -9.83 2.39
5.86 -9.71 2.39
6.05 -9.60 2.39
6.24 -9.47 2.39
6.39 -9.29 2.38
6.55 -9.12 2.36
6.69 -8.94 2.35
6.84 -8.76 2.34
6.98 -8.58 2.33
7.25 -8.55 2.36
7.58 -8.59 2.41
7.75 -8.44 2.41
7.92 -8.28 2.41
8.08 -8.12 2.41
8.24 -7.95 2.41
8.40 -7.79 2.41
8.56 -7.62 2.41
8.71 -7.44 2.41
8.86 -7.27 2.41
9.01 -7.09 2.41
9.15 -6.91 2.41
9.29 -6.73 2.41
9.40 -6.52 2.40
9.50 -6.31 2.39
9.59 -6.10 2.39
9.68 -5.89 2.38
9.77 -5.68 2.37
9.41 -5.22 2.26
9.50 -5.03 2.25
9.59 -4.83 2.25
9.67 -4.63 2.25
9.75 -4.43 2.24
9.83 -4.23 2.24
9.90 -4.02 2.24
9.97 -3.82 2.24
10.03 -3.62 2.23
10.09 -3.41 2.23
10.53 -3.33 2.31
10.58 -3.11 2.31
10.63 -2.89 2.31
10.68 -2.68 2.30
10.72 -2.46 2.30
10.76 -2.24 2.30
10.79 -2.02 2.30
10.82 -1.81 2.30
10.85 -1.59 2.29
10.87 -1.37 2.29
8.96 -0.95 1.88
10.91 -0.93 2.29
10.93 -0.71 2.29
10.94 -0.49 2.29
10.94 -0.27 2.29
10.93 -0.05 2.29
10.93 0.17 2.28
10.92 0.38 2.28
10.90 0.60 2.28
10.89 0.82 2.28
10.87 1.04 2.28
10.85 1.26 2.28
10.83 1.48 2.28
10.81 1.70 2.29
10.78 1.91 2.29
9.96 1.98 2.12
9.00 1.97 1.92
8.20 1.97 1.76
7.52 1.97 1.62
6.94 1.97 1.51
6.44 1.97 1.41
6.17 2.02 1.36
6.17 2.16 1.37
9.50 3.54 2.12
9.44 3.73 2.12
9.37 3.92 2.12
9.29 4.11 2.12
9.22 4.30 2.13
9.14 4.49 2.13
9.06 4.68 2.13
8.97 4.86 2.13
9.83 5.58 2.36
9.32 5.54 2.27
8.96 5.58 2.21
8.87 5.77 2.21
8.77 5.96 2.22
8.67 6.15 2.22
8.56 6.34 2.23
8.45 6.52 2.23
8.34 6.71 2.24
8.23 6.90 2.25
8.12 7.09 2.25
8.01 7.27 2.26
7.89 7.46 2.27
8.20 8.07 2.41
8.03 8.23 2.41
7.86 8.39 2.41
7.69 8.55 2.41
7.52 8.70 2.41
7.34 8.84 2.41
7.16 8.99 2.41
6.98 9.13 2.41
6.79 9.27 2.41
6.61 9.40 2.41
6.41 9.53 2.41
6.18 9.59 2.39
5.99 9.71 2.39
5.79 9.83 2.39
5.59 9.94 2.39
5.39 10.05 2.39
5.18 10.15 2.39
4.98 10.25 2.39
4.77 10.35 2.39
4.56 10.44 2.39
4.35 10.53 2.39
4.14 10.61 2.39
3.92 10.69 2.39
3.71 10.77 2.39
3.49 10.84 2.39
3.27 10.90 2.39
3.05 10.96 2.39
2.83 11.02 2.39
2.61 11.07 2.39
2.40 11.17 2.40
2.19 11.31 2.42
2.02 11.69 2.49
1.78 11.72 2.49
1.55 11.75 2.49
1.31 11.78 2.49
1.07 11.80 2.49
0.84 11.82 2.49
0.60 11.83 2.49
0.36 11.84 2.49
0.12 11.84 2.49
-0.11 11.83 2.49
-0.35 11.83 2.49
-0.59 11.82 2.49
-0.82 11.80 2.49
-1.06 11.78 2.49
-1.30 11.75 2.49
-1.53 11.72 2.49
-1.77 11.68 2.49
-2.00 11.64 2.49
-2.23 11.60 2.49
-2.46 11.55 2.49
-2.70 11.49 2.49
-2.93 11.43 2.49
-3.15 11.37 2.49
-3.38 11.30 2.49
-3.61 11.23 2.49
-3.83 11.15 2.49
-4.05 11.07 2.49
-4.27 10.99 2.49
-4.49 10.89 2.49
-4.71 10.80 2.49
-4.92 10.70 2.49
-5.13 10.60 2.49
-5.35 10.49 2.49
-5.55 10.38 2.49
-5.76 10.26 2.49
-5.86 9.96 2.45
-5.91 9.60 2.39
-6.10 9.48 2.39
-6.21 9.24 2.36
-6.21 8.85 2.29
-6.32 8.63 2.27
-6.72 8.81 2.35
-6.80 8.55 2.32
-6.82 8.23 2.27
-7.36 8.52 2.39
-7.52 8.37 2.39
-7.69 8.22 2.39
-7.85 8.06 2.39
-8.01 7.90 2.39
-8.16 7.73 2.39
-8.32 7.57 2.39
-8.47 7.40 2.39
-8.61 7.22 2.39
-8.75 7.05 2.39
-8.89 6.87 2.39
-9.02 6.69 2.39
-9.16 6.50 2.39
-9.28 6.32 2.39
-9.41 6.13 2.39
-9.53 5.94 2.39
-9.64 5.74 2.39
-9.75 5.55 2.39
-9.86 5.35 2.39
-10.99 5.68 2.64
-11.03 5.43 2.62
-11.26 5.26 2.65
-11.53 5.10 2.69
-11.79 4.94 2.73
-9.88 3.91 2.27
-12.31 4.59 2.80
-12.56 4.40 2.84
-12.81 4.20 2.88
-13.05 3.99 2.91
-13.18 3.74 2.92
-13.29 3.48 2.93
-13.39 3.22 2.94
-13.48 2.96 2.95
-13.58 2.70 2.96
-13.68 2.43 2.97
-13.78 2.16 2.98
-13.86 1.89 2.99
-13.94 1.62 3.00
-14.02 1.34 3.01
-9.86 0.75 2.11
-14.09 0.78 3.01
-14.11 0.50 3.02
-14.12 0.21 3.02
-14.18 -0.07 3.03
-14.22 -0.36 3.04
-9.87 -0.44 2.11
-14.27 -0.93 3.06
-14.27 -1.22 3.06
-9.87 -1.04 2.12
-14.24 -1.79 3.07
-14.21 -2.08 3.07
-14.19 -2.37 3.08
-14.16 -2.66 3.08
-9.86 -2.06 2.15
-9.86 -2.26 2.16
-9.86 -2.48 2.17
-13.88 -3.78 3.08
-6.08 -1.79 1.36
-6.08 -1.92 1.36
-13.55 -4.58 3.06
-13.43 -4.85 3.05
-9.85 -3.78 2.26
-9.86 -4.01 2.28
-12.75 -5.49 2.97
-11.63 -5.29 2.73
-11.22 -5.38 2.66
-10.97 -5.53 2.63
-10.82 -5.73 2.62
-9.78 -5.43 2.39
-9.67 -5.63 2.39
-9.55 -5.82 2.39
-9.44 -6.01 2.39
-9.31 -6.20 2.39
-9.19 -6.39 2.39
-9.06 -6.57 2.39
-8.92 -6.75 2.39
-8.79 -6.93 2.39
-8.65 -7.10 2.39
-8.50 -7.28 2.39
-8.36 -7.45 2.39
-8.21 -7.61 2.39
-8.05 -7.78 2.39
-7.90 -7.94 2.39
-7.74 -8.10 2.39
-7.57 -8.25 2.39
-7.41 -8.40 2.39
-6.87 -8.12 2.27
-6.75 -8.31 2.29
-6.75 -8.66 2.34
-6.60 -8.83 2.35
-6.20 -8.65 2.27
-6.17 -8.97 2.32
-6.16 -9.37 2.39
-5.97 -9.49 2.39
-5.81 -9.66 2.40
-5.81 -10.10 2.48
-5.63 -10.26 2.49
-5.42 -10.37 2.49
-5.21 -10.48 2.49
-5.00 -10.59 2.49
-4.79 -10.69 2.49
-4.57 -10.78 2.49
-4.36 -10.87 2.49
-4.14 -10.96 2.49
-3.92 -11.05 2.49
-3.70 -11.12 2.49
-3.47 -11.20 2.49
-3.25 -11.27 2.49
-3.02 -11.33 2.49
-2.79 -11.39 2.49
-2.56 -11.45 2.49
-2.33 -11.50 2.49
-2.10 -11.55 2.49
-1.87 -11.59 2.49
-1.64 -11.63 2.49
-1.41 -11.66 2.49
-1.17 -11.69 2.49
-0.94 -11.71 2.49
-0.70 -11.73 2.49
-0.47 -11.75 2.49
-0.23 -11.76 2.49
0.01 -10.58 2.49
0.22 -10.58 2.49
0.43 -10.58 2.49
0.64 -10.57 2.49
0.85 -10.55 2.49
1.07 -10.54 2.49
1.28 -10.52 2.49
1.49 -10.49 2.49
1.70 -10.46 2.49
1.91 -10.43 2.49
2.12 -10.39 2.49
2.25 -9.99 2.41
2.45 -9.95 2.41
2.63 -9.82 2.39
2.83 -9.77 2.39
3.02 -9.71 2.39
3.22 -9.65 2.39
3.41 -9.59 2.39
3.60 -9.52 2.39
3.80 -9.45 2.39
3.98 -9.37 2.39
4.17 -9.29 2.39
4.36 -9.21 2.39
4.54 -9.12 2.39
4.73 -9.03 2.39
4.91 -8.94 2.39
5.09 -8.84 2.39
5.27 -8.73 2.39
5.44 -8.63 2.39
5.61 -8.52 2.39
5.79 -8.41 2.39
5.95 -8.29 2.39
6.12 -8.17 2.39
6.33 -8.11 2.41
6.49 -7.98 2.41
6.65 -7.85 2.41
6.81 -7.72 2.41
6.97 -7.58 2.41
7.12 -7.44 2.41
7.27 -7.30 2.41
7.41 -7.15 2.41
7.55 -7.00 2.41
7.69 -6.85 2.41
7.83 -6.69 2.41
7.96 -6.53 2.41
8.09 -6.37 2.41
8.22 -6.21 2.41
8.35 -6.05 2.41
8.47 -5.88 2.41
8.59 -5.71 2.41
8.31 -5.29 2.30
8.41 -5.12 2.30
8.50 -4.94 2.29
8.58 -4.76 2.29
8.67 -4.58 2.29
8.75 -4.40 2.28
8.82 -4.22 2.28
8.90 -4.04 2.28
8.97 -3.86 2.28
9.03 -3.67 2.27
9.10 -3.49 2.27
9.19 -3.31 2.28
9.68 -3.27 2.38
9.73 -3.07 2.38
9.78 -2.87 2.38
9.83 -2.67 2.37
9.87 -2.47 2.37
9.91 -2.27 2.37
9.94 -2.07 2.37
9.98 -1.87 2.36
10.01 -1.67 2.36
10.03 -1.47 2.36
10.05 -1.27 2.36
8.95 -0.95 2.10
10.09 -0.86 2.36
10.11 -0.66 2.36
10.11 -0.46 2.36
10.11 -0.25 2.35
10.11 -0.05 2.35
10.10 0.15 2.35
10.10 0.36 2.35
10.09 0.56 2.35
10.08 0.76 2.35
10.06 0.96 2.35
10.04 1.17 2.35
10.02 1.37 2.35
10.00 1.57 2.35
9.98 1.77 2.36
6.54 1.30 1.55
6.46 1.42 1.54
6.48 1.56 1.55
7.52 1.97 1.81
6.94 1.97 1.68
6.44 1.97 1.57
6.17 2.02 1.51
6.17 2.16 1.52
8.65 3.22 2.15
8.59 3.40 2.15
8.54 3.57 2.15
8.48 3.75 2.16
8.42 3.93 2.16
8.35 4.10 2.16
8.28 4.28 2.17
8.21 4.45 2.17
8.14 4.63 2.18
8.06 4.80 2.18
8.78 5.47 2.41
8.67 5.64 2.41
8.17 5.55 2.30
7.94 5.63 2.27
7.85 5.81 2.27
7.75 5.98 2.28
7.66 6.16 2.29
7.55 6.33 2.29
7.45 6.50 2.30
7.34 6.67 2.31
7.23 6.84 2.32
7.12 7.01 2.33
7.00 7.18 2.33
6.88 7.34 2.34
6.76 7.51 2.35
6.76 7.81 2.41
6.60 7.95 2.41
6.44 8.08 2.41
6.27 8.20 2.41
6.06 8.27 2.39
5.90 8.39 2.39
5.73 8.51 2.39
5.55 8.62 2.39
5.38 8.73 2.39
5.20 8.83 2.39
5.02 8.93 2.39
4.84 9.03 2.39
4.66 9.12 2.39
4.47 9.21 2.39
4.29 9.30 2.39
4.10 9.38 2.39
3.91 9.46 2.39
3.72 9.54 2.39
3.53 9.61 2.39
3.33 9.68 2.39
3.14 9.74 2.39
2.94 9.80 2.39
2.74 9.85 2.39
2.54 9.91 2.39
2.34 9.95 2.39
2.19 10.20 2.44
2.03 10.47 2.49
1.82 10.50 2.49
1.60 10.54 2.49
1.39 10.57 2.49
1.18 10.59 2.49
0.97 10.61 2.49
0.75 10.62 2.49
0.54 10.63 2.49
0.33 10.64 2.49
0.11 10.64 2.49
-0.10 10.64 2.49
-0.31 10.63 2.49
-0.53 10.62 2.49
-0.74 10.61 2.49
-0.95 10.59 2.49
-1.17 10.57 2.49
-1.38 10.54 2.49
-1.59 10.51 2.49
-1.80 10.47 2.49
-2.01 10.43 2.49
-2.22 10.39 2.49
-2.42 10.34 2.49
-2.63 10.28 2.49
-2.84 10.23 2.49
-3.04 10.17 2.49
-3.24 10.10 2.49
-3.44 10.03 2.49
-3.64 9.96 2.49
-3.84 9.88 2.49
-4.04 9.80 2.49
-4.23 9.72 2.49
-4.43 9.63 2.49
-4.62 9.53 2.49
-4.81 9.44 2.49
-5.00 9.34 2.49
-5.18 9.23 2.49
-5.36 9.12 2.49
-5.54 9.01 2.49
-5.72 8.90 2.49
-5.85 8.71 2.47
-5.86 8.36 2.41
-5.99 8.18 2.39
-6.15 8.06 2.39
-6.21 7.81 2.35
-6.21 7.49 2.30
-6.28 7.28 2.27
-6.66 7.41 2.35
-6.79 7.25 2.35
-6.79 6.97 2.30
-6.84 6.74 2.27
-7.35 6.96 2.39
-7.48 6.81 2.39
-7.62 6.66 2.39
-7.75 6.50 2.39
-7.88 6.34 2.39
-8.00 6.18 2.39
-8.12 6.02 2.39
-8.24 5.85 2.39
-8.35 5.69 2.39
-8.47 5.52 2.39
-8.57 5.34 2.39
-8.68 5.17 2.39
-8.78 4.99 2.39
-8.88 4.82 2.39
-8.97 4.64 2.39
-9.06 4.46 2.39
-9.15 4.27 2.39
-9.23 4.09 2.39
-9.31 3.90 2.39
-9.38 3.71 2.39
-9.45 3.52 2.39
-9.52 3.33 2.39
-9.59 3.14 2.39
-9.65 2.95 2.39
-9.70 2.75 2.39
-9.75 2.56 2.39
-9.80 2.36 2.39
-9.85 2.16 2.39
-10.43 2.07 2.52
-10.49 1.86 2.53
-10.55 1.66 2.53
-10.60 1.45 2.54
-10.66 1.24 2.55
-10.73 1.03 2.56
-9.86 0.75 2.35
-10.85 0.60 2.58
-10.90 0.38 2.59
-10.94 0.17 2.60
-10.99 -0.05 2.61
-11.02 -0.28 2.62
-11.20 -0.50 2.66
-11.36 -0.74 2.70
-11.35 -0.97 2.70
-11.22 -1.19 2.68
-11.03 -1.39 2.64
-10.98 -1.61 2.64
-10.94 -1.83 2.63
-10.88 -2.04 2.63
-10.82 -2.26 2.62
-9.81 -2.25 2.39
-9.76 -2.45 2.39
-9.71 -2.65 2.39
-6.08 -1.79 1.51
-6.08 -1.92 1.51
-9.54 -3.23 2.39
-9.47 -3.42 2.39
-9.40 -3.61 2.39
-9.33 -3.79 2.39
-9.25 -3.98 2.39
-9.17 -4.17 2.39
-9.08 -4.35 2.39
-8.99 -4.53 2.39
-8.90 -4.71 2.39
-8.80 -4.89 2.39
-8.70 -5.07 2.39
-8.60 -5.24 2.39
-8.49 -5.41 2.39
-8.38 -5.58 2.39
-8.27 -5.75 2.39
-8.15 -5.91 2.39
-8.03 -6.08 2.39
-7.91 -6.24 2.39
-7.79 -6.40 2.39
-7.66 -6.55 2.39
-7.52 -6.70 2.39
-7.39 -6.86 2.39
-7.25 -7.00 2.39
-7.11 -7.15 2.39
-6.78 -7.09 2.33
-6.51 -7.09 2.28
-6.33 -7.18 2.27
-6.18 -7.31 2.27
-6.17 -7.59 2.32
-6.17 -7.91 2.38
-6.04 -8.08 2.39
-5.88 -8.20 2.39
-5.81 -8.46 2.43
-5.79 -8.80 2.49
-5.61 -8.91 2.49
-5.43 -9.02 2.49
-5.25 -9.13 2.49
-5.06 -9.24 2.49
-4.88 -9.34 2.49
-4.69 -9.44 2.49
-4.50 -9.53 2.49
-4.31 -9.62 2.49
-4.12 -9.71 2.49
-3.92 -9.79 2.49
-3.72 -9.87 2.49
-3.53 -9.94 2.49
-3.33 -10.01 2.49
-3.12 -10.08 2.49
-2.92 -10.14 2.49
-2.72 -10.20 2.49
-2.51 -10.25 2.49
-2.31 -10.30 2.49
-2.10 -10.35 2.49
-1.89 -10.39 2.49
-1.68 -10.43 2.49
-1.47 -10.46 2.49
-1.26 -10.49 2.49
-1.05 -10.52 2.49
-0.84 -10.54 2.49
-0.63 -10.56 2.49
-0.42 -10.57 2.49
-0.21 -10.58 2.49
0.01 -9.61 2.49
0.20 -9.61 2.49
0.39 -9.60 2.49
0.58 -9.59 2.49
0.78 -9.58 2.49
0.97 -9.57 2.49
1.16 -9.55 2.49
1.35 -9.52 2.49
1.54 -9.50 2.49
1.73 -9.46 2.49
1.92 -9.43 2.49
2.11 -9.39 2.49
2.24 -9.10 2.43
2.39 -8.92 2.39
2.57 -8.87 2.39
2.74 -8.82 2.39
2.92 -8.76 2.39
3.10 -8.70 2.39
3.27 -8.64 2.39
3.45 -8.58 2.39
3.62 -8.51 2.39
3.79 -8.43 2.39
3.96 -8.36 2.39
4.12 -8.28 2.39
4.29 -8.20 2.39
4.46 -8.11 2.39
4.62 -8.02 2.39
4.78 -7.93 2.39
4.94 -7.83 2.39
5.10 -7.73 2.39
5.25 -7.63 2.39
5.40 -7.52 2.39
5.55 -7.41 2.39
5.70 -7.30 2.39
5.85 -7.19 2.39
5.99 -7.07 2.39
6.14 -6.95 2.39
6.33 -6.88 2.41
6.46 -6.76 2.41
6.60 -6.63 2.41
6.73 -6.50 2.41
6.87 -6.36 2.41
6.99 -6.22 2.41
7.12 -6.09 2.41
7.25 -5.94 2.41
7.36 -5.80 2.41
7.48 -5.65 2.41
7.35 -5.33 2.34
7.45 -5.17 2.33
7.54 -5.01 2.33
7.63 -4.85 2.33
7.72 -4.69 2.32
7.80 -4.53 2.32
7.88 -4.37 2.32
7.96 -4.21 2.31
8.03 -4.04 2.31
8.10 -3.88 2.31
8.17 -3.71 2.31
8.24 -3.54 2.30
8.30 -3.37 2.30
8.63 -3.31 2.38
8.85 -3.19 2.42
8.91 -3.01 2.42
8.96 -2.83 2.41
9.02 -2.65 2.41
9.07 -2.47 2.41
9.12 -2.29 2.42
9.17 -2.10 2.42
9.22 -1.92 2.42
9.26 -1.74 2.42
9.30 -1.55 2.42
9.32 -1.36 2.42
9.34 -1.18 2.42
9.36 -0.99 2.42
9.38 -0.80 2.42
9.39 -0.61 2.41
9.40 -0.42 2.41
9.40 -0.23 2.41
9.40 -0.05 2.41
9.40 0.14 2.41
9.39 0.33 2.41
9.38 0.52 2.41
9.37 0.71 2.41
9.36 0.90 2.41
9.34 1.08 2.41
9.32 1.27 2.41
9.30 1.46 2.41
6.47 1.15 1.69
6.27 1.24 1.64
6.23 1.37 1.64
6.23 1.50 1.64
6.47 1.69 1.71
6.94 1.97 1.85
6.44 1.97 1.73
6.17 2.02 1.66
6.17 2.16 1.68
8.01 2.98 2.19
7.96 3.15 2.20
7.91 3.31 2.20
7.85 3.47 2.20
7.79 3.64 2.21
7.73 3.80 2.21
7.67 3.96 2.21
7.60 4.12 2.22
7.53 4.28 2.22
7.46 4.44 2.23
7.39 4.60 2.23
7.31 4.76 2.24
7.23 4.91 2.24
7.65 5.43 2.41
7.51 5.56 2.40
7.21 5.57 2.34
7.07 5.69 2.33
6.98 5.84 2.34
6.88 6.00 2.34
6.78 6.16 2.35
6.67 6.31 2.36
6.57 6.46 2.37
6.46 6.62 2.37
6.34 6.77 2.38
6.23 6.92 2.39
6.09 7.04 2.39
5.95 7.16 2.39
5.80 7.28 2.39
5.65 7.39 2.39
5.50 7.50 2.39
5.35 7.61 2.39
5.20 7.72 2.39
5.04 7.82 2.39
4.88 7.92 2.39
4.72 8.01 2.39
4.56 8.10 2.39
4.39 8.19 2.39
4.23 8.28 2.39
4.06 8.36 2.39
3.89 8.44 2.39
3.72 8.51 2.39
3.55 8.58 2.39
3.37 8.65 2.39
3.20 8.72 2.39
3.02 8.78 2.39
2.85 8.84 2.39
2.67 8.89 2.39
2.49 8.94 2.39
2.31 8.99 2.39
2.19 9.30 2.46
2.03 9.46 2.49
1.84 9.50 2.49
1.65 9.53 2.49
1.46 9.56 2.49
1.26 9.59 2.49
1.07 9.61 2.49
0.88 9.63 2.49
0.68 9.64 2.49
0.49 9.65 2.49
0.30 9.66 2.49
0.10 9.66 2.49
-0.09 9.66 2.49
-0.29 9.65 2.49
-0.48 9.64 2.49
-0.67 9.63 2.49
-0.86 9.61 2.49
-1.06 9.59 2.49
-1.25 9.57 2.49
-1.44 9.54 2.49
-1.63 9.50 2.49
-1.82 9.47 2.49
-2.01 9.43 2.49
-2.20 9.38 2.49
-2.39 9.34 2.49
-2.57 9.28 2.49
-2.76 9.23 2.49
-2.94 9.17 2.49
-3.13 9.11 2.49
-3.31 9.04 2.49
-3.49 8.97 2.49
-3.67 8.90 2.49
-3.84 8.82 2.49
-4.02 8.74 2.49
-4.19 8.66 2.49
-4.36 8.57 2.49
-4.53 8.48 2.49
-4.70 8.38 2.49
-4.87 8.28 2.49
-5.03 8.18 2.49
-5.20 8.08 2.49
-5.36 7.97 2.49
-5.51 7.86 2.49
-5.67 7.75 2.49
-5.82 7.63 2.49
-5.85 7.36 2.44
-5.87 7.08 2.39
-6.01 6.96 2.39
-6.15 6.84 2.39
-6.21 6.63 2.36
-6.21 6.37 2.31
-6.22 6.13 2.27
-6.33 6.00 2.27
-6.68 6.08 2.35
-6.79 5.93 2.35
-6.79 5.70 2.31
-6.80 5.48 2.27
-6.90 5.33 2.27
-7.38 5.47 2.39
-7.48 5.32 2.39
-7.59 5.16 2.39
-7.69 5.01 2.39
-7.79 4.85 2.39
-7.88 4.70 2.39
-7.97 4.54 2.39
-8.06 4.38 2.39
-8.15 4.21 2.39
-8.23 4.05 2.39
-8.31 3.88 2.39
-8.38 3.71 2.39
-8.45 3.54 2.39
-8.52 3.37 2.39
-8.59 3.20 2.39
-8.65 3.03 2.39
-8.71 2.85 2.39
-8.76 2.68 2.39
-8.81 2.50 2.39
-8.86 2.32 2.39
-8.90 2.14 2.39
-8.94 1.96 2.39
-8.98 1.78 2.39
-9.01 1.60 2.39
-9.04 1.42 2.39
-9.07 1.24 2.39
-9.09 1.06 2.39
-9.11 0.87 2.39
-9.13 0.69 2.39
-9.14 0.51 2.39
-9.14 0.32 2.39
-9.15 0.14 2.39
-9.15 -0.04 2.39
-9.15 -0.23 2.39
-9.14 -0.41 2.39
-9.13 -0.60 2.39
-9.11 -0.78 2.39
-9.10 -0.96 2.39
-9.08 -1.14 2.39
-9.05 -1.33 2.39
-9.02 -1.51 2.39
-8.99 -1.69 2.39
-8.95 -1.87 2.39
-8.91 -2.05 2.39
-8.87 -2.23 2.39
-8.82 -2.40 2.39
-6.08 -1.79 1.66
-6.08 -1.92 1.67
-8.66 -2.93 2.39
-8.60 -3.10 2.39
-8.54 -3.28 2.39
-8.47 -3.45 2.39
-8.40 -3.62 2.39
-8.33 -3.79 2.39
-8.25 -3.95 2.39
-8.17 -4.12 2.39
-8.08 -4.28 2.39
-8.00 -4.44 2.39
-7.91 -4.60 2.39
-7.81 -4.76 2.39
-7.72 -4.92 2.39
-7.62 -5.07 2.39
-7.51 -5.22 2.39
-7.41 -5.37 2.39
-7.30 -5.52 2.39
-7.19 -5.67 2.39
-7.07 -5.81 2.39
-6.95 -5.95 2.39
-6.83 -6.09 2.39
-6.71 -6.23 2.39
-6.59 -6.36 2.39
-6.46 -6.49 2.39
-6.33 -6.62 2.39
-6.19 -6.75 2.39
-6.06 -6.87 2.39
-5.92 -6.99 2.39
-5.82 -7.17 2.41
-5.81 -7.46 2.47
-5.72 -7.66 2.49
-5.57 -7.77 2.49
-5.41 -7.88 2.49
-5.25 -7.99 2.49
-5.09 -8.09 2.49
-4.93 -8.20 2.49
-4.77 -8.29 2.49
-4.60 -8.39 2.49
-4.43 -8.48 2.49
-4.26 -8.57 2.49
-4.09 -8.65 2.49
-3.91 -8.74 2.49
-3.74 -8.81 2.49
-3.56 -8.89 2.49
-3.38 -8.96 2.49
-3.20 -9.03 2.49
-3.02 -9.09 2.49
-2.84 -9.15 2.49
-2.65 -9.21 2.49
-2.47 -9.26 2.49
-2.28 -9.31 2.49
-2.09 -9.36 2.49
-1.91 -9.40 2.49
-1.72 -9.44 2.49
-1.53 -9.47 2.49
-1.34 -9.50 2.49
-1.15 -9.53 2.49
-0.96 -9.55 2.49
-0.76 -9.57 2.49
-0.57 -9.58 2.49
-0.38 -9.60 2.49
-0.19 -9.60 2.49
0.01 -8.79 2.49
0.18 -8.79 2.49
0.36 -8.78 2.49
0.53 -8.78 2.49
0.71 -8.76 2.49
0.89 -8.75 2.49
1.06 -8.73 2.49
1.24 -8.71 2.49
1.41 -8.69 2.49
1.59 -8.66 2.49
1.76 -8.62 2.49
1.93 -8.59 2.49
2.11 -8.55 2.49
2.24 -8.35 2.45
2.35 -8.11 2.39
2.51 -8.06 2.39
2.67 -8.01 2.39
2.83 -7.96 2.39
2.99 -7.90 2.39
3.15 -7.84 2.39
3.31 -7.78 2.39
3.46 -7.71 2.39
3.62 -7.64 2.39
3.77 -7.57 2.39
3.92 -7.49 2.39
4.07 -7.41 2.39
4.22 -7.33 2.39
4.37 -7.25 2.39
4.52 -7.16 2.39
4.66 -7.07 2.39
4.80 -6.98 2.39
4.94 -6.88 2.39
5.08 -6.78 2.39
5.22 -6.68 2.39
5.35 -6.57 2.39
5.48 -6.46 2.39
5.61 -6.35 2.39
5.74 -6.24 2.39
5.86 -6.13 2.39
5.99 -6.01 2.39
6.11 -5.89 2.39
6.22 -5.77 2.39
6.41 -5.71 2.42
6.53 -5.58 2.42
6.50 -5.33 2.37
6.60 -5.20 2.37
6.69 -5.06 2.36
6.79 -4.91 2.36
6.87 -4.77 2.36
6.96 -4.63 2.35
7.04 -4.48 2.35
7.12 -4.33 2.35
7.20 -4.18 2.34
7.28 -4.04 2.34
7.35 -3.88 2.34
7.42 -3.73 2.34
7.48 -3.58 2.33
7.55 -3.43 2.33
7.68 -3.30 2.35
7.95 -3.23 2.41
8.01 -3.07 2.41
8.07 -2.91 2.41
8.13 -2.75 2.41
8.18 -2.58 2.41
8.23 -2.42 2.41
8.29 -2.25 2.41
8.33 -2.09 2.41
8.38 -1.92 2.41
8.42 -1.75 2.41
8.45 -1.59 2.42
8.49 -1.42 2.42
8.52 -1.25 2.42
8.54 -1.08 2.42
8.57 -0.90 2.42
8.59 -0.73 2.42
8.60 -0.56 2.42
8.61 -0.39 2.42
8.61 -0.21 2.42
8.61 -0.04 2.42
8.61 0.13 2.42
8.60 0.30 2.42
8.59 0.48 2.42
8.58 0.65 2.41
8.56 0.82 2.41
8.55 0.99 2.41
8.53 1.16 2.41
8.50 1.33 2.41
6.49 1.15 1.85
6.31 1.25 1.80
6.26 1.37 1.80
6.26 1.50 1.81
6.50 1.70 1.88
6.94 1.97 2.03
6.44 1.97 1.89
6.17 2.02 1.82
6.17 2.16 1.83
7.46 2.78 2.23
7.41 2.93 2.24
7.36 3.08 2.24
7.31 3.23 2.24
7.25 3.38 2.25
7.19 3.53 2.25
7.13 3.68 2.25
7.07 3.83 2.26
7.01 3.98 2.26
6.94 4.13 2.27
6.87 4.28 2.27
6.79 4.42 2.28
6.72 4.57 2.28
6.64 4.71 2.29
6.56 4.85 2.29
6.79 5.24 2.41
6.68 5.37 2.41
6.57 5.50 2.41
6.40 5.58 2.38
6.29 5.71 2.38
6.18 5.85 2.39
6.07 5.97 2.39
5.94 6.09 2.39
5.82 6.21 2.39
5.69 6.32 2.39
5.57 6.44 2.39
5.43 6.55 2.39
5.30 6.65 2.39
5.17 6.76 2.39
5.03 6.86 2.39
4.89 6.96 2.39
4.75 7.05 2.39
4.61 7.15 2.39
4.46 7.24 2.39
4.31 7.32 2.39
4.17 7.41 2.39
4.02 7.49 2.39
3.86 7.57 2.39
3.71 7.64 2.39
3.56 7.71 2.39
3.40 7.78 2.39
3.24 7.85 2.39
3.09 7.91 2.39
2.93 7.97 2.39
2.76 8.03 2.39
2.60 8.08 2.39
2.44 8.13 2.39
2.28 8.17 2.39
2.19 8.53 2.48
2.03 8.61 2.49
1.86 8.65 2.49
1.68 8.68 2.49
1.51 8.71 2.49
1.33 8.74 2.49
1.16 8.77 2.49
0.98 8.79 2.49
0.80 8.80 2.49
0.63 8.81 2.49
0.45 8.82 2.49
0.27 8.83 2.49
0.09 8.83 2.49
-0.08 8.83 2.49
-0.26 8.83 2.49
-0.44 8.82 2.49
-0.61 8.80 2.49
-0.79 8.79 2.49
-0.97 8.77 2.49
-1.14 8.75 2.49
-1.32 8.72 2.49
-1.49 8.69 2.49
-1.67 8.66 2.49
-1.84 8.62 2.49
-2.01 8.58 2.49
-2.18 8.54 2.49
-2.35 8.49 2.49
-2.52 8.44 2.49
-2.69 8.39 2.49
-2.86 8.33 2.49
-3.02 8.27 2.49
-3.19 8.20 2.49
-3.35 8.14 2.49
-3.51 8.07 2.49
-3.68 7.99 2.49
-3.83 7.92 2.49
-3.99 7.84 2.49
-4.15 7.75 2.49
-4.30 7.67 2.49
-4.45 7.58 2.49
-4.60 7.49 2.49
-4.75 7.39 2.49
-4.90 7.29 2.49
-5.04 7.19 2.49
-5.19 7.09 2.49
-5.33 6.98 2.49
-5.47 6.87 2.49
-5.60 6.76 2.49
-5.73 6.64 2.49
-5.85 6.51 2.49
-5.85 6.25 2.43
-5.87 6.02 2.39
-5.99 5.90 2.39
-6.10 5.78 2.39
-6.20 5.65 2.39
-6.20 5.42 2.34
-6.20 5.20 2.30
-6.21 5.00 2.27
-6.31 4.88 2.27
-6.50 4.82 2.30
-6.78 4.82 2.37
-6.94 4.73 2.39
-7.03 4.59 2.39
-7.12 4.44 2.39
-7.21 4.30 2.39
-7.30 4.15 2.39
-7.38 4.00 2.39
-7.45 3.85 2.39
-7.53 3.70 2.39
-7.60 3.55 2.39
-7.67 3.40 2.39
-7.74 3.24 2.39
-7.80 3.09 2.39
-7.86 2.93 2.39
-7.91 2.77 2.39
-7.97 2.61 2.39
-8.02 2.45 2.39
-8.06 2.29 2.39
-8.11 2.12 2.39
-8.15 1.96 2.39
-8.19 1.80 2.39
-8.22 1.63 2.39
-8.25 1.47 2.39
-8.28 1.30 2.39
-8.30 1.13 2.39
-8.32 0.97 2.39
-8.34 0.80 2.39
-8.35 0.63 2.39
-8.36 0.46 2.39
-8.37 0.30 2.39
-8.37 0.13 2.39
-8.37 -0.04 2.39
-8.37 -0.21 2.39
-8.36 -0.38 2.39
-8.36 -0.54 2.39
-8.34 -0.71 2.39
-8.33 -0.88 2.39
-8.31 -1.05 2.39
-8.28 -1.21 2.39
-8.26 -1.38 2.39
-8.23 -1.54 2.39
-8.19 -1.71 2.39
-8.16 -1.87 2.39
-8.12 -2.04 2.39
-8.08 -2.20 2.39
-6.08 -1.79 1.81
-6.08 -1.92 1.82
-7.93 -2.68 2.39
-7.87 -2.84 2.39
-7.82 -3.00 2.39
-7.75 -3.16 2.39
-7.69 -3.31 2.39
-7.62 -3.46 2.39
-7.55 -3.62 2.39
-7.48 -3.77 2.39
-7.40 -3.92 2.39
-7.32 -4.07 2.39
-7.24 -4.21 2.39
-7.15 -4.36 2.39
-7.06 -4.50 2.39
-6.97 -4.64 2.39
-6.88 -4.78 2.39
-6.78 -4.92 2.39
-6.68 -5.05 2.39
-6.58 -5.19 2.39
-6.47 -5.32 2.39
-6.36 -5.45 2.39
-6.25 -5.57 2.39
-6.14 -5.70 2.39
-6.03 -5.82 2.39
-5.91 -5.94 2.39
-5.82 -6.10 2.41
-5.82 -6.34 2.45
-5.78 -6.56 2.49
-5.65 -6.68 2.49
-5.51 -6.79 2.49
-5.38 -6.90 2.49
-5.24 -7.01 2.49
-5.10 -7.11 2.49
-4.95 -7.21 2.49
-4.81 -7.31 2.49
-4.66 -7.41 2.49
-4.51 -7.50 2.49
-4.36 -7.59 2.49
-4.21 -7.68 2.49
-4.05 -7.76 2.49
-3.90 -7.84 2.49
-3.74 -7.92 2.49
-3.58 -7.99 2.49
-3.42 -8.07 2.49
-3.26 -8.13 2.49
-3.09 -8.20 2.49
-2.93 -8.26 2.49
-2.76 -8.32 2.49
-2.60 -8.37 2.49
-2.43 -8.43 2.49
-2.26 -8.47 2.49
-2.09 -8.52 2.49
-1.92 -8.56 2.49
-1.74 -8.60 2.49
-1.57 -8.63 2.49
-1.40 -8.66 2.49
-1.22 -8.69 2.49
-1.05 -8.72 2.49
-0.87 -8.74 2.49
-0.70 -8.75 2.49
-0.52 -8.77 2.49
-0.35 -8.78 2.49
-0.17 -8.78 2.49
0.01 -8.09 2.49
0.17 -8.09 2.49
0.33 -8.09 2.49
0.49 -8.08 2.49
0.65 -8.07 2.49
0.82 -8.05 2.49
0.98 -8.04 2.49
1.14 -8.02 2.49
1.30 -7.99 2.49
1.46 -7.97 2.49
1.62 -7.94 2.49
1.78 -7.91 2.49
1.94 -7.87 2.49
2.10 -7.83 2.49
2.23 -7.72 2.47
2.31 -7.42 2.39
2.46 -7.38 2.39
2.61 -7.33 2.39
2.75 -7.27 2.39
2.90 -7.22 2.39
3.05 -7.16 2.39
3.19 -7.10 2.39
3.33 -7.03 2.39
3.47 -6.97 2.39
3.61 -6.90 2.39
3.75 -6.82 2.39
3.89 -6.75 2.39
4.02 -6.67 2.39
4.16 -6.59 2.39
4.29 -6.51 2.39
4.42 -6.42 2.39
4.55 -6.33 2.39
4.67 -6.24 2.39
4.80 -6.14 2.39
4.92 -6.05 2.39
5.04 -5.95 2.39
5.16 -5.85 2.39
5.28 -5.74 2.39
5.39 -5.64 2.39
5.51 -5.53 2.39
5.62 -5.42 2.39
5.73 -5.30 2.39
5.83 -5.19 2.39
5.94 -5.07 2.39
6.03 -4.95 2.39
6.12 -4.82 2.38
6.21 -4.69 2.38
6.29 -4.56 2.38
6.38 -4.42 2.37
6.46 -4.29 2.37
6.53 -4.16 2.37
6.61 -4.02 2.37
6.68 -3.88 2.36
6.75 -3.74 2.36
6.82 -3.60 2.36
6.88 -3.46 2.36
6.95 -3.32 2.35
7.18 -3.26 2.41
7.24 -3.11 2.41
7.30 -2.97 2.41
7.36 -2.82 2.41
7.41 -2.67 2.41
7.47 -2.52 2.41
7.52 -2.37 2.41
7.57 -2.22 2.41
7.62 -2.07 2.41
7.66 -1.92 2.41
7.70 -1.77 2.41
7.74 -1.61 2.41
7.77 -1.46 2.41
7.80 -1.30 2.41
7.83 -1.14 2.41
7.85 -0.99 2.42
7.87 -0.83 2.42
7.89 -0.67 2.42
7.90 -0.51 2.42
7.91 -0.36 2.42
7.91 -0.20 2.42
7.91 -0.04 2.41
7.91 0.12 2.41
7.91 0.28 2.41
7.90 0.44 2.41
7.89 0.60 2.41
7.88 0.75 2.41
7.86 0.91 2.41
7.84 1.07 2.41
7.82 1.23 2.41
6.50 1.15 2.01
6.32 1.25 1.97
6.26 1.37 1.96
6.26 1.51 1.97
7.21 1.89 2.27
6.94 1.97 2.20
6.44 1.97 2.06
6.17 2.02 1.98
6.17 2.16 1.99
6.97 2.59 2.27
6.92 2.74 2.27
6.88 2.88 2.27
6.83 3.02 2.28
6.78 3.16 2.28
6.72 3.30 2.28
6.66 3.44 2.29
6.60 3.58 2.29
6.54 3.72 2.30
6.48 3.85 2.30
6.41 3.99 2.30
6.34 4.13 2.31
6.34 4.31 2.34
6.33 4.49 2.37
6.33 4.68 2.40
6.20 4.78 2.39
6.10 4.91 2.39
6.00 5.03 2.39
5.90 5.15 2.39
5.80 5.27 2.39
5.69 5.38 2.39
5.58 5.49 2.39
5.47 5.60 2.39
5.35 5.71 2.39
5.24 5.82 2.39
5.12 5.92 2.39
5.00 6.02 2.39
4.88 6.12 2.39
4.75 6.22 2.39
4.63 6.31 2.39
4.50 6.40 2.39
4.37 6.49 2.39
4.24 6.57 2.39
4.10 6.66 2.39
3.97 6.74 2.39
3.83 6.81 2.39
3.70 6.89 2.39
3.56 6.96 2.39
3.42 7.03 2.39
3.27 7.10 2.39
3.13 7.16 2.39
2.98 7.22 2.39
2.84 7.28 2.39
2.69 7.33 2.39
2.54 7.38 2.39
2.41 7.47 2.40
2.25 7.48 2.39
2.18 7.85 2.49
2.03 7.89 2.49
1.87 7.92 2.49
1.71 7.96 2.49
1.55 7.99 2.49
1.39 8.02 2.49
1.23 8.04 2.49
1.06 8.07 2.49
0.90 8.08 2.49
0.74 8.10 2.49
0.58 8.11 2.49
0.41 8.12 2.49
0.25 8.13 2.49
0.09 8.13 2.49
-0.08 8.13 2.49
-0.24 8.12 2.49
-0.40 8.11 2.49
-0.56 8.10 2.49
-0.73 8.09 2.49
-0.89 8.07 2.49
-1.05 8.05 2.49
-1.21 8.03 2.49
-1.37 8.00 2.49
-1.53 7.97 2.49
-1.69 7.93 2.49
-1.85 7.90 2.49
-2.01 7.86 2.49
-2.17 7.81 2.49
-2.32 7.77 2.49
-2.48 7.72 2.49
-2.63 7.67 2.49
-2.78 7.61 2.49
-2.93 7.55 2.49
-3.09 7.49 2.49
-3.23 7.43 2.49
-3.38 7.36 2.49
-3.53 7.29 2.49
-3.67 7.21 2.49
-3.82 7.14 2.49
-3.96 7.06 2.49
-4.10 6.98 2.49
-4.24 6.89 2.49
-4.37 6.80 2.49
-4.51 6.71 2.49
-4.64 6.62 2.49
-4.77 6.53 2.49
-4.90 6.43 2.49
-5.03 6.33 2.49
-5.16 6.22 2.49
-5.28 6.12 2.49
-5.40 6.01 2.49
-5.52 5.90 2.49
-5.64 5.79 2.49
-5.75 5.67 2.49
-5.85 5.54 2.49
-5.85 5.32 2.44
-5.85 5.12 2.40
-5.93 4.97 2.39
-6.04 4.86 2.40
-6.12 4.73 2.39
-6.21 4.61 2.39
-6.30 4.48 2.39
-6.39 4.35 2.39
-6.48 4.22 2.39
-6.56 4.09 2.39
-6.64 3.96 2.39
-6.72 3.82 2.39
-6.79 3.69 2.39
-6.86 3.55 2.39
-6.93 3.41 2.39
-7.00 3.27 2.39
-7.06 3.13 2.39
-7.12 2.99 2.39
-7.18 2.84 2.39
-7.24 2.70 2.39
-7.29 2.55 2.39
-7.34 2.40 2.39
-7.38 2.26 2.39
-7.43 2.11 2.39
-7.47 1.96 2.39
-7.50 1.81 2.39
-7.54 1.66 2.39
-7.57 1.50 2.39
-7.60 1.35 2.39
-7.62 1.20 2.39
-7.64 1.04 2.39
-7.66 0.89 2.39
-7.68 0.74 2.39
-7.69 0.58 2.39
-7.70 0.43 2.39
-7.71 0.27 2.39
-7.71 0.12 2.39
-7.71 -0.04 2.39
-7.71 -0.19 2.39
-7.70 -0.35 2.39
-7.69 -0.50 2.39
-7.68 -0.66 2.39
-7.67 -0.81 2.39
-7.65 -0.96 2.39
-7.63 -1.12 2.39
-7.60 -1.27 2.39
-7.58 -1.42 2.39
-7.55 -1.57 2.39
-7.51 -1.73 2.39
-7.48 -1.88 2.39
-7.44 -2.03 2.39
-6.08 -1.79 1.97
-6.08 -1.92 1.98
-7.30 -2.47 2.39
-7.25 -2.62 2.39
-7.20 -2.76 2.39
-7.14 -2.91 2.39
-7.08 -3.05 2.39
-7.02 -3.19 2.39
-6.95 -3.33 2.39
-6.89 -3.47 2.39
-6.81 -3.61 2.39
-6.74 -3.74 2.39
-6.66 -3.88 2.39
-6.59 -4.01 2.39
-6.50 -4.14 2.39
-6.42 -4.27 2.39
-6.33 -4.40 2.39
-6.24 -4.53 2.39
-6.15 -4.65 2.39
-6.06 -4.78 2.39
-5.96 -4.90 2.39
-5.86 -5.02 2.39
-5.82 -5.19 2.42
-5.82 -5.40 2.46
-5.79 -5.59 2.49
-5.68 -5.71 2.49
-5.56 -5.82 2.49
-5.44 -5.93 2.49
-5.32 -6.04 2.49
-5.20 -6.15 2.49
-5.08 -6.25 2.49
-4.95 -6.35 2.49
-4.82 -6.45 2.49
-4.69 -6.55 2.49
-4.56 -6.64 2.49
-4.43 -6.73 2.49
-4.29 -6.82 2.49
-4.15 -6.91 2.49
-4.01 -6.99 2.49
-3.87 -7.07 2.49
-3.73 -7.15 2.49
-3.59 -7.22 2.49
-3.44 -7.29 2.49
-3.30 -7.36 2.49
-3.15 -7.43 2.49
-3.00 -7.49 2.49
-2.85 -7.55 2.49
-2.70 -7.61 2.49
-2.54 -7.66 2.49
-2.39 -7.71 2.49
-2.23 -7.76 2.49
-2.08 -7.80 2.49
-1.92 -7.84 2.49
-1.76 -7.88 2.49
-1.61 -7.92 2.49
-1.45 -7.95 2.49
-1.29 -7.98 2.49
-1.13 -8.00 2.49
-0.97 -8.02 2.49
-0.80 -8.04 2.49
-0.64 -8.06 2.49
-0.48 -8.07 2.49
-0.32 -8.08 2.49
-0.16 -8.09 2.49
0.01 -7.49 2.49
0.16 -7.49 2.49
0.31 -7.48 2.49
0.46 -7.48 2.49
0.61 -7.47 2.49
0.76 -7.45 2.49
0.91 -7.44 2.49
1.06 -7.42 2.49
1.20 -7.40 2.49
1.35 -7.37 2.49
1.50 -7.35 2.49
1.65 -7.32 2.49
1.79 -7.28 2.49
1.94 -7.25 2.49
2.09 -7.21 2.49
2.23 -7.16 2.49
2.28 -6.82 2.39
2.41 -6.78 2.39
2.55 -6.73 2.39
2.68 -6.68 2.39
2.82 -6.62 2.39
2.95 -6.57 2.39
3.08 -6.51 2.39
3.21 -6.45 2.39
3.34 -6.38 2.39
3.47 -6.31 2.39
3.60 -6.24 2.39
3.72 -6.17 2.39
3.85 -6.10 2.39
3.97 -6.02 2.39
4.09 -5.94 2.39
4.21 -5.86 2.39
4.32 -5.77 2.39
4.44 -5.68 2.39
4.55 -5.59 2.39
4.67 -5.50 2.39
4.78 -5.41 2.39
4.88 -5.31 2.39
4.99 -5.21 2.39
5.10 -5.11 2.39
5.20 -5.01 2.39
5.30 -4.91 2.39
5.40 -4.80 2.39
5.49 -4.69 2.39
5.59 -4.58 2.39
5.68 -4.47 2.39
5.77 -4.35 2.39
5.85 -4.24 2.39
5.94 -4.12 2.39
6.01 -4.00 2.39
6.09 -3.87 2.39
6.16 -3.75 2.38
6.23 -3.62 2.38
6.29 -3.49 2.38
6.35 -3.36 2.38
6.51 -3.28 2.41
6.58 -3.15 2.41
6.64 -3.01 2.41
6.70 -2.88 2.41
6.75 -2.74 2.41
6.81 -2.61 2.41
6.86 -2.47 2.41
6.91 -2.33 2.41
6.96 -2.20 2.41
7.00 -2.06 2.41
7.04 -1.92 2.41
7.08 -1.77 2.41
7.12 -1.63 2.41
7.15 -1.49 2.41
7.18 -1.35 2.41
7.21 -1.20 2.41
7.23 -1.06 2.41
7.26 -0.91 2.41
7.28 -0.77 2.41
7.29 -0.62 2.41
7.30 -0.48 2.41
7.31 -0.33 2.41
7.32 -0.18 2.41
7.32 -0.04 2.41
7.32 0.11 2.41
7.31 0.26 2.41
7.31 0.41 2.41
7.30 0.55 2.41
7.29 0.70 2.41
7.27 0.84 2.41
7.25 0.99 2.41
7.23 1.13 2.41
7.21 1.28 2.41
6.33 1.26 2.13
6.27 1.38 2.12
6.27 1.51 2.13
7.07 1.85 2.41
6.68 1.89 2.29
6.44 1.97 2.22
6.17 2.02 2.14
6.17 2.16 2.15
6.54 2.43 2.30
6.49 2.57 2.30
6.45 2.70 2.31
6.40 2.83 2.31
6.39 2.98 2.33
6.39 3.14 2.35
6.38 3.30 2.37
6.38 3.46 2.39
6.34 3.60 2.41
6.27 3.73 2.41
6.15 3.83 2.39
6.07 3.95 2.39
5.99 4.07 2.39
5.91 4.19 2.39
5.82 4.31 2.39
5.74 4.43 2.39
5.65 4.54 2.39
5.55 4.65 2.39
5.46 4.76 2.39
5.36 4.87 2.39
5.26 4.98 2.39
5.16 5.08 2.39
5.06 5.18 2.39
4.95 5.28 2.39
4.84 5.38 2.39
4.74 5.48 2.39
4.62 5.57 2.39
4.51 5.66 2.39
4.40 5.75 2.39
4.28 5.84 2.39
4.16 5.92 2.39
4.04 6.00 2.39
3.92 6.08 2.39
3.80 6.16 2.39
3.67 6.23 2.39
3.55 6.30 2.39
3.42 6.37 2.39
3.29 6.44 2.39
3.16 6.50 2.39
3.03 6.56 2.39
2.90 6.62 2.39
2.76 6.68 2.39
2.63 6.73 2.39
2.49 6.78 2.39
2.35 6.83 2.39
2.22 6.88 2.39
2.17 7.22 2.49
2.02 7.26 2.49
1.88 7.30 2.49
1.73 7.33 2.49
1.58 7.36 2.49
1.43 7.39 2.49
1.28 7.42 2.49
1.13 7.44 2.49
0.98 7.46 2.49
0.83 7.48 2.49
0.68 7.49 2.49
0.53 7.50 2.49
0.38 7.51 2.49
0.23 7.52 2.49
0.08 7.52 2.49
-0.07 7.52 2.49
-0.22 7.51 2.49
-0.37 7.51 2.49
-0.52 7.50 2.49
-0.67 7.48 2.49
-0.82 7.47 2.49
-0.97 7.45 2.49
-1.12 7.43 2.49
-1.27 7.40 2.49
-1.42 7.37 2.49
-1.56 7.34 2.49
-1.71 7.31 2.49
-1.86 7.27 2.49
-2.00 7.23 2.49
-2.15 7.19 2.49
-2.29 7.14 2.49
-2.43 7.09 2.49
-2.58 7.04 2.49
-2.72 6.99 2.49
-2.85 6.93 2.49
-2.99 6.87 2.49
-3.13 6.81 2.49
-3.27 6.74 2.49
-3.40 6.68 2.49
-3.53 6.61 2.49
-3.66 6.53 2.49
-3.79 6.46 2.49
-3.92 6.38 2.49
-4.05 6.30 2.49
-4.17 6.21 2.49
-4.30 6.13 2.49
-4.42 6.04 2.49
-4.54 5.95 2.49
-4.66 5.86 2.49
-4.77 5.76 2.49
-4.89 5.66 2.49
-5.00 5.56 2.49
-5.11 5.46 2.49
-5.22 5.36 2.49
-5.32 5.25 2.49
-5.42 5.14 2.49
-5.53 5.03 2.49
-5.63 4.92 2.49
-5.72 4.80 2.49
-5.82 4.69 2.49
-5.84 4.52 2.47
-5.85 4.33 2.43
-5.85 4.16 2.40
-5.92 4.03 2.39
-5.99 3.91 2.39
-6.07 3.79 2.39
-6.15 3.66 2.39
-6.22 3.54 2.39
-6.29 3.41 2.39
-6.35 3.29 2.39
-6.42 3.16 2.39
-6.48 3.03 2.39
-6.54 2.90 2.39
-6.59 2.76 2.39
-6.65 2.63 2.39
-6.70 2.50 2.39
-6.75 2.36 2.39
-6.79 2.23 2.39
-6.83 2.09 2.39
-6.87 1.95 2.39
-6.91 1.81 2.39
-6.95 1.67 2.39
-6.98 1.53 2.39
-7.01 1.39 2.39
-7.03 1.25 2.39
-7.06 1.11 2.39
-7.08 0.97 2.39
-7.09 0.82 2.39
-7.11 0.68 2.39
-7.12 0.54 2.39
-7.13 0.40 2.39
-7.14 0.25 2.39
-7.14 0.11 2.39
-7.14 -0.03 2.39
-7.14 -0.18 2.39
-7.13 -0.32 2.39
-7.12 -0.46 2.39
-7.11 -0.61 2.39
-7.10 -0.75 2.39
-7.08 -0.89 2.39
-7.06 -1.03 2.39
-7.04 -1.18 2.39
-7.01 -1.32 2.39
-6.99 -1.46 2.39
-6.96 -1.60 2.39
-6.92 -1.74 2.39
-6.89 -1.88 2.39
-6.08 -1.79 2.12
-6.08 -1.92 2.13
-6.76 -2.29 2.39
-6.71 -2.42 2.39
-6.66 -2.56 2.39
-6.61 -2.69 2.39
-6.56 -2.82 2.39
-6.50 -2.95 2.39
-6.44 -3.08 2.39
-6.37 -3.21 2.39
-6.31 -3.34 2.39
-6.24 -3.47 2.39
-6.17 -3.59 2.39
-6.10 -3.71 2.39
-6.02 -3.84 2.39
-5.94 -3.96 2.39
-5.86 -4.08 2.39
-5.83 -4.23 2.41
-5.82 -4.40 2.44
-5.82 -4.59 2.48
-5.76 -4.73 2.49
-5.66 -4.84 2.49
-5.56 -4.96 2.49
-5.46 -5.07 2.49
-5.36 -5.18 2.49
-5.25 -5.28 2.49
-5.15 -5.39 2.49
-5.04 -5.49 2.49
-4.93 -5.59 2.49
-4.81 -5.69 2.49
-4.70 -5.79 2.49
-4.58 -5.88 2.49
-4.46 -5.97 2.49
-4.34 -6.06 2.49
-4.22 -6.15 2.49
-4.10 -6.23 2.49
-3.97 -6.31 2.49
-3.84 -6.39 2.49
-3.72 -6.47 2.49
-3.59 -6.54 2.49
-3.45 -6.61 2.49
-3.32 -6.68 2.49
-3.19 -6.75 2.49
-3.05 -6.81 2.49
-2.91 -6.87 2.49
-2.78 -6.93 2.49
-2.64 -6.99 2.49
-2.50 -7.04 2.49
-2.35 -7.09 2.49
-2.21 -7.14 2.49
-2.07 -7.18 2.49
-1.92 -7.22 2.49
-1.78 -7.26 2.49
-1.63 -7.29 2.49
-1.49 -7.33 2.49
-1.34 -7.36 2.49
-1.19 -7.38 2.49
-1.04 -7.41 2.49
-0.89 -7.43 2.49
-0.74 -7.44 2.49
-0.59 -7.46 2.49
-0.44 -7.47 2.49
-0.29 -7.48 2.49
-0.14 -7.48 2.49
0.01 -6.96 2.49
0.15 -6.96 2.49
0.29 -6.96 2.49
0.42 -6.95 2.49
0.56 -6.94 2.49
0.70 -6.93 2.49
0.84 -6.91 2.49
0.98 -6.90 2.49
1.12 -6.88 2.49
1.26 -6.85 2.49
1.40 -6.83 2.49
1.53 -6.80 2.49
1.67 -6.77 2.49
1.80 -6.74 2.49
1.94 -6.70 2.49
2.07 -6.66 2.49
2.21 -6.62 2.49
2.24 -6.30 2.39
2.37 -6.25 2.39
2.50 -6.21 2.39
2.62 -6.16 2.39
2.74 -6.10 2.39
2.87 -6.05 2.39
2.99 -5.99 2.39
3.11 -5.93 2.39
3.23 -5.87 2.39
3.34 -5.80 2.39
3.46 -5.73 2.39
3.57 -5.67 2.39
3.69 -5.59 2.39
3.80 -5.52 2.39
3.91 -5.44 2.39
4.02 -5.36 2.39
4.13 -5.28 2.39
4.23 -5.20 2.39
4.34 -5.11 2.39
4.44 -5.03 2.39
4.54 -4.94 2.39
4.64 -4.85 2.39
4.74 -4.75 2.39
4.83 -4.66 2.39
4.92 -4.56 2.39
5.01 -4.46 2.39
5.10 -4.36 2.39
5.19 -4.26 2.39
5.28 -4.15 2.39
5.36 -4.05 2.39
5.44 -3.94 2.39
5.52 -3.83 2.39
5.59 -3.72 2.39
5.67 -3.61 2.39
5.74 -3.49 2.39
5.81 -3.38 2.39
5.88 -3.26 2.39
5.94 -3.14 2.39
6.00 -3.02 2.39
6.06 -2.90 2.39
6.12 -2.78 2.39
6.18 -2.66 2.39
6.23 -2.53 2.39
6.33 -2.43 2.41
6.38 -2.30 2.41
6.43 -2.17 2.41
6.47 -2.04 2.41
6.51 -1.91 2.41
6.55 -1.78 2.41
6.59 -1.65 2.41
6.62 -1.52 2.41
6.65 -1.39 2.41
6.68 -1.25 2.41
6.70 -1.12 2.41
6.72 -0.98 2.41
6.74 -0.85 2.41
6.76 -0.71 2.41
6.77 -0.58 2.41
6.78 -0.44 2.41
6.79 -0.30 2.41
6.79 -0.17 2.41
6.79 -0.03 2.41
6.79 0.10 2.41
6.79 0.24 2.41
6.78 0.38 2.41
6.78 0.51 2.41
6.76 0.65 2.41
6.75 0.78 2.41
6.73 0.92 2.41
6.71 1.05 2.41
6.69 1.19 2.41
6.35 1.26 2.30
6.28 1.38 2.28
6.28 1.51 2.29
6.57 1.72 2.41
6.53 1.85 2.41
6.44 1.96 2.39
6.17 2.02 2.30
6.17 2.16 2.32
6.36 2.36 2.41
6.31 2.49 2.41
6.21 2.60 2.39
6.16 2.72 2.39
6.10 2.85 2.39
6.04 2.97 2.39
5.98 3.09 2.39
5.92 3.21 2.39
5.85 3.33 2.39
5.79 3.44 2.39
5.72 3.56 2.39
5.64 3.67 2.39
5.57 3.78 2.39
5.49 3.89 2.39
5.41 4.00 2.39
5.33 4.11 2.39
5.25 4.22 2.39
5.16 4.32 2.39
5.07 4.42 2.39
4.98 4.52 2.39
4.89 4.62 2.39
4.80 4.72 2.39
4.70 4.81 2.39
4.60 4.91 2.39
4.50 5.00 2.39
4.40 5.09 2.39
4.30 5.17 2.39
4.19 5.26 2.39
4.09 5.34 2.39
3.98 5.42 2.39
3.87 5.50 2.39
3.76 5.58 2.39
3.64 5.65 2.39
3.53 5.72 2.39
3.41 5.79 2.39
3.30 5.86 2.39
3.18 5.92 2.39
3.06 5.98 2.39
2.94 6.04 2.39
2.81 6.10 2.39
2.69 6.15 2.39
2.57 6.21 2.39
2.44 6.26 2.39
2.31 6.30 2.39
2.21 6.40 2.41
2.15 6.67 2.49
2.01 6.71 2.49
1.88 6.74 2.49
1.74 6.78 2.49
1.61 6.81 2.49
1.47 6.84 2.49
1.33 6.87 2.49
1.19 6.89 2.49
1.05 6.92 2.49
0.92 6.93 2.49
0.78 6.95 2.49
0.64 6.96 2.49
0.50 6.97 2.49
0.36 6.98 2.49
0.22 6.99 2.49
0.08 6.99 2.49
-0.06 6.99 2.49
-0.20 6.98 2.49
-0.34 6.98 2.49
-0.48 6.97 2.49
-0.62 6.96 2.49
-0.76 6.94 2.49
-0.90 6.92 2.49
-1.04 6.90 2.49
-1.18 6.88 2.49
-1.32 6.85 2.49
-1.45 6.82 2.49
-1.59 6.79 2.49
-1.73 6.76 2.49
-1.86 6.72 2.49
-2.00 6.68 2.49
-2.13 6.64 2.49
-2.26 6.59 2.49
-2.39 6.55 2.49
-2.52 6.50 2.49
-2.65 6.44 2.49
-2.78 6.39 2.49
-2.91 6.33 2.49
-3.04 6.27 2.49
-3.16 6.21 2.49
-3.28 6.14 2.49
-3.41 6.07 2.49
-3.53 6.00 2.49
-3.65 5.93 2.49
-3.76 5.85 2.49
-3.88 5.78 2.49
-3.99 5.70 2.49
-4.11 5.61 2.49
-4.22 5.53 2.49
-4.33 5.44 2.49
-4.44 5.36 2.49
-4.54 5.26 2.49
-4.65 5.17 2.49
-4.75 5.08 2.49
-4.85 4.98 2.49
-4.95 4.88 2.49
-5.04 4.78 2.49
-5.14 4.68 2.49
-5.23 4.57 2.49
-5.32 4.47 2.49
-5.41 4.36 2.49
-5.49 4.25 2.49
-5.58 4.14 2.49
-5.66 4.02 2.49
-5.74 3.91 2.49
-5.81 3.79 2.49
-5.84 3.64 2.47
-5.84 3.48 2.44
-5.85 3.33 2.42
-5.85 3.18 2.39
-5.91 3.06 2.39
-5.97 2.94 2.39
-6.03 2.82 2.39
-6.08 2.69 2.39
-6.13 2.57 2.39
-6.18 2.45 2.39
-6.23 2.32 2.39
-6.27 2.20 2.39
-6.32 2.07 2.39
-6.35 1.94 2.39
-6.39 1.81 2.39
-6.43 1.68 2.39
-6.46 1.56 2.39
-6.49 1.43 2.39
-6.52 1.29 2.39
-6.54 1.16 2.39
-6.56 1.03 2.39
-6.58 0.90 2.39
-6.60 0.77 2.39
-6.61 0.63 2.39
-6.62 0.50 2.39
-6.63 0.37 2.39
-6.64 0.23 2.39
-6.64 0.10 2.39
-6.64 -0.03 2.39
-6.64 -0.17 2.39
-6.63 -0.30 2.39
-6.62 -0.43 2.39
-6.61 -0.56 2.39
-6.60 -0.70 2.39
-6.59 -0.83 2.39
-6.57 -0.96 2.39
-6.55 -1.09 2.39
-6.52 -1.22 2.39
-6.50 -1.36 2.39
-6.47 -1.49 2.39
-6.44 -1.62 2.39
-6.40 -1.74 2.39
-6.08 -1.79 2.28
-6.08 -1.92 2.30
-6.29 -2.13 2.39
-6.24 -2.25 2.39
-6.20 -2.38 2.39
-6.15 -2.50 2.39
-6.10 -2.62 2.39
-6.04 -2.75 2.39
-5.99 -2.87 2.39
-5.93 -2.99 2.39
-5.87 -3.11 2.39
-5.83 -3.24 2.40
-5.83 -3.39 2.43
-5.82 -3.55 2.46
-5.82 -3.71 2.49
-5.76 -3.84 2.49
-5.69 -3.95 2.49
-5.61 -4.07 2.49
-5.52 -4.18 2.49
-5.44 -4.29 2.49
-5.35 -4.40 2.49
-5.26 -4.50 2.49
-5.17 -4.61 2.49
-5.08 -4.71 2.49
-4.98 -4.81 2.49
-4.89 -4.91 2.49
-4.79 -5.01 2.49
-4.68 -5.11 2.49
-4.58 -5.20 2.49
-4.48 -5.29 2.49
-4.37 -5.38 2.49
-4.26 -5.47 2.49
-4.15 -5.55 2.49
-4.04 -5.64 2.49
-3.93 -5.72 2.49
-3.81 -5.79 2.49
-3.69 -5.87 2.49
-3.57 -5.94 2.49
-3.46 -6.02 2.49
-3.33 -6.08 2.49
-3.21 -6.15 2.49
-3.09 -6.21 2.49
-2.96 -6.28 2.49
-2.84 -6.33 2.49
-2.71 -6.39 2.49
-2.58 -6.45 2.49
-2.45 -6.50 2.49
-2.32 -6.55 2.49
-2.19 -6.59 2.49
-2.06 -6.63 2.49
-1.92 -6.68 2.49
-1.79 -6.71 2.49
-1.65 -6.75 2.49
-1.52 -6.78 2.49
-1.38 -6.81 2.49
-1.24 -6.84 2.49
-1.11 -6.86 2.49
-0.97 -6.89 2.49
-0.83 -6.90 2.49
-0.69 -6.92 2.49
-0.55 -6.93 2.49
-0.41 -6.94 2.49
-0.27 -6.95 2.49
-0.13 -6.96 2.49
0.01 -6.50 2.49
0.14 -6.49 2.49
0.27 -6.49 2.49
0.40 -6.49 2.49
0.53 -6.48 2.49
0.66 -6.47 2.49
0.79 -6.45 2.49
0.92 -6.44 2.49
1.05 -6.42 2.49
1.17 -6.40 2.49
1.30 -6.37 2.49
1.43 -6.35 2.49
1.56 -6.32 2.49
1.68 -6.28 2.49
1.81 -6.25 2.49
1.94 -6.21 2.49
2.06 -6.17 2.49
2.18 -6.13 2.49
2.24 -5.90 2.42
2.33 -5.79 2.39
2.44 -5.74 2.39
2.56 -5.70 2.39
2.67 -5.64 2.39
2.79 -5.59 2.39
2.90 -5.53 2.39
3.01 -5.47 2.39
3.12 -5.41 2.39
3.23 -5.35 2.39
3.34 -5.29 2.39
3.44 -5.22 2.39
3.55 -5.15 2.39
3.65 -5.08 2.39
3.75 -5.00 2.39
3.85 -4.93 2.39
3.95 -4.85 2.39
4.05 -4.77 2.39
4.14 -4.69 2.39
4.24 -4.61 2.39
4.33 -4.52 2.39
4.42 -4.43 2.39
4.51 -4.34 2.39
4.59 -4.25 2.39
4.68 -4.16 2.39
4.76 -4.07 2.39
4.84 -3.97 2.39
4.92 -3.87 2.39
5.00 -3.77 2.39
5.07 -3.67 2.39
5.15 -3.57 2.39
5.22 -3.47 2.39
5.29 -3.36 2.39
5.36 -3.26 2.39
5.42 -3.15 2.39
5.48 -3.04 2.39
5.54 -2.93 2.39
5.60 -2.82 2.39
5.66 -2.71 2.39
5.71 -2.59 2.39
5.76 -2.48 2.39
5.81 -2.36 2.39
5.86 -2.24 2.39
5.90 -2.13 2.39
5.94 -2.01 2.39
5.98 -1.89 2.39
6.02 -1.77 2.39
6.06 -1.65 2.39
6.09 -1.53 2.39
6.12 -1.40 2.39
6.14 -1.28 2.39
6.17 -1.16 2.39
6.19 -1.03 2.39
6.21 -0.91 2.39
6.23 -0.78 2.39
6.30 -0.66 2.41
6.31 -0.54 2.41
6.32 -0.41 2.41
6.33 -0.28 2.41
6.33 -0.16 2.41
6.33 -0.03 2.41
6.33 0.10 2.41
6.33 0.22 2.41
6.32 0.35 2.41
6.32 0.48 2.41
6.31 0.60 2.41
6.29 0.73 2.41
6.22 0.85 2.39
6.21 0.97 2.39
6.19 1.10 2.39
6.16 1.22 2.39
6.14 1.35 2.39
6.11 1.47 2.39
6.08 1.59 2.39
6.04 1.71 2.39
6.01 1.83 2.39
5.97 1.95 2.39
5.93 2.07 2.39
5.89 2.19 2.39
5.84 2.31 2.39
5.79 2.43 2.39
5.74 2.54 2.39
5.69 2.66 2.39
5.64 2.77 2.39
5.58 2.88 2.39
5.52 2.99 2.39
5.46 3.10 2.39
5.40 3.21 2.39
5.33 3.32 2.39
5.26 3.43 2.39
5.19 3.53 2.39
5.12 3.63 2.39
5.05 3.74 2.39
4.97 3.84 2.39
4.89 3.93 2.39
4.81 4.03 2.39
4.73 4.13 2.39
4.65 4.22 2.39
4.56 4.31 2.39
4.47 4.40 2.39
4.38 4.49 2.39
4.29 4.58 2.39
4.20 4.66 2.39
4.11 4.75 2.39
4.01 4.83 2.39
3.91 4.91 2.39
3.81 4.98 2.39
3.71 5.06 2.39
3.61 5.13 2.39
3.50 5.20 2.39
3.40 5.27 2.39
3.29 5.34 2.39
3.18 5.40 2.39
3.07 5.46 2.39
2.96 5.52 2.39
2.85 5.58 2.39
2.74 5.64 2.39
2.63 5.69 2.39
2.51 5.74 2.39
2.41 5.82 2.40
2.28 5.84 2.39
2.20 5.99 2.44
2.13 6.18 2.49
2.00 6.22 2.49
1.88 6.26 2.49
1.75 6.29 2.49
1.63 6.33 2.49
1.50 6.36 2.49
1.37 6.38 2.49
1.24 6.41 2.49
1.11 6.43 2.49
0.98 6.45 2.49
0.85 6.47 2.49
0.72 6.49 2.49
0.59 6.50 2.49
0.46 6.51 2.49
0.33 6.51 2.49
0.20 6.52 2.49
0.07 6.52 2.49
-0.06 6.52 2.49
-0.19 6.52 2.49
-0.32 6.51 2.49
-0.45 6.50 2.49
-0.58 6.49 2.49
-0.71 6.48 2.49
-0.84 6.46 2.49
-0.97 6.44 2.49
-1.10 6.42 2.49
-1.23 6.40 2.49
-1.36 6.37 2.49
-1.48 6.34 2.49
-1.61 6.31 2.49
-1.74 6.27 2.49
-1.86 6.24 2.49
-1.99 6.20 2.49
-2.11 6.15 2.49
-2.23 6.11 2.49
-2.35 6.06 2.49
-2.48 6.01 2.49
-2.60 5.96 2.49
-2.71 5.91 2.49
-2.83 5.85 2.49
-2.95 5.79 2.49
-3.06 5.73 2.49
-3.18 5.67 2.49
-3.29 5.60 2.49
-3.40 5.53 2.49
-3.51 5.46 2.49
-3.62 5.39 2.49
-3.73 5.32 2.49
-3.83 5.24 2.49
-3.94 5.16 2.49
-4.04 5.08 2.49
-4.14 5.00 2.49
-4.24 4.91 2.49
-4.34 4.83 2.49
-4.43 4.74 2.49
-4.53 4.65 2.49
-4.62 4.56 2.49
-4.71 4.46 2.49
-4.80 4.37 2.49
-4.88 4.27 2.49
-4.97 4.17 2.49
-5.05 4.07 2.49
-5.13 3.96 2.49
-5.21 3.86 2.49
-5.28 3.75 2.49
-5.36 3.65 2.49
-5.43 3.54 2.49
-5.50 3.43 2.49
-5.56 3.32 2.49
-5.63 3.20 2.49
-5.69 3.09 2.49
-5.75 2.98 2.49
-5.81 2.86 2.49
-5.84 2.73 2.48
-5.84 2.59 2.46
-5.84 2.45 2.44
-5.84 2.31 2.42
-5.85 2.18 2.40
-5.86 2.05 2.39
-5.89 1.93 2.39
-5.93 1.81 2.39
-5.97 1.69 2.39
-6.00 1.57 2.39
-6.03 1.45 2.39
-6.06 1.33 2.39
-6.08 1.21 2.39
-6.10 1.09 2.39
-6.12 0.96 2.39
-6.14 0.84 2.39
-6.16 0.72 2.39
-6.17 0.59 2.39
-6.18 0.47 2.39
-6.19 0.34 2.39
-6.19 0.22 2.39
-6.20 0.09 2.39
-6.20 -0.03 2.39
-6.20 -0.15 2.39
-6.19 -0.28 2.39
-6.18 -0.40 2.39
-6.17 -0.53 2.39
-6.16 -0.65 2.39
-6.15 -0.77 2.39
-6.13 -0.90 2.39
-6.11 -1.02 2.39
-6.09 -1.14 2.39
-6.07 -1.27 2.39
-6.04 -1.39 2.39
-6.02 -1.51 2.39
-5.98 -1.63 2.39
-5.94 -1.75 2.39
-5.91 -1.87 2.39
-5.87 -1.99 2.39
-5.84 -2.11 2.39
-5.83 -2.24 2.41
-5.83 -2.37 2.43
-5.83 -2.51 2.45
-5.82 -2.65 2.47
-5.82 -2.79 2.49
-5.77 -2.91 2.49
-5.71 -3.02 2.49
-5.65 -3.14 2.49
-5.59 -3.25 2.49
-5.52 -3.36 2.49
-5.45 -3.47 2.49
-5.38 -3.58 2.49
-5.31 -3.69 2.49
-5.23 -3.80 2.49
-5.16 -3.90 2.49
-5.08 -4.00 2.49
-5.00 -4.11 2.49
-4.91 -4.21 2.49
-4.83 -4.30 2.49
-4.74 -4.40 2.49
-4.65 -4.49 2.49
-4.56 -4.59 2.49
-4.47 -4.68 2.49
-4.37 -4.77 2.49
-4.28 -4.85 2.49
-4.18 -4.94 2.49
-4.08 -5.02 2.49
-3.98 -5.10 2.49
-3.87 -5.18 2.49
-3.77 -5.26 2.49
-3.66 -5.34 2.49
-3.56 -5.41 2.49
-3.45 -5.48 2.49
-3.34 -5.55 2.49
-3.22 -5.62 2.49
-3.11 -5.68 2.49
-3.00 -5.74 2.49
-2.88 -5.80 2.49
-2.76 -5.86 2.49
-2.65 -5.91 2.49
-2.53 -5.97 2.49
-2.41 -6.02 2.49
-2.29 -6.06 2.49
-2.16 -6.11 2.49
-2.04 -6.15 2.49
-1.92 -6.19 2.49
-1.79 -6.23 2.49
-1.67 -6.27 2.49
-1.54 -6.30 2.49
-1.42 -6.33 2.49
-1.29 -6.36 2.49
-1.16 -6.38 2.49
-1.03 -6.41 2.49
-0.90 -6.43 2.49
-0.77 -6.44 2.49
-0.65 -6.46 2.49
-0.52 -6.47 2.49
-0.39 -6.48 2.49
-0.26 -6.49 2.49
-0.12 -6.49 2.49
0.01 -6.08 2.49
0.13 -6.08 2.49
0.25 -6.08 2.49
0.37 -6.07 2.49
0.49 -6.07 2.49
0.62 -6.05 2.49
0.74 -6.04 2.49
0.86 -6.03 2.49
0.98 -6.01 2.49
1.10 -5.99 2.49
1.22 -5.97 2.49
1.34 -5.94 2.49
1.46 -5.91 2.49
1.58 -5.88 2.49
1.70 -5.85 2.49
1.81 -5.82 2.49
1.93 -5.78 2.49
2.05 -5.74 2.49
2.16 -5.70 2.49
2.23 -5.54 2.44
2.29 -5.38 2.39
2.40 -5.33 2.39
2.50 -5.28 2.39
2.61 -5.23 2.39
2.71 -5.18 2.39
2.82 -5.13 2.39
2.92 -5.07 2.39
3.02 -5.01 2.39
3.12 -4.95 2.39
3.22 -4.89 2.39
3.32 -4.82 2.39
3.42 -4.75 2.39
3.51 -4.68 2.39
3.61 -4.61 2.39
3.70 -4.54 2.39
3.79 -4.47 2.39
3.88 -4.39 2.39
3.97 -4.31 2.39
4.05 -4.23 2.39
4.14 -4.15 2.39
4.22 -4.07 2.39
4.30 -3.98 2.39
4.38 -3.90 2.39
4.46 -3.81 2.39
4.53 -3.72 2.39
4.61 -3.63 2.39
4.68 -3.53 2.39
4.75 -3.44 2.39
4.82 -3.34 2.39
4.89 -3.25 2.39
4.95 -3.15 2.39
5.01 -3.05 2.39
5.07 -2.95 2.39
5.13 -2.85 2.39
5.19 -2.74 2.39
5.24 -2.64 2.39
5.30 -2.53 2.39
5.35 -2.43 2.39
5.39 -2.32 2.39
5.44 -2.21 2.39
5.48 -2.10 2.39
5.53 -1.99 2.39
5.56 -1.88 2.39
5.60 -1.77 2.39
5.64 -1.65 2.39
5.67 -1.54 2.39
5.70 -1.43 2.39
5.73 -1.31 2.39
5.75 -1.20 2.39
5.78 -1.08 2.39
5.80 -0.97 2.39
5.81 -0.85 2.39
5.83 -0.73 2.39
5.84 -0.62 2.39
5.86 -0.50 2.39
5.87 -0.38 2.39
5.87 -0.26 2.39
5.88 -0.15 2.39
5.88 -0.03 2.39
5.88 0.09 2.39
5.88 0.21 2.39
5.87 0.33 2.39
5.86 0.44 2.39
5.85 0.56 2.39
5.84 0.68 2.39
5.83 0.80 2.39
5.81 0.91 2.39
5.79 1.03 2.39
5.77 1.14 2.39
5.74 1.26 2.39
5.72 1.37 2.39
5.69 1.49 2.39
5.66 1.60 2.39
5.62 1.72 2.39
5.59 1.83 2.39
5.55 1.94 2.39
5.51 2.05 2.39
5.47 2.16 2.39
5.42 2.27 2.39
5.38 2.38 2.39
5.33 2.49 2.39
5.28 2.59 2.39
5.22 2.70 2.39
5.17 2.80 2.39
5.11 2.90 2.39
5.05 3.01 2.39
4.99 3.11 2.39
4.93 3.21 2.39
4.86 3.30 2.39
4.79 3.40 2.39
4.72 3.50 2.39
4.65 3.59 2.39
4.58 3.68 2.39
4.51 3.77 2.39
4.43 3.86 2.39
4.35 3.95 2.39
4.27 4.04 2.39
4.19 4.12 2.39
4.10 4.20 2.39
4.02 4.29 2.39
3.93 4.36 2.39
3.84 4.44 2.39
3.75 4.52 2.39
3.66 4.59 2.39
3.57 4.66 2.39
3.47 4.73 2.39
3.38 4.80 2.39
3.28 4.87 2.39
3.18 4.93 2.39
3.08 5.00 2.39
2.98 5.06 2.39
2.88 5.11 2.39
2.77 5.17 2.39
2.67 5.23 2.39
2.56 5.28 2.39
2.46 5.33 2.39
2.35 5.37 2.39
2.24 5.42 2.39
2.20 5.64 2.47
2.11 5.74 2.49
1.99 5.78 2.49
1.88 5.82 2.49
1.76 5.86 2.49
1.64 5.89 2.49
1.52 5.92 2.49
1.40 5.95 2.49
1.28 5.98 2.49
1.16 6.00 2.49
1.04 6.02 2.49
0.92 6.04 2.49
0.80 6.06 2.49
0.68 6.07 2.49
0.56 6.08 2.49
0.43 6.09 2.49
0.31 6.10 2.49
0.19 6.10 2.49
0.07 6.10 2.49
-0.06 6.10 2.49
-0.18 6.10 2.49
-0.30 6.10 2.49
-0.42 6.09 2.49
-0.54 6.08 2.49
-0.67 6.06 2.49
-0.79 6.05 2.49
-0.91 6.03 2.49
-1.03 6.01 2.49
-1.15 5.99 2.49
-1.27 5.96 2.49
-1.39 5.94 2.49
-1.51 5.91 2.49
-1.63 5.87 2.49
-1.74 5.84 2.49
-1.86 5.80 2.49
-1.98 5.76 2.49
-2.09 5.72 2.49
-2.20 5.68 2.49
-2.32 5.63 2.49
-2.43 5.58 2.49
-2.54 5.53 2.49
-2.65 5.48 2.49
-2.76 5.42 2.49
-2.87 5.37 2.49
-2.98 5.31 2.49
