ply
format ascii 1.0
element vertex 2971
property float32 x
property float32 y
property float32 z
end_header
-9.41 8.57 2.39
-9.57 8.37 2.39
-10.05 8.45 2.47
-10.21 8.24 2.47
-10.37 8.02 2.47
-10.53 7.81 2.47
-9.74 6.93 2.25
-10.85 7.39 2.48
-10.95 7.15 2.47
-11.08 6.92 2.47
-11.21 6.69 2.47
-11.34 6.46 2.47
-9.81 5.33 2.11
-9.80 5.08 2.09
-9.87 4.86 2.08
-10.44 4.89 2.19
-10.85 4.82 2.25
-10.94 4.59 2.25
-11.02 4.37 2.25
-11.10 4.15 2.25
-11.17 3.92 2.25
-11.24 3.69 2.25
-11.31 3.46 2.25
-11.37 3.23 2.25
-11.43 3.00 2.25
-11.48 2.77 2.25
-11.52 2.54 2.25
-11.56 2.30 2.25
-11.60 2.07 2.25
-11.63 1.84 2.25
-11.66 1.60 2.25
-11.69 1.37 2.25
-11.70 1.13 2.25
-11.72 0.89 2.25
-11.73 0.66 2.25
-11.73 0.42 2.25
-11.73 0.19 2.25
-11.73 -0.05 2.25
-11.72 -0.28 2.25
-11.71 -0.52 2.25
-11.69 -0.75 2.25
-11.66 -0.99 2.25
-11.64 -1.22 2.25
-11.61 -1.45 2.25
-11.57 -1.69 2.25
-11.53 -1.92 2.25
-11.48 -2.15 2.25
-11.43 -2.38 2.25
-11.38 -2.61 2.25
-11.32 -2.83 2.25
-11.25 -3.06 2.25
-11.19 -3.28 2.25
-11.11 -3.51 2.25
-10.50 -3.54 2.14
-10.17 -3.66 2.09
-10.28 -4.42 2.17
-10.32 -5.46 2.26
-9.44 -5.24 2.09
-9.19 -5.34 2.06
-9.10 -5.54 2.07
-10.26 -6.82 2.39
-10.12 -7.02 2.39
-9.97 -7.23 2.39
-9.82 -7.42 2.39
-9.67 -7.62 2.39
-9.51 -7.81 2.39
-9.35 -8.00 2.39
-9.19 -8.18 2.39
-9.02 -8.37 2.39
-8.85 -8.55 2.39
-8.68 -8.72 2.39
-8.50 -8.89 2.39
-8.32 -9.06 2.39
-8.14 -9.23 2.39
-7.95 -9.39 2.39
-7.76 -9.55 2.39
-7.28 -9.33 2.30
-7.00 -9.36 2.27
-6.82 -9.51 2.27
-6.83 -9.94 2.34
-6.76 -10.28 2.39
-6.56 -10.42 2.39
-6.51 -10.81 2.45
-6.40 -11.13 2.49
-6.18 -11.26 2.49
-5.95 -11.38 2.49
-5.72 -11.50 2.49
-5.49 -11.62 2.49
-5.25 -11.73 2.49
-5.02 -11.83 2.49
-4.78 -11.93 2.49
-4.54 -12.03 2.49
-4.30 -12.12 2.49
-4.06 -12.21 2.49
-3.81 -12.29 2.49
-3.56 -12.37 2.49
-3.32 -12.44 2.49
-3.07 -12.51 2.49
-2.82 -12.57 2.49
-2.56 -12.63 2.49
-2.31 -12.68 2.49
-2.05 -12.73 2.49
-1.80 -12.78 2.49
-1.54 -12.81 2.49
-1.29 -12.85 2.49
-1.03 -12.87 2.49
-0.77 -12.90 2.49
-0.51 -12.92 2.49
-0.25 -12.93 2.49
0.01 -11.53 2.49
0.24 -11.53 2.49
0.47 -11.53 2.49
0.71 -11.53 2.49
0.94 -11.51 2.49
1.17 -11.50 2.49
1.40 -11.48 2.49
1.56 -10.98 2.39
1.78 -10.95 2.39
2.01 -10.92 2.39
2.23 -10.88 2.39
2.44 -10.84 2.39
2.66 -10.79 2.39
2.88 -10.74 2.39
3.10 -10.68 2.39
3.31 -10.63 2.39
3.53 -10.56 2.39
3.41 -9.56 2.18
3.55 -9.36 2.15
3.75 -9.32 2.15
4.37 -10.27 2.39
4.58 -10.18 2.39
4.79 -10.09 2.39
4.99 -10.00 2.39
5.19 -9.90 2.39
5.39 -9.80 2.39
5.46 -9.48 2.34
5.48 -9.08 2.26
5.50 -8.70 2.20
5.51 -8.35 2.13
5.53 -8.02 2.07
5.54 -7.70 2.02
5.55 -7.40 1.97
5.57 -7.12 1.92
5.58 -6.84 1.88
5.59 -6.58 1.83
5.60 -6.33 1.79
5.61 -6.09 1.76
5.62 -5.86 1.72
5.63 -5.64 1.69
5.64 -5.43 1.66
5.65 -5.22 1.63
5.65 -5.02 1.60
5.66 -4.83 1.57
5.67 -4.64 1.55
5.68 -4.46 1.52
5.69 -4.29 1.50
5.69 -4.12 1.48
5.70 -3.95 1.46
5.71 -3.79 1.44
5.71 -3.63 1.42
5.72 -3.47 1.41
5.73 -3.32 1.39
5.73 -3.17 1.38
5.74 -3.03 1.36
5.75 -2.89 1.35
5.75 -2.75 1.34
5.76 -2.61 1.32
5.76 -2.47 1.31
5.77 -2.34 1.30
5.77 -2.21 1.29
5.78 -2.08 1.28
5.79 -1.95 1.28
5.79 -1.82 1.27
5.80 -1.70 1.26
5.80 -1.57 1.25
5.81 -1.45 1.25
5.81 -1.33 1.24
5.82 -1.21 1.24
5.82 -1.09 1.23
5.83 -0.97 1.23
5.83 -0.85 1.23
5.84 -0.73 1.22
5.84 -0.61 1.22
5.85 -0.49 1.22
5.85 -0.38 1.22
5.86 -0.26 1.22
5.86 -0.14 1.22
5.87 -0.02 1.22
5.87 0.09 1.22
5.88 0.21 1.22
5.88 0.33 1.22
5.89 0.45 1.22
5.89 0.57 1.22
5.90 0.69 1.23
5.90 0.81 1.23
5.91 0.93 1.24
5.91 1.05 1.24
5.90 1.17 1.24
5.91 1.30 1.25
5.91 1.43 1.25
5.92 1.55 1.26
5.93 1.68 1.27
5.93 1.81 1.28
5.94 1.95 1.29
5.95 2.08 1.30
5.95 2.22 1.31
5.96 2.36 1.32
5.97 2.50 1.33
5.98 2.65 1.34
5.98 2.80 1.36
4.06 2.00 0.93
3.95 2.04 0.91
3.87 2.10 0.91
3.82 2.17 0.90
3.79 2.26 0.91
3.78 2.36 0.92
3.82 2.49 0.94
6.07 4.13 1.51
6.08 4.32 1.53
6.09 4.51 1.55
6.10 4.71 1.58
6.11 4.92 1.61
6.12 5.13 1.64
6.13 5.35 1.67
6.14 5.58 1.70
6.15 5.82 1.74
2.44 2.40 0.70
2.39 2.45 0.70
6.18 6.60 1.85
6.20 6.89 1.90
6.21 7.19 1.95
6.22 7.50 2.00
6.24 7.83 2.05
6.25 8.18 2.11
6.27 8.55 2.17
6.28 8.95 2.24
6.30 9.36 2.31
6.31 9.80 2.39
6.11 9.92 2.39
5.91 10.04 2.39
5.71 10.16 2.39
5.50 10.27 2.39
5.30 10.37 2.39
5.09 10.48 2.39
4.87 10.57 2.39
4.66 10.67 2.39
4.45 10.76 2.39
4.23 10.84 2.39
4.01 10.92 2.39
3.79 11.00 2.39
3.57 11.07 2.39
3.34 11.14 2.39
3.12 11.20 2.39
2.89 11.25 2.39
2.66 11.31 2.39
2.50 11.66 2.45
2.30 11.89 2.49
2.06 11.93 2.49
1.82 11.97 2.49
1.58 12.00 2.49
1.34 12.02 2.49
1.10 12.04 2.49
0.86 12.06 2.49
0.62 12.07 2.49
0.37 12.07 2.49
0.13 12.07 2.49
-0.11 12.07 2.49
-0.35 12.06 2.49
-0.59 12.04 2.49
-0.84 12.02 2.49
-1.08 12.00 2.49
-1.32 11.97 2.49
-1.55 11.94 2.49
-1.79 11.90 2.49
-2.03 11.85 2.49
-2.27 11.80 2.49
-2.50 11.75 2.49
-2.74 11.69 2.49
-2.97 11.63 2.49
-3.20 11.56 2.49
-3.43 11.49 2.49
-3.66 11.41 2.49
-3.88 11.33 2.49
-4.11 11.24 2.49
-4.33 11.15 2.49
-4.55 11.06 2.49
-4.77 10.96 2.49
-4.98 10.85 2.49
-5.20 10.75 2.49
-5.41 10.63 2.49
-5.60 10.49 2.49
-5.63 10.04 2.41
-5.78 9.85 2.39
-5.97 9.72 2.39
-6.01 9.35 2.33
-6.03 8.99 2.27
-6.43 9.18 2.35
-6.60 9.03 2.35
-6.62 8.69 2.30
-6.71 8.45 2.27
-7.24 8.76 2.39
-7.41 8.60 2.39
-7.58 8.45 2.39
-7.74 8.29 2.39
-7.90 8.13 2.39
-8.06 7.96 2.39
-8.21 7.79 2.39
-8.36 7.62 2.39
-8.51 7.45 2.39
-8.65 7.27 2.39
-8.79 7.09 2.39
-8.93 6.91 2.39
-9.06 6.73 2.39
-9.19 6.54 2.39
-9.31 6.35 2.39
-9.43 6.16 2.39
-9.55 5.96 2.39
-9.66 5.77 2.39
-9.77 5.57 2.39
-10.50 5.71 2.54
-9.80 5.08 2.35
-9.86 4.86 2.34
-9.89 4.63 2.33
-9.90 4.39 2.31
-9.91 4.16 2.29
-9.92 3.93 2.28
-9.93 3.71 2.26
-9.95 3.49 2.25
-10.01 3.29 2.25
-10.07 3.08 2.25
-10.12 2.88 2.25
-10.17 2.68 2.25
-10.22 2.47 2.25
-10.26 2.26 2.25
-10.30 2.05 2.25
-10.33 1.85 2.25
-10.36 1.64 2.25
-10.39 1.43 2.25
-10.41 1.22 2.25
-10.43 1.01 2.25
-10.44 0.80 2.25
-10.45 0.59 2.25
-10.46 0.38 2.25
-10.46 0.17 2.25
-10.45 -0.04 2.25
-10.44 -0.25 2.25
-10.43 -0.46 2.25
-10.42 -0.67 2.25
-10.40 -0.88 2.25
-10.37 -1.09 2.25
-10.35 -1.30 2.25
-10.31 -1.50 2.25
-10.28 -1.71 2.25
-10.24 -1.91 2.25
-10.19 -2.12 2.25
-10.19 -2.33 2.26
-10.19 -2.55 2.28
-10.20 -2.77 2.29
-10.21 -3.00 2.31
-10.22 -3.22 2.32
-10.23 -3.45 2.34
-10.17 -3.66 2.35
-12.12 -4.64 2.82
-10.20 -4.14 2.39
-10.11 -4.35 2.39
-10.02 -4.55 2.39
-9.93 -4.75 2.39
-9.83 -4.95 2.39
-9.72 -5.14 2.39
-9.62 -5.33 2.39
-9.51 -5.52 2.39
-9.38 -5.71 2.39
-9.27 -5.90 2.39
-9.15 -6.08 2.39
-9.02 -6.27 2.39
-8.90 -6.45 2.39
-8.76 -6.62 2.39
-8.63 -6.80 2.39
-8.49 -6.97 2.39
-8.35 -7.14 2.39
-8.20 -7.30 2.39
-8.05 -7.46 2.39
-7.90 -7.62 2.39
-7.35 -7.38 2.27
-7.32 -7.66 2.31
-7.30 -7.95 2.35
-7.14 -8.10 2.35
-6.75 -7.97 2.27
-6.76 -8.32 2.33
-6.75 -8.66 2.39
-6.58 -8.79 2.39
-6.44 -8.98 2.41
-6.45 -9.38 2.48
-6.30 -9.57 2.49
-6.10 -9.69 2.49
-5.91 -9.81 2.49
-5.71 -9.93 2.49
-5.51 -10.05 2.49
-5.31 -10.16 2.49
-5.10 -10.26 2.49
-4.90 -10.36 2.49
-4.69 -10.46 2.49
-4.48 -10.56 2.49
-4.26 -10.65 2.49
-4.05 -10.73 2.49
-3.83 -10.81 2.49
-3.62 -10.89 2.49
-3.40 -10.96 2.49
-3.18 -11.03 2.49
-2.96 -11.10 2.49
-2.73 -11.16 2.49
-2.51 -11.21 2.49
-2.28 -11.26 2.49
-2.06 -11.31 2.49
-1.83 -11.35 2.49
-1.60 -11.39 2.49
-1.37 -11.43 2.49
-1.14 -11.45 2.49
-0.91 -11.48 2.49
-0.68 -11.50 2.49
-0.45 -11.52 2.49
-0.22 -11.53 2.49
0.01 -10.39 2.49
0.22 -10.40 2.49
0.43 -10.39 2.49
0.64 -10.39 2.49
0.85 -10.37 2.49
1.05 -10.36 2.49
1.26 -10.34 2.49
1.47 -10.32 2.49
1.61 -9.86 2.39
1.81 -9.83 2.39
2.01 -9.80 2.39
2.20 -9.76 2.39
2.40 -9.72 2.39
2.60 -9.67 2.39
2.79 -9.62 2.39
2.98 -9.57 2.39
3.18 -9.51 2.39
3.37 -9.45 2.39
3.56 -9.39 2.39
3.74 -9.30 2.39
3.92 -9.19 2.38
4.13 -9.17 2.39
4.31 -9.09 2.39
4.50 -9.00 2.39
4.68 -8.92 2.39
4.86 -8.83 2.39
5.04 -8.73 2.39
5.21 -8.63 2.39
5.39 -8.53 2.39
5.51 -8.35 2.37
5.53 -8.02 2.30
5.54 -7.70 2.24
5.55 -7.40 2.19
5.57 -7.11 2.13
5.58 -6.84 2.08
5.59 -6.58 2.04
5.60 -6.33 1.99
5.61 -6.09 1.95
5.62 -5.86 1.91
5.63 -5.64 1.88
5.64 -5.43 1.84
5.65 -5.22 1.81
5.65 -5.02 1.78
5.66 -4.83 1.75
5.67 -4.64 1.72
5.68 -4.46 1.70
5.69 -4.29 1.67
5.69 -4.12 1.65
5.70 -3.95 1.62
5.71 -3.79 1.60
5.71 -3.63 1.58
5.72 -3.47 1.57
5.73 -3.32 1.55
5.73 -3.17 1.53
5.74 -3.03 1.52
5.75 -2.88 1.50
5.75 -2.74 1.49
5.76 -2.61 1.47
5.76 -2.47 1.46
5.77 -2.34 1.45
5.77 -2.21 1.44
5.78 -2.08 1.43
5.79 -1.95 1.42
5.79 -1.82 1.41
5.80 -1.70 1.40
5.80 -1.57 1.40
5.81 -1.45 1.39
5.81 -1.33 1.38
5.82 -1.21 1.38
5.82 -1.09 1.37
5.83 -0.97 1.37
5.83 -0.85 1.36
5.84 -0.73 1.36
5.84 -0.61 1.36
5.85 -0.49 1.36
5.85 -0.38 1.36
5.86 -0.26 1.35
5.86 -0.14 1.35
5.87 -0.02 1.35
5.87 0.09 1.36
5.88 0.21 1.36
5.88 0.33 1.36
5.89 0.45 1.36
5.89 0.57 1.36
5.90 0.69 1.37
5.90 0.81 1.37
5.91 0.93 1.38
5.91 1.05 1.38
5.90 1.18 1.38
5.91 1.30 1.39
5.91 1.43 1.40
5.92 1.55 1.41
5.93 1.68 1.41
5.93 1.81 1.42
5.94 1.95 1.43
5.95 2.08 1.45
5.95 2.22 1.46
5.96 2.36 1.47
5.97 2.50 1.48
5.98 2.65 1.50
5.98 2.80 1.51
4.06 2.00 1.04
3.94 2.04 1.02
3.87 2.10 1.01
3.82 2.17 1.01
3.79 2.26 1.01
3.78 2.36 1.02
3.82 2.49 1.04
6.07 4.13 1.68
6.08 4.32 1.71
6.09 4.51 1.73
6.10 4.71 1.76
6.11 4.92 1.79
6.12 5.13 1.83
6.13 5.35 1.86
6.14 5.58 1.90
6.15 5.82 1.94
2.44 2.40 0.78
2.39 2.45 0.78
6.18 6.60 2.07
6.20 6.89 2.12
6.21 7.19 2.17
6.22 7.50 2.23
6.24 7.83 2.29
6.25 8.18 2.35
6.18 8.43 2.39
6.01 8.55 2.39
5.84 8.67 2.39
5.66 8.79 2.39
5.48 8.90 2.39
5.30 9.00 2.39
5.12 9.11 2.39
4.94 9.21 2.39
4.75 9.30 2.39
4.56 9.40 2.39
4.37 9.48 2.39
4.18 9.57 2.39
3.99 9.65 2.39
3.79 9.72 2.39
3.60 9.80 2.39
3.40 9.87 2.39
3.20 9.93 2.39
3.00 9.99 2.39
2.80 10.04 2.39
2.59 10.10 2.39
2.45 10.38 2.45
2.28 10.63 2.49
2.07 10.67 2.49
1.85 10.70 2.49
1.64 10.74 2.49
1.42 10.76 2.49
1.20 10.79 2.49
0.99 10.80 2.49
0.77 10.82 2.49
0.55 10.83 2.49
0.34 10.83 2.49
0.12 10.83 2.49
-0.10 10.83 2.49
-0.32 10.82 2.49
-0.53 10.81 2.49
-0.75 10.79 2.49
-0.96 10.77 2.49
-1.18 10.75 2.49
-1.39 10.71 2.49
-1.61 10.68 2.49
-1.82 10.64 2.49
-2.03 10.60 2.49
-2.24 10.55 2.49
-2.45 10.50 2.49
-2.66 10.44 2.49
-2.87 10.38 2.49
-3.08 10.32 2.49
-3.28 10.25 2.49
-3.49 10.18 2.49
-3.69 10.10 2.49
-3.89 10.02 2.49
-4.09 9.93 2.49
-4.28 9.84 2.49
-4.48 9.75 2.49
-4.67 9.66 2.49
-4.86 9.55 2.49
-5.05 9.45 2.49
-5.23 9.34 2.49
-5.42 9.23 2.49
-5.60 9.12 2.49
-5.67 8.83 2.45
-5.71 8.51 2.39
-5.88 8.40 2.39
-6.04 8.26 2.39
-6.07 7.96 2.34
-6.08 7.66 2.29
-6.18 7.47 2.27
-6.56 7.61 2.35
-6.68 7.44 2.34
-6.69 7.16 2.30
-6.74 6.94 2.27
-7.25 7.16 2.39
-7.39 7.01 2.39
-7.52 6.86 2.39
-7.65 6.70 2.39
-7.78 6.54 2.39
-7.91 6.38 2.39
-8.03 6.22 2.39
-8.15 6.05 2.39
-8.26 5.88 2.39
-8.38 5.71 2.39
-8.48 5.54 2.39
-8.59 5.37 2.39
-8.69 5.19 2.39
-8.79 5.01 2.39
-8.88 4.83 2.39
-8.97 4.65 2.39
-9.06 4.47 2.39
-9.14 4.28 2.39
-9.22 4.09 2.39
-9.30 3.91 2.39
-9.37 3.72 2.39
-9.44 3.53 2.39
-9.50 3.33 2.39
-9.56 3.14 2.39
-9.62 2.95 2.39
-9.67 2.75 2.39
-9.72 2.56 2.39
-9.76 2.36 2.39
-9.80 2.16 2.39
-9.84 1.96 2.39
-9.87 1.76 2.39
-9.90 1.57 2.39
-9.93 1.37 2.39
-9.95 1.17 2.39
-9.96 0.96 2.39
-9.98 0.76 2.39
-9.99 0.56 2.39
-9.99 0.36 2.39
-9.99 0.16 2.39
-9.99 -0.04 2.39
-9.98 -0.24 2.39
-9.97 -0.44 2.39
-9.96 -0.64 2.39
-9.94 -0.84 2.39
-9.92 -1.04 2.39
-9.89 -1.24 2.39
-9.86 -1.44 2.39
-9.83 -1.63 2.39
-9.79 -1.83 2.39
-9.75 -2.02 2.39
-9.70 -2.22 2.39
-9.65 -2.41 2.39
-9.60 -2.61 2.39
-9.54 -2.80 2.39
-9.48 -2.99 2.39
-9.41 -3.18 2.39
-9.35 -3.36 2.39
-9.27 -3.55 2.39
-9.20 -3.74 2.39
-9.12 -3.92 2.39
-9.04 -4.10 2.39
-8.95 -4.28 2.39
-8.86 -4.46 2.39
-8.77 -4.63 2.39
-8.67 -4.81 2.39
-8.57 -4.98 2.39
-8.47 -5.15 2.39
-8.36 -5.32 2.39
-8.25 -5.49 2.39
-8.14 -5.65 2.39
-8.02 -5.81 2.39
-7.90 -5.97 2.39
-7.78 -6.13 2.39
-7.26 -5.96 2.27
-7.26 -6.20 2.30
-7.26 -6.47 2.35
-7.14 -6.62 2.35
-6.76 -6.53 2.27
-6.69 -6.72 2.29
-6.70 -7.01 2.34
-6.70 -7.29 2.39
-6.56 -7.44 2.39
-6.40 -7.55 2.39
-6.38 -7.85 2.44
-6.35 -8.14 2.49
-6.19 -8.27 2.49
-6.02 -8.39 2.49
-5.85 -8.51 2.49
-5.68 -8.63 2.49
-5.50 -8.74 2.49
-5.33 -8.85 2.49
-5.15 -8.96 2.49
-4.97 -9.06 2.49
-4.79 -9.16 2.49
-4.60 -9.25 2.49
-4.41 -9.35 2.49
-4.23 -9.43 2.49
-4.04 -9.52 2.49
-3.84 -9.60 2.49
-3.65 -9.68 2.49
-3.46 -9.75 2.49
-3.26 -9.82 2.49
-3.06 -9.89 2.49
-2.87 -9.95 2.49
-2.67 -10.00 2.49
-2.46 -10.06 2.49
-2.26 -10.11 2.49
-2.06 -10.15 2.49
-1.85 -10.20 2.49
-1.65 -10.24 2.49
-1.44 -10.27 2.49
-1.24 -10.30 2.49
-1.03 -10.33 2.49
-0.82 -10.35 2.49
-0.62 -10.36 2.49
-0.41 -10.38 2.49
-0.20 -10.39 2.49
0.01 -9.45 2.49
0.20 -9.45 2.49
0.39 -9.45 2.49
0.58 -9.44 2.49
0.77 -9.43 2.49
0.96 -9.42 2.49
1.15 -9.40 2.49
1.34 -9.38 2.49
1.53 -9.35 2.49
1.64 -8.94 2.39
1.83 -8.96 2.40
2.00 -8.87 2.39
2.18 -8.83 2.39
2.36 -8.79 2.39
2.54 -8.75 2.39
2.71 -8.70 2.39
2.89 -8.64 2.39
3.06 -8.59 2.39
3.24 -8.53 2.39
3.41 -8.47 2.39
3.58 -8.40 2.39
3.75 -8.33 2.39
3.92 -8.26 2.39
4.08 -8.18 2.39
4.25 -8.10 2.39
4.41 -8.02 2.39
4.58 -7.93 2.39
4.74 -7.84 2.39
4.90 -7.75 2.39
5.05 -7.65 2.39
5.21 -7.55 2.39
5.36 -7.45 2.39
5.51 -7.34 2.39
5.57 -7.11 2.35
5.58 -6.84 2.29
5.59 -6.58 2.24
5.60 -6.33 2.20
5.61 -6.09 2.15
5.62 -5.86 2.11
5.63 -5.64 2.07
5.64 -5.43 2.03
5.65 -5.22 1.99
5.65 -5.02 1.96
5.66 -4.83 1.93
5.67 -4.64 1.90
5.68 -4.46 1.87
5.69 -4.29 1.84
5.69 -4.11 1.81
5.70 -3.95 1.79
5.71 -3.79 1.77
5.71 -3.63 1.75
5.72 -3.47 1.73
5.73 -3.32 1.71
5.73 -3.17 1.69
5.74 -3.03 1.67
5.75 -2.88 1.65
5.75 -2.74 1.64
5.76 -2.61 1.62
5.76 -2.47 1.61
5.77 -2.34 1.60
5.77 -2.21 1.59
5.78 -2.08 1.58
5.79 -1.95 1.57
5.79 -1.82 1.56
5.80 -1.70 1.55
5.80 -1.57 1.54
5.81 -1.45 1.53
5.81 -1.33 1.53
5.82 -1.21 1.52
5.82 -1.09 1.51
5.83 -0.97 1.51
5.83 -0.85 1.51
5.84 -0.73 1.50
5.84 -0.61 1.50
5.85 -0.49 1.50
5.85 -0.38 1.50
5.86 -0.26 1.49
5.86 -0.14 1.49
5.87 -0.02 1.49
5.87 0.10 1.50
5.88 0.21 1.50
5.88 0.33 1.50
5.89 0.45 1.50
5.89 0.57 1.50
5.90 0.69 1.51
5.90 0.81 1.51
5.91 0.93 1.52
5.91 1.06 1.52
5.90 1.18 1.53
5.91 1.30 1.53
5.91 1.43 1.54
5.92 1.55 1.55
5.93 1.68 1.56
5.93 1.82 1.57
5.94 1.95 1.58
5.95 2.08 1.60
5.95 2.22 1.61
5.96 2.36 1.62
5.97 2.50 1.64
5.98 2.65 1.65
5.98 2.80 1.67
4.06 2.00 1.14
3.94 2.04 1.12
3.87 2.10 1.11
3.82 2.17 1.11
3.79 2.26 1.11
3.78 2.36 1.13
3.82 2.49 1.15
6.07 4.13 1.85
6.08 4.32 1.88
6.09 4.51 1.91
6.10 4.71 1.95
6.11 4.92 1.98
6.12 5.13 2.02
6.13 5.35 2.05
6.14 5.58 2.10
6.15 5.82 2.14
2.44 2.40 0.86
2.39 2.45 0.86
6.18 6.60 2.28
6.20 6.89 2.34
6.19 7.16 2.39
6.05 7.29 2.39
5.90 7.41 2.39
5.75 7.52 2.39
5.60 7.64 2.39
5.44 7.75 2.39
5.29 7.85 2.39
5.13 7.96 2.39
4.97 8.06 2.39
4.80 8.16 2.39
4.64 8.25 2.39
4.47 8.34 2.39
4.30 8.43 2.39
4.13 8.51 2.39
3.96 8.59 2.39
3.79 8.67 2.39
3.61 8.74 2.39
3.44 8.81 2.39
3.26 8.87 2.39
3.08 8.94 2.39
2.90 8.99 2.39
2.72 9.05 2.39
2.53 9.10 2.39
2.40 9.35 2.44
2.26 9.59 2.49
2.07 9.63 2.49
1.87 9.66 2.49
1.68 9.70 2.49
1.48 9.73 2.49
1.29 9.75 2.49
1.09 9.77 2.49
0.90 9.79 2.49
0.70 9.80 2.49
0.50 9.81 2.49
0.31 9.82 2.49
0.11 9.82 2.49
-0.09 9.81 2.49
-0.28 9.81 2.49
-0.48 9.80 2.49
-0.68 9.78 2.49
-0.87 9.76 2.49
-1.07 9.74 2.49
-1.26 9.71 2.49
-1.46 9.68 2.49
-1.65 9.65 2.49
-1.84 9.61 2.49
-2.03 9.56 2.49
-2.22 9.52 2.49
-2.41 9.47 2.49
-2.60 9.41 2.49
-2.79 9.35 2.49
-2.97 9.29 2.49
-3.16 9.23 2.49
-3.34 9.16 2.49
-3.52 9.08 2.49
-3.70 9.01 2.49
-3.88 8.93 2.49
-4.06 8.84 2.49
-4.23 8.76 2.49
-4.41 8.67 2.49
-4.58 8.57 2.49
-4.74 8.47 2.49
-4.91 8.37 2.49
-5.08 8.27 2.49
-5.24 8.16 2.49
-5.40 8.05 2.49
-5.56 7.94 2.49
-5.71 7.82 2.49
-5.73 7.52 2.44
-5.77 7.26 2.39
-5.91 7.14 2.39
-6.05 7.02 2.39
-6.12 6.82 2.36
-6.32 6.76 2.39
-6.45 6.63 2.39
-6.58 6.50 2.39
-6.70 6.36 2.39
-6.83 6.22 2.39
-6.95 6.08 2.39
-7.06 5.94 2.39
-7.18 5.79 2.39
-7.29 5.64 2.39
-7.40 5.49 2.39
-7.50 5.34 2.39
-7.60 5.19 2.39
-7.70 5.03 2.39
-7.80 4.87 2.39
-7.89 4.71 2.39
-7.98 4.55 2.39
-8.07 4.39 2.39
-8.15 4.22 2.39
-8.23 4.06 2.39
-8.30 3.89 2.39
-8.38 3.72 2.39
-8.44 3.55 2.39
-8.51 3.38 2.39
-8.57 3.20 2.39
-8.63 3.03 2.39
-8.69 2.86 2.39
-8.74 2.68 2.39
-8.79 2.50 2.39
-8.83 2.32 2.39
-8.87 2.15 2.39
-8.91 1.97 2.39
-8.94 1.79 2.39
-8.97 1.61 2.39
-9.00 1.42 2.39
-9.02 1.24 2.39
-9.04 1.06 2.39
-9.06 0.88 2.39
-9.07 0.70 2.39
-9.08 0.51 2.39
-9.08 0.33 2.39
-9.08 0.15 2.39
-9.08 -0.03 2.39
-9.08 -0.22 2.39
-9.07 -0.40 2.39
-9.05 -0.58 2.39
-9.04 -0.76 2.39
-9.02 -0.94 2.39
-8.99 -1.12 2.39
-8.96 -1.30 2.39
-8.93 -1.48 2.39
-8.90 -1.66 2.39
-8.86 -1.84 2.39
-8.82 -2.02 2.39
-8.78 -2.19 2.39
-8.73 -2.37 2.39
-8.68 -2.54 2.39
-8.62 -2.72 2.39
-8.56 -2.89 2.39
-8.50 -3.06 2.39
-8.43 -3.23 2.39
-8.37 -3.40 2.39
-8.29 -3.56 2.39
-8.22 -3.73 2.39
-8.14 -3.89 2.39
-8.06 -4.05 2.39
-7.97 -4.21 2.39
-7.89 -4.37 2.39
-7.80 -4.53 2.39
-7.31 -4.45 2.27
-7.22 -4.59 2.27
-7.20 -4.78 2.29
-7.21 -5.00 2.33
-7.18 -5.20 2.35
-7.07 -5.34 2.35
-6.72 -5.29 2.27
-6.64 -5.45 2.28
-6.65 -5.68 2.32
-6.66 -5.93 2.37
-6.60 -6.12 2.39
-6.48 -6.25 2.39
-6.35 -6.38 2.39
-6.33 -6.62 2.43
-6.34 -6.91 2.49
-6.21 -7.05 2.49
-6.07 -7.17 2.49
-5.92 -7.29 2.49
-5.78 -7.41 2.49
-5.63 -7.52 2.49
-5.48 -7.63 2.49
-5.32 -7.74 2.49
-5.16 -7.85 2.49
-5.01 -7.95 2.49
-4.85 -8.05 2.49
-4.68 -8.15 2.49
-4.52 -8.24 2.49
-4.35 -8.33 2.49
-4.18 -8.42 2.49
-4.01 -8.50 2.49
-3.84 -8.58 2.49
-3.67 -8.66 2.49
-3.50 -8.73 2.49
-3.32 -8.80 2.49
-3.14 -8.87 2.49
-2.97 -8.93 2.49
-2.79 -8.99 2.49
-2.61 -9.05 2.49
-2.42 -9.10 2.49
-2.24 -9.15 2.49
-2.06 -9.19 2.49
-1.87 -9.24 2.49
-1.69 -9.27 2.49
-1.50 -9.31 2.49
-1.31 -9.34 2.49
-1.13 -9.37 2.49
-0.94 -9.39 2.49
-0.75 -9.41 2.49
-0.56 -9.42 2.49
-0.37 -9.44 2.49
-0.18 -9.45 2.49
0.01 -8.66 2.49
0.18 -8.66 2.49
0.36 -8.65 2.49
0.53 -8.65 2.49
0.71 -8.64 2.49
0.88 -8.62 2.49
1.05 -8.61 2.49
1.23 -8.59 2.49
1.40 -8.56 2.49
1.57 -8.54 2.49
1.67 -8.16 2.39
1.84 -8.12 2.39
2.00 -8.09 2.39
2.16 -8.05 2.39
2.32 -8.01 2.39
2.49 -7.96 2.39
2.65 -7.91 2.39
2.81 -7.86 2.39
2.96 -7.81 2.39
3.12 -7.75 2.39
3.28 -7.69 2.39
3.43 -7.62 2.39
3.59 -7.56 2.39
3.74 -7.49 2.39
3.89 -7.41 2.39
4.04 -7.34 2.39
4.19 -7.26 2.39
4.34 -7.17 2.39
4.48 -7.09 2.39
4.62 -7.00 2.39
4.77 -6.91 2.39
4.91 -6.82 2.39
5.04 -6.72 2.39
5.18 -6.62 2.39
5.32 -6.52 2.39
5.45 -6.41 2.39
5.58 -6.30 2.39
5.61 -6.09 2.35
5.62 -5.86 2.30
5.63 -5.64 2.26
5.64 -5.42 2.22
5.65 -5.22 2.18
5.65 -5.02 2.14
5.66 -4.83 2.11
5.67 -4.64 2.07
5.68 -4.46 2.04
5.69 -4.28 2.01
5.69 -4.11 1.98
5.70 -3.95 1.96
5.71 -3.78 1.93
5.71 -3.63 1.91
5.72 -3.47 1.89
5.73 -3.32 1.87
5.73 -3.17 1.85
5.74 -3.03 1.83
5.75 -2.88 1.81
5.75 -2.74 1.79
5.76 -2.61 1.78
5.76 -2.47 1.76
5.77 -2.34 1.75
5.77 -2.20 1.74
5.78 -2.08 1.72
5.79 -1.95 1.71
5.79 -1.82 1.70
5.80 -1.69 1.69
5.80 -1.57 1.68
5.81 -1.45 1.68
5.81 -1.33 1.67
5.82 -1.21 1.66
5.82 -1.08 1.66
5.83 -0.97 1.65
5.83 -0.85 1.65
5.84 -0.73 1.64
5.84 -0.61 1.64
5.85 -0.49 1.64
5.85 -0.37 1.64
5.86 -0.26 1.64
5.86 -0.14 1.64
5.87 -0.02 1.64
5.87 0.10 1.64
5.88 0.21 1.64
5.88 0.33 1.64
5.89 0.45 1.64
5.89 0.57 1.65
5.90 0.69 1.65
5.90 0.81 1.66
5.91 0.93 1.66
5.91 1.06 1.67
5.90 1.18 1.67
5.91 1.30 1.68
5.91 1.43 1.69
5.92 1.56 1.70
5.93 1.68 1.71
5.93 1.82 1.72
5.94 1.95 1.73
5.95 2.08 1.75
5.95 2.22 1.76
5.96 2.36 1.78
5.97 2.50 1.79
5.98 2.65 1.81
5.98 2.80 1.83
4.06 2.00 1.25
3.94 2.04 1.23
3.87 2.10 1.22
3.82 2.17 1.22
3.79 2.26 1.22
3.78 2.36 1.23
3.82 2.49 1.26
6.07 4.13 2.03
6.08 4.32 2.06
6.09 4.51 2.10
6.10 4.71 2.13
6.11 4.92 2.17
6.12 5.13 2.21
6.13 5.35 2.25
6.14 5.58 2.30
6.15 5.82 2.34
2.44 2.40 0.95
2.39 2.45 0.95
5.91 6.31 2.39
5.78 6.43 2.39
5.65 6.54 2.39
5.52 6.65 2.39
5.38 6.76 2.39
5.25 6.87 2.39
5.11 6.97 2.39
4.97 7.07 2.39
4.83 7.17 2.39
4.68 7.26 2.39
4.53 7.36 2.39
4.38 7.44 2.39
4.23 7.53 2.39
4.08 7.61 2.39
3.93 7.69 2.39
3.77 7.77 2.39
3.62 7.84 2.39
3.46 7.91 2.39
3.30 7.98 2.39
3.14 8.04 2.39
2.97 8.10 2.39
2.81 8.16 2.39
2.65 8.21 2.39
2.48 8.26 2.39
2.37 8.49 2.44
2.24 8.71 2.49
2.06 8.75 2.49
1.89 8.79 2.49
1.71 8.82 2.49
1.53 8.85 2.49
1.36 8.88 2.49
1.18 8.90 2.49
1.00 8.92 2.49
0.82 8.94 2.49
0.64 8.95 2.49
0.46 8.96 2.49
0.28 8.96 2.49
0.10 8.97 2.49
-0.08 8.96 2.49
-0.26 8.96 2.49
-0.44 8.95 2.49
-0.62 8.93 2.49
-0.80 8.92 2.49
-0.97 8.90 2.49
-1.15 8.87 2.49
-1.33 8.84 2.49
-1.51 8.81 2.49
-1.68 8.78 2.49
-1.86 8.74 2.49
-2.03 8.70 2.49
-2.20 8.65 2.49
-2.38 8.60 2.49
-2.55 8.55 2.49
-2.72 8.49 2.49
-2.89 8.43 2.49
-3.05 8.37 2.49
-3.22 8.30 2.49
-3.38 8.23 2.49
-3.55 8.16 2.49
-3.71 8.08 2.49
-3.87 8.00 2.49
-4.03 7.92 2.49
-4.18 7.84 2.49
-4.34 7.75 2.49
-4.49 7.65 2.49
-4.64 7.56 2.49
-4.79 7.46 2.49
-4.93 7.36 2.49
-5.08 7.26 2.49
-5.22 7.15 2.49
-5.36 7.04 2.49
-5.50 6.93 2.49
-5.63 6.81 2.49
-5.76 6.69 2.49
-5.77 6.44 2.44
-5.79 6.21 2.40
-5.90 6.07 2.39
-6.01 5.94 2.39
-6.13 5.82 2.39
-6.24 5.69 2.39
-6.35 5.56 2.39
-6.46 5.43 2.39
-6.56 5.30 2.39
-6.67 5.16 2.39
-6.77 5.03 2.39
-6.86 4.89 2.39
-6.95 4.75 2.39
-7.05 4.60 2.39
-7.13 4.46 2.39
-7.22 4.31 2.39
-7.30 4.17 2.39
-7.38 4.02 2.39
-7.45 3.87 2.39
-7.53 3.71 2.39
-7.60 3.56 2.39
-7.66 3.41 2.39
-7.73 3.25 2.39
-7.79 3.09 2.39
-7.84 2.93 2.39
-7.90 2.77 2.39
-7.95 2.61 2.39
-8.00 2.45 2.39
-8.04 2.29 2.39
-8.08 2.13 2.39
-8.12 1.96 2.39
-8.15 1.80 2.39
-8.19 1.64 2.39
-8.21 1.47 2.39
-8.24 1.30 2.39
-8.26 1.14 2.39
-8.28 0.97 2.39
-8.29 0.80 2.39
-8.30 0.64 2.39
-8.31 0.47 2.39
-8.32 0.30 2.39
-8.32 0.14 2.39
-8.32 -0.03 2.39
-8.31 -0.20 2.39
-8.30 -0.36 2.39
-8.29 -0.53 2.39
-8.28 -0.70 2.39
-8.26 -0.86 2.39
-8.24 -1.03 2.39
-8.21 -1.19 2.39
-8.18 -1.36 2.39
-8.15 -1.52 2.39
-8.12 -1.69 2.39
-8.08 -1.85 2.39
-8.04 -2.01 2.39
-7.99 -2.17 2.39
-7.95 -2.33 2.39
-7.90 -2.49 2.39
-7.84 -2.65 2.39
-7.79 -2.80 2.39
-7.73 -2.96 2.39
-7.66 -3.11 2.39
-7.60 -3.26 2.39
-7.53 -3.42 2.39
-7.46 -3.57 2.39
-7.38 -3.71 2.39
-7.31 -3.86 2.39
-7.02 -3.89 2.32
-6.78 -3.94 2.27
-6.70 -4.07 2.27
-6.61 -4.21 2.27
-6.59 -4.38 2.29
-6.60 -4.58 2.33
-6.61 -4.79 2.36
-6.59 -4.98 2.39
-6.48 -5.11 2.39
-6.38 -5.24 2.39
-6.29 -5.37 2.40
-6.29 -5.60 2.44
-6.30 -5.84 2.49
-6.19 -5.98 2.49
-6.07 -6.10 2.49
-5.95 -6.22 2.49
-5.82 -6.34 2.49
-5.69 -6.46 2.49
-5.56 -6.57 2.49
-5.43 -6.68 2.49
-5.29 -6.79 2.49
-5.16 -6.89 2.49
-5.02 -6.99 2.49
-4.88 -7.09 2.49
-4.73 -7.19 2.49
-4.59 -7.29 2.49
-4.44 -7.38 2.49
-4.29 -7.47 2.49
-4.14 -7.55 2.49
-3.99 -7.63 2.49
-3.83 -7.71 2.49
-3.68 -7.79 2.49
-3.52 -7.86 2.49
-3.36 -7.93 2.49
-3.20 -8.00 2.49
-3.04 -8.06 2.49
-2.88 -8.13 2.49
-2.72 -8.18 2.49
-2.55 -8.24 2.49
-2.39 -8.29 2.49
-2.22 -8.34 2.49
-2.05 -8.38 2.49
-1.88 -8.42 2.49
-1.71 -8.46 2.49
-1.54 -8.50 2.49
-1.37 -8.53 2.49
-1.20 -8.55 2.49
-1.03 -8.58 2.49
-0.86 -8.60 2.49
-0.68 -8.62 2.49
-0.51 -8.63 2.49
-0.34 -8.64 2.49
-0.16 -8.65 2.49
0.01 -7.98 2.49
0.17 -7.98 2.49
0.33 -7.97 2.49
0.49 -7.97 2.49
0.65 -7.96 2.49
0.81 -7.95 2.49
0.97 -7.93 2.49
1.13 -7.91 2.49
1.29 -7.89 2.49
1.45 -7.87 2.49
1.61 -7.84 2.49
1.70 -7.51 2.40
1.84 -7.45 2.39
1.99 -7.41 2.39
2.14 -7.38 2.39
2.29 -7.33 2.39
2.44 -7.29 2.39
2.58 -7.24 2.39
2.73 -7.19 2.39
2.88 -7.14 2.39
3.02 -7.08 2.39
3.16 -7.02 2.39
3.30 -6.96 2.39
3.44 -6.89 2.39
3.58 -6.83 2.39
3.72 -6.76 2.39
3.86 -6.68 2.39
3.99 -6.61 2.39
4.13 -6.53 2.39
4.26 -6.45 2.39
4.39 -6.36 2.39
4.52 -6.27 2.39
4.65 -6.18 2.39
4.77 -6.09 2.39
4.89 -6.00 2.39
5.02 -5.90 2.39
5.14 -5.80 2.39
5.25 -5.70 2.39
5.37 -5.60 2.39
5.48 -5.49 2.39
5.59 -5.38 2.39
5.65 -5.22 2.37
5.65 -5.02 2.33
5.66 -4.83 2.29
5.67 -4.64 2.25
5.68 -4.46 2.22
5.69 -4.28 2.19
5.69 -4.11 2.16
5.70 -3.95 2.13
5.71 -3.78 2.10
5.71 -3.62 2.07
5.72 -3.47 2.05
5.73 -3.32 2.03
5.73 -3.17 2.01
5.74 -3.02 1.99
5.75 -2.88 1.97
5.75 -2.74 1.95
5.76 -2.60 1.93
5.76 -2.47 1.92
5.77 -2.34 1.90
5.77 -2.20 1.89
5.78 -2.07 1.87
5.79 -1.95 1.86
5.79 -1.82 1.85
5.80 -1.69 1.84
5.80 -1.57 1.83
5.81 -1.45 1.82
5.81 -1.33 1.81
5.82 -1.20 1.81
5.82 -1.08 1.80
5.83 -0.96 1.80
5.83 -0.85 1.79
5.84 -0.73 1.79
5.84 -0.61 1.78
5.85 -0.49 1.78
5.85 -0.37 1.78
5.86 -0.26 1.78
5.86 -0.14 1.78
5.87 -0.02 1.78
5.87 0.10 1.78
5.88 0.21 1.78
5.88 0.33 1.78
5.89 0.45 1.79
5.89 0.57 1.79
5.90 0.69 1.80
5.90 0.81 1.80
5.91 0.93 1.81
5.91 1.06 1.82
5.90 1.18 1.82
5.91 1.30 1.83
5.91 1.43 1.84
5.92 1.56 1.85
5.93 1.69 1.86
5.93 1.82 1.87
5.94 1.95 1.89
5.95 2.08 1.90
5.95 2.22 1.92
5.96 2.36 1.93
5.97 2.50 1.95
5.98 2.65 1.97
3.94 1.84 1.31
4.06 2.00 1.36
3.94 2.04 1.34
3.87 2.10 1.33
3.82 2.17 1.32
3.79 2.26 1.33
3.78 2.36 1.34
3.82 2.49 1.37
6.07 4.13 2.21
6.08 4.32 2.24
6.09 4.51 2.28
6.10 4.71 2.32
6.11 4.92 2.36
6.08 5.10 2.39
5.98 5.22 2.39
5.88 5.34 2.39
5.77 5.46 2.39
2.44 2.40 1.03
2.39 2.45 1.03
5.43 5.80 2.39
5.31 5.90 2.39
5.19 6.01 2.39
5.07 6.11 2.39
4.95 6.21 2.39
4.82 6.31 2.39
4.70 6.41 2.39
4.57 6.50 2.39
4.43 6.59 2.39
4.30 6.68 2.39
4.17 6.76 2.39
4.03 6.84 2.39
3.89 6.92 2.39
3.75 7.00 2.39
3.61 7.07 2.39
3.47 7.14 2.39
3.32 7.21 2.39
3.18 7.27 2.39
3.03 7.33 2.39
2.88 7.39 2.39
2.73 7.45 2.39
2.58 7.50 2.39
2.43 7.55 2.39
2.34 7.78 2.45
2.22 7.96 2.49
2.06 8.01 2.49
1.90 8.04 2.49
1.74 8.08 2.49
1.57 8.11 2.49
1.41 8.14 2.49
1.25 8.16 2.49
1.08 8.18 2.49
0.92 8.20 2.49
0.75 8.22 2.49
0.59 8.23 2.49
0.42 8.24 2.49
0.26 8.24 2.49
0.09 8.24 2.49
-0.07 8.24 2.49
-0.24 8.23 2.49
-0.40 8.23 2.49
-0.57 8.21 2.49
-0.73 8.20 2.49
-0.90 8.18 2.49
-1.06 8.16 2.49
-1.22 8.13 2.49
-1.38 8.10 2.49
-1.55 8.07 2.49
-1.71 8.03 2.49
-1.87 8.00 2.49
-2.03 7.95 2.49
-2.18 7.91 2.49
-2.34 7.86 2.49
-2.50 7.81 2.49
-2.65 7.75 2.49
-2.81 7.70 2.49
-2.96 7.64 2.49
-3.11 7.57 2.49
-3.26 7.51 2.49
-3.41 7.44 2.49
-3.56 7.36 2.49
-3.70 7.29 2.49
-3.85 7.21 2.49
-3.99 7.13 2.49
-4.13 7.04 2.49
-4.27 6.96 2.49
-4.40 6.87 2.49
-4.54 6.77 2.49
-4.67 6.68 2.49
-4.80 6.58 2.49
-4.93 6.48 2.49
-5.06 6.38 2.49
-5.18 6.27 2.49
-5.31 6.16 2.49
-5.43 6.05 2.49
-5.54 5.94 2.49
-5.66 5.82 2.49
-5.77 5.71 2.49
-5.81 5.52 2.46
-5.83 5.31 2.42
-5.85 5.12 2.39
-5.94 5.00 2.39
-6.04 4.88 2.39
-6.14 4.75 2.39
-6.23 4.63 2.39
-6.32 4.50 2.39
-6.40 4.37 2.39
-6.49 4.24 2.39
-6.57 4.11 2.39
-6.64 3.97 2.39
-6.72 3.84 2.39
-6.79 3.70 2.39
-6.86 3.56 2.39
-6.93 3.42 2.39
-6.99 3.28 2.39
-7.06 3.14 2.39
-7.11 2.99 2.39
-7.17 2.85 2.39
-7.22 2.70 2.39
-7.27 2.56 2.39
-7.32 2.41 2.39
-7.36 2.26 2.39
-7.41 2.11 2.39
-7.44 1.96 2.39
-7.48 1.81 2.39
-7.51 1.66 2.39
-7.54 1.51 2.39
-7.57 1.36 2.39
-7.59 1.20 2.39
-7.61 1.05 2.39
-7.62 0.90 2.39
-7.64 0.74 2.39
-7.65 0.59 2.39
-7.66 0.43 2.39
-7.66 0.28 2.39
-7.66 0.13 2.39
-7.66 -0.03 2.39
-7.66 -0.18 2.39
-7.65 -0.34 2.39
-7.64 -0.49 2.39
-7.63 -0.64 2.39
-7.61 -0.79 2.39
-7.59 -0.95 2.39
-7.57 -1.10 2.39
-7.54 -1.25 2.39
-7.51 -1.40 2.39
-7.48 -1.55 2.39
-7.45 -1.70 2.39
-7.41 -1.85 2.39
-7.37 -2.00 2.39
-7.32 -2.15 2.39
-7.28 -2.29 2.39
-7.23 -2.44 2.39
-7.18 -2.58 2.39
-7.12 -2.72 2.39
-7.06 -2.87 2.39
-7.00 -3.01 2.39
-6.94 -3.15 2.39
-6.87 -3.29 2.39
-6.81 -3.42 2.39
-6.73 -3.56 2.39
-6.66 -3.69 2.39
-6.58 -3.83 2.39
-6.50 -3.96 2.39
-6.42 -4.09 2.39
-6.34 -4.21 2.39
-6.25 -4.34 2.39
-6.24 -4.52 2.42
-6.25 -4.72 2.46
-6.24 -4.91 2.49
-6.13 -5.03 2.49
-6.03 -5.16 2.49
-5.93 -5.28 2.49
-5.82 -5.39 2.49
-5.71 -5.51 2.49
-5.60 -5.62 2.49
-5.48 -5.73 2.49
-5.37 -5.84 2.49
-5.25 -5.95 2.49
-5.13 -6.05 2.49
-5.00 -6.16 2.49
-4.88 -6.26 2.49
-4.75 -6.35 2.49
-4.62 -6.45 2.49
-4.49 -6.54 2.49
-4.36 -6.63 2.49
-4.23 -6.72 2.49
-4.09 -6.80 2.49
-3.95 -6.88 2.49
-3.82 -6.96 2.49
-3.68 -7.04 2.49
-3.53 -7.11 2.49
-3.39 -7.18 2.49
-3.25 -7.25 2.49
-3.10 -7.31 2.49
-2.95 -7.37 2.49
-2.80 -7.43 2.49
-2.65 -7.49 2.49
-2.50 -7.54 2.49
-2.35 -7.59 2.49
-2.20 -7.64 2.49
-2.05 -7.68 2.49
-1.89 -7.72 2.49
-1.74 -7.76 2.49
-1.58 -7.80 2.49
-1.42 -7.83 2.49
-1.26 -7.86 2.49
-1.11 -7.88 2.49
-0.95 -7.91 2.49
-0.79 -7.93 2.49
-0.63 -7.94 2.49
-0.47 -7.96 2.49
-0.31 -7.97 2.49
-0.15 -7.97 2.49
0.01 -7.39 2.49
0.16 -7.39 2.49
0.31 -7.38 2.49
0.46 -7.38 2.49
0.60 -7.37 2.49
0.75 -7.36 2.49
0.90 -7.34 2.49
1.05 -7.33 2.49
1.20 -7.31 2.49
1.34 -7.28 2.49
1.49 -7.26 2.49
1.64 -7.23 2.49
1.72 -6.95 2.41
1.85 -6.87 2.39
1.98 -6.83 2.39
2.12 -6.79 2.39
2.26 -6.75 2.39
2.39 -6.70 2.39
2.53 -6.66 2.39
2.66 -6.61 2.39
2.80 -6.55 2.39
2.93 -6.50 2.39
3.06 -6.44 2.39
3.19 -6.38 2.39
3.32 -6.32 2.39
3.45 -6.25 2.39
3.57 -6.18 2.39
3.70 -6.11 2.39
3.82 -6.04 2.39
3.94 -5.97 2.39
4.06 -5.89 2.39
4.18 -5.81 2.39
4.30 -5.72 2.39
4.42 -5.64 2.39
4.53 -5.55 2.39
4.64 -5.46 2.39
4.75 -5.37 2.39
4.86 -5.27 2.39
4.97 -5.18 2.39
5.07 -5.08 2.39
5.18 -4.98 2.39
5.28 -4.88 2.39
5.38 -4.77 2.39
5.47 -4.66 2.39
5.57 -4.55 2.39
5.66 -4.44 2.39
5.69 -4.28 2.36
5.69 -4.11 2.33
5.70 -3.94 2.30
5.71 -3.78 2.27
5.71 -3.62 2.24
5.72 -3.47 2.22
5.73 -3.32 2.19
5.73 -3.17 2.17
5.74 -3.02 2.15
5.75 -2.88 2.13
5.75 -2.74 2.11
5.76 -2.60 2.09
5.76 -2.47 2.07
5.77 -2.33 2.06
5.77 -2.20 2.04
5.78 -2.07 2.03
5.79 -1.95 2.01
5.79 -1.82 2.00
5.80 -1.69 1.99
5.80 -1.57 1.98
5.81 -1.45 1.97
5.81 -1.32 1.96
5.82 -1.20 1.95
5.82 -1.08 1.95
5.83 -0.96 1.94
5.83 -0.84 1.94
5.84 -0.73 1.93
5.84 -0.61 1.93
5.85 -0.49 1.93
5.85 -0.37 1.93
5.86 -0.26 1.92
5.86 -0.14 1.92
5.87 -0.02 1.92
5.87 0.10 1.93
5.88 0.22 1.93
5.88 0.33 1.93
5.89 0.45 1.93
5.89 0.57 1.94
5.90 0.69 1.94
5.90 0.81 1.95
5.91 0.93 1.96
5.91 1.06 1.97
5.90 1.18 1.97
5.91 1.30 1.98
5.91 1.43 1.99
5.92 1.56 2.00
5.93 1.69 2.01
5.93 1.82 2.03
5.94 1.95 2.04
5.95 2.09 2.06
5.95 2.22 2.08
5.96 2.36 2.09
5.97 2.51 2.11
5.98 2.65 2.13
5.98 2.80 2.16
4.05 2.00 1.47
3.94 2.04 1.45
3.86 2.10 1.43
3.81 2.17 1.43
3.79 2.26 1.44
3.78 2.36 1.45
3.82 2.49 1.49
6.06 4.13 2.39
5.98 4.25 2.39
5.89 4.37 2.39
5.81 4.49 2.39
5.71 4.60 2.39
5.62 4.72 2.39
5.53 4.83 2.39
5.43 4.94 2.39
5.33 5.05 2.39
2.44 2.40 1.11
2.39 2.45 1.11
5.02 5.36 2.39
4.91 5.46 2.39
4.80 5.55 2.39
4.69 5.65 2.39
4.57 5.74 2.39
4.46 5.83 2.39
4.34 5.92 2.39
4.22 6.00 2.39
4.10 6.09 2.39
3.97 6.17 2.39
3.85 6.25 2.39
3.72 6.32 2.39
3.60 6.39 2.39
3.47 6.46 2.39
3.34 6.53 2.39
3.20 6.60 2.39
3.07 6.66 2.39
2.94 6.72 2.39
2.80 6.78 2.39
2.66 6.83 2.39
2.53 6.88 2.39
2.39 6.93 2.39
2.31 7.16 2.46
2.20 7.32 2.49
2.05 7.36 2.49
1.90 7.40 2.49
1.75 7.43 2.49
1.61 7.47 2.49
1.45 7.50 2.49
1.30 7.52 2.49
1.15 7.54 2.49
1.00 7.56 2.49
0.85 7.58 2.49
0.70 7.59 2.49
0.54 7.61 2.49
0.39 7.61 2.49
0.24 7.62 2.49
0.09 7.62 2.49
-0.07 7.62 2.49
-0.22 7.61 2.49
-0.37 7.60 2.49
-0.52 7.59 2.49
-0.68 7.58 2.49
-0.83 7.56 2.49
-0.98 7.54 2.49
-1.13 7.52 2.49
-1.28 7.49 2.49
-1.43 7.46 2.49
-1.58 7.43 2.49
-1.72 7.39 2.49
-1.87 7.35 2.49
-2.02 7.31 2.49
-2.16 7.27 2.49
-2.31 7.22 2.49
-2.45 7.17 2.49
-2.59 7.12 2.49
-2.74 7.06 2.49
-2.88 7.00 2.49
-3.01 6.94 2.49
-3.15 6.88 2.49
-3.29 6.81 2.49
-3.42 6.74 2.49
-3.56 6.67 2.49
-3.69 6.59 2.49
-3.82 6.51 2.49
-3.95 6.43 2.49
-4.07 6.35 2.49
-4.20 6.27 2.49
-4.32 6.18 2.49
-4.44 6.09 2.49
-4.56 5.99 2.49
-4.68 5.90 2.49
-4.79 5.80 2.49
-4.91 5.70 2.49
-5.02 5.60 2.49
-5.13 5.50 2.49
-5.24 5.39 2.49
-5.34 5.28 2.49
-5.44 5.17 2.49
-5.54 5.06 2.49
-5.64 4.94 2.49
-5.74 4.83 2.49
-5.83 4.71 2.49
-5.85 4.54 2.47
-5.86 4.36 2.43
-5.88 4.19 2.40
-5.92 4.05 2.39
-6.00 3.92 2.39
-6.08 3.80 2.39
-6.15 3.68 2.39
-6.22 3.55 2.39
-6.29 3.43 2.39
-6.35 3.30 2.39
-6.41 3.17 2.39
-6.47 3.04 2.39
-6.53 2.90 2.39
-6.59 2.77 2.39
-6.64 2.64 2.39
-6.69 2.50 2.39
-6.73 2.37 2.39
-6.78 2.23 2.39
-6.82 2.09 2.39
-6.86 1.96 2.39
-6.89 1.82 2.39
-6.92 1.68 2.39
-6.95 1.54 2.39
-6.98 1.40 2.39
-7.00 1.26 2.39
-7.03 1.11 2.39
-7.04 0.97 2.39
-7.06 0.83 2.39
-7.07 0.69 2.39
-7.08 0.55 2.39
-7.09 0.40 2.39
-7.10 0.26 2.39
-7.10 0.12 2.39
-7.10 -0.02 2.39
-7.09 -0.17 2.39
-7.08 -0.31 2.39
-7.07 -0.45 2.39
-7.06 -0.59 2.39
-7.05 -0.74 2.39
-7.03 -0.88 2.39
-7.01 -1.02 2.39
-6.98 -1.16 2.39
-6.96 -1.30 2.39
-6.93 -1.44 2.39
-6.90 -1.58 2.39
-6.86 -1.71 2.39
-6.82 -1.85 2.39
-6.78 -1.99 2.39
-6.74 -2.12 2.39
-6.70 -2.26 2.39
-6.65 -2.39 2.39
-6.60 -2.52 2.39
-6.54 -2.66 2.39
-6.49 -2.79 2.39
-6.43 -2.92 2.39
-6.37 -3.04 2.39
-6.31 -3.17 2.39
-6.24 -3.30 2.39
-6.20 -3.44 2.40
-6.20 -3.60 2.43
-6.21 -3.78 2.46
-6.21 -3.95 2.49
-6.13 -4.07 2.49
-6.04 -4.19 2.49
-5.96 -4.31 2.49
-5.87 -4.43 2.49
-5.78 -4.55 2.49
-5.68 -4.66 2.49
-5.59 -4.78 2.49
-5.49 -4.89 2.49
-5.39 -5.00 2.49
-5.29 -5.11 2.49
-5.19 -5.21 2.49
-5.08 -5.31 2.49
-4.97 -5.41 2.49
-4.86 -5.51 2.49
-4.75 -5.61 2.49
-4.64 -5.70 2.49
-4.52 -5.80 2.49
-4.40 -5.89 2.49
-4.28 -5.97 2.49
-4.16 -6.06 2.49
-4.04 -6.14 2.49
-3.92 -6.22 2.49
-3.79 -6.30 2.49
-3.66 -6.38 2.49
-3.54 -6.45 2.49
-3.40 -6.52 2.49
-3.27 -6.59 2.49
-3.14 -6.65 2.49
-3.01 -6.71 2.49
-2.87 -6.77 2.49
-2.73 -6.83 2.49
-2.60 -6.89 2.49
-2.46 -6.94 2.49
-2.32 -6.99 2.49
-2.18 -7.03 2.49
-2.04 -7.08 2.49
-1.89 -7.12 2.49
-1.75 -7.16 2.49
-1.61 -7.19 2.49
-1.46 -7.22 2.49
-1.32 -7.25 2.49
-1.17 -7.28 2.49
-1.02 -7.30 2.49
-0.88 -7.32 2.49
-0.73 -7.34 2.49
-0.58 -7.36 2.49
-0.44 -7.37 2.49
-0.29 -7.38 2.49
-0.14 -7.38 2.49
0.01 -6.87 2.49
0.15 -6.87 2.49
0.29 -6.87 2.49
0.42 -6.86 2.49
0.56 -6.86 2.49
0.70 -6.85 2.49
0.84 -6.83 2.49
0.98 -6.82 2.49
1.11 -6.80 2.49
1.25 -6.78 2.49
1.39 -6.75 2.49
1.52 -6.72 2.49
1.66 -6.69 2.49
1.74 -6.46 2.42
1.85 -6.35 2.39
1.97 -6.32 2.39
2.10 -6.28 2.39
2.23 -6.23 2.39
2.35 -6.19 2.39
2.48 -6.14 2.39
2.60 -6.10 2.39
2.72 -6.04 2.39
2.85 -5.99 2.39
2.97 -5.93 2.39
3.09 -5.88 2.39
3.21 -5.81 2.39
3.32 -5.75 2.39
3.44 -5.68 2.39
3.55 -5.62 2.39
3.67 -5.55 2.39
3.78 -5.47 2.39
3.89 -5.40 2.39
4.00 -5.32 2.39
4.11 -5.24 2.39
4.21 -5.16 2.39
4.32 -5.08 2.39
4.42 -4.99 2.39
4.52 -4.90 2.39
4.62 -4.81 2.39
4.72 -4.72 2.39
4.81 -4.63 2.39
4.91 -4.53 2.39
5.00 -4.43 2.39
5.09 -4.33 2.39
5.18 -4.23 2.39
5.26 -4.13 2.39
5.35 -4.02 2.39
5.43 -3.92 2.39
5.51 -3.81 2.39
5.59 -3.70 2.39
5.66 -3.59 2.39
5.73 -3.48 2.39
5.73 -3.32 2.36
5.73 -3.17 2.33
5.74 -3.02 2.31
5.75 -2.88 2.29
5.75 -2.74 2.27
5.76 -2.60 2.25
5.76 -2.47 2.23
5.77 -2.33 2.21
5.77 -2.20 2.20
5.78 -2.07 2.18
5.79 -1.94 2.17
5.79 -1.82 2.15
5.80 -1.69 2.14
5.80 -1.57 2.13
5.81 -1.45 2.12
5.81 -1.32 2.11
5.82 -1.20 2.10
5.82 -1.08 2.10
5.83 -0.96 2.09
5.83 -0.84 2.09
5.84 -0.73 2.08
5.84 -0.61 2.08
5.85 -0.49 2.07
5.85 -0.37 2.07
5.86 -0.25 2.07
5.86 -0.14 2.07
5.87 -0.02 2.07
5.87 0.10 2.07
5.88 0.22 2.08
5.88 0.33 2.08
5.89 0.45 2.08
5.89 0.57 2.09
5.90 0.69 2.09
5.90 0.81 2.10
5.91 0.93 2.11
5.91 1.06 2.12
5.90 1.18 2.12
5.91 1.30 2.13
5.91 1.43 2.14
5.92 1.56 2.15
5.93 1.69 2.17
5.93 1.82 2.18
5.94 1.95 2.20
5.95 2.09 2.22
5.95 2.22 2.23
5.96 2.36 2.25
5.97 2.51 2.28
5.98 2.65 2.30
5.98 2.80 2.32
4.05 2.00 1.59
3.94 2.04 1.56
3.87 2.10 1.55
3.79 2.16 1.53
3.79 2.26 1.55
3.78 2.36 1.57
3.82 2.49 1.60
5.63 3.83 2.39
5.55 3.94 2.39
5.47 4.06 2.39
5.39 4.16 2.39
5.31 4.27 2.39
5.22 4.38 2.39
5.13 4.48 2.39
5.04 4.58 2.39
4.95 4.68 2.39
2.44 2.40 1.20
2.39 2.45 1.20
4.66 4.97 2.39
4.56 5.07 2.39
4.46 5.16 2.39
4.35 5.24 2.39
4.25 5.33 2.39
4.14 5.41 2.39
4.03 5.50 2.39
3.92 5.58 2.39
3.80 5.65 2.39
3.69 5.73 2.39
3.57 5.80 2.39
3.46 5.87 2.39
3.34 5.94 2.39
3.22 6.00 2.39
3.10 6.06 2.39
2.98 6.13 2.39
2.85 6.18 2.39
2.73 6.24 2.39
2.60 6.29 2.39
2.49 6.37 2.40
2.35 6.39 2.39
2.29 6.63 2.47
2.18 6.75 2.49
2.04 6.80 2.49
1.91 6.83 2.49
1.77 6.87 2.49
1.63 6.90 2.49
1.49 6.93 2.49
1.35 6.96 2.49
1.21 6.98 2.49
1.07 7.01 2.49
0.93 7.02 2.49
0.79 7.04 2.49
0.65 7.05 2.49
0.51 7.06 2.49
0.36 7.07 2.49
0.22 7.07 2.49
0.08 7.08 2.49
-0.06 7.07 2.49
-0.20 7.07 2.49
-0.34 7.06 2.49
-0.49 7.05 2.49
-0.63 7.04 2.49
-0.77 7.02 2.49
-0.91 7.00 2.49
-1.05 6.98 2.49
-1.19 6.96 2.49
-1.33 6.93 2.49
-1.46 6.90 2.49
-1.60 6.87 2.49
-1.74 6.83 2.49
-1.87 6.79 2.49
-2.01 6.75 2.49
-2.14 6.71 2.49
-2.28 6.66 2.49
-2.41 6.61 2.49
-2.54 6.56 2.49
-2.67 6.51 2.49
-2.80 6.45 2.49
-2.93 6.39 2.49
-3.05 6.33 2.49
-3.18 6.26 2.49
-3.30 6.20 2.49
-3.42 6.13 2.49
-3.55 6.05 2.49
-3.67 5.98 2.49
-3.78 5.90 2.49
-3.90 5.82 2.49
-4.01 5.74 2.49
-4.13 5.66 2.49
-4.24 5.57 2.49
-4.35 5.48 2.49
-4.45 5.39 2.49
-4.56 5.30 2.49
-4.66 5.21 2.49
-4.77 5.11 2.49
-4.86 5.01 2.49
-4.96 4.91 2.49
-5.06 4.81 2.49
-5.15 4.70 2.49
-5.24 4.60 2.49
-5.33 4.49 2.49
-5.42 4.38 2.49
-5.50 4.27 2.49
-5.59 4.16 2.49
-5.67 4.04 2.49
-5.74 3.92 2.49
-5.82 3.81 2.49
-5.89 3.69 2.49
-5.90 3.53 2.47
-5.90 3.37 2.44
-5.92 3.22 2.42
-5.93 3.08 2.40
-5.96 2.95 2.39
-6.02 2.82 2.39
-6.07 2.70 2.39
-6.13 2.58 2.39
-6.17 2.45 2.39
-6.22 2.33 2.39
-6.26 2.20 2.39
-6.30 2.08 2.39
-6.34 1.95 2.39
-6.38 1.82 2.39
-6.41 1.69 2.39
-6.44 1.56 2.39
-6.47 1.43 2.39
-6.49 1.30 2.39
-6.51 1.17 2.39
-6.53 1.04 2.39
-6.55 0.91 2.39
-6.57 0.77 2.39
-6.58 0.64 2.39
-6.59 0.51 2.39
-6.60 0.38 2.39
-6.60 0.24 2.39
-6.60 0.11 2.39
-6.60 -0.02 2.39
-6.60 -0.15 2.39
-6.59 -0.29 2.39
-6.58 -0.42 2.39
-6.57 -0.55 2.39
-6.56 -0.68 2.39
-6.54 -0.81 2.39
-6.52 -0.95 2.39
-6.50 -1.08 2.39
-6.47 -1.21 2.39
-6.45 -1.34 2.39
-6.42 -1.47 2.39
-6.38 -1.59 2.39
-6.35 -1.72 2.39
-6.32 -1.85 2.39
-6.27 -1.97 2.39
-6.23 -2.10 2.39
-6.19 -2.22 2.39
-6.16 -2.36 2.40
-6.16 -2.50 2.42
-6.16 -2.64 2.44
-6.17 -2.80 2.46
-6.17 -2.95 2.49
-6.12 -3.08 2.49
-6.06 -3.20 2.49
-5.99 -3.32 2.49
-5.92 -3.44 2.49
-5.85 -3.56 2.49
-5.78 -3.67 2.49
-5.70 -3.79 2.49
-5.62 -3.90 2.49
-5.54 -4.01 2.49
-5.46 -4.12 2.49
-5.38 -4.23 2.49
-5.29 -4.34 2.49
-5.20 -4.45 2.49
-5.11 -4.55 2.49
-5.02 -4.65 2.49
-4.92 -4.75 2.49
-4.83 -4.85 2.49
-4.73 -4.94 2.49
-4.63 -5.04 2.49
-4.52 -5.13 2.49
-4.42 -5.22 2.49
-4.31 -5.31 2.49
-4.21 -5.39 2.49
-4.10 -5.48 2.49
-3.99 -5.56 2.49
-3.87 -5.64 2.49
-3.76 -5.72 2.49
-3.64 -5.79 2.49
-3.53 -5.86 2.49
-3.41 -5.93 2.49
-3.29 -6.00 2.49
-3.17 -6.07 2.49
-3.05 -6.13 2.49
-2.92 -6.19 2.49
-2.80 -6.25 2.49
-2.67 -6.30 2.49
-2.54 -6.36 2.49
-2.42 -6.41 2.49
-2.29 -6.46 2.49
-2.16 -6.50 2.49
-2.03 -6.54 2.49
-1.89 -6.59 2.49
-1.76 -6.62 2.49
-1.63 -6.66 2.49
-1.49 -6.69 2.49
-1.36 -6.72 2.49
-1.22 -6.75 2.49
-1.09 -6.77 2.49
-0.95 -6.79 2.49
-0.82 -6.81 2.49
-0.68 -6.83 2.49
-0.54 -6.84 2.49
-0.40 -6.86 2.49
-0.27 -6.86 2.49
-0.13 -6.87 2.49
0.01 -6.42 2.49
0.14 -6.42 2.49
0.27 -6.42 2.49
0.40 -6.41 2.49
0.53 -6.40 2.49
0.65 -6.39 2.49
0.78 -6.38 2.49
0.91 -6.36 2.49
1.04 -6.35 2.49
1.17 -6.33 2.49
1.29 -6.30 2.49
1.42 -6.28 2.49
1.55 -6.25 2.49
1.67 -6.22 2.49
1.75 -6.02 2.43
1.84 -5.90 2.39
1.97 -5.87 2.40
2.08 -5.82 2.39
2.20 -5.78 2.39
2.31 -5.74 2.39
2.43 -5.69 2.39
2.54 -5.64 2.39
2.66 -5.59 2.39
2.77 -5.54 2.39
2.88 -5.48 2.39
2.99 -5.43 2.39
3.10 -5.37 2.39
3.21 -5.31 2.39
3.32 -5.24 2.39
3.42 -5.18 2.39
3.53 -5.11 2.39
3.63 -5.04 2.39
3.73 -4.97 2.39
3.83 -4.89 2.39
3.93 -4.82 2.39
4.03 -4.74 2.39
4.13 -4.66 2.39
4.22 -4.58 2.39
4.31 -4.49 2.39
4.40 -4.41 2.39
4.49 -4.32 2.39
4.58 -4.23 2.39
4.67 -4.14 2.39
4.75 -4.04 2.39
4.83 -3.95 2.39
4.91 -3.85 2.39
4.99 -3.75 2.39
5.07 -3.66 2.39
5.14 -3.55 2.39
5.21 -3.45 2.39
5.28 -3.35 2.39
5.35 -3.24 2.39
5.42 -3.13 2.39
5.48 -3.03 2.39
5.54 -2.92 2.39
5.60 -2.81 2.39
5.66 -2.69 2.39
5.71 -2.58 2.39
5.77 -2.47 2.39
5.77 -2.33 2.37
5.77 -2.20 2.35
5.78 -2.07 2.34
5.79 -1.94 2.32
5.79 -1.82 2.31
5.80 -1.69 2.30
5.80 -1.57 2.28
5.81 -1.44 2.27
5.81 -1.32 2.26
5.82 -1.20 2.26
5.82 -1.08 2.25
5.83 -0.96 2.24
5.83 -0.84 2.24
5.84 -0.72 2.23
5.84 -0.61 2.23
5.85 -0.49 2.22
5.85 -0.37 2.22
5.86 -0.25 2.22
5.86 -0.14 2.22
5.87 -0.02 2.22
5.87 0.10 2.22
5.88 0.22 2.23
5.88 0.33 2.23
5.89 0.45 2.23
5.89 0.57 2.24
5.90 0.69 2.25
5.90 0.81 2.25
5.91 0.94 2.26
5.91 1.06 2.27
5.90 1.18 2.27
5.91 1.30 2.28
5.91 1.43 2.30
5.92 1.56 2.31
5.93 1.69 2.33
5.93 1.82 2.34
5.94 1.95 2.36
5.98 2.10 2.39
5.94 2.22 2.39
5.89 2.34 2.39
5.85 2.45 2.39
5.80 2.57 2.39
5.74 2.69 2.39
4.05 2.00 1.70
3.94 2.04 1.67
3.87 2.10 1.66
3.82 2.17 1.66
3.79 2.26 1.66
3.78 2.36 1.68
3.82 2.49 1.72
5.25 3.57 2.39
5.18 3.68 2.39
5.10 3.78 2.39
5.02 3.88 2.39
4.95 3.98 2.39
4.87 4.08 2.39
4.78 4.18 2.39
4.70 4.27 2.39
4.61 4.37 2.39
2.44 2.40 1.29
2.39 2.45 1.29
4.34 4.64 2.39
4.25 4.72 2.39
4.15 4.81 2.39
4.06 4.89 2.39
3.96 4.97 2.39
3.86 5.05 2.39
3.76 5.12 2.39
3.65 5.20 2.39
3.55 5.27 2.39
3.44 5.34 2.39
3.33 5.41 2.39
3.22 5.47 2.39
3.11 5.53 2.39
3.00 5.60 2.39
2.89 5.65 2.39
2.77 5.71 2.39
2.66 5.76 2.39
2.54 5.82 2.39
2.43 5.86 2.39
2.31 5.91 2.39
2.27 6.17 2.48
2.16 6.26 2.49
2.03 6.30 2.49
1.90 6.34 2.49
1.78 6.37 2.49
1.65 6.41 2.49
1.52 6.44 2.49
1.39 6.46 2.49
1.26 6.49 2.49
1.13 6.51 2.49
1.00 6.53 2.49
0.87 6.55 2.49
0.74 6.56 2.49
0.60 6.58 2.49
0.47 6.59 2.49
0.34 6.59 2.49
0.21 6.60 2.49
0.08 6.60 2.49
-0.06 6.60 2.49
-0.19 6.59 2.49
-0.32 6.59 2.49
-0.45 6.58 2.49
-0.58 6.56 2.49
-0.71 6.55 2.49
-0.85 6.53 2.49
-0.98 6.51 2.49
-1.11 6.49 2.49
-1.24 6.46 2.49
-1.36 6.44 2.49
-1.49 6.40 2.49
-1.62 6.37 2.49
-1.75 6.34 2.49
-1.87 6.30 2.49
-2.00 6.26 2.49
-2.12 6.21 2.49
-2.25 6.17 2.49
-2.37 6.12 2.49
-2.49 6.07 2.49
-2.61 6.02 2.49
-2.73 5.96 2.49
-2.85 5.90 2.49
-2.96 5.84 2.49
-3.08 5.78 2.49
-3.19 5.71 2.49
-3.31 5.65 2.49
-3.42 5.58 2.49
-3.53 5.51 2.49
-3.64 5.43 2.49
-3.74 5.36 2.49
-3.85 5.28 2.49
-3.95 5.20 2.49
-4.05 5.12 2.49
-4.16 5.03 2.49
-4.25 4.95 2.49
-4.35 4.86 2.49
-4.45 4.77 2.49
-4.54 4.68 2.49
-4.63 4.58 2.49
-4.72 4.49 2.49
-4.81 4.39 2.49
-4.89 4.29 2.49
-4.98 4.19 2.49
-5.06 4.09 2.49
-5.14 3.98 2.49
-5.21 3.88 2.49
-5.29 3.77 2.49
-5.36 3.66 2.49
-5.43 3.55 2.49
-5.50 3.44 2.49
-5.57 3.33 2.49
-5.63 3.22 2.49
-5.69 3.10 2.49
-5.75 2.99 2.49
-5.81 2.87 2.49
-5.86 2.75 2.49
-5.91 2.63 2.49
-5.94 2.50 2.48
-5.95 2.37 2.47
-5.95 2.23 2.45
-5.96 2.10 2.44
-5.97 1.97 2.42
-5.98 1.84 2.41
-5.98 1.71 2.40
-5.99 1.58 2.39
-6.01 1.46 2.39
-6.04 1.34 2.39
-6.06 1.21 2.39
-6.08 1.09 2.39
-6.10 0.97 2.39
-6.12 0.85 2.39
-6.13 0.72 2.39
-6.14 0.60 2.39
-6.15 0.48 2.39
-6.16 0.35 2.39
-6.16 0.23 2.39
-6.16 0.10 2.39
-6.16 -0.02 2.39
-6.16 -0.14 2.39
-6.15 -0.27 2.39
-6.15 -0.39 2.39
-6.14 -0.51 2.39
-6.12 -0.64 2.39
-6.11 -0.76 2.39
-6.10 -0.88 2.39
-6.10 -1.01 2.40
-6.10 -1.14 2.41
-6.11 -1.27 2.42
-6.11 -1.39 2.44
-6.11 -1.53 2.45
-6.12 -1.66 2.47
-6.12 -1.79 2.48
-6.11 -1.92 2.49
-6.07 -2.05 2.49
-6.03 -2.17 2.49
-5.98 -2.29 2.49
-5.93 -2.41 2.49
-5.88 -2.52 2.49
-5.83 -2.64 2.49
-5.77 -2.76 2.49
-5.72 -2.87 2.49
-5.66 -2.99 2.49
-5.59 -3.10 2.49
-5.53 -3.21 2.49
-5.46 -3.32 2.49
-5.40 -3.43 2.49
-5.33 -3.54 2.49
-5.25 -3.64 2.49
-5.18 -3.75 2.49
-5.10 -3.85 2.49
-5.02 -3.95 2.49
-4.94 -4.05 2.49
-4.86 -4.15 2.49
-4.77 -4.25 2.49
-4.69 -4.34 2.49
-4.60 -4.44 2.49
-4.51 -4.53 2.49
-4.42 -4.62 2.49
-4.32 -4.71 2.49
-4.23 -4.79 2.49
-4.13 -4.88 2.49
-4.03 -4.96 2.49
-3.93 -5.04 2.49
-3.83 -5.12 2.49
-3.72 -5.19 2.49
-3.62 -5.27 2.49
-3.51 -5.34 2.49
-3.40 -5.41 2.49
-3.29 -5.48 2.49
-3.18 -5.54 2.49
-3.07 -5.61 2.49
-2.96 -5.67 2.49
-2.84 -5.73 2.49
-2.73 -5.78 2.49
-2.61 -5.84 2.49
-2.49 -5.89 2.49
-2.38 -5.94 2.49
-2.26 -5.99 2.49
-2.14 -6.03 2.49
-2.01 -6.07 2.49
-1.89 -6.11 2.49
-1.77 -6.15 2.49
-1.65 -6.19 2.49
-1.52 -6.22 2.49
-1.40 -6.25 2.49
-1.27 -6.28 2.49
-1.14 -6.30 2.49
-1.02 -6.33 2.49
-0.89 -6.35 2.49
-0.76 -6.36 2.49
-0.63 -6.38 2.49
-0.51 -6.39 2.49
-0.38 -6.40 2.49
-0.25 -6.41 2.49
-0.12 -6.42 2.49
0.01 -6.01 2.49
0.13 -6.01 2.49
0.25 -6.01 2.49
0.37 -6.01 2.49
0.49 -6.00 2.49
0.61 -5.99 2.49
0.73 -5.98 2.49
0.85 -5.96 2.49
0.97 -5.95 2.49
1.09 -5.93 2.49
1.21 -5.90 2.49
1.33 -5.88 2.49
1.45 -5.85 2.49
1.57 -5.83 2.49
1.69 -5.79 2.49
1.77 -5.64 2.44
1.84 -5.49 2.39
1.95 -5.45 2.39
2.06 -5.41 2.39
2.17 -5.37 2.39
2.28 -5.33 2.39
2.38 -5.28 2.39
2.49 -5.24 2.39
2.60 -5.19 2.39
2.70 -5.14 2.39
2.80 -5.08 2.39
2.91 -5.03 2.39
3.01 -4.97 2.39
3.11 -4.91 2.39
3.21 -4.85 2.39
3.31 -4.78 2.39
3.40 -4.72 2.39
3.50 -4.65 2.39
3.59 -4.58 2.39
3.68 -4.51 2.39
3.77 -4.44 2.39
3.86 -4.36 2.39
3.95 -4.28 2.39
4.04 -4.20 2.39
4.12 -4.12 2.39
4.21 -4.04 2.39
4.29 -3.96 2.39
4.37 -3.87 2.39
4.45 -3.79 2.39
4.52 -3.70 2.39
4.60 -3.61 2.39
4.67 -3.51 2.39
4.74 -3.42 2.39
4.81 -3.33 2.39
4.88 -3.23 2.39
4.95 -3.13 2.39
5.01 -3.03 2.39
5.07 -2.93 2.39
5.13 -2.83 2.39
5.19 -2.73 2.39
5.24 -2.63 2.39
5.30 -2.52 2.39
5.35 -2.42 2.39
5.40 -2.31 2.39
5.44 -2.20 2.39
5.49 -2.09 2.39
5.53 -1.98 2.39
5.57 -1.87 2.39
5.61 -1.76 2.39
5.65 -1.65 2.39
5.68 -1.53 2.39
5.71 -1.42 2.39
5.74 -1.31 2.39
5.77 -1.19 2.39
5.79 -1.08 2.39
5.81 -0.96 2.39
5.83 -0.84 2.39
5.85 -0.73 2.39
5.87 -0.61 2.39
5.88 -0.49 2.39
5.85 -0.37 2.37
5.86 -0.25 2.37
5.86 -0.14 2.37
5.87 -0.02 2.37
5.91 0.10 2.39
5.91 0.22 2.39
5.90 0.34 2.39
5.90 0.45 2.39
5.89 0.57 2.39
5.88 0.69 2.39
5.86 0.81 2.39
5.85 0.93 2.39
5.83 1.04 2.39
5.81 1.16 2.39
5.78 1.28 2.39
5.76 1.39 2.39
5.73 1.51 2.39
5.70 1.62 2.39
5.67 1.74 2.39
5.63 1.85 2.39
5.59 1.96 2.39
5.56 2.08 2.39
5.51 2.19 2.39
5.47 2.30 2.39
5.42 2.41 2.39
5.37 2.51 2.39
4.05 2.00 1.82
3.94 2.04 1.79
3.87 2.10 1.77
3.82 2.18 1.77
3.79 2.26 1.78
3.78 2.36 1.79
3.82 2.49 1.84
4.91 3.34 2.39
4.84 3.44 2.39
4.77 3.54 2.39
4.70 3.63 2.39
4.63 3.73 2.39
4.55 3.82 2.39
4.48 3.91 2.39
4.40 4.00 2.39
4.32 4.09 2.39
2.42 2.38 1.36
2.37 2.43 1.36
4.06 4.34 2.39
3.97 4.42 2.39
3.89 4.50 2.39
3.79 4.57 2.39
3.70 4.65 2.39
3.61 4.72 2.39
3.51 4.79 2.39
3.42 4.86 2.39
3.32 4.93 2.39
3.22 4.99 2.39
3.12 5.06 2.39
3.02 5.12 2.39
2.91 5.18 2.39
2.81 5.23 2.39
2.70 5.29 2.39
2.60 5.34 2.39
2.49 5.39 2.39
2.38 5.44 2.39
2.27 5.49 2.39
2.25 5.76 2.49
2.14 5.81 2.49
2.02 5.85 2.49
1.90 5.89 2.49
1.78 5.93 2.49
1.66 5.96 2.49
1.54 5.99 2.49
1.42 6.02 2.49
1.30 6.05 2.49
1.18 6.07 2.49
1.06 6.09 2.49
0.94 6.11 2.49
0.81 6.13 2.49
0.69 6.14 2.49
0.57 6.15 2.49
0.44 6.16 2.49
0.32 6.17 2.49
0.20 6.17 2.49
0.07 6.17 2.49
-0.05 6.17 2.49
-0.18 6.17 2.49
-0.30 6.16 2.49
-0.42 6.15 2.49
-0.55 6.14 2.49
-0.67 6.13 2.49
-0.79 6.11 2.49
-0.91 6.09 2.49
-1.03 6.07 2.49
-1.16 6.05 2.49
-1.28 6.02 2.49
-1.40 5.99 2.49
-1.52 5.96 2.49
-1.63 5.93 2.49
-1.75 5.89 2.49
-1.87 5.86 2.49
-1.99 5.82 2.49
-2.10 5.77 2.49
-2.22 5.73 2.49
-2.33 5.68 2.49
-2.44 5.63 2.49
-2.55 5.58 2.49
-2.66 5.53 2.49
-2.77 5.47 2.49
-2.88 5.41 2.49
-2.99 5.35 2.49
-3.09 5.29 2.49
-3.20 5.22 2.49
-3.30 5.16 2.49
-3.40 5.09 2.49
-3.50 5.02 2.49
-3.60 4.94 2.49
-3.70 4.87 2.49
-3.80 4.79 2.49
-3.89 4.71 2.49
-3.98 4.63 2.49
-4.07 4.55 2.49
-4.16 4.46 2.49
-4.25 4.38 2.49
-4.33 4.29 2.49
-4.42 4.20 2.49
-4.50 4.11 2.49
-4.58 4.02 2.49
-4.66 3.92 2.49
-4.73 3.83 2.49
-4.81 3.73 2.49
-4.88 3.63 2.49
-4.95 3.53 2.49
-5.02 3.43 2.49
-5.09 3.33 2.49
-5.15 3.22 2.49
-5.21 3.12 2.49
-5.27 3.01 2.49
-5.33 2.91 2.49
-5.38 2.80 2.49
-5.44 2.69 2.49
-5.49 2.58 2.49
-5.54 2.47 2.49
-5.58 2.35 2.49
-5.63 2.24 2.49
-5.67 2.13 2.49
-5.71 2.01 2.49
-5.75 1.89 2.49
-5.78 1.78 2.49
-5.81 1.66 2.49
-5.85 1.54 2.49
-5.87 1.43 2.49
-5.90 1.31 2.49
-5.92 1.19 2.49
-5.94 1.07 2.49
-5.96 0.95 2.49
-5.98 0.83 2.49
-5.99 0.71 2.49
-6.00 0.59 2.49
-6.01 0.47 2.49
-6.02 0.34 2.49
-6.02 0.22 2.49
-6.02 0.10 2.49
-6.02 -0.02 2.49
-6.02 -0.14 2.49
-6.01 -0.26 2.49
-6.01 -0.38 2.49
-6.00 -0.50 2.49
-5.98 -0.62 2.49
-5.97 -0.74 2.49
-5.95 -0.86 2.49
-5.93 -0.98 2.49
-5.91 -1.10 2.49
-5.88 -1.22 2.49
-5.86 -1.34 2.49
-5.83 -1.45 2.49
-5.80 -1.57 2.49
-5.76 -1.69 2.49
-5.73 -1.80 2.49
-5.69 -1.92 2.49
-5.65 -2.03 2.49
-5.60 -2.14 2.49
-5.56 -2.25 2.49
-5.51 -2.37 2.49
-5.46 -2.48 2.49
-5.41 -2.58 2.49
-5.36 -2.69 2.49
-5.30 -2.80 2.49
-5.24 -2.91 2.49
-5.18 -3.01 2.49
-5.12 -3.11 2.49
-5.06 -3.22 2.49
-4.99 -3.32 2.49
-4.92 -3.42 2.49
-4.85 -3.51 2.49
-4.78 -3.61 2.49
-4.71 -3.71 2.49
-4.63 -3.80 2.49
-4.55 -3.89 2.49
-4.47 -3.98 2.49
-4.39 -4.07 2.49
-4.31 -4.16 2.49
-4.22 -4.24 2.49
-4.14 -4.33 2.49
-4.05 -4.41 2.49
-3.96 -4.49 2.49
-3.87 -4.57 2.49
-3.78 -4.65 2.49
-3.68 -4.72 2.49
-3.59 -4.80 2.49
-3.49 -4.87 2.49
-3.39 -4.94 2.49
-3.29 -5.00 2.49
-3.19 -5.07 2.49
-3.09 -5.13 2.49
-2.98 -5.19 2.49
-2.88 -5.25 2.49
-2.77 -5.31 2.49
-2.67 -5.37 2.49
-2.56 -5.42 2.49
-2.45 -5.47 2.49
-2.34 -5.52 2.49
-2.23 -5.56 2.49
-2.11 -5.61 2.49
-2.00 -5.65 2.49
-1.89 -5.69 2.49
-1.77 -5.73 2.49
-1.66 -5.76 2.49
-1.54 -5.80 2.49
-1.42 -5.83 2.49
-1.31 -5.86 2.49
-1.19 -5.88 2.49
-1.07 -5.91 2.49
-0.95 -5.93 2.49
-0.83 -5.95 2.49
-0.71 -5.96 2.49
-0.59 -5.98 2.49
-0.47 -5.99 2.49
-0.35 -6.00 2.49
-0.23 -6.01 2.49
-0.11 -6.01 2.49
0.01 -5.65 2.49
0.12 -5.65 2.49
0.24 -5.65 2.49
0.35 -5.64 2.49
0.46 -5.64 2.49
0.58 -5.63 2.49
0.69 -5.62 2.49
0.80 -5.60 2.49
0.92 -5.59 2.49
1.03 -5.57 2.49
1.14 -5.55 2.49
1.25 -5.52 2.49
1.36 -5.50 2.49
1.47 -5.47 2.49
1.58 -5.44 2.49
1.69 -5.41 2.49
1.78 -5.31 2.46
1.83 -5.12 2.39
1.94 -5.09 2.39
2.04 -5.05 2.39
2.14 -5.01 2.39
2.24 -4.96 2.39
2.34 -4.92 2.39
2.44 -4.87 2.39
2.54 -4.82 2.39
2.63 -4.77 2.39
2.73 -4.72 2.39
2.83 -4.67 2.39
2.92 -4.61 2.39
3.01 -4.55 2.39
3.11 -4.49 2.39
3.20 -4.43 2.39
3.29 -4.37 2.39
3.37 -4.30 2.39
3.46 -4.23 2.39
3.55 -4.17 2.39
3.63 -4.09 2.39
3.71 -4.02 2.39
3.79 -3.95 2.39
3.87 -3.87 2.39
3.95 -3.80 2.39
4.03 -3.72 2.39
4.10 -3.64 2.39
4.18 -3.55 2.39
4.25 -3.47 2.39
