ply
format ascii 1.0
element vertex 2935
property float32 x
property float32 y
property float32 z
end_header
1.07 -17.41 2.49
1.42 -17.40 2.49
1.69 -16.66 2.39
2.03 -16.64 2.39
2.37 -16.62 2.39
1.88 -11.51 1.66
3.04 -16.54 2.39
3.37 -16.49 2.39
3.71 -16.44 2.39
4.04 -16.38 2.39
4.37 -16.31 2.39
4.70 -16.23 2.39
5.03 -16.15 2.39
5.36 -16.07 2.39
5.76 -16.16 2.42
6.08 -16.05 2.42
4.91 -12.20 1.85
5.02 -11.79 1.80
5.31 -11.81 1.82
5.62 -11.86 1.84
5.64 -11.30 1.77
5.65 -10.79 1.71
5.67 -10.30 1.64
5.66 -9.83 1.59
5.65 -9.36 1.53
5.64 -8.93 1.47
5.66 -8.58 1.43
5.71 -8.29 1.40
5.79 -8.06 1.38
5.90 -7.87 1.37
6.01 -7.70 1.36
6.15 -7.55 1.35
6.30 -7.42 1.35
6.46 -7.31 1.35
6.64 -7.22 1.36
6.84 -7.15 1.37
7.08 -7.10 1.38
7.35 -7.09 1.41
7.66 -7.09 1.44
8.01 -7.12 1.48
8.38 -7.16 1.52
8.77 -7.19 1.56
9.16 -7.21 1.60
9.56 -7.22 1.64
9.99 -7.23 1.69
10.44 -7.24 1.74
10.92 -7.26 1.80
11.44 -7.27 1.85
11.99 -7.29 1.92
12.58 -7.31 1.99
13.21 -7.33 2.06
13.90 -7.35 2.14
14.65 -7.37 2.23
14.86 -7.10 2.24
15.01 -6.81 2.24
14.65 -6.30 2.17
14.79 -6.01 2.17
14.91 -5.71 2.17
15.03 -5.42 2.17
15.15 -5.12 2.17
15.26 -4.81 2.17
13.89 -4.08 1.96
13.85 -3.77 1.94
13.81 -3.46 1.93
13.80 -3.16 1.92
13.80 -2.88 1.91
13.81 -2.59 1.90
13.82 -2.30 1.89
13.88 -2.03 1.89
13.95 -1.75 1.90
15.31 -1.61 2.08
15.46 -1.32 2.09
15.52 -1.01 2.10
15.54 -0.70 2.10
15.56 -0.39 2.10
15.56 -0.07 2.10
15.57 0.24 2.10
15.57 0.55 2.10
15.56 0.86 2.10
15.54 1.17 2.10
16.61 1.59 2.25
16.57 1.92 2.25
16.54 2.26 2.25
16.49 2.59 2.25
10.06 1.79 1.37
9.75 1.93 1.34
9.67 2.12 1.33
9.63 2.31 1.33
9.58 2.51 1.33
9.79 2.77 1.37
9.73 2.97 1.37
9.67 3.16 1.37
9.61 3.36 1.37
9.54 3.55 1.37
9.46 3.74 1.37
9.13 3.82 1.33
9.05 4.00 1.33
8.99 4.19 1.34
9.04 4.44 1.36
9.16 4.73 1.39
11.48 6.22 1.76
10.98 6.24 1.70
10.51 6.25 1.65
10.06 6.26 1.60
9.65 6.28 1.55
9.25 6.29 1.51
8.88 6.30 1.47
8.53 6.31 1.43
8.19 6.32 1.40
7.87 6.33 1.37
7.57 6.34 1.34
7.28 6.35 1.31
7.00 6.35 1.28
6.73 6.36 1.25
6.47 6.37 1.23
6.29 6.44 1.22
10.75 11.46 2.13
10.56 11.72 2.14
11.03 12.75 2.29
10.84 13.06 2.31
10.65 13.36 2.32
10.45 13.66 2.34
10.24 13.96 2.36
10.03 14.26 2.38
9.81 14.56 2.39
9.56 14.82 2.41
9.25 15.00 2.41
8.94 15.17 2.41
8.63 15.33 2.41
8.31 15.49 2.41
8.00 15.64 2.41
7.67 15.79 2.41
7.35 15.93 2.41
7.02 16.06 2.41
6.69 16.18 2.41
6.19 15.85 2.34
5.85 15.93 2.34
5.66 16.40 2.39
5.32 16.50 2.39
4.98 16.59 2.39
4.65 16.67 2.39
4.31 16.74 2.39
3.97 16.81 2.39
3.63 16.87 2.39
3.28 16.92 2.39
2.94 16.97 2.39
2.65 17.36 2.44
2.35 17.78 2.49
1.99 17.80 2.49
1.63 17.82 2.49
1.27 17.84 2.49
0.91 17.84 2.49
0.55 17.84 2.49
0.20 17.83 2.49
-0.16 17.81 2.49
-0.52 17.79 2.49
-0.87 17.75 2.49
-1.23 17.71 2.49
-1.58 17.67 2.49
-1.94 17.62 2.49
-2.29 17.55 2.49
-2.64 17.49 2.49
-2.98 17.41 2.49
-3.33 17.33 2.49
-3.67 17.24 2.49
-4.01 17.15 2.49
-4.35 17.05 2.49
-4.69 16.94 2.49
-5.02 16.83 2.49
-5.35 16.71 2.49
-5.45 15.91 2.39
-5.76 15.76 2.39
-6.07 15.63 2.39
-6.37 15.49 2.39
-6.34 14.56 2.27
-6.98 15.19 2.39
-7.27 15.03 2.39
-7.57 14.87 2.39
-7.86 14.70 2.39
-8.14 14.52 2.39
-8.42 14.34 2.39
-8.70 14.16 2.39
-8.98 13.97 2.39
-9.25 13.77 2.39
-9.51 13.57 2.39
-10.68 14.60 2.61
-12.70 16.65 3.03
-13.05 16.42 3.03
-9.61 11.61 2.18
-13.69 15.87 3.04
-14.00 15.58 3.04
-9.64 10.31 2.05
-14.60 14.99 3.04
-9.67 9.54 1.98
-15.15 14.36 3.04
-15.42 14.04 3.04
-15.68 13.71 3.04
-15.93 13.37 3.03
-9.72 7.83 1.82
-16.40 12.68 3.03
-9.73 7.22 1.77
-16.90 12.01 3.03
-17.14 11.67 3.04
-17.37 11.33 3.04
-17.60 10.98 3.04
-17.83 10.63 3.05
-18.04 10.27 3.05
-18.25 9.91 3.05
-18.45 9.55 3.05
-18.64 9.18 3.06
-18.83 8.80 3.06
-19.05 8.44 3.07
-9.82 4.12 1.57
-9.83 3.89 1.56
-9.83 3.67 1.55
-9.84 3.45 1.54
-10.02 -2.51 1.54
-10.02 -2.73 1.55
-10.03 -2.95 1.56
-10.04 -3.17 1.57
-10.04 -3.40 1.58
-19.41 -8.83 3.17
-18.60 -8.91 3.07
-18.55 -9.35 3.09
-10.11 -5.35 1.70
-18.14 -10.08 3.08
-17.68 -10.29 3.04
-17.12 -10.43 2.98
-10.16 -6.48 1.79
-16.27 -10.84 2.90
-16.22 -11.28 2.93
-10.17 -7.38 1.86
-15.95 -12.07 2.97
-10.18 -8.03 1.92
-15.43 -12.68 2.96
-15.08 -12.91 2.94
-10.22 -9.11 2.03
-14.47 -13.43 2.92
-10.25 -9.90 2.11
-13.93 -14.01 2.92
-13.65 -14.30 2.92
-10.28 -11.21 2.25
-11.92 -13.53 2.66
-11.37 -13.44 2.60
-10.22 -12.59 2.39
-9.97 -12.80 2.39
-9.72 -13.01 2.39
-9.46 -13.21 2.39
-9.20 -13.40 2.39
-8.93 -13.59 2.39
-8.67 -13.78 2.39
-8.39 -13.96 2.39
-8.12 -14.14 2.39
-7.84 -14.31 2.39
-7.27 -13.92 2.30
-7.05 -14.21 2.32
-6.69 -14.17 2.29
-6.68 -14.93 2.39
-6.39 -15.08 2.39
-6.35 -15.87 2.49
-6.03 -16.01 2.49
-5.72 -16.14 2.49
-5.40 -16.26 2.49
-5.07 -16.38 2.49
-4.75 -16.49 2.49
-4.42 -16.60 2.49
-4.09 -16.70 2.49
-3.75 -16.79 2.49
-3.42 -16.88 2.49
-3.08 -16.96 2.49
-2.74 -17.04 2.49
-2.40 -17.10 2.49
-2.06 -17.16 2.49
-1.72 -17.22 2.49
-1.37 -17.27 2.49
-1.03 -17.31 2.49
-0.68 -17.34 2.49
-0.33 -17.37 2.49
0.02 -14.98 2.49
0.32 -14.99 2.49
0.62 -14.99 2.49
0.92 -14.99 2.49
1.22 -14.98 2.49
1.52 -14.97 2.49
1.75 -14.33 2.39
2.04 -14.30 2.39
1.88 -11.50 1.93
2.62 -14.23 2.39
2.90 -14.19 2.39
3.19 -14.14 2.39
3.48 -14.09 2.39
3.76 -14.03 2.39
4.05 -13.96 2.39
4.33 -13.89 2.39
4.61 -13.81 2.39
4.89 -13.73 2.39
5.17 -13.64 2.39
5.45 -13.54 2.39
5.03 -11.81 2.10
5.32 -11.82 2.12
5.62 -11.86 2.14
5.64 -11.30 2.06
5.65 -10.78 1.99
5.67 -10.30 1.92
5.66 -9.82 1.85
5.65 -9.35 1.78
5.64 -8.93 1.72
5.66 -8.58 1.67
5.71 -8.29 1.63
5.79 -8.06 1.61
5.90 -7.87 1.59
6.02 -7.69 1.58
6.15 -7.55 1.57
6.30 -7.42 1.57
6.46 -7.31 1.58
6.64 -7.22 1.58
6.84 -7.15 1.59
7.08 -7.10 1.61
7.35 -7.09 1.64
7.66 -7.09 1.68
8.01 -7.12 1.72
8.39 -7.16 1.77
8.77 -7.19 1.82
9.16 -7.21 1.87
9.56 -7.22 1.92
9.99 -7.23 1.97
10.44 -7.24 2.03
10.93 -7.26 2.10
11.44 -7.27 2.17
11.99 -7.29 2.24
12.16 -7.06 2.24
12.31 -6.82 2.24
11.95 -6.32 2.15
12.08 -6.07 2.15
12.19 -5.83 2.15
12.31 -5.58 2.15
12.41 -5.33 2.15
12.52 -5.08 2.15
12.62 -4.83 2.15
12.71 -4.58 2.14
13.01 -4.39 2.18
13.53 -4.27 2.25
13.62 -4.00 2.25
13.71 -3.73 2.25
13.80 -3.45 2.25
13.80 -3.16 2.24
13.80 -2.87 2.23
13.81 -2.59 2.22
13.82 -2.30 2.22
13.88 -2.03 2.22
13.95 -1.75 2.22
14.19 -1.50 2.25
13.67 -1.16 2.17
13.69 -0.89 2.17
13.71 -0.62 2.17
13.72 -0.34 2.17
13.73 -0.07 2.17
13.73 0.21 2.17
13.73 0.49 2.17
13.72 0.76 2.17
14.25 1.08 2.25
14.24 1.36 2.25
14.21 1.65 2.25
14.18 1.93 2.25
14.14 2.22 2.26
12.00 2.13 1.92
14.03 2.78 2.25
13.96 3.06 2.25
13.89 3.34 2.25
13.82 3.62 2.25
13.73 3.89 2.25
12.70 3.87 2.09
13.55 4.43 2.25
13.46 4.70 2.25
8.98 3.34 1.51
13.25 5.23 2.24
12.09 5.06 2.07
9.00 3.98 1.55
11.54 5.38 2.01
12.56 6.17 2.21
12.02 6.21 2.13
11.48 6.22 2.06
10.98 6.24 1.99
10.51 6.25 1.93
10.07 6.26 1.87
9.65 6.28 1.82
9.25 6.29 1.77
8.88 6.30 1.72
8.53 6.31 1.68
8.19 6.32 1.64
7.87 6.33 1.60
7.57 6.34 1.56
7.28 6.35 1.53
7.00 6.35 1.50
6.73 6.36 1.47
6.47 6.37 1.44
6.29 6.44 1.43
9.46 10.08 2.19
9.29 10.31 2.20
9.11 10.53 2.21
8.93 10.75 2.22
8.75 10.97 2.23
8.56 11.19 2.24
8.38 11.42 2.26
8.20 11.65 2.27
8.01 11.88 2.28
8.18 12.68 2.41
7.92 12.83 2.41
7.65 12.98 2.41
7.39 13.12 2.41
7.12 13.26 2.41
6.85 13.39 2.41
6.53 13.43 2.39
6.25 13.55 2.39
5.98 13.66 2.39
5.70 13.77 2.39
5.42 13.87 2.39
5.13 13.96 2.39
4.85 14.05 2.39
4.56 14.14 2.39
4.27 14.21 2.39
3.98 14.29 2.39
3.69 14.35 2.39
3.40 14.41 2.39
3.11 14.47 2.39
2.82 14.51 2.39
2.58 14.86 2.44
2.33 15.22 2.49
2.02 15.25 2.49
1.71 15.28 2.49
1.40 15.30 2.49
1.09 15.31 2.49
0.79 15.31 2.49
0.48 15.31 2.49
0.17 15.31 2.49
-0.14 15.29 2.49
-0.44 15.27 2.49
-0.75 15.25 2.49
-1.05 15.22 2.49
-1.36 15.18 2.49
-1.66 15.14 2.49
-1.96 15.09 2.49
-2.26 15.03 2.49
-2.56 14.97 2.49
-2.86 14.90 2.49
-3.15 14.83 2.49
-3.45 14.75 2.49
-3.74 14.66 2.49
-4.03 14.57 2.49
-4.32 14.48 2.49
-4.60 14.38 2.49
-4.89 14.27 2.49
-5.17 14.15 2.49
-5.45 14.04 2.49
-5.52 13.43 2.41
-5.75 13.21 2.39
-5.89 12.83 2.34
-5.94 12.29 2.27
-6.41 12.60 2.35
-6.50 12.16 2.30
-7.01 12.52 2.39
-7.26 12.36 2.39
-7.50 12.20 2.39
-7.73 12.04 2.39
-7.97 11.87 2.39
-8.20 11.70 2.39
-8.43 11.52 2.39
-8.65 11.34 2.39
-8.87 11.16 2.39
-9.08 10.97 2.39
-9.29 10.78 2.39
-9.50 10.58 2.39
-9.64 10.31 2.37
-11.33 11.65 2.74
-11.85 11.70 2.81
-12.37 11.73 2.87
-9.70 8.83 2.21
-13.12 11.47 2.94
-13.38 11.24 2.95
-13.64 11.00 2.96
-13.89 10.75 2.97
-9.73 7.22 2.05
-14.41 10.25 3.00
-9.75 6.65 2.00
-14.94 9.75 3.03
-15.14 9.45 3.03
-15.32 9.14 3.03
-15.50 8.83 3.03
-15.68 8.52 3.03
-15.84 8.20 3.04
-9.81 4.83 1.86
-16.15 7.55 3.04
-16.29 7.22 3.04
-9.84 4.13 1.82
-16.57 6.56 3.04
-9.84 3.67 1.79
-16.85 5.90 3.05
-16.98 5.57 3.05
-17.11 5.23 3.06
-17.24 4.90 3.07
-9.87 2.59 1.74
-17.47 4.21 3.08
-17.53 3.85 3.07
-17.55 3.49 3.06
-17.56 3.13 3.06
-17.56 2.76 3.05
-17.56 2.40 3.04
-9.91 1.15 1.71
-17.85 1.71 3.08
-9.93 0.75 1.71
-18.13 1.01 3.12
-18.25 0.65 3.14
-18.34 0.28 3.15
-9.96 -0.05 1.71
-18.32 -0.45 3.15
-9.96 -0.45 1.71
-17.64 -1.15 3.04
-17.21 -1.47 2.97
-17.19 -1.82 2.97
-17.30 -2.18 3.00
-17.43 -2.55 3.03
-17.56 -2.93 3.06
-17.68 -3.32 3.09
-17.79 -3.71 3.13
-17.72 -4.07 3.13
-17.73 -4.45 3.14
-17.74 -4.83 3.16
-10.04 -2.95 1.80
-17.76 -5.61 3.20
-17.78 -6.02 3.23
-17.27 -6.23 3.16
-16.63 -6.38 3.06
-16.10 -6.55 2.99
-16.11 -6.94 3.01
-16.11 -7.33 3.04
-16.11 -7.72 3.07
-16.09 -8.11 3.09
-16.00 -8.47 3.11
-10.11 -5.62 1.99
-15.10 -8.79 3.00
-14.64 -8.92 2.94
-10.16 -6.48 2.07
-14.33 -9.55 2.95
-14.22 -9.89 2.97
-14.14 -10.26 3.00
-14.02 -10.61 3.01
-10.18 -8.03 2.22
-10.20 -8.38 2.26
-11.34 -9.71 2.55
-11.23 -10.02 2.58
-11.14 -10.34 2.60
-10.05 -9.72 2.39
-9.86 -9.92 2.39
-9.66 -10.12 2.39
-9.46 -10.32 2.39
-9.26 -10.51 2.39
-9.05 -10.70 2.39
-8.84 -10.89 2.39
-8.62 -11.07 2.39
-8.40 -11.24 2.39
-8.18 -11.42 2.39
-7.95 -11.58 2.39
-7.72 -11.75 2.39
-7.19 -11.44 2.30
-7.13 -11.87 2.35
-6.65 -11.59 2.27
-6.62 -12.10 2.34
-6.52 -12.50 2.39
-6.29 -12.68 2.40
-6.28 -13.32 2.49
-6.02 -13.45 2.49
-5.75 -13.58 2.49
-5.48 -13.70 2.49
-5.21 -13.82 2.49
-4.93 -13.93 2.49
-4.66 -14.04 2.49
-4.38 -14.14 2.49
-4.09 -14.23 2.49
-3.81 -14.32 2.49
-3.52 -14.41 2.49
-3.24 -14.49 2.49
-2.95 -14.56 2.49
-2.66 -14.63 2.49
-2.36 -14.69 2.49
-2.07 -14.75 2.49
-1.77 -14.80 2.49
-1.48 -14.84 2.49
-1.18 -14.88 2.49
-0.88 -14.91 2.49
-0.58 -14.94 2.49
-0.28 -14.96 2.49
0.02 -13.14 2.49
0.28 -13.15 2.49
0.55 -13.15 2.49
0.81 -13.15 2.49
1.07 -13.14 2.49
1.34 -13.13 2.49
1.60 -13.11 2.49
1.79 -12.54 2.39
1.88 -11.50 2.20
2.30 -12.48 2.39
2.55 -12.44 2.39
2.80 -12.39 2.39
3.05 -12.34 2.39
3.30 -12.29 2.39
3.55 -12.23 2.39
3.80 -12.17 2.39
4.04 -12.10 2.39
4.29 -12.02 2.39
4.53 -11.94 2.39
4.77 -11.86 2.39
5.02 -11.77 2.39
5.25 -11.68 2.39
5.49 -11.58 2.39
5.64 -11.29 2.35
5.65 -10.78 2.27
5.67 -10.30 2.19
5.66 -9.82 2.11
5.65 -9.35 2.03
5.64 -8.93 1.96
5.66 -8.57 1.91
5.71 -8.29 1.87
5.80 -8.06 1.84
5.90 -7.86 1.82
6.02 -7.69 1.81
6.15 -7.55 1.80
6.30 -7.42 1.80
6.46 -7.31 1.80
6.64 -7.22 1.81
6.85 -7.15 1.82
7.08 -7.10 1.85
7.35 -7.09 1.88
7.67 -7.09 1.92
8.01 -7.12 1.97
8.39 -7.16 2.03
8.78 -7.19 2.08
9.16 -7.21 2.14
9.57 -7.22 2.20
9.94 -7.19 2.25
10.09 -6.99 2.25
10.24 -6.80 2.25
10.02 -6.37 2.17
10.13 -6.16 2.17
10.24 -5.95 2.16
10.43 -5.78 2.18
10.54 -5.57 2.18
10.65 -5.35 2.17
10.75 -5.14 2.17
10.85 -4.92 2.17
10.95 -4.70 2.17
11.04 -4.48 2.17
11.32 -4.33 2.21
11.65 -4.19 2.25
11.74 -3.96 2.25
11.82 -3.73 2.25
11.90 -3.49 2.25
11.97 -3.25 2.25
12.04 -3.01 2.25
12.11 -2.77 2.25
12.16 -2.53 2.25
12.21 -2.29 2.25
12.25 -2.04 2.25
12.29 -1.80 2.25
12.32 -1.55 2.25
12.35 -1.30 2.25
11.94 -1.02 2.17
11.96 -0.78 2.17
11.97 -0.54 2.17
11.99 -0.30 2.17
11.99 -0.06 2.17
11.99 0.18 2.17
11.99 0.42 2.17
11.98 0.67 2.17
12.43 0.94 2.25
12.41 1.19 2.25
12.39 1.44 2.25
12.35 1.69 2.25
12.31 1.93 2.25
11.92 2.12 2.19
12.22 2.42 2.25
12.17 2.67 2.25
12.12 2.91 2.25
12.07 3.16 2.25
12.01 3.40 2.26
11.94 3.64 2.26
11.86 3.88 2.26
11.77 4.11 2.25
8.98 3.34 1.73
11.58 4.57 2.25
11.47 4.80 2.25
9.00 3.98 1.78
11.30 5.27 2.25
11.22 5.51 2.26
11.14 5.75 2.27
11.05 5.99 2.27
10.97 6.23 2.28
10.51 6.25 2.21
10.07 6.26 2.15
9.65 6.28 2.08
9.26 6.29 2.03
8.88 6.30 1.97
8.53 6.31 1.92
8.19 6.32 1.88
7.88 6.33 1.83
6.73 5.64 1.59
6.52 5.68 1.57
6.42 5.83 1.57
6.73 6.36 1.68
6.48 6.37 1.65
6.29 6.44 1.64
8.23 8.77 2.19
8.08 8.97 2.20
7.94 9.17 2.21
8.23 9.90 2.35
7.91 9.92 2.31
7.67 10.03 2.30
7.51 10.23 2.31
7.34 10.43 2.33
7.16 10.63 2.34
6.99 10.83 2.35
6.80 11.02 2.37
6.62 11.22 2.38
6.41 11.38 2.39
6.18 11.50 2.39
5.94 11.62 2.39
5.70 11.73 2.39
5.46 11.83 2.39
5.22 11.93 2.39
4.98 12.03 2.39
4.73 12.12 2.39
4.49 12.20 2.39
4.24 12.28 2.39
3.99 12.36 2.39
3.74 12.42 2.39
3.49 12.49 2.39
3.23 12.55 2.39
2.98 12.60 2.39
2.72 12.66 2.39
2.52 12.97 2.44
2.30 13.28 2.49
2.04 13.31 2.49
1.77 13.34 2.49
1.50 13.37 2.49
1.23 13.38 2.49
0.96 13.39 2.49
0.69 13.40 2.49
0.42 13.40 2.49
0.15 13.40 2.49
-0.12 13.39 2.49
-0.39 13.37 2.49
-0.65 13.35 2.49
-0.92 13.33 2.49
-1.19 13.29 2.49
-1.45 13.26 2.49
-1.72 13.22 2.49
-1.98 13.17 2.49
-2.24 13.12 2.49
-2.50 13.06 2.49
-2.76 13.00 2.49
-3.02 12.93 2.49
-3.28 12.85 2.49
-3.53 12.78 2.49
-3.78 12.69 2.49
-4.03 12.60 2.49
-4.28 12.51 2.49
-4.53 12.41 2.49
-4.78 12.31 2.49
-5.02 12.20 2.49
-5.26 12.09 2.49
-5.49 11.97 2.49
-5.57 11.53 2.43
-5.72 11.24 2.39
-5.94 11.11 2.39
-5.95 10.63 2.31
-6.04 10.30 2.27
-6.47 10.54 2.35
-6.55 10.21 2.31
-6.64 9.89 2.27
-7.20 10.28 2.39
-7.40 10.12 2.39
-7.59 9.96 2.39
-7.79 9.80 2.39
-7.98 9.64 2.39
-8.16 9.47 2.39
-8.35 9.30 2.39
-8.52 9.12 2.39
-8.70 8.94 2.39
-8.87 8.76 2.39
-9.04 8.57 2.39
-9.21 8.39 2.39
-9.37 8.19 2.39
-9.52 8.00 2.39
-9.68 7.80 2.39
-10.38 8.03 2.53
-9.73 7.22 2.33
-10.79 7.68 2.55
-9.75 6.65 2.28
-12.11 7.90 2.79
-12.81 7.99 2.91
-9.78 5.83 2.20
-13.30 7.57 2.96
-13.50 7.33 2.97
-13.70 7.09 2.98
-13.89 6.84 3.00
-14.08 6.59 3.01
-14.26 6.32 3.02
-9.84 4.13 2.07
-14.55 5.76 3.03
-9.84 3.67 2.04
-14.81 5.19 3.04
-14.93 4.89 3.05
-15.04 4.60 3.05
-15.12 4.29 3.05
-9.87 2.59 1.98
-15.29 3.68 3.06
-15.36 3.38 3.06
-9.89 1.97 1.96
-9.90 1.76 1.96
-15.55 2.45 3.06
-15.63 2.14 3.07
-9.91 1.15 1.94
-15.78 1.52 3.09
-15.79 1.20 3.09
-15.81 0.88 3.09
-15.81 0.56 3.08
-15.78 0.24 3.08
-15.64 -0.07 3.05
-15.64 -0.39 3.05
-9.96 -0.45 1.94
-15.70 -1.02 3.07
-15.73 -1.34 3.08
-9.98 -1.05 1.96
-15.81 -1.99 3.11
-15.89 -2.33 3.13
-15.88 -2.65 3.14
-15.84 -2.97 3.15
-15.80 -3.30 3.15
-15.75 -3.62 3.16
-15.73 -3.95 3.17
-15.62 -4.26 3.16
-15.21 -4.48 3.10
-14.87 -4.70 3.04
-14.52 -4.91 2.99
-14.33 -5.17 2.97
-14.18 -5.44 2.96
-14.02 -5.71 2.95
-13.93 -6.00 2.96
-13.91 -6.32 2.98
-10.09 -4.84 2.18
-10.10 -5.09 2.21
-12.95 -6.86 2.86
-10.11 -5.62 2.26
-11.27 -6.56 2.54
-11.19 -6.82 2.56
-10.16 -6.48 2.35
-11.03 -7.35 2.58
-10.08 -7.01 2.39
-9.94 -7.21 2.39
-9.79 -7.41 2.39
-9.64 -7.61 2.39
-9.49 -7.80 2.39
-9.34 -8.00 2.39
-9.18 -8.18 2.39
-9.01 -8.37 2.39
-8.85 -8.55 2.39
-8.68 -8.73 2.39
-8.50 -8.91 2.39
-8.33 -9.08 2.39
-8.15 -9.25 2.39
-7.96 -9.42 2.39
-7.77 -9.58 2.39
-7.58 -9.74 2.39
-7.08 -9.48 2.29
-6.83 -9.53 2.27
-6.64 -9.67 2.27
-6.56 -9.99 2.31
-6.58 -10.48 2.39
-6.38 -10.61 2.39
-6.24 -10.87 2.42
-6.21 -11.34 2.49
-5.98 -11.47 2.49
-5.75 -11.59 2.49
-5.52 -11.71 2.49
-5.29 -11.83 2.49
-5.05 -11.94 2.49
-4.82 -12.05 2.49
-4.58 -12.15 2.49
-4.33 -12.24 2.49
-4.09 -12.34 2.49
-3.84 -12.43 2.49
-3.60 -12.51 2.49
-3.35 -12.59 2.49
-3.09 -12.66 2.49
-2.84 -12.73 2.49
-2.59 -12.79 2.49
-2.33 -12.85 2.49
-2.07 -12.90 2.49
-1.82 -12.95 2.49
-1.56 -12.99 2.49
-1.30 -13.03 2.49
-1.03 -13.06 2.49
-0.77 -13.09 2.49
-0.51 -13.11 2.49
-0.25 -13.13 2.49
0.02 -11.70 2.49
0.25 -11.70 2.49
0.49 -11.70 2.49
0.72 -11.70 2.49
0.96 -11.69 2.49
1.19 -11.68 2.49
1.43 -11.66 2.49
1.66 -11.64 2.49
1.82 -11.14 2.39
2.04 -11.10 2.39
2.27 -11.06 2.39
2.49 -11.02 2.39
2.71 -10.98 2.39
2.94 -10.93 2.39
3.16 -10.87 2.39
3.38 -10.82 2.39
3.60 -10.75 2.39
3.81 -10.69 2.39
4.03 -10.62 2.39
4.24 -10.54 2.39
4.46 -10.46 2.39
4.67 -10.38 2.39
4.88 -10.29 2.39
5.09 -10.19 2.39
5.30 -10.10 2.39
5.50 -9.99 2.39
5.66 -9.82 2.37
5.65 -9.35 2.28
5.64 -8.92 2.21
5.66 -8.57 2.15
5.71 -8.29 2.10
5.80 -8.06 2.07
5.90 -7.86 2.05
6.02 -7.69 2.04
6.15 -7.54 2.03
6.30 -7.42 2.03
6.47 -7.31 2.03
6.65 -7.22 2.04
6.85 -7.14 2.06
7.08 -7.10 2.08
7.36 -7.09 2.12
7.67 -7.09 2.17
8.02 -7.12 2.22
8.39 -7.16 2.28
8.54 -7.00 2.29
8.66 -6.81 2.28
8.77 -6.61 2.27
8.71 -6.30 2.22
8.83 -6.12 2.22
8.94 -5.93 2.21
9.04 -5.75 2.21
9.15 -5.56 2.21
9.25 -5.37 2.20
9.34 -5.17 2.20
9.43 -4.98 2.20
9.52 -4.79 2.19
9.61 -4.59 2.19
9.69 -4.39 2.19
10.00 -4.29 2.24
10.32 -4.19 2.29
10.39 -3.98 2.28
10.46 -3.76 2.28
10.52 -3.55 2.28
10.58 -3.34 2.28
10.64 -3.12 2.27
10.70 -2.91 2.27
10.77 -2.70 2.28
10.83 -2.48 2.28
10.87 -2.26 2.27
10.91 -2.04 2.27
10.94 -1.82 2.27
10.97 -1.60 2.27
11.00 -1.38 2.27
10.71 -1.13 2.20
10.73 -0.91 2.20
10.75 -0.70 2.20
10.76 -0.48 2.20
10.77 -0.27 2.20
10.78 -0.05 2.20
10.78 0.17 2.20
10.78 0.38 2.20
10.77 0.60 2.20
10.76 0.81 2.20
11.06 1.06 2.27
11.04 1.28 2.27
11.03 1.51 2.27
11.01 1.73 2.27
10.99 1.95 2.28
10.97 2.17 2.28
10.94 2.40 2.28
10.91 2.62 2.29
10.87 2.84 2.29
10.83 3.07 2.30
10.79 3.29 2.30
10.75 3.51 2.31
10.69 3.74 2.31
8.98 3.34 1.95
10.57 4.17 2.32
10.50 4.39 2.32
9.00 3.98 2.01
10.36 4.83 2.33
10.28 5.05 2.34
10.21 5.27 2.35
10.12 5.48 2.35
10.04 5.70 2.36
9.96 5.92 2.37
9.87 6.14 2.38
9.65 6.28 2.35
9.26 6.29 2.29
8.86 6.28 2.22
8.52 6.30 2.17
8.20 6.32 2.12
7.88 6.33 2.07
6.64 5.56 1.77
6.45 5.62 1.75
6.35 5.77 1.76
6.73 6.36 1.90
6.48 6.37 1.86
6.29 6.44 1.85
7.47 7.96 2.24
7.34 8.14 2.25
7.20 8.32 2.26
7.06 8.50 2.27
6.92 8.67 2.28
6.77 8.85 2.29
6.62 9.02 2.30
6.53 9.28 2.33
6.53 9.69 2.41
6.29 9.75 2.39
6.09 9.87 2.39
5.89 9.98 2.39
5.69 10.09 2.39
5.48 10.20 2.39
5.27 10.30 2.39
5.06 10.40 2.39
4.85 10.49 2.39
4.63 10.58 2.39
4.42 10.67 2.39
4.20 10.75 2.39
3.98 10.82 2.39
3.76 10.90 2.39
3.54 10.96 2.39
3.32 11.02 2.39
3.09 11.08 2.39
2.87 11.14 2.39
2.64 11.18 2.39
2.48 11.50 2.45
2.29 11.75 2.49
2.05 11.79 2.49
1.81 11.82 2.49
1.57 11.85 2.49
1.33 11.87 2.49
1.09 11.88 2.49
0.85 11.90 2.49
0.61 11.90 2.49
0.38 11.90 2.49
0.14 11.90 2.49
-0.10 11.89 2.49
-0.34 11.88 2.49
-0.58 11.86 2.49
-0.82 11.84 2.49
-1.05 11.81 2.49
-1.29 11.78 2.49
-1.52 11.75 2.49
-1.76 11.71 2.49
-1.99 11.66 2.49
-2.22 11.61 2.49
-2.45 11.55 2.49
-2.68 11.49 2.49
-2.91 11.43 2.49
-3.14 11.36 2.49
-3.36 11.29 2.49
-3.59 11.21 2.49
-3.81 11.13 2.49
-4.03 11.04 2.49
-4.25 10.95 2.49
-4.46 10.86 2.49
-4.68 10.76 2.49
-4.89 10.65 2.49
-5.10 10.55 2.49
-5.30 10.44 2.49
-5.51 10.32 2.49
-5.62 10.03 2.45
-5.67 9.66 2.39
-5.86 9.54 2.39
-6.04 9.41 2.39
-6.23 9.28 2.39
-6.41 9.15 2.39
-6.59 9.01 2.39
-6.76 8.87 2.39
-6.93 8.73 2.39
-7.10 8.59 2.39
-7.27 8.44 2.39
-7.43 8.28 2.39
-7.59 8.13 2.39
-7.75 7.97 2.39
-7.90 7.81 2.39
-8.05 7.64 2.39
-8.20 7.47 2.39
-8.35 7.30 2.39
-8.49 7.13 2.39
-8.62 6.95 2.39
-8.76 6.78 2.39
-8.89 6.60 2.39
-9.01 6.41 2.39
-9.13 6.23 2.39
-9.25 6.04 2.39
-9.37 5.85 2.39
-9.48 5.66 2.39
-9.59 5.46 2.39
-9.69 5.27 2.39
-10.52 5.45 2.57
-6.06 2.99 1.47
-6.12 2.86 1.47
-11.11 4.93 2.64
-9.83 4.13 2.32
-12.64 5.01 2.95
-13.07 4.88 3.03
-9.85 3.45 2.27
-9.85 3.23 2.26
-13.43 4.11 3.06
-13.52 3.84 3.06
-9.87 2.59 2.22
-13.69 3.30 3.07
-13.77 3.03 3.07
-13.84 2.75 3.08
-13.90 2.48 3.08
-13.96 2.20 3.08
-13.99 1.92 3.08
-9.91 1.15 2.18
-9.92 0.95 2.18
-14.03 1.07 3.07
-14.02 0.78 3.07
-14.01 0.50 3.06
-14.00 0.22 3.06
-14.04 -0.07 3.07
-9.96 -0.25 2.18
-9.96 -0.45 2.18
-14.07 -0.92 3.08
-13.99 -1.19 3.07
-13.91 -1.47 3.06
-13.81 -1.74 3.04
-13.76 -2.01 3.04
-13.72 -2.29 3.04
-10.00 -1.88 2.23
-13.46 -2.81 3.01
-13.32 -3.06 2.99
-10.02 -2.52 2.26
-10.03 -2.73 2.27
-12.36 -3.64 2.82
-11.95 -3.78 2.74
-11.55 -3.91 2.67
-11.21 -4.05 2.61
-11.14 -4.28 2.61
-11.06 -4.50 2.61
-10.04 -4.33 2.39
-9.95 -4.53 2.39
-9.86 -4.73 2.39
-9.77 -4.93 2.39
-9.67 -5.12 2.39
-9.56 -5.32 2.39
-9.46 -5.51 2.39
-9.35 -5.70 2.39
-9.23 -5.89 2.39
-9.11 -6.07 2.39
-8.99 -6.25 2.39
-8.87 -6.44 2.39
-8.74 -6.61 2.39
-8.61 -6.79 2.39
-8.47 -6.96 2.39
-8.33 -7.14 2.39
-8.19 -7.30 2.39
-8.04 -7.47 2.39
-7.89 -7.63 2.39
-7.74 -7.79 2.39
-7.59 -7.95 2.39
-7.43 -8.10 2.39
-7.27 -8.25 2.39
-7.10 -8.40 2.39
-6.93 -8.55 2.39
-6.76 -8.69 2.39
-6.59 -8.82 2.39
-6.41 -8.96 2.39
-6.24 -9.09 2.39
-6.19 -9.42 2.44
-6.12 -9.74 2.49
-5.93 -9.87 2.49
-5.73 -9.99 2.49
-5.53 -10.11 2.49
-5.33 -10.22 2.49
-5.13 -10.34 2.49
-4.92 -10.44 2.49
-4.71 -10.54 2.49
-4.50 -10.64 2.49
-4.29 -10.74 2.49
-4.08 -10.83 2.49
-3.86 -10.91 2.49
-3.64 -10.99 2.49
-3.42 -11.07 2.49
-3.20 -11.14 2.49
-2.98 -11.21 2.49
-2.75 -11.28 2.49
-2.53 -11.34 2.49
-2.30 -11.39 2.49
-2.07 -11.44 2.49
-1.85 -11.49 2.49
-1.62 -11.53 2.49
-1.38 -11.57 2.49
-1.15 -11.60 2.49
-0.92 -11.63 2.49
-0.69 -11.66 2.49
-0.45 -11.67 2.49
-0.22 -11.69 2.49
0.02 -10.53 2.49
0.23 -10.53 2.49
0.44 -10.53 2.49
0.65 -10.53 2.49
0.86 -10.52 2.49
1.08 -10.51 2.49
1.29 -10.49 2.49
1.50 -10.47 2.49
1.71 -10.44 2.49
1.85 -10.04 2.41
2.05 -10.01 2.40
2.24 -9.91 2.39
2.44 -9.87 2.39
2.64 -9.83 2.39
2.84 -9.78 2.39
3.04 -9.73 2.39
3.23 -9.67 2.39
3.43 -9.61 2.39
3.62 -9.54 2.39
3.82 -9.47 2.39
4.01 -9.40 2.39
4.20 -9.33 2.39
4.39 -9.25 2.39
4.58 -9.16 2.39
4.76 -9.07 2.39
4.95 -8.98 2.39
5.13 -8.89 2.39
5.31 -8.79 2.39
5.49 -8.68 2.39
5.66 -8.57 2.39
5.71 -8.28 2.34
5.80 -8.05 2.31
5.90 -7.86 2.28
6.02 -7.69 2.27
6.15 -7.54 2.26
6.30 -7.42 2.26
6.47 -7.31 2.26
6.65 -7.22 2.27
6.85 -7.14 2.29
7.08 -7.10 2.32
7.36 -7.09 2.36
7.52 -6.95 2.37
7.63 -6.78 2.36
7.74 -6.61 2.35
7.59 -6.21 2.26
7.69 -6.05 2.26
7.79 -5.88 2.25
7.89 -5.71 2.24
7.99 -5.54 2.24
8.08 -5.36 2.23
8.17 -5.19 2.23
8.26 -5.02 2.22
8.42 -4.88 2.24
8.51 -4.71 2.23
8.59 -4.54 2.23
8.67 -4.36 2.23
8.89 -4.25 2.26
9.29 -4.21 2.34
9.38 -4.02 2.34
9.46 -3.84 2.34
9.54 -3.65 2.34
9.61 -3.46 2.34
9.69 -3.27 2.34
9.76 -3.08 2.34
9.83 -2.88 2.34
9.89 -2.69 2.34
9.95 -2.49 2.34
9.99 -2.29 2.34
10.03 -2.09 2.34
10.06 -1.88 2.34
10.09 -1.68 2.34
10.12 -1.48 2.33
10.15 -1.27 2.33
9.76 -1.03 2.24
9.78 -0.83 2.24
9.80 -0.64 2.24
9.81 -0.44 2.24
9.82 -0.24 2.24
9.82 -0.05 2.24
9.82 0.15 2.24
9.82 0.35 2.24
9.82 0.55 2.24
9.81 0.74 2.24
9.80 0.94 2.24
10.20 1.18 2.34
10.18 1.39 2.34
10.16 1.60 2.34
10.14 1.80 2.35
10.12 2.01 2.35
10.09 2.21 2.35
10.06 2.42 2.36
10.03 2.62 2.36
9.99 2.83 2.36
9.95 3.03 2.37
9.91 3.24 2.37
9.86 3.45 2.38
9.81 3.65 2.38
8.98 3.55 2.20
8.99 3.76 2.22
9.62 4.25 2.40
9.56 4.46 2.40
9.49 4.66 2.41
9.41 4.86 2.41
9.33 5.05 2.42
9.22 5.23 2.42
9.10 5.41 2.41
8.99 5.59 2.41
8.87 5.77 2.41
8.75 5.95 2.41
8.63 6.12 2.41
8.50 6.29 2.41
8.20 6.32 2.36
7.80 6.27 2.29
6.69 5.60 1.99
6.46 5.63 1.96
6.36 5.78 1.96
6.73 6.36 2.12
6.48 6.37 2.08
6.29 6.44 2.06
6.84 7.29 2.29
6.72 7.45 2.30
6.59 7.61 2.31
6.54 7.87 2.34
6.54 8.20 2.40
6.34 8.28 2.39
6.17 8.40 2.39
6.00 8.52 2.39
5.82 8.64 2.39
5.65 8.75 2.39
5.47 8.85 2.39
5.29 8.96 2.39
5.10 9.06 2.39
4.92 9.15 2.39
4.73 9.25 2.39
4.54 9.33 2.39
4.35 9.42 2.39
4.16 9.50 2.39
3.97 9.58 2.39
3.77 9.65 2.39
3.58 9.72 2.39
3.38 9.78 2.39
3.18 9.84 2.39
2.98 9.90 2.39
2.78 9.95 2.39
2.58 10.00 2.39
2.44 10.32 2.46
2.27 10.52 2.49
2.05 10.56 2.49
1.84 10.59 2.49
1.63 10.62 2.49
1.41 10.64 2.49
1.20 10.66 2.49
0.98 10.68 2.49
0.77 10.69 2.49
0.55 10.69 2.49
0.34 10.70 2.49
0.12 10.70 2.49
-0.09 10.69 2.49
-0.30 10.68 2.49
-0.52 10.66 2.49
-0.73 10.64 2.49
-0.94 10.62 2.49
-1.16 10.59 2.49
-1.37 10.56 2.49
-1.58 10.52 2.49
-1.79 10.48 2.49
-2.00 10.44 2.49
-2.21 10.39 2.49
-2.41 10.34 2.49
-2.62 10.28 2.49
-2.82 10.22 2.49
-3.02 10.15 2.49
-3.23 10.09 2.49
-3.42 10.01 2.49
-3.62 9.94 2.49
-3.82 9.85 2.49
-4.01 9.77 2.49
-4.21 9.68 2.49
-4.40 9.59 2.49
-4.59 9.49 2.49
-4.77 9.39 2.49
-4.96 9.29 2.49
-5.14 9.18 2.49
-5.32 9.07 2.49
-5.50 8.96 2.49
-5.65 8.81 2.48
-5.67 8.45 2.42
-5.77 8.24 2.39
-5.93 8.12 2.39
-6.09 7.99 2.39
-6.24 7.86 2.39
-6.40 7.73 2.39
-6.55 7.60 2.39
-6.69 7.46 2.39
-6.84 7.32 2.39
-6.98 7.18 2.39
-7.12 7.03 2.39
-7.26 6.89 2.39
-7.39 6.73 2.39
-7.52 6.58 2.39
-7.65 6.43 2.39
-7.77 6.27 2.39
-7.89 6.11 2.39
-8.01 5.94 2.39
-8.12 5.78 2.39
-8.23 5.61 2.39
-8.34 5.44 2.39
-8.44 5.27 2.39
-8.54 5.10 2.39
-8.64 4.92 2.39
-8.73 4.75 2.39
-8.82 4.57 2.39
-6.06 2.99 1.63
-6.12 2.86 1.63
-9.07 4.02 2.39
-9.15 3.84 2.39
-9.22 3.65 2.39
-9.29 3.47 2.39
-9.35 3.28 2.39
-9.41 3.09 2.39
-9.47 2.90 2.39
-9.52 2.71 2.39
-9.57 2.51 2.39
-9.62 2.32 2.39
-9.66 2.13 2.39
-9.70 1.93 2.39
-9.73 1.73 2.39
-9.76 1.54 2.39
-9.79 1.34 2.39
-9.81 1.14 2.39
-9.83 0.95 2.39
-9.85 0.75 2.39
-9.86 0.55 2.39
-9.87 0.35 2.39
-9.87 0.15 2.39
-9.87 -0.05 2.39
-9.86 -0.24 2.39
-9.86 -0.44 2.39
-9.84 -0.64 2.39
-9.83 -0.84 2.39
-9.81 -1.04 2.39
-9.79 -1.23 2.39
-9.76 -1.43 2.39
-9.73 -1.62 2.39
-9.69 -1.82 2.39
-9.65 -2.01 2.39
-9.61 -2.21 2.39
-9.56 -2.40 2.39
-9.51 -2.59 2.39
-9.46 -2.78 2.39
-9.40 -2.97 2.39
-9.34 -3.16 2.39
-9.28 -3.35 2.39
-9.21 -3.53 2.39
-9.14 -3.72 2.39
-9.06 -3.90 2.39
-8.98 -4.08 2.39
-8.90 -4.26 2.39
-8.81 -4.44 2.39
-8.72 -4.62 2.39
-8.63 -4.80 2.39
-8.53 -4.97 2.39
-8.43 -5.14 2.39
-8.33 -5.31 2.39
-8.22 -5.48 2.39
-8.11 -5.64 2.39
-8.00 -5.81 2.39
-7.88 -5.97 2.39
-7.76 -6.13 2.39
-7.64 -6.28 2.39
-7.13 -6.11 2.27
-7.04 -6.28 2.28
-7.05 -6.55 2.32
-7.00 -6.77 2.35
-6.86 -6.91 2.35
-6.49 -6.80 2.27
-6.48 -7.07 2.31
-6.55 -7.44 2.39
-6.40 -7.58 2.39
-6.25 -7.71 2.39
-6.15 -7.90 2.41
-6.15 -8.24 2.48
-6.03 -8.43 2.49
-5.86 -8.55 2.49
-5.69 -8.67 2.49
-5.52 -8.78 2.49
-5.34 -8.90 2.49
-5.17 -9.01 2.49
-4.99 -9.11 2.49
-4.80 -9.22 2.49
-4.62 -9.31 2.49
-4.43 -9.41 2.49
-4.25 -9.50 2.49
-4.06 -9.59 2.49
-3.86 -9.67 2.49
-3.67 -9.76 2.49
-3.48 -9.83 2.49
-3.28 -9.91 2.49
-3.08 -9.97 2.49
-2.88 -10.04 2.49
-2.68 -10.10 2.49
-2.48 -10.16 2.49
-2.28 -10.21 2.49
-2.07 -10.26 2.49
-1.87 -10.31 2.49
-1.66 -10.35 2.49
-1.45 -10.39 2.49
-1.24 -10.42 2.49
-1.04 -10.45 2.49
-0.83 -10.47 2.49
-0.62 -10.49 2.49
-0.41 -10.51 2.49
-0.19 -10.52 2.49
0.02 -9.56 2.49
0.21 -9.57 2.49
0.40 -9.57 2.49
0.59 -9.56 2.49
0.79 -9.55 2.49
0.98 -9.54 2.49
1.17 -9.53 2.49
1.36 -9.51 2.49
1.55 -9.48 2.49
1.74 -9.45 2.49
1.88 -9.13 2.42
2.04 -9.00 2.39
2.22 -8.96 2.39
2.40 -8.92 2.39
2.58 -8.88 2.39
2.76 -8.83 2.39
2.94 -8.77 2.39
3.11 -8.72 2.39
3.29 -8.66 2.39
3.47 -8.60 2.39
3.64 -8.53 2.39
3.81 -8.46 2.39
3.98 -8.39 2.39
4.15 -8.31 2.39
4.32 -8.23 2.39
4.49 -8.15 2.39
4.65 -8.06 2.39
4.82 -7.97 2.39
4.98 -7.87 2.39
5.14 -7.78 2.39
5.30 -7.68 2.39
5.45 -7.57 2.39
5.61 -7.47 2.39
5.76 -7.36 2.39
5.91 -7.24 2.39
6.10 -7.18 2.41
6.24 -7.06 2.41
6.39 -6.93 2.41
6.53 -6.81 2.41
6.66 -6.68 2.41
6.80 -6.55 2.41
6.70 -6.19 2.32
6.80 -6.04 2.32
6.90 -5.88 2.31
7.00 -5.73 2.30
7.10 -5.58 2.30
7.19 -5.42 2.29
7.29 -5.27 2.28
7.38 -5.11 2.28
7.46 -4.95 2.27
7.55 -4.79 2.27
7.63 -4.63 2.26
7.71 -4.47 2.26
7.78 -4.31 2.25
7.98 -4.21 2.29
8.39 -4.21 2.38
8.48 -4.05 2.38
8.57 -3.88 2.38
8.66 -3.72 2.38
8.74 -3.55 2.39
8.82 -3.38 2.39
8.90 -3.20 2.39
8.98 -3.03 2.39
9.05 -2.85 2.40
9.12 -2.67 2.40
9.19 -2.49 2.40
9.23 -2.31 2.40
9.27 -2.12 2.40
9.30 -1.93 2.40
9.33 -1.75 2.39
9.36 -1.56 2.39
9.39 -1.37 2.39
9.41 -1.18 2.39
8.96 -0.94 2.27
8.98 -0.76 2.27
8.99 -0.58 2.27
9.01 -0.40 2.27
9.01 -0.22 2.27
9.02 -0.04 2.27
9.02 0.14 2.27
9.02 0.32 2.27
9.01 0.50 2.27
9.00 0.68 2.27
8.99 0.86 2.27
9.46 1.10 2.40
9.45 1.29 2.40
9.43 1.48 2.40
9.41 1.67 2.40
9.39 1.86 2.41
9.36 2.05 2.41
9.33 2.24 2.41
9.30 2.43 2.42
9.25 2.62 2.42
9.20 2.81 2.42
9.14 2.99 2.42
9.08 3.17 2.42
9.02 3.35 2.42
8.95 3.54 2.42
8.88 3.71 2.42
8.80 3.89 2.42
8.71 4.06 2.42
8.62 4.23 2.42
8.53 4.40 2.42
8.44 4.57 2.42
8.34 4.74 2.41
8.24 4.90 2.41
8.14 5.06 2.41
8.04 5.23 2.41
7.93 5.38 2.41
7.82 5.54 2.41
7.70 5.70 2.41
7.58 5.85 2.41
7.46 5.99 2.41
6.74 5.64 2.22
6.47 5.64 2.16
6.38 5.78 2.17
6.64 6.27 2.30
6.48 6.37 2.29
6.29 6.44 2.27
6.52 6.95 2.41
6.33 7.03 2.39
6.19 7.15 2.39
6.04 7.27 2.39
5.89 7.39 2.39
5.74 7.50 2.39
5.59 7.61 2.39
5.43 7.72 2.39
5.28 7.82 2.39
5.12 7.92 2.39
4.95 8.02 2.39
4.79 8.12 2.39
4.62 8.21 2.39
4.46 8.29 2.39
4.29 8.38 2.39
4.12 8.46 2.39
3.95 8.54 2.39
3.77 8.61 2.39
3.60 8.68 2.39
3.42 8.74 2.39
3.24 8.81 2.39
3.06 8.87 2.39
2.88 8.92 2.39
2.70 8.97 2.39
2.52 9.02 2.39
2.41 9.36 2.47
2.25 9.50 2.49
2.06 9.54 2.49
1.86 9.57 2.49
1.67 9.60 2.49
1.48 9.63 2.49
1.28 9.65 2.49
1.09 9.67 2.49
0.89 9.68 2.49
0.70 9.69 2.49
0.50 9.70 2.49
0.31 9.70 2.49
0.11 9.70 2.49
-0.08 9.70 2.49
-0.27 9.69 2.49
-0.47 9.67 2.49
-0.66 9.66 2.49
-0.86 9.64 2.49
-1.05 9.61 2.49
-1.24 9.58 2.49
-1.43 9.55 2.49
-1.62 9.52 2.49
-1.81 9.48 2.49
-2.00 9.43 2.49
-2.19 9.38 2.49
-2.37 9.33 2.49
-2.56 9.28 2.49
-2.74 9.22 2.49
-2.93 9.16 2.49
-3.11 9.09 2.49
-3.29 9.02 2.49
-3.47 8.95 2.49
-3.64 8.87 2.49
-3.82 8.79 2.49
-3.99 8.71 2.49
-4.16 8.62 2.49
-4.33 8.53 2.49
-4.50 8.44 2.49
-4.67 8.34 2.49
-4.83 8.24 2.49
-4.99 8.14 2.49
-5.15 8.03 2.49
-5.31 7.92 2.49
-5.47 7.81 2.49
-5.62 7.69 2.49
-5.69 7.47 2.46
-5.71 7.19 2.41
-5.81 7.03 2.39
-5.95 6.91 2.39
-6.08 6.78 2.39
-6.21 6.65 2.39
-6.34 6.53 2.39
-6.47 6.39 2.39
-6.59 6.26 2.39
-6.72 6.12 2.39
-6.83 5.98 2.39
-6.95 5.84 2.39
-7.06 5.70 2.39
-7.17 5.55 2.39
-7.28 5.41 2.39
-7.38 5.26 2.39
-7.48 5.10 2.39
-7.58 4.95 2.39
-7.68 4.80 2.39
-7.77 4.64 2.39
-7.86 4.48 2.39
-7.94 4.32 2.39
-8.02 4.16 2.39
-6.06 2.99 1.79
-6.12 2.86 1.79
-8.25 3.66 2.39
-8.32 3.49 2.39
-8.39 3.32 2.39
-8.45 3.15 2.39
-8.51 2.98 2.39
-8.56 2.81 2.39
-8.61 2.64 2.39
-8.66 2.46 2.39
-8.71 2.29 2.39
-8.75 2.11 2.39
-8.79 1.93 2.39
-8.82 1.76 2.39
-8.86 1.58 2.39
-8.88 1.40 2.39
-8.91 1.22 2.39
-8.93 1.04 2.39
-8.95 0.86 2.39
-8.96 0.68 2.39
-8.97 0.50 2.39
-8.98 0.32 2.39
-8.98 0.14 2.39
-8.98 -0.04 2.39
-8.98 -0.22 2.39
-8.97 -0.40 2.39
-8.96 -0.58 2.39
-8.94 -0.76 2.39
-8.93 -0.94 2.39
-8.90 -1.12 2.39
-8.88 -1.30 2.39
-8.85 -1.48 2.39
-8.82 -1.66 2.39
-8.78 -1.83 2.39
-8.75 -2.01 2.39
-8.70 -2.18 2.39
-8.66 -2.36 2.39
-8.61 -2.53 2.39
-8.56 -2.71 2.39
-8.50 -2.88 2.39
-8.44 -3.05 2.39
-8.38 -3.22 2.39
-8.31 -3.38 2.39
-8.24 -3.55 2.39
-8.17 -3.72 2.39
-8.10 -3.88 2.39
-8.02 -4.04 2.39
-7.94 -4.20 2.39
-7.85 -4.36 2.39
-7.76 -4.52 2.39
-7.67 -4.68 2.39
-7.58 -4.83 2.39
-7.10 -4.73 2.27
-7.01 -4.88 2.27
-7.01 -5.09 2.30
-7.01 -5.31 2.34
-6.94 -5.48 2.35
-6.83 -5.62 2.35
-6.49 -5.56 2.27
-6.44 -5.74 2.29
-6.44 -5.99 2.34
-6.45 -6.24 2.38
-6.35 -6.39 2.39
-6.22 -6.52 2.39
-6.12 -6.68 2.40
-6.12 -6.95 2.45
-6.07 -7.19 2.49
-5.93 -7.31 2.49
-5.78 -7.43 2.49
-5.63 -7.55 2.49
-5.48 -7.66 2.49
-5.33 -7.77 2.49
-5.18 -7.88 2.49
-5.02 -7.99 2.49
-4.86 -8.09 2.49
-4.70 -8.19 2.49
-4.53 -8.29 2.49
-4.37 -8.38 2.49
-4.20 -8.47 2.49
-4.03 -8.56 2.49
-3.86 -8.64 2.49
-3.69 -8.72 2.49
-3.51 -8.80 2.49
-3.34 -8.87 2.49
-3.16 -8.94 2.49
-2.98 -9.00 2.49
-2.80 -9.07 2.49
-2.62 -9.13 2.49
-2.44 -9.18 2.49
-2.25 -9.23 2.49
-2.07 -9.28 2.49
-1.88 -9.32 2.49
-1.69 -9.37 2.49
-1.51 -9.40 2.49
-1.32 -9.44 2.49
-1.13 -9.47 2.49
-0.94 -9.49 2.49
-0.75 -9.51 2.49
-0.56 -9.53 2.49
-0.37 -9.55 2.49
-0.18 -9.56 2.49
0.02 -8.75 2.49
0.19 -8.75 2.49
0.37 -8.75 2.49
0.54 -8.75 2.49
0.72 -8.74 2.49
0.90 -8.73 2.49
1.07 -8.71 2.49
1.25 -8.70 2.49
1.42 -8.67 2.49
1.60 -8.65 2.49
1.77 -8.62 2.49
1.90 -8.36 2.43
2.03 -8.20 2.39
2.20 -8.16 2.39
2.36 -8.12 2.39
2.52 -8.07 2.39
2.69 -8.02 2.39
2.85 -7.97 2.39
3.01 -7.92 2.39
3.17 -7.86 2.39
3.33 -7.80 2.39
3.49 -7.73 2.39
3.64 -7.67 2.39
3.80 -7.60 2.39
3.95 -7.52 2.39
4.10 -7.45 2.39
4.25 -7.37 2.39
4.40 -7.28 2.39
4.55 -7.20 2.39
4.70 -7.11 2.39
4.84 -7.02 2.39
4.98 -6.92 2.39
5.12 -6.82 2.39
5.26 -6.72 2.39
5.40 -6.62 2.39
5.53 -6.51 2.39
5.67 -6.40 2.39
5.80 -6.29 2.39
5.92 -6.18 2.39
6.03 -6.04 2.38
6.13 -5.90 2.37
6.23 -5.76 2.37
6.32 -5.61 2.36
6.42 -5.47 2.35
6.51 -5.33 2.34
6.60 -5.18 2.34
6.68 -5.04 2.33
6.77 -4.89 2.32
6.85 -4.74 2.32
6.93 -4.59 2.31
7.00 -4.45 2.31
7.08 -4.30 2.30
7.21 -4.18 2.31
7.58 -4.19 2.40
7.67 -4.05 2.41
7.76 -3.90 2.41
7.84 -3.74 2.41
7.92 -3.59 2.41
7.99 -3.43 2.41
8.06 -3.27 2.41
8.13 -3.11 2.41
8.19 -2.94 2.41
8.25 -2.78 2.41
8.30 -2.61 2.41
8.35 -2.45 2.41
8.40 -2.28 2.41
8.45 -2.11 2.41
8.49 -1.94 2.41
8.53 -1.77 2.41
8.56 -1.60 2.41
8.60 -1.43 2.41
8.63 -1.26 2.41
8.26 -1.04 2.30
8.28 -0.87 2.30
8.29 -0.70 2.30
8.31 -0.54 2.30
8.32 -0.37 2.30
8.32 -0.20 2.30
8.33 -0.04 2.30
8.33 0.13 2.30
8.33 0.30 2.30
8.32 0.46 2.30
8.31 0.63 2.30
8.30 0.80 2.30
8.29 0.96 2.30
8.68 1.19 2.42
8.65 1.36 2.41
8.62 1.53 2.41
8.59 1.70 2.41
8.55 1.88 2.41
8.52 2.05 2.41
8.47 2.22 2.41
8.43 2.39 2.41
8.38 2.56 2.41
8.33 2.72 2.41
8.27 2.89 2.42
8.22 3.06 2.42
8.15 3.22 2.42
8.09 3.38 2.42
8.02 3.54 2.42
7.95 3.70 2.42
7.87 3.86 2.42
7.78 4.02 2.41
7.70 4.17 2.41
7.61 4.32 2.41
7.52 4.47 2.41
7.43 4.62 2.41
7.34 4.77 2.41
7.24 4.91 2.41
7.13 5.06 2.41
7.03 5.20 2.41
6.92 5.33 2.41
6.81 5.47 2.41
6.70 5.60 2.41
6.48 5.65 2.37
6.39 5.79 2.38
6.29 5.94 2.39
6.16 6.06 2.39
6.04 6.18 2.39
5.91 6.30 2.39
5.78 6.41 2.39
5.65 6.53 2.39
5.52 6.64 2.39
5.38 6.74 2.39
5.24 6.85 2.39
5.10 6.95 2.39
4.96 7.05 2.39
4.82 7.14 2.39
4.67 7.23 2.39
4.52 7.32 2.39
4.38 7.41 2.39
4.22 7.49 2.39
4.07 7.57 2.39
3.92 7.65 2.39
3.76 7.72 2.39
3.60 7.80 2.39
3.45 7.86 2.39
3.29 7.93 2.39
3.13 7.99 2.39
2.96 8.04 2.39
2.80 8.10 2.39
2.64 8.15 2.39
2.47 8.20 2.39
2.39 8.55 2.48
2.23 8.64 2.49
2.06 8.68 2.49
1.88 8.71 2.49
1.70 8.75 2.49
1.53 8.77 2.49
1.35 8.80 2.49
1.17 8.82 2.49
1.00 8.84 2.49
0.82 8.85 2.49
0.64 8.86 2.49
0.46 8.87 2.49
0.28 8.87 2.49
0.11 8.87 2.49
-0.07 8.86 2.49
-0.25 8.86 2.49
-0.43 8.84 2.49
-0.60 8.83 2.49
-0.78 8.81 2.49
-0.96 8.79 2.49
-1.13 8.76 2.49
-1.31 8.73 2.49
-1.48 8.70 2.49
-1.65 8.67 2.49
-1.83 8.63 2.49
-2.00 8.58 2.49
-2.17 8.54 2.49
-2.34 8.49 2.49
-2.51 8.43 2.49
-2.68 8.38 2.49
-2.84 8.32 2.49
-3.01 8.25 2.49
-3.17 8.19 2.49
-3.33 8.12 2.49
-3.49 8.04 2.49
-3.65 7.97 2.49
-3.81 7.89 2.49
-3.96 7.81 2.49
-4.12 7.72 2.49
-4.27 7.63 2.49
-4.42 7.54 2.49
-4.57 7.45 2.49
-4.71 7.35 2.49
-4.86 7.25 2.49
-5.00 7.15 2.49
-5.14 7.04 2.49
-5.28 6.94 2.49
-5.41 6.83 2.49
-5.55 6.71 2.49
-5.68 6.60 2.49
-5.72 6.38 2.46
-5.74 6.15 2.41
-5.81 5.98 2.39
-5.93 5.86 2.39
-6.04 5.73 2.39
-6.15 5.61 2.39
-6.26 5.48 2.39
-6.36 5.35 2.39
-6.47 5.22 2.39
-6.57 5.09 2.39
-6.67 4.95 2.39
-6.76 4.81 2.39
-6.85 4.68 2.39
-6.94 4.54 2.39
-7.03 4.39 2.39
-7.11 4.25 2.39
-7.20 4.10 2.39
-7.27 3.96 2.39
-7.35 3.81 2.39
-6.06 2.99 1.95
-6.11 2.86 1.95
-7.56 3.36 2.39
-7.62 3.20 2.39
-7.68 3.05 2.39
-7.74 2.89 2.39
-7.79 2.73 2.39
-7.85 2.58 2.39
-7.89 2.42 2.39
-7.94 2.26 2.39
-7.98 2.10 2.39
-8.02 1.94 2.39
-8.05 1.77 2.39
-8.09 1.61 2.39
-8.11 1.45 2.39
-8.14 1.28 2.39
-8.16 1.12 2.39
-8.18 0.95 2.39
-8.20 0.79 2.39
-8.21 0.62 2.39
-8.22 0.46 2.39
-8.23 0.29 2.39
-8.23 0.13 2.39
-8.23 -0.04 2.39
-8.23 -0.20 2.39
-8.22 -0.37 2.39
-8.21 -0.53 2.39
-8.20 -0.70 2.39
-8.18 -0.86 2.39
-8.16 -1.03 2.39
-8.14 -1.19 2.39
-8.11 -1.35 2.39
-8.08 -1.52 2.39
-8.05 -1.68 2.39
-8.02 -1.84 2.39
-7.98 -2.00 2.39
-7.93 -2.16 2.39
-7.89 -2.32 2.39
-7.84 -2.48 2.39
-7.79 -2.64 2.39
-7.74 -2.79 2.39
-7.68 -2.95 2.39
-7.62 -3.10 2.39
-7.56 -3.26 2.39
-7.49 -3.41 2.39
-7.04 -3.38 2.27
-6.97 -3.52 2.27
-6.96 -3.69 2.29
-6.97 -3.87 2.32
-6.97 -4.06 2.34
-6.91 -4.22 2.35
-6.83 -4.36 2.35
-6.51 -4.34 2.27
-6.42 -4.47 2.27
-6.40 -4.65 2.30
-6.41 -4.86 2.33
-6.42 -5.07 2.37
-6.37 -5.24 2.39
-6.26 -5.37 2.39
-6.15 -5.49 2.39
-6.09 -5.65 2.41
-6.08 -5.89 2.45
-6.07 -6.11 2.49
-5.94 -6.23 2.49
-5.82 -6.35 2.49
-5.69 -6.47 2.49
-5.56 -6.59 2.49
-5.43 -6.70 2.49
-5.30 -6.81 2.49
-5.16 -6.92 2.49
-5.02 -7.02 2.49
-4.88 -7.12 2.49
-4.74 -7.22 2.49
-4.60 -7.32 2.49
-4.45 -7.41 2.49
-4.30 -7.50 2.49
-4.15 -7.59 2.49
-4.00 -7.68 2.49
-3.85 -7.76 2.49
-3.69 -7.84 2.49
-3.53 -7.91 2.49
-3.37 -7.98 2.49
-3.22 -8.05 2.49
-3.05 -8.12 2.49
-2.89 -8.18 2.49
-2.73 -8.24 2.49
-2.56 -8.30 2.49
-2.40 -8.36 2.49
-2.23 -8.41 2.49
-2.06 -8.45 2.49
-1.89 -8.50 2.49
-1.72 -8.54 2.49
-1.55 -8.57 2.49
-1.38 -8.61 2.49
-1.21 -8.64 2.49
-1.03 -8.66 2.49
-0.86 -8.69 2.49
-0.68 -8.71 2.49
-0.51 -8.72 2.49
-0.33 -8.74 2.49
-0.16 -8.75 2.49
0.02 -8.06 2.49
0.18 -8.06 2.49
0.34 -8.06 2.49
0.50 -8.06 2.49
0.66 -8.05 2.49
0.83 -8.04 2.49
0.99 -8.02 2.49
1.15 -8.00 2.49
1.31 -7.98 2.49
1.47 -7.96 2.49
1.63 -7.93 2.49
1.79 -7.90 2.49
1.91 -7.71 2.44
2.02 -7.51 2.39
2.17 -7.47 2.39
2.32 -7.43 2.39
2.47 -7.38 2.39
2.62 -7.34 2.39
2.77 -7.29 2.39
2.92 -7.23 2.39
3.06 -7.18 2.39
3.21 -7.12 2.39
3.35 -7.05 2.39
3.50 -6.99 2.39
3.64 -6.92 2.39
3.78 -6.85 2.39
3.92 -6.78 2.39
4.05 -6.70 2.39
4.19 -6.62 2.39
4.32 -6.54 2.39
4.45 -6.45 2.39
4.59 -6.36 2.39
4.71 -6.27 2.39
4.84 -6.18 2.39
4.97 -6.09 2.39
5.09 -5.99 2.39
5.21 -5.89 2.39
5.33 -5.78 2.39
5.45 -5.68 2.39
5.56 -5.57 2.39
5.68 -5.46 2.39
5.79 -5.35 2.39
5.90 -5.23 2.39
6.00 -5.11 2.39
6.08 -4.98 2.38
6.17 -4.84 2.37
6.25 -4.71 2.37
6.33 -4.57 2.36
6.40 -4.43 2.36
6.48 -4.30 2.35
6.55 -4.16 2.35
6.82 -4.14 2.41
6.91 -4.01 2.41
6.99 -3.87 2.41
7.07 -3.73 2.41
7.14 -3.59 2.41
7.21 -3.44 2.41
7.28 -3.30 2.41
7.34 -3.15 2.41
7.41 -3.00 2.41
7.47 -2.85 2.41
7.52 -2.70 2.41
7.58 -2.55 2.41
7.63 -2.40 2.41
7.67 -2.25 2.41
7.72 -2.09 2.41
7.76 -1.94 2.41
7.80 -1.78 2.41
7.84 -1.63 2.41
7.87 -1.47 2.41
7.91 -1.31 2.41
7.94 -1.16 2.41
7.66 -0.96 2.32
7.68 -0.81 2.32
7.70 -0.65 2.32
7.71 -0.50 2.32
7.72 -0.34 2.32
7.72 -0.19 2.32
7.73 -0.03 2.32
7.73 0.12 2.32
7.73 0.27 2.32
7.72 0.43 2.32
7.71 0.58 2.32
7.70 0.74 2.32
7.69 0.89 2.32
7.68 1.05 2.32
7.95 1.25 2.41
7.91 1.41 2.41
7.88 1.56 2.41
7.85 1.72 2.41
7.81 1.88 2.41
7.77 2.03 2.41
7.73 2.19 2.41
7.69 2.34 2.41
7.64 2.50 2.41
7.59 2.65 2.41
7.54 2.80 2.41
7.48 2.95 2.41
7.42 3.10 2.41
7.36 3.25 2.41
7.29 3.40 2.41
7.22 3.54 2.41
7.15 3.69 2.41
7.07 3.83 2.41
6.99 3.97 2.41
6.91 4.11 2.41
6.82 4.24 2.41
6.73 4.38 2.41
6.64 4.51 2.41
6.55 4.64 2.41
6.45 4.77 2.41
6.30 4.85 2.39
6.20 4.98 2.39
6.10 5.10 2.39
5.99 5.22 2.39
5.89 5.34 2.39
5.78 5.45 2.39
5.66 5.57 2.39
5.55 5.68 2.39
5.43 5.79 2.39
5.32 5.89 2.39
5.19 6.00 2.39
5.07 6.10 2.39
4.95 6.20 2.39
4.82 6.29 2.39
4.69 6.39 2.39
4.56 6.48 2.39
4.43 6.56 2.39
4.30 6.65 2.39
4.16 6.73 2.39
4.02 6.81 2.39
3.88 6.89 2.39
3.74 6.96 2.39
3.60 7.03 2.39
3.46 7.10 2.39
3.31 7.17 2.39
3.17 7.23 2.39
3.02 7.29 2.39
2.87 7.34 2.39
2.73 7.40 2.39
2.58 7.45 2.39
2.42 7.49 2.39
2.37 7.86 2.49
2.21 7.91 2.49
2.05 7.94 2.49
1.89 7.98 2.49
1.73 8.01 2.49
1.57 8.04 2.49
1.41 8.07 2.49
1.24 8.09 2.49
1.08 8.11 2.49
0.92 8.13 2.49
0.75 8.14 2.49
0.59 8.15 2.49
0.43 8.16 2.49
0.26 8.16 2.49
0.10 8.16 2.49
-0.06 8.16 2.49
-0.23 8.15 2.49
-0.39 8.14 2.49
-0.55 8.12 2.49
-0.72 8.11 2.49
-0.88 8.09 2.49
-1.04 8.06 2.49
-1.20 8.04 2.49
-1.36 8.01 2.49
-1.52 7.98 2.49
-1.68 7.94 2.49
-1.84 7.90 2.49
-2.00 7.86 2.49
-2.15 7.81 2.49
-2.31 7.76 2.49
-2.46 7.71 2.49
-2.61 7.66 2.49
-2.77 7.60 2.49
-2.92 7.54 2.49
-3.07 7.47 2.49
-3.21 7.41 2.49
-3.36 7.34 2.49
-3.51 7.27 2.49
-3.65 7.19 2.49
-3.79 7.11 2.49
-3.93 7.03 2.49
-4.07 6.95 2.49
-4.21 6.86 2.49
-4.34 6.77 2.49
-4.47 6.68 2.49
-4.60 6.59 2.49
-4.73 6.49 2.49
-4.86 6.39 2.49
-4.99 6.29 2.49
-5.11 6.18 2.49
-5.23 6.08 2.49
-5.35 5.97 2.49
-5.47 5.86 2.49
-5.58 5.74 2.49
-5.69 5.63 2.49
-5.75 5.46 2.47
-5.76 5.25 2.43
-5.77 5.06 2.39
-5.86 4.93 2.39
-5.96 4.81 2.39
-6.05 4.69 2.39
-6.14 4.56 2.39
-6.23 4.44 2.39
-6.31 4.31 2.39
-6.40 4.18 2.39
-6.48 4.05 2.39
-6.56 3.92 2.39
-6.63 3.78 2.39
-6.70 3.65 2.39
-6.77 3.51 2.39
-6.06 2.99 2.12
-6.11 2.86 2.12
-6.97 3.09 2.39
-7.02 2.95 2.39
-7.08 2.81 2.39
-7.13 2.67 2.39
-7.18 2.52 2.39
-7.23 2.38 2.39
-7.28 2.23 2.39
-7.32 2.08 2.39
-7.36 1.93 2.39
-7.39 1.78 2.39
-7.42 1.64 2.39
-7.45 1.49 2.39
-7.48 1.33 2.39
-7.50 1.18 2.39
-7.53 1.03 2.39
-7.54 0.88 2.39
-7.56 0.73 2.39
-7.57 0.58 2.39
-7.58 0.42 2.39
-7.59 0.27 2.39
-7.59 0.12 2.39
-7.59 -0.03 2.39
-7.58 -0.19 2.39
-7.58 -0.34 2.39
-7.57 -0.49 2.39
-7.56 -0.64 2.39
-7.54 -0.80 2.39
-7.52 -0.95 2.39
-7.50 -1.10 2.39
-7.48 -1.25 2.39
-7.45 -1.40 2.39
-7.42 -1.55 2.39
-7.39 -1.70 2.39
-7.35 -1.85 2.39
-7.32 -1.99 2.39
-7.27 -2.14 2.39
-7.23 -2.29 2.39
-6.82 -2.31 2.27
-6.77 -2.44 2.27
-6.93 -2.66 2.34
-6.91 -2.81 2.35
-6.85 -2.95 2.35
-6.79 -3.09 2.35
-6.49 -3.11 2.27
-6.43 -3.24 2.27
-6.37 -3.38 2.27
-6.37 -3.54 2.30
-6.38 -3.72 2.32
-6.38 -3.89 2.35
-6.39 -4.08 2.39
-6.32 -4.21 2.39
-6.23 -4.34 2.39
-6.15 -4.46 2.39
-6.06 -4.59 2.39
-6.05 -4.78 2.43
-6.06 -4.98 2.47
-6.02 -5.16 2.49
-5.92 -5.28 2.49
-5.81 -5.40 2.49
-5.70 -5.52 2.49
-5.59 -5.63 2.49
-5.48 -5.75 2.49
-5.36 -5.86 2.49
-5.25 -5.96 2.49
-5.13 -6.07 2.49
-5.01 -6.17 2.49
-4.88 -6.28 2.49
-4.76 -6.37 2.49
-4.63 -6.47 2.49
-4.50 -6.56 2.49
-4.37 -6.66 2.49
-4.23 -6.74 2.49
-4.10 -6.83 2.49
-3.96 -6.91 2.49
-3.82 -7.00 2.49
-3.68 -7.07 2.49
-3.54 -7.15 2.49
-3.40 -7.22 2.49
-3.25 -7.29 2.49
-3.11 -7.36 2.49
-2.96 -7.42 2.49
-2.81 -7.48 2.49
-2.66 -7.54 2.49
-2.51 -7.60 2.49
-2.36 -7.65 2.49
-2.21 -7.70 2.49
-2.05 -7.74 2.49
-1.90 -7.79 2.49
-1.74 -7.83 2.49
-1.58 -7.86 2.49
-1.43 -7.90 2.49
-1.27 -7.93 2.49
-1.11 -7.96 2.49
-0.95 -7.98 2.49
-0.79 -8.00 2.49
-0.63 -8.02 2.49
-0.47 -8.03 2.49
-0.31 -8.05 2.49
-0.14 -8.05 2.49
0.02 -7.46 2.49
0.17 -7.46 2.49
0.32 -7.46 2.49
0.47 -7.46 2.49
0.62 -7.45 2.49
0.77 -7.44 2.49
0.92 -7.42 2.49
1.07 -7.41 2.49
1.21 -7.39 2.49
1.36 -7.37 2.49
1.51 -7.34 2.49
1.66 -7.31 2.49
1.81 -7.28 2.49
1.93 -7.15 2.46
2.01 -6.91 2.39
2.15 -6.87 2.39
2.29 -6.83 2.39
2.43 -6.79 2.39
2.56 -6.74 2.39
2.70 -6.69 2.39
2.84 -6.64 2.39
2.97 -6.58 2.39
3.10 -6.52 2.39
3.23 -6.46 2.39
3.37 -6.40 2.39
3.49 -6.33 2.39
3.62 -6.27 2.39
3.75 -6.20 2.39
3.87 -6.12 2.39
4.00 -6.05 2.39
4.12 -5.97 2.39
4.24 -5.89 2.39
4.36 -5.80 2.39
4.48 -5.72 2.39
4.59 -5.63 2.39
4.71 -5.54 2.39
4.82 -5.44 2.39
4.93 -5.35 2.39
5.04 -5.25 2.39
5.14 -5.15 2.39
5.25 -5.05 2.39
5.35 -4.94 2.39
5.45 -4.84 2.39
5.55 -4.73 2.39
5.64 -4.62 2.39
5.74 -4.51 2.39
5.83 -4.39 2.39
5.92 -4.28 2.39
6.01 -4.16 2.39
6.14 -4.07 2.41
6.22 -3.95 2.41
6.30 -3.82 2.41
6.38 -3.70 2.41
6.45 -3.57 2.41
6.52 -3.44 2.41
6.59 -3.31 2.41
6.66 -3.18 2.41
6.72 -3.04 2.41
6.78 -2.91 2.41
6.84 -2.77 2.41
6.90 -2.64 2.41
6.95 -2.50 2.41
7.00 -2.36 2.41
7.05 -2.22 2.41
7.10 -2.08 2.41
7.14 -1.94 2.41
7.18 -1.79 2.41
7.22 -1.65 2.41
7.26 -1.51 2.41
7.29 -1.36 2.41
7.32 -1.22 2.41
7.35 -1.07 2.42
7.14 -0.89 2.34
7.16 -0.75 2.34
7.17 -0.61 2.34
7.18 -0.46 2.34
7.19 -0.32 2.34
7.20 -0.18 2.34
7.20 -0.03 2.34
7.20 0.11 2.34
7.20 0.26 2.34
7.20 0.40 2.34
7.19 0.54 2.34
7.18 0.69 2.34
7.17 0.83 2.34
7.15 0.98 2.34
7.34 1.15 2.41
7.31 1.30 2.41
7.28 1.44 2.41
7.24 1.59 2.41
7.21 1.73 2.41
7.18 1.88 2.41
7.14 2.02 2.41
7.10 2.16 2.41
7.06 2.31 2.41
7.01 2.45 2.41
6.96 2.59 2.41
6.91 2.73 2.41
6.86 2.87 2.41
6.80 3.00 2.41
6.74 3.14 2.41
6.67 3.27 2.41
6.60 3.41 2.41
6.53 3.54 2.41
6.45 3.66 2.41
6.38 3.79 2.41
6.25 3.88 2.39
6.17 4.01 2.39
6.08 4.13 2.39
6.00 4.25 2.39
5.91 4.37 2.39
5.82 4.49 2.39
5.73 4.60 2.39
5.63 4.71 2.39
5.54 4.82 2.39
5.44 4.93 2.39
5.34 5.04 2.39
5.23 5.14 2.39
5.13 5.25 2.39
5.02 5.35 2.39
4.91 5.45 2.39
4.80 5.54 2.39
4.69 5.63 2.39
4.57 5.73 2.39
4.46 5.81 2.39
4.34 5.90 2.39
4.22 5.98 2.39
4.09 6.07 2.39
3.97 6.15 2.39
3.85 6.22 2.39
3.72 6.30 2.39
3.59 6.37 2.39
3.46 6.43 2.39
3.33 6.50 2.39
3.20 6.56 2.39
3.07 6.62 2.39
2.93 6.68 2.39
2.80 6.74 2.39
2.66 6.79 2.39
2.52 6.84 2.39
2.38 6.88 2.39
2.34 7.23 2.49
2.19 7.27 2.49
2.05 7.31 2.49
1.90 7.35 2.49
1.75 7.38 2.49
1.60 7.41 2.49
1.45 7.44 2.49
1.30 7.46 2.49
1.15 7.48 2.49
1.00 7.50 2.49
0.85 7.52 2.49
0.70 7.53 2.49
0.55 7.54 2.49
0.40 7.54 2.49
0.24 7.55 2.49
0.09 7.55 2.49
-0.06 7.54 2.49
-0.21 7.54 2.49
-0.36 7.53 2.49
-0.51 7.52 2.49
-0.66 7.50 2.49
-0.81 7.48 2.49
-0.96 7.46 2.49
-1.11 7.44 2.49
-1.26 7.41 2.49
-1.41 7.38 2.49
-1.55 7.35 2.49
-1.70 7.31 2.49
-1.85 7.27 2.49
-1.99 7.23 2.49
-2.13 7.18 2.49
-2.28 7.14 2.49
-2.42 7.09 2.49
-2.56 7.03 2.49
-2.70 6.98 2.49
-2.84 6.92 2.49
-2.97 6.86 2.49
-3.11 6.79 2.49
-3.24 6.73 2.49
-3.38 6.66 2.49
-3.51 6.58 2.49
-3.64 6.51 2.49
-3.77 6.43 2.49
-3.89 6.35 2.49
-4.02 6.27 2.49
-4.14 6.18 2.49
-4.26 6.10 2.49
-4.38 6.01 2.49
-4.50 5.92 2.49
-4.62 5.82 2.49
-4.73 5.73 2.49
-4.84 5.63 2.49
-4.95 5.53 2.49
-5.06 5.42 2.49
-5.17 5.32 2.49
-5.27 5.21 2.49
-5.37 5.10 2.49
-5.47 4.99 2.49
-5.57 4.88 2.49
-5.66 4.76 2.49
-5.75 4.65 2.49
-5.78 4.48 2.47
-5.79 4.30 2.43
-5.80 4.13 2.40
-5.85 3.99 2.39
-5.93 3.87 2.39
-6.00 3.75 2.39
-6.07 3.63 2.39
-6.14 3.50 2.39
-6.21 3.38 2.39
-6.27 3.25 2.39
-6.06 2.99 2.29
-6.11 2.86 2.28
-6.45 2.87 2.39
-6.51 2.74 2.39
-6.56 2.60 2.39
-6.61 2.47 2.39
-6.66 2.34 2.39
-6.70 2.20 2.39
-6.74 2.07 2.39
-6.78 1.93 2.39
-6.82 1.79 2.39
-6.85 1.65 2.39
-6.88 1.52 2.39
-6.91 1.38 2.39
-6.93 1.24 2.39
-6.95 1.10 2.39
-6.97 0.96 2.39
-6.99 0.82 2.39
-7.00 0.68 2.39
-7.01 0.53 2.39
-7.02 0.39 2.39
-7.03 0.25 2.39
-7.03 0.11 2.39
-7.03 -0.03 2.39
-7.03 -0.17 2.39
-7.02 -0.31 2.39
-7.01 -0.46 2.39
-7.00 -0.60 2.39
-6.99 -0.74 2.39
-6.97 -0.88 2.39
-6.95 -1.02 2.39
-6.93 -1.16 2.39
-6.91 -1.30 2.39
-6.88 -1.43 2.39
-6.85 -1.57 2.39
-6.82 -1.71 2.39
-6.78 -1.85 2.39
-6.74 -1.98 2.39
-6.70 -2.12 2.39
-6.66 -2.25 2.39
-6.34 -2.29 2.29
-6.34 -2.43 2.31
-6.34 -2.58 2.33
-6.35 -2.74 2.35
-6.35 -2.89 2.37
-6.34 -3.04 2.39
-6.28 -3.17 2.39
-6.21 -3.29 2.39
-6.15 -3.42 2.39
-6.08 -3.54 2.39
-6.03 -3.68 2.40
-6.03 -3.84 2.43
-6.03 -4.02 2.46
-6.02 -4.19 2.49
-5.94 -4.31 2.49
-5.85 -4.43 2.49
-5.76 -4.55 2.49
-5.67 -4.67 2.49
-5.58 -4.78 2.49
-5.48 -4.89 2.49
-5.38 -5.00 2.49
-5.28 -5.11 2.49
-5.18 -5.22 2.49
-5.08 -5.32 2.49
-4.97 -5.43 2.49
-4.86 -5.53 2.49
-4.75 -5.62 2.49
-4.64 -5.72 2.49
-4.52 -5.81 2.49
-4.41 -5.91 2.49
-4.29 -5.99 2.49
-4.17 -6.08 2.49
-4.04 -6.17 2.49
-3.92 -6.25 2.49
-3.80 -6.33 2.49
-3.67 -6.41 2.49
-3.54 -6.48 2.49
-3.41 -6.55 2.49
-3.28 -6.62 2.49
-3.15 -6.69 2.49
-3.01 -6.75 2.49
-2.88 -6.81 2.49
-2.74 -6.87 2.49
-2.60 -6.93 2.49
-2.46 -6.98 2.49
-2.33 -7.03 2.49
-2.18 -7.08 2.49
-2.04 -7.13 2.49
-1.90 -7.17 2.49
-1.76 -7.21 2.49
-1.61 -7.25 2.49
-1.47 -7.28 2.49
-1.32 -7.31 2.49
-1.17 -7.34 2.49
-1.03 -7.37 2.49
-0.88 -7.39 2.49
-0.73 -7.41 2.49
-0.58 -7.42 2.49
-0.43 -7.44 2.49
-0.28 -7.45 2.49
-0.13 -7.46 2.49
0.02 -6.94 2.49
0.16 -6.94 2.49
0.30 -6.94 2.49
0.44 -6.93 2.49
0.57 -6.92 2.49
0.71 -6.91 2.49
0.85 -6.90 2.49
0.99 -6.89 2.49
1.13 -6.87 2.49
1.27 -6.85 2.49
1.41 -6.82 2.49
1.54 -6.80 2.49
1.68 -6.77 2.49
1.82 -6.74 2.49
1.94 -6.67 2.48
2.00 -6.39 2.39
2.13 -6.35 2.39
2.26 -6.31 2.39
2.38 -6.26 2.39
2.51 -6.22 2.39
2.64 -6.17 2.39
2.76 -6.12 2.39
2.88 -6.06 2.39
3.01 -6.01 2.39
3.13 -5.95 2.39
3.25 -5.89 2.39
3.37 -5.82 2.39
3.48 -5.76 2.39
3.60 -5.69 2.39
3.72 -5.62 2.39
3.83 -5.54 2.39
3.94 -5.47 2.39
4.05 -5.39 2.39
4.16 -5.31 2.39
4.27 -5.23 2.39
4.37 -5.14 2.39
4.48 -5.06 2.39
4.58 -4.97 2.39
4.68 -4.88 2.39
4.78 -4.78 2.39
4.88 -4.69 2.39
4.97 -4.59 2.39
5.06 -4.49 2.39
5.15 -4.39 2.39
5.24 -4.29 2.39
5.33 -4.18 2.39
5.42 -4.08 2.39
5.50 -3.97 2.39
5.58 -3.86 2.39
5.66 -3.75 2.39
5.73 -3.64 2.39
5.81 -3.52 2.39
5.88 -3.41 2.39
5.95 -3.29 2.39
6.01 -3.17 2.39
6.12 -3.07 2.41
6.18 -2.95 2.41
6.24 -2.83 2.41
6.30 -2.70 2.41
6.36 -2.58 2.41
6.41 -2.45 2.41
6.46 -2.32 2.41
6.51 -2.19 2.41
6.56 -2.06 2.41
6.60 -1.93 2.41
6.64 -1.80 2.41
6.68 -1.67 2.41
6.71 -1.53 2.41
6.75 -1.40 2.42
6.78 -1.27 2.42
6.81 -1.13 2.42
6.66 -0.97 2.36
6.68 -0.84 2.36
6.70 -0.70 2.36
6.71 -0.57 2.36
6.72 -0.43 2.36
6.73 -0.30 2.36
6.73 -0.16 2.36
6.74 -0.03 2.36
6.74 0.11 2.36
6.74 0.24 2.36
6.73 0.38 2.36
6.72 0.51 2.36
6.71 0.64 2.36
6.70 0.78 2.36
6.69 0.91 2.36
6.67 1.05 2.36
6.78 1.20 2.41
6.75 1.34 2.41
6.73 1.48 2.41
6.70 1.61 2.41
6.66 1.74 2.41
6.63 1.88 2.41
6.59 2.01 2.41
6.55 2.14 2.41
6.51 2.27 2.41
6.46 2.40 2.41
6.42 2.53 2.41
6.37 2.66 2.41
6.31 2.79 2.41
6.19 2.89 2.39
6.13 3.01 2.39
6.07 3.13 2.39
6.01 3.25 2.39
5.94 3.37 2.39
5.87 3.49 2.39
5.80 3.61 2.39
5.72 3.72 2.39
5.65 3.83 2.39
5.57 3.95 2.39
5.49 4.06 2.39
5.40 4.16 2.39
5.32 4.27 2.39
5.23 4.38 2.39
5.14 4.48 2.39
5.05 4.58 2.39
4.96 4.68 2.39
4.86 4.78 2.39
4.76 4.87 2.39
4.66 4.96 2.39
4.56 5.06 2.39
4.46 5.14 2.39
4.35 5.23 2.39
4.25 5.32 2.39
4.14 5.40 2.39
4.03 5.48 2.39
3.92 5.56 2.39
3.80 5.63 2.39
3.69 5.71 2.39
3.57 5.78 2.39
3.45 5.85 2.39
3.34 5.91 2.39
3.22 5.98 2.39
3.09 6.04 2.39
2.97 6.10 2.39
2.85 6.15 2.39
2.72 6.21 2.39
2.60 6.26 2.39
2.47 6.30 2.39
2.34 6.35 2.39
2.31 6.67 2.49
2.17 6.71 2.49
2.04 6.75 2.49
1.90 6.79 2.49
1.77 6.82 2.49
1.63 6.85 2.49
1.49 6.88 2.49
1.35 6.91 2.49
1.21 6.93 2.49
1.07 6.95 2.49
0.93 6.97 2.49
0.79 6.98 2.49
0.65 6.99 2.49
