ply
format ascii 1.0
element vertex 2967
property float32 x
property float32 y
property float32 z
end_header
2.30 13.31 2.49
2.03 13.35 2.49
1.76 13.38 2.49
1.50 13.41 2.49
1.23 13.43 2.49
0.96 13.44 2.49
0.69 13.46 2.49
0.42 13.46 2.49
0.14 13.46 2.49
-0.13 13.46 2.49
-0.39 13.44 2.49
-0.66 13.43 2.49
-0.93 13.41 2.49
-1.20 13.38 2.49
-1.47 13.35 2.49
-1.74 13.31 2.49
-2.00 13.26 2.49
-2.27 13.21 2.49
-2.53 13.16 2.49
-2.79 13.10 2.49
-3.05 13.03 2.49
-3.31 12.96 2.49
-3.57 12.89 2.49
-3.83 12.81 2.49
-4.08 12.72 2.49
-4.33 12.63 2.49
-4.58 12.54 2.49
-4.83 12.44 2.49
-5.08 12.33 2.49
-5.32 12.22 2.49
-5.56 12.10 2.49
-5.72 11.82 2.46
-5.79 11.37 2.39
-6.01 11.24 2.39
-5.98 10.66 2.29
-6.45 10.98 2.39
-6.67 10.85 2.39
-6.88 10.70 2.39
-7.09 10.56 2.39
-7.30 10.41 2.39
-7.50 10.25 2.39
-7.70 10.10 2.39
-7.90 9.94 2.39
-8.09 9.77 2.39
-8.28 9.60 2.39
-8.47 9.43 2.39
-8.65 9.25 2.39
-8.83 9.07 2.39
-9.01 8.89 2.39
-9.18 8.70 2.39
-9.35 8.51 2.39
-9.51 8.32 2.39
-9.67 8.12 2.39
-9.83 7.92 2.39
-10.88 8.41 2.61
-9.87 7.32 2.33
-13.22 9.40 3.08
-9.89 6.74 2.27
-13.54 8.83 3.07
-13.70 8.55 3.07
-9.91 5.91 2.19
-13.98 7.96 3.06
-14.18 7.70 3.07
-14.38 7.44 3.08
-14.57 7.17 3.09
-14.76 6.90 3.10
-14.95 6.63 3.12
-9.97 4.18 2.06
-15.25 6.04 3.13
-9.97 3.72 2.03
-15.53 5.44 3.14
-9.98 3.27 2.01
-15.75 4.82 3.15
-15.84 4.50 3.15
-15.94 4.18 3.15
-16.04 3.87 3.15
-16.18 3.56 3.17
-10.01 1.99 1.95
-16.44 2.93 3.20
-16.55 2.61 3.21
-16.22 2.22 3.14
-10.03 1.17 1.93
-15.55 1.50 3.00
-15.65 1.19 3.01
-15.74 0.88 3.02
-10.05 0.36 1.93
-15.92 0.25 3.06
-16.00 -0.07 3.07
-16.06 -0.40 3.09
-16.12 -0.72 3.10
-16.08 -1.04 3.10
-15.75 -1.34 3.04
-15.42 -1.62 2.98
-15.06 -1.89 2.92
-15.07 -2.20 2.93
-15.10 -2.52 2.94
-10.11 -1.89 1.98
-15.15 -3.16 2.98
-15.16 -3.48 2.99
-15.17 -3.80 3.01
-15.14 -4.12 3.02
-14.98 -4.40 3.01
-14.77 -4.66 2.98
-10.14 -3.43 2.06
-14.35 -5.18 2.94
-14.22 -5.45 2.93
-14.09 -5.73 2.93
-13.95 -6.00 2.93
-13.81 -6.27 2.92
-13.61 -6.52 2.91
-13.52 -6.81 2.92
-13.34 -7.06 2.91
-10.22 -5.67 2.25
-10.22 -5.94 2.28
-11.76 -7.16 2.65
-10.24 -6.52 2.34
-11.35 -7.55 2.63
-10.18 -7.08 2.39
-10.04 -7.28 2.39
-9.89 -7.48 2.39
-9.74 -7.68 2.39
-9.58 -7.87 2.39
-9.42 -8.06 2.39
-9.26 -8.25 2.39
-9.09 -8.44 2.39
-8.92 -8.62 2.39
-8.75 -8.80 2.39
-8.57 -8.97 2.39
-8.39 -9.14 2.39
-8.21 -9.31 2.39
-8.02 -9.47 2.39
-7.83 -9.63 2.39
-7.63 -9.79 2.39
-7.44 -9.94 2.39
-7.24 -10.09 2.39
-7.03 -10.24 2.39
-6.83 -10.38 2.39
-6.62 -10.52 2.39
-6.41 -10.65 2.39
-6.31 -10.98 2.43
-6.24 -11.37 2.49
-6.01 -11.50 2.49
-5.78 -11.62 2.49
-5.54 -11.74 2.49
-5.31 -11.85 2.49
-5.07 -11.96 2.49
-4.83 -12.06 2.49
-4.59 -12.16 2.49
-4.34 -12.25 2.49
-4.10 -12.34 2.49
-3.85 -12.42 2.49
-3.60 -12.50 2.49
-3.35 -12.58 2.49
-3.10 -12.65 2.49
-2.85 -12.71 2.49
-2.59 -12.77 2.49
-2.33 -12.82 2.49
-2.08 -12.87 2.49
-1.82 -12.92 2.49
-1.56 -12.95 2.49
-1.30 -12.99 2.49
-1.04 -13.02 2.49
-0.78 -13.04 2.49
-0.52 -13.06 2.49
-0.25 -13.07 2.49
0.01 -11.65 2.49
0.24 -11.65 2.49
0.48 -11.65 2.49
0.71 -11.64 2.49
0.95 -11.63 2.49
1.18 -11.61 2.49
1.41 -11.59 2.49
1.65 -11.56 2.49
1.80 -11.06 2.39
2.02 -11.02 2.39
2.25 -10.98 2.39
2.47 -10.94 2.39
2.69 -10.89 2.39
2.91 -10.84 2.39
3.12 -10.79 2.39
3.34 -10.73 2.39
3.56 -10.66 2.39
3.77 -10.59 2.39
3.99 -10.52 2.39
4.20 -10.44 2.39
4.41 -10.36 2.39
4.62 -10.27 2.39
4.71 -9.94 2.33
4.96 -9.95 2.36
5.22 -9.96 2.38
2.05 -3.73 0.90
5.64 -9.78 2.39
5.91 -9.80 2.42
6.11 -9.68 2.42
6.31 -9.56 2.42
6.50 -9.44 2.42
6.69 -9.31 2.42
6.88 -9.18 2.42
7.07 -9.05 2.42
7.26 -8.91 2.42
7.43 -8.76 2.42
7.61 -8.61 2.42
7.78 -8.45 2.42
7.94 -8.29 2.42
8.10 -8.13 2.42
7.94 -7.65 2.32
8.08 -7.48 2.31
4.98 -4.42 1.40
5.02 -4.28 1.39
5.04 -4.13 1.37
5.10 -4.01 1.36
5.28 -3.99 1.39
5.75 -4.16 1.49
5.75 -3.99 1.47
5.76 -3.82 1.45
5.76 -3.66 1.43
5.76 -3.50 1.41
5.77 -3.35 1.40
5.77 -3.20 1.38
5.78 -3.05 1.37
5.78 -2.91 1.35
5.78 -2.76 1.34
5.79 -2.62 1.33
5.79 -2.49 1.32
5.79 -2.35 1.30
5.79 -2.22 1.29
5.79 -2.08 1.28
5.78 -1.95 1.27
5.78 -1.82 1.26
5.77 -1.69 1.25
5.76 -1.57 1.24
5.76 -1.44 1.24
5.76 -1.32 1.23
5.76 -1.20 1.22
5.75 -1.08 1.22
5.76 -0.96 1.21
5.77 -0.84 1.21
5.78 -0.73 1.21
5.80 -0.61 1.21
5.83 -0.50 1.22
5.87 -0.38 1.22
5.92 -0.26 1.23
5.98 -0.15 1.24
6.05 -0.03 1.26
6.14 0.10 1.27
6.26 0.22 1.30
6.42 0.36 1.33
6.66 0.51 1.38
10.81 1.04 2.25
10.79 1.26 2.25
10.36 1.42 2.16
10.33 1.62 2.16
10.31 1.83 2.17
10.28 2.04 2.17
10.24 2.25 2.17
10.20 2.46 2.17
10.16 2.66 2.17
10.12 2.87 2.17
10.07 3.08 2.18
10.02 3.28 2.18
9.96 3.49 2.18
10.38 3.87 2.29
10.32 4.08 2.29
10.25 4.29 2.30
10.21 4.52 2.31
10.16 4.75 2.32
10.12 4.97 2.33
10.06 5.20 2.34
10.00 5.42 2.35
9.91 5.64 2.36
9.83 5.85 2.36
9.74 6.07 2.37
9.65 6.28 2.38
9.55 6.49 2.39
9.45 6.71 2.39
9.05 6.70 2.33
8.75 6.75 2.28
8.63 6.94 2.29
8.51 7.13 2.29
8.38 7.31 2.30
8.25 7.50 2.30
8.12 7.68 2.31
7.98 7.86 2.31
7.84 8.03 2.32
7.69 8.21 2.32
7.55 8.38 2.33
7.39 8.55 2.34
7.24 8.72 2.34
7.26 9.11 2.41
7.07 9.25 2.41
6.89 9.39 2.41
6.70 9.53 2.41
6.51 9.66 2.41
6.26 9.71 2.39
6.06 9.83 2.39
5.86 9.95 2.39
5.66 10.06 2.39
5.46 10.17 2.39
5.25 10.28 2.39
5.04 10.38 2.39
4.83 10.47 2.39
4.62 10.57 2.39
4.40 10.65 2.39
4.19 10.74 2.39
3.97 10.82 2.39
3.75 10.89 2.39
3.53 10.96 2.39
3.31 11.03 2.39
3.09 11.09 2.39
2.86 11.14 2.39
2.64 11.20 2.39
2.41 11.24 2.39
2.28 11.77 2.49
2.04 11.81 2.49
1.81 11.85 2.49
1.57 11.88 2.49
1.33 11.90 2.49
1.09 11.92 2.49
0.85 11.94 2.49
0.61 11.95 2.49
0.37 11.95 2.49
0.13 11.95 2.49
-0.11 11.95 2.49
-0.35 11.94 2.49
-0.59 11.92 2.49
-0.83 11.90 2.49
-1.07 11.88 2.49
-1.30 11.85 2.49
-1.54 11.82 2.49
-1.78 11.78 2.49
-2.01 11.74 2.49
-2.25 11.69 2.49
-2.48 11.64 2.49
-2.71 11.58 2.49
-2.94 11.52 2.49
-3.17 11.45 2.49
-3.40 11.38 2.49
-3.62 11.31 2.49
-3.85 11.23 2.49
-4.07 11.14 2.49
-4.29 11.05 2.49
-4.51 10.96 2.49
-4.73 10.86 2.49
-4.94 10.76 2.49
-5.15 10.65 2.49
-5.37 10.54 2.49
-5.57 10.43 2.49
-5.76 10.28 2.49
-5.78 9.84 2.41
-5.93 9.64 2.39
-6.12 9.52 2.39
-6.30 9.39 2.39
-6.49 9.26 2.39
-6.67 9.12 2.39
-6.85 8.98 2.39
-7.02 8.84 2.39
-7.20 8.69 2.39
-7.37 8.54 2.39
-7.53 8.39 2.39
-7.70 8.23 2.39
-7.86 8.07 2.39
-8.01 7.91 2.39
-8.17 7.74 2.39
-8.32 7.57 2.39
-8.46 7.40 2.39
-8.61 7.23 2.39
-8.74 7.05 2.39
-8.88 6.87 2.39
-9.01 6.69 2.39
-9.14 6.50 2.39
-9.27 6.31 2.39
-9.39 6.12 2.39
-9.50 5.93 2.39
-9.62 5.74 2.39
-9.73 5.54 2.39
-9.83 5.34 2.39
-11.06 5.72 2.66
-11.35 5.59 2.70
-11.66 5.45 2.75
-11.97 5.31 2.80
-9.97 4.18 2.31
-12.55 4.97 2.89
-9.97 3.72 2.28
-9.97 3.49 2.26
-9.99 3.28 2.25
-13.33 4.08 2.99
-13.38 3.80 2.98
-10.00 2.62 2.22
-13.42 3.24 2.96
-13.46 2.96 2.96
-13.49 2.69 2.96
-13.52 2.41 2.95
-13.54 2.13 2.95
-10.03 1.37 2.18
-10.03 1.17 2.17
-10.04 0.97 2.17
-13.88 1.06 3.00
-13.91 0.78 3.00
-13.93 0.50 3.00
-13.94 0.22 3.00
-13.94 -0.06 3.00
-13.78 -0.34 2.97
-13.61 -0.61 2.94
-13.63 -0.88 2.95
-13.65 -1.16 2.95
-13.67 -1.44 2.96
-13.68 -1.72 2.97
-13.68 -2.00 2.98
-13.69 -2.28 2.99
-10.11 -1.89 2.22
-13.65 -2.84 3.01
-13.59 -3.12 3.01
-10.13 -2.54 2.26
-10.13 -2.76 2.27
-13.36 -3.93 3.01
-12.27 -3.87 2.78
-10.14 -3.43 2.31
-11.31 -4.08 2.60
-11.25 -4.32 2.61
-11.17 -4.54 2.61
-10.16 -4.37 2.39
-10.07 -4.57 2.39
-9.97 -4.77 2.39
-9.87 -4.97 2.39
-9.77 -5.17 2.39
-9.67 -5.37 2.39
-9.56 -5.56 2.39
-9.44 -5.75 2.39
-9.32 -5.94 2.39
-9.20 -6.12 2.39
-9.08 -6.31 2.39
-8.95 -6.49 2.39
-8.82 -6.67 2.39
-8.68 -6.84 2.39
-8.54 -7.02 2.39
-8.40 -7.19 2.39
-8.26 -7.36 2.39
-8.11 -7.52 2.39
-7.95 -7.68 2.39
-7.80 -7.84 2.39
-7.64 -8.00 2.39
-7.48 -8.15 2.39
-7.31 -8.30 2.39
-7.15 -8.45 2.39
-6.98 -8.59 2.39
-6.80 -8.73 2.39
-6.63 -8.86 2.39
-6.45 -9.00 2.39
-6.27 -9.13 2.39
-6.27 -9.53 2.46
-6.15 -9.78 2.49
-5.96 -9.90 2.49
-5.76 -10.02 2.49
-5.56 -10.14 2.49
-5.35 -10.25 2.49
-5.15 -10.36 2.49
-4.94 -10.46 2.49
-4.73 -10.56 2.49
-4.52 -10.66 2.49
-4.30 -10.75 2.49
-4.09 -10.83 2.49
-3.87 -10.92 2.49
-3.65 -11.00 2.49
-3.43 -11.07 2.49
-3.21 -11.14 2.49
-2.98 -11.21 2.49
-2.76 -11.27 2.49
-2.53 -11.32 2.49
-2.31 -11.38 2.49
-2.08 -11.42 2.49
-1.85 -11.47 2.49
-1.62 -11.51 2.49
-1.39 -11.54 2.49
-1.16 -11.57 2.49
-0.92 -11.59 2.49
-0.69 -11.61 2.49
-0.46 -11.63 2.49
-0.22 -11.64 2.49
0.01 -10.49 2.49
0.22 -10.49 2.49
0.43 -10.49 2.49
0.64 -10.48 2.49
0.85 -10.47 2.49
1.06 -10.45 2.49
1.27 -10.43 2.49
1.48 -10.41 2.49
1.69 -10.38 2.49
1.82 -9.92 2.39
2.02 -9.89 2.39
2.22 -9.85 2.39
2.42 -9.80 2.39
2.62 -9.76 2.39
2.81 -9.71 2.39
3.01 -9.65 2.39
3.20 -9.59 2.39
3.40 -9.53 2.39
3.59 -9.47 2.39
3.78 -9.40 2.39
3.97 -9.32 2.39
4.16 -9.24 2.39
4.34 -9.16 2.39
4.53 -9.08 2.39
4.71 -8.99 2.39
2.05 -3.73 1.00
5.07 -8.80 2.39
5.25 -8.70 2.39
5.43 -8.60 2.39
5.60 -8.49 2.39
5.77 -8.38 2.39
6.01 -8.36 2.42
6.18 -8.24 2.42
6.34 -8.11 2.42
6.50 -7.98 2.42
6.50 -7.66 2.36
6.65 -7.52 2.35
6.79 -7.38 2.35
6.93 -7.23 2.34
7.06 -7.08 2.34
7.19 -6.93 2.34
7.32 -6.78 2.33
5.01 -4.45 1.57
5.01 -4.28 1.54
5.03 -4.12 1.52
5.10 -4.01 1.51
5.33 -4.02 1.56
5.75 -4.16 1.66
5.75 -3.99 1.63
5.76 -3.82 1.61
5.76 -3.66 1.59
5.76 -3.50 1.57
5.77 -3.35 1.55
5.77 -3.20 1.54
5.78 -3.05 1.52
5.78 -2.91 1.50
5.78 -2.76 1.49
5.79 -2.62 1.48
5.79 -2.49 1.46
5.79 -2.35 1.45
5.79 -2.22 1.44
5.79 -2.08 1.43
5.78 -1.95 1.42
5.78 -1.82 1.40
5.77 -1.69 1.39
5.76 -1.57 1.38
5.76 -1.44 1.38
5.76 -1.32 1.37
5.76 -1.20 1.36
5.75 -1.08 1.36
5.76 -0.96 1.35
5.77 -0.84 1.35
5.78 -0.72 1.35
5.80 -0.61 1.35
5.83 -0.49 1.35
5.87 -0.38 1.36
5.92 -0.26 1.37
5.98 -0.15 1.38
6.05 -0.03 1.40
6.14 0.10 1.42
6.26 0.22 1.45
6.42 0.36 1.48
6.66 0.51 1.54
9.70 0.93 2.25
9.69 1.13 2.25
9.67 1.32 2.25
9.42 1.48 2.20
9.40 1.67 2.20
9.37 1.86 2.20
9.34 2.05 2.20
9.30 2.24 2.20
9.27 2.43 2.21
9.22 2.62 2.21
9.18 2.80 2.21
9.13 2.99 2.21
9.08 3.18 2.21
9.02 3.36 2.22
9.45 3.74 2.34
9.41 3.94 2.35
9.37 4.15 2.36
9.32 4.35 2.37
9.28 4.56 2.38
9.22 4.77 2.39
9.16 4.97 2.40
9.09 5.17 2.41
8.99 5.35 2.41
8.88 5.53 2.41
8.76 5.71 2.41
8.65 5.88 2.41
8.53 6.05 2.41
8.40 6.22 2.41
8.28 6.39 2.41
8.16 6.56 2.41
8.03 6.73 2.41
7.73 6.75 2.36
7.49 6.81 2.33
7.37 6.97 2.34
7.24 7.13 2.34
7.11 7.29 2.35
6.98 7.45 2.35
6.85 7.60 2.36
6.71 7.76 2.36
6.57 7.91 2.37
6.42 8.06 2.37
6.27 8.20 2.38
6.12 8.35 2.38
5.96 8.49 2.39
5.79 8.60 2.39
5.62 8.72 2.39
5.44 8.83 2.39
5.26 8.93 2.39
5.08 9.03 2.39
4.90 9.13 2.39
4.71 9.23 2.39
4.53 9.32 2.39
4.34 9.40 2.39
4.15 9.49 2.39
3.95 9.57 2.39
3.76 9.64 2.39
3.57 9.71 2.39
3.37 9.78 2.39
3.17 9.84 2.39
2.97 9.90 2.39
2.77 9.96 2.39
2.57 10.01 2.39
2.37 10.05 2.39
2.26 10.53 2.49
2.05 10.57 2.49
1.84 10.61 2.49
1.62 10.64 2.49
1.41 10.67 2.49
1.19 10.69 2.49
0.98 10.71 2.49
0.76 10.72 2.49
0.55 10.73 2.49
0.33 10.74 2.49
0.12 10.74 2.49
-0.10 10.73 2.49
-0.31 10.72 2.49
-0.53 10.71 2.49
-0.74 10.70 2.49
-0.96 10.67 2.49
-1.17 10.65 2.49
-1.38 10.62 2.49
-1.60 10.59 2.49
-1.81 10.55 2.49
-2.02 10.51 2.49
-2.23 10.46 2.49
-2.43 10.41 2.49
-2.64 10.35 2.49
-2.85 10.29 2.49
-3.05 10.23 2.49
-3.26 10.16 2.49
-3.46 10.09 2.49
-3.66 10.02 2.49
-3.86 9.94 2.49
-4.05 9.85 2.49
-4.25 9.77 2.49
-4.44 9.67 2.49
-4.63 9.58 2.49
-4.82 9.48 2.49
-5.01 9.38 2.49
-5.20 9.27 2.49
-5.38 9.16 2.49
-5.56 9.05 2.49
-5.74 8.93 2.49
-5.80 8.65 2.45
-5.83 8.33 2.39
-6.01 8.22 2.39
-6.16 8.08 2.39
-6.32 7.95 2.39
-6.47 7.82 2.39
-6.63 7.68 2.39
-6.78 7.55 2.39
-6.92 7.41 2.39
-7.07 7.26 2.39
-7.21 7.12 2.39
-7.35 6.97 2.39
-7.48 6.82 2.39
-7.61 6.66 2.39
-7.74 6.50 2.39
-7.87 6.34 2.39
-7.99 6.18 2.39
-8.11 6.02 2.39
-8.23 5.85 2.39
-8.34 5.68 2.39
-8.45 5.51 2.39
-8.55 5.34 2.39
-8.66 5.17 2.39
-8.76 4.99 2.39
-8.85 4.81 2.39
-8.94 4.63 2.39
-9.03 4.45 2.39
-9.11 4.26 2.39
-9.20 4.08 2.39
-9.27 3.89 2.39
-9.35 3.70 2.39
-9.41 3.51 2.39
-9.48 3.32 2.39
-9.54 3.13 2.39
-9.60 2.94 2.39
-9.65 2.74 2.39
-9.70 2.55 2.39
-9.75 2.35 2.39
-9.79 2.15 2.39
-9.83 1.96 2.39
-9.86 1.76 2.39
-9.90 1.56 2.39
-9.92 1.36 2.39
-9.94 1.16 2.39
-9.96 0.96 2.39
-9.98 0.76 2.39
-9.99 0.56 2.39
-10.00 0.36 2.39
-10.00 0.16 2.39
-10.00 -0.04 2.39
-9.99 -0.24 2.39
-9.98 -0.45 2.39
-9.97 -0.65 2.39
-9.95 -0.85 2.39
-9.93 -1.05 2.39
-9.91 -1.24 2.39
-9.88 -1.44 2.39
-9.85 -1.64 2.39
-9.81 -1.84 2.39
-9.77 -2.03 2.39
-9.72 -2.23 2.39
-9.68 -2.42 2.39
-9.62 -2.62 2.39
-9.57 -2.81 2.39
-9.51 -3.00 2.39
-9.45 -3.19 2.39
-9.38 -3.38 2.39
-9.31 -3.57 2.39
-9.23 -3.75 2.39
-9.16 -3.94 2.39
-9.07 -4.12 2.39
-8.99 -4.30 2.39
-8.90 -4.48 2.39
-8.81 -4.66 2.39
-8.71 -4.84 2.39
-8.61 -5.01 2.39
-8.51 -5.18 2.39
-8.40 -5.35 2.39
-8.29 -5.52 2.39
-8.18 -5.69 2.39
-8.07 -5.85 2.39
-7.95 -6.01 2.39
-7.82 -6.17 2.39
-7.70 -6.32 2.39
-7.19 -6.15 2.27
-7.13 -6.36 2.29
-6.99 -6.48 2.29
-6.80 -6.57 2.27
-6.67 -6.71 2.27
-6.89 -7.21 2.39
-6.74 -7.34 2.39
-6.59 -7.48 2.39
-6.44 -7.61 2.39
-6.29 -7.74 2.39
-6.23 -8.00 2.43
-6.23 -8.33 2.49
-6.06 -8.46 2.49
-5.89 -8.58 2.49
-5.72 -8.70 2.49
-5.54 -8.81 2.49
-5.37 -8.92 2.49
-5.19 -9.03 2.49
-5.01 -9.13 2.49
-4.82 -9.24 2.49
-4.64 -9.33 2.49
-4.45 -9.43 2.49
-4.26 -9.52 2.49
-4.07 -9.60 2.49
-3.88 -9.68 2.49
-3.68 -9.76 2.49
-3.49 -9.84 2.49
-3.29 -9.91 2.49
-3.09 -9.97 2.49
-2.89 -10.04 2.49
-2.69 -10.09 2.49
-2.49 -10.15 2.49
-2.28 -10.20 2.49
-2.08 -10.25 2.49
-1.87 -10.29 2.49
-1.66 -10.33 2.49
-1.46 -10.36 2.49
-1.25 -10.39 2.49
-1.04 -10.42 2.49
-0.83 -10.44 2.49
-0.62 -10.46 2.49
-0.41 -10.47 2.49
-0.20 -10.48 2.49
0.01 -9.53 2.49
0.20 -9.53 2.49
0.39 -9.53 2.49
0.58 -9.52 2.49
0.78 -9.51 2.49
0.97 -9.50 2.49
1.16 -9.48 2.49
1.35 -9.46 2.49
1.54 -9.43 2.49
1.73 -9.40 2.49
1.84 -8.98 2.39
2.02 -8.94 2.39
2.20 -8.90 2.39
2.38 -8.86 2.39
2.56 -8.82 2.39
2.73 -8.77 2.39
2.91 -8.71 2.39
3.09 -8.66 2.39
3.26 -8.59 2.39
3.43 -8.53 2.39
3.60 -8.46 2.39
3.78 -8.39 2.39
3.94 -8.32 2.39
4.11 -8.24 2.39
4.28 -8.16 2.39
2.05 -3.73 1.10
4.61 -7.99 2.39
4.77 -7.90 2.39
4.93 -7.80 2.39
5.08 -7.70 2.39
5.24 -7.60 2.39
5.39 -7.50 2.39
5.55 -7.39 2.39
5.69 -7.28 2.39
5.81 -7.13 2.38
5.94 -7.00 2.37
6.07 -6.87 2.37
6.20 -6.74 2.36
6.33 -6.61 2.36
6.45 -6.47 2.36
6.58 -6.33 2.35
6.70 -6.19 2.35
6.81 -6.05 2.35
5.02 -4.28 1.70
5.03 -4.12 1.68
5.11 -4.02 1.67
5.34 -4.03 1.72
5.75 -4.16 1.82
5.75 -3.99 1.80
5.76 -3.82 1.78
5.76 -3.66 1.75
5.76 -3.50 1.73
5.77 -3.35 1.71
5.77 -3.20 1.69
5.78 -3.05 1.68
5.78 -2.90 1.66
5.78 -2.76 1.64
5.79 -2.62 1.63
5.79 -2.49 1.61
5.79 -2.35 1.60
5.79 -2.22 1.59
5.79 -2.08 1.57
5.78 -1.95 1.56
5.78 -1.82 1.55
5.77 -1.69 1.54
5.76 -1.56 1.53
5.76 -1.44 1.52
5.76 -1.32 1.51
5.76 -1.20 1.50
5.75 -1.08 1.49
5.76 -0.96 1.49
5.77 -0.84 1.49
5.78 -0.72 1.49
5.80 -0.61 1.49
5.83 -0.49 1.49
5.87 -0.38 1.50
5.92 -0.26 1.51
5.98 -0.15 1.52
6.05 -0.03 1.54
6.14 0.10 1.57
6.26 0.22 1.59
6.42 0.36 1.64
6.66 0.51 1.70
8.87 0.85 2.27
8.86 1.03 2.27
8.85 1.21 2.27
8.85 1.39 2.28
8.63 1.54 2.23
8.60 1.71 2.23
8.57 1.88 2.23
8.54 2.06 2.23
8.50 2.23 2.24
8.39 2.38 2.22
8.35 2.55 2.22
8.31 2.72 2.22
8.27 2.89 2.23
8.23 3.06 2.23
8.18 3.23 2.23
8.12 3.40 2.24
8.57 3.79 2.38
8.52 3.98 2.39
8.47 4.16 2.40
8.41 4.34 2.40
8.34 4.52 2.41
8.25 4.69 2.41
8.15 4.85 2.41
8.05 5.01 2.41
7.94 5.17 2.41
7.84 5.33 2.41
7.73 5.48 2.41
7.62 5.64 2.41
7.50 5.79 2.41
7.39 5.95 2.41
7.28 6.10 2.41
7.16 6.25 2.41
7.04 6.39 2.41
6.91 6.54 2.42
6.78 6.68 2.42
6.63 6.80 2.41
6.39 6.82 2.37
6.26 6.95 2.38
6.13 7.09 2.38
6.00 7.23 2.39
5.86 7.35 2.39
5.71 7.47 2.39
5.56 7.58 2.39
5.41 7.69 2.39
5.25 7.80 2.39
5.09 7.90 2.39
4.93 8.00 2.39
4.77 8.09 2.39
4.61 8.19 2.39
4.44 8.28 2.39
4.27 8.36 2.39
4.10 8.44 2.39
3.93 8.52 2.39
3.76 8.60 2.39
3.59 8.67 2.39
3.41 8.74 2.39
3.23 8.80 2.39
3.06 8.86 2.39
2.88 8.92 2.39
2.70 8.97 2.39
2.51 9.02 2.39
2.33 9.07 2.39
2.24 9.51 2.49
2.05 9.55 2.49
1.86 9.58 2.49
1.67 9.62 2.49
1.47 9.65 2.49
1.28 9.67 2.49
1.08 9.69 2.49
0.89 9.71 2.49
0.69 9.72 2.49
0.50 9.73 2.49
0.30 9.73 2.49
0.11 9.74 2.49
-0.09 9.73 2.49
-0.28 9.73 2.49
-0.48 9.72 2.49
-0.67 9.70 2.49
-0.87 9.68 2.49
-1.06 9.66 2.49
-1.25 9.63 2.49
-1.45 9.60 2.49
-1.64 9.57 2.49
-1.83 9.53 2.49
-2.02 9.49 2.49
-2.21 9.44 2.49
-2.40 9.39 2.49
-2.58 9.34 2.49
-2.77 9.28 2.49
-2.95 9.22 2.49
-3.14 9.16 2.49
-3.32 9.09 2.49
-3.50 9.02 2.49
-3.68 8.94 2.49
-3.86 8.86 2.49
-4.03 8.78 2.49
-4.20 8.69 2.49
-4.38 8.60 2.49
-4.55 8.51 2.49
-4.71 8.41 2.49
-4.88 8.32 2.49
-5.04 8.21 2.49
-5.21 8.11 2.49
-5.37 8.00 2.49
-5.52 7.88 2.49
-5.68 7.77 2.49
-5.83 7.65 2.49
-5.84 7.35 2.43
-5.88 7.10 2.39
-6.01 6.98 2.39
-6.15 6.85 2.39
-6.28 6.72 2.39
-6.42 6.59 2.39
-6.54 6.46 2.39
-6.67 6.33 2.39
-6.79 6.19 2.39
-6.91 6.05 2.39
-7.03 5.91 2.39
-7.15 5.76 2.39
-6.89 5.33 2.27
-7.37 5.47 2.39
-7.47 5.32 2.39
-7.57 5.16 2.39
-7.67 5.01 2.39
-7.77 4.85 2.39
-7.86 4.69 2.39
-7.95 4.53 2.39
-8.04 4.37 2.39
-8.12 4.21 2.39
-8.20 4.04 2.39
-8.28 3.87 2.39
-8.35 3.71 2.39
-8.42 3.54 2.39
-8.49 3.37 2.39
-8.55 3.19 2.39
-8.61 3.02 2.39
-8.67 2.85 2.39
-8.72 2.67 2.39
-8.77 2.49 2.39
-8.82 2.32 2.39
-8.86 2.14 2.39
-8.90 1.96 2.39
-8.93 1.78 2.39
-8.97 1.60 2.39
-8.99 1.42 2.39
-9.02 1.24 2.39
-9.04 1.06 2.39
-9.06 0.87 2.39
-9.07 0.69 2.39
-9.08 0.51 2.39
-9.09 0.33 2.39
-9.09 0.14 2.39
-9.09 -0.04 2.39
-9.08 -0.22 2.39
-9.07 -0.40 2.39
-9.06 -0.59 2.39
-9.05 -0.77 2.39
-9.03 -0.95 2.39
-9.01 -1.13 2.39
-8.98 -1.31 2.39
-8.95 -1.49 2.39
-8.92 -1.67 2.39
-8.88 -1.85 2.39
-8.84 -2.03 2.39
-8.80 -2.20 2.39
-8.75 -2.38 2.39
-8.70 -2.56 2.39
-8.65 -2.73 2.39
-8.59 -2.90 2.39
-8.53 -3.07 2.39
-8.46 -3.24 2.39
-8.39 -3.41 2.39
-8.32 -3.58 2.39
-8.25 -3.75 2.39
-8.17 -3.91 2.39
-8.09 -4.08 2.39
-8.01 -4.24 2.39
-7.92 -4.40 2.39
-7.83 -4.56 2.39
-7.74 -4.71 2.39
-7.64 -4.87 2.39
-7.16 -4.76 2.27
-7.10 -4.93 2.28
-7.10 -5.15 2.32
-7.10 -5.37 2.35
-7.00 -5.52 2.35
-6.64 -5.46 2.27
-6.54 -5.59 2.27
-6.53 -5.82 2.31
-6.54 -6.07 2.35
-6.52 -6.30 2.39
-6.39 -6.43 2.39
-6.26 -6.55 2.39
-6.20 -6.76 2.42
-6.21 -7.04 2.48
-6.11 -7.22 2.49
-5.96 -7.34 2.49
-5.81 -7.46 2.49
-5.66 -7.58 2.49
-5.51 -7.69 2.49
-5.36 -7.80 2.49
-5.20 -7.91 2.49
-5.04 -8.01 2.49
-4.88 -8.11 2.49
-4.72 -8.21 2.49
-4.55 -8.30 2.49
-4.38 -8.40 2.49
-4.21 -8.48 2.49
-4.04 -8.57 2.49
-3.87 -8.65 2.49
-3.70 -8.73 2.49
-3.52 -8.80 2.49
-3.35 -8.87 2.49
-3.17 -8.94 2.49
-2.99 -9.00 2.49
-2.81 -9.06 2.49
-2.63 -9.12 2.49
-2.44 -9.17 2.49
-2.26 -9.22 2.49
-2.07 -9.27 2.49
-1.89 -9.31 2.49
-1.70 -9.35 2.49
-1.51 -9.39 2.49
-1.32 -9.42 2.49
-1.13 -9.44 2.49
-0.94 -9.47 2.49
-0.75 -9.49 2.49
-0.56 -9.50 2.49
-0.37 -9.52 2.49
-0.18 -9.52 2.49
0.01 -8.72 2.49
0.18 -8.72 2.49
0.36 -8.72 2.49
0.54 -8.71 2.49
0.71 -8.70 2.49
0.89 -8.69 2.49
1.06 -8.67 2.49
1.23 -8.65 2.49
1.41 -8.63 2.49
1.58 -8.60 2.49
1.76 -8.57 2.49
1.85 -8.18 2.39
2.02 -8.19 2.40
2.18 -8.11 2.39
2.34 -8.07 2.39
2.50 -8.02 2.39
2.66 -7.97 2.39
2.82 -7.92 2.39
2.98 -7.86 2.39
3.14 -7.80 2.39
3.30 -7.74 2.39
3.45 -7.68 2.39
3.61 -7.61 2.39
3.76 -7.54 2.39
3.91 -7.46 2.39
2.05 -3.73 1.21
4.21 -7.31 2.39
4.36 -7.22 2.39
4.51 -7.14 2.39
4.65 -7.05 2.39
4.79 -6.95 2.39
4.93 -6.86 2.39
5.07 -6.76 2.39
5.21 -6.66 2.39
5.34 -6.56 2.39
5.48 -6.45 2.39
5.61 -6.34 2.39
5.71 -6.20 2.38
5.82 -6.08 2.38
5.94 -5.95 2.37
6.05 -5.83 2.37
6.16 -5.70 2.37
6.27 -5.57 2.36
5.03 -4.29 1.86
5.04 -4.13 1.83
5.12 -4.02 1.83
5.35 -4.04 1.89
5.75 -4.16 2.00
5.75 -3.99 1.97
5.76 -3.82 1.94
5.76 -3.66 1.92
5.76 -3.50 1.90
5.77 -3.35 1.87
5.77 -3.20 1.85
5.78 -3.05 1.83
5.78 -2.90 1.82
5.78 -2.76 1.80
5.79 -2.62 1.78
5.79 -2.49 1.77
5.79 -2.35 1.75
5.79 -2.21 1.74
5.79 -2.08 1.72
5.78 -1.95 1.71
5.78 -1.82 1.70
5.77 -1.69 1.68
5.76 -1.56 1.67
5.76 -1.44 1.66
5.76 -1.32 1.65
5.76 -1.20 1.64
5.75 -1.08 1.64
5.76 -0.96 1.63
5.77 -0.84 1.63
5.78 -0.72 1.63
5.80 -0.61 1.63
5.83 -0.49 1.63
5.87 -0.38 1.64
5.92 -0.26 1.65
5.98 -0.15 1.67
6.05 -0.03 1.69
6.15 0.10 1.71
6.26 0.22 1.75
6.42 0.36 1.79
6.66 0.51 1.86
8.27 0.80 2.32
8.26 0.96 2.32
8.25 1.13 2.32
8.23 1.30 2.32
8.23 1.47 2.33
7.91 1.57 2.25
7.89 1.73 2.25
7.86 1.89 2.25
7.83 2.05 2.25
7.80 2.21 2.26
7.76 2.37 2.26
7.73 2.53 2.26
7.68 2.69 2.27
7.64 2.85 2.27
7.59 3.00 2.27
7.55 3.16 2.28
7.49 3.32 2.28
7.44 3.47 2.28
7.77 3.82 2.41
7.70 3.98 2.41
7.62 4.13 2.41
7.54 4.28 2.41
7.45 4.43 2.41
7.35 4.58 2.41
7.26 4.73 2.41
7.16 4.87 2.41
7.06 5.01 2.41
6.96 5.15 2.41
6.85 5.29 2.41
6.75 5.43 2.41
6.64 5.57 2.41
6.53 5.70 2.41
6.42 5.83 2.41
6.31 5.96 2.41
6.12 6.03 2.39
6.00 6.15 2.39
5.88 6.27 2.39
5.75 6.38 2.39
5.62 6.50 2.39
5.49 6.61 2.39
5.35 6.72 2.39
5.22 6.82 2.39
5.08 6.92 2.39
4.94 7.02 2.39
4.80 7.12 2.39
4.65 7.21 2.39
4.50 7.31 2.39
4.36 7.39 2.39
4.21 7.48 2.39
4.06 7.56 2.39
3.90 7.64 2.39
3.75 7.71 2.39
3.59 7.78 2.39
3.43 7.85 2.39
3.28 7.92 2.39
3.12 7.98 2.39
2.95 8.04 2.39
2.79 8.10 2.39
2.63 8.15 2.39
2.46 8.20 2.39
2.30 8.24 2.39
2.22 8.65 2.49
2.05 8.69 2.49
1.87 8.72 2.49
1.70 8.76 2.49
1.52 8.79 2.49
1.35 8.81 2.49
1.17 8.84 2.49
0.99 8.86 2.49
0.81 8.87 2.49
0.63 8.88 2.49
0.46 8.89 2.49
0.28 8.90 2.49
0.10 8.90 2.49
-0.08 8.89 2.49
-0.26 8.89 2.49
-0.44 8.88 2.49
-0.61 8.87 2.49
-0.79 8.85 2.49
-0.97 8.83 2.49
-1.14 8.80 2.49
-1.32 8.78 2.49
-1.50 8.75 2.49
-1.67 8.71 2.49
-1.84 8.67 2.49
-2.02 8.63 2.49
-2.19 8.59 2.49
-2.36 8.54 2.49
-2.53 8.49 2.49
-2.70 8.43 2.49
-2.87 8.37 2.49
-3.03 8.31 2.49
-3.20 8.24 2.49
-3.36 8.18 2.49
-3.52 8.10 2.49
-3.68 8.03 2.49
-3.84 7.95 2.49
-4.00 7.87 2.49
-4.16 7.78 2.49
-4.31 7.70 2.49
-4.46 7.61 2.49
-4.61 7.51 2.49
-4.76 7.41 2.49
-4.91 7.31 2.49
-5.05 7.21 2.49
-5.19 7.11 2.49
-5.33 7.00 2.49
-5.47 6.89 2.49
-5.61 6.77 2.49
-5.74 6.66 2.49
-5.86 6.53 2.49
-5.86 6.28 2.44
-5.88 6.05 2.40
-5.99 5.91 2.39
-6.10 5.79 2.39
-6.22 5.66 2.39
-6.33 5.54 2.39
-6.25 5.25 2.32
-6.25 5.04 2.29
-6.30 4.88 2.27
-6.40 4.75 2.27
-6.72 4.79 2.35
-6.82 4.65 2.35
-6.86 4.48 2.33
-6.86 4.28 2.31
-6.86 4.10 2.28
-6.91 3.94 2.27
-6.98 3.80 2.27
-7.43 3.85 2.39
-7.51 3.70 2.39
-7.58 3.55 2.39
-7.65 3.39 2.39
-7.71 3.24 2.39
-7.77 3.08 2.39
-7.83 2.92 2.39
-7.88 2.77 2.39
-7.94 2.61 2.39
-7.98 2.44 2.39
-8.03 2.28 2.39
-8.07 2.12 2.39
-8.11 1.96 2.39
-8.15 1.79 2.39
-8.18 1.63 2.39
-8.21 1.46 2.39
-8.23 1.30 2.39
-8.26 1.13 2.39
-8.28 0.97 2.39
-8.29 0.80 2.39
-8.30 0.63 2.39
-8.31 0.47 2.39
-8.32 0.30 2.39
-8.32 0.13 2.39
-8.32 -0.04 2.39
-8.32 -0.20 2.39
-8.31 -0.37 2.39
-8.30 -0.54 2.39
-8.29 -0.70 2.39
-8.27 -0.87 2.39
-8.25 -1.04 2.39
-8.22 -1.20 2.39
-8.20 -1.37 2.39
-8.17 -1.53 2.39
-8.13 -1.69 2.39
-8.10 -1.86 2.39
-8.06 -2.02 2.39
-8.01 -2.18 2.39
-7.97 -2.34 2.39
-7.92 -2.50 2.39
-7.86 -2.66 2.39
-7.81 -2.81 2.39
-7.75 -2.97 2.39
-7.69 -3.13 2.39
-7.62 -3.28 2.39
-7.17 -3.26 2.27
-7.10 -3.40 2.27
-7.06 -3.56 2.28
-7.07 -3.74 2.30
-7.07 -3.93 2.33
-7.05 -4.10 2.35
-6.97 -4.24 2.35
-6.88 -4.38 2.35
-6.56 -4.36 2.27
-6.50 -4.52 2.28
-6.50 -4.72 2.31
-6.51 -4.92 2.35
-6.52 -5.14 2.39
-6.41 -5.27 2.39
-6.30 -5.39 2.39
-6.20 -5.52 2.39
-6.18 -5.73 2.43
-6.18 -5.97 2.47
-6.10 -6.14 2.49
-5.98 -6.26 2.49
-5.85 -6.38 2.49
-5.73 -6.50 2.49
-5.59 -6.61 2.49
-5.46 -6.72 2.49
-5.32 -6.83 2.49
-5.19 -6.94 2.49
-5.05 -7.04 2.49
-4.91 -7.14 2.49
-4.76 -7.24 2.49
-4.62 -7.34 2.49
-4.47 -7.43 2.49
-4.32 -7.52 2.49
-4.17 -7.60 2.49
-4.01 -7.69 2.49
-3.86 -7.77 2.49
-3.70 -7.85 2.49
-3.55 -7.92 2.49
-3.39 -7.99 2.49
-3.23 -8.06 2.49
-3.06 -8.12 2.49
-2.90 -8.19 2.49
-2.74 -8.24 2.49
-2.57 -8.30 2.49
-2.40 -8.35 2.49
-2.24 -8.40 2.49
-2.07 -8.45 2.49
-1.90 -8.49 2.49
-1.73 -8.53 2.49
-1.56 -8.56 2.49
-1.38 -8.59 2.49
-1.21 -8.62 2.49
-1.04 -8.65 2.49
-0.86 -8.67 2.49
-0.69 -8.68 2.49
-0.52 -8.70 2.49
-0.34 -8.71 2.49
-0.17 -8.72 2.49
0.01 -8.03 2.49
0.17 -8.03 2.49
0.33 -8.03 2.49
0.49 -8.02 2.49
0.66 -8.02 2.49
0.82 -8.00 2.49
0.98 -7.99 2.49
1.14 -7.97 2.49
1.30 -7.95 2.49
1.46 -7.92 2.49
1.62 -7.89 2.49
1.78 -7.86 2.49
1.85 -7.50 2.39
2.00 -7.47 2.39
2.15 -7.43 2.39
2.30 -7.38 2.39
2.45 -7.34 2.39
2.60 -7.29 2.39
2.75 -7.24 2.39
2.89 -7.18 2.39
3.04 -7.13 2.39
3.18 -7.07 2.39
3.32 -7.00 2.39
3.46 -6.94 2.39
3.60 -6.87 2.39
2.05 -3.73 1.31
2.16 -3.74 1.33
4.02 -6.65 2.39
4.15 -6.57 2.39
4.28 -6.48 2.39
4.41 -6.40 2.39
4.54 -6.31 2.39
4.67 -6.22 2.39
4.79 -6.13 2.39
4.92 -6.03 2.39
5.04 -5.94 2.39
5.16 -5.83 2.39
5.28 -5.73 2.39
5.39 -5.63 2.39
5.51 -5.52 2.39
5.62 -5.41 2.39
5.73 -5.30 2.39
5.83 -5.18 2.39
5.04 -4.30 2.03
5.04 -4.13 2.00
5.13 -4.03 2.00
5.37 -4.05 2.06
5.75 -4.16 2.17
5.75 -3.99 2.14
5.76 -3.82 2.11
5.76 -3.66 2.08
5.76 -3.50 2.06
5.77 -3.35 2.04
5.77 -3.20 2.01
5.78 -3.05 1.99
5.78 -2.90 1.97
5.78 -2.76 1.95
5.79 -2.62 1.94
5.79 -2.48 1.92
5.79 -2.35 1.90
5.79 -2.21 1.89
5.79 -2.08 1.87
5.78 -1.95 1.86
5.78 -1.82 1.84
5.77 -1.69 1.83
5.76 -1.56 1.82
5.76 -1.44 1.81
5.76 -1.32 1.80
5.76 -1.20 1.79
5.75 -1.08 1.78
5.76 -0.96 1.77
5.77 -0.84 1.77
5.78 -0.72 1.77
5.80 -0.61 1.77
5.83 -0.49 1.78
5.87 -0.38 1.79
5.92 -0.26 1.80
5.98 -0.15 1.82
6.05 -0.03 1.84
6.15 0.10 1.86
6.26 0.22 1.90
6.42 0.36 1.95
6.66 0.51 2.02
7.74 0.75 2.36
7.73 0.90 2.36
7.71 1.06 2.36
7.70 1.21 2.36
7.69 1.37 2.37
7.53 1.50 2.32
7.36 1.62 2.28
7.34 1.77 2.29
7.31 1.92 2.29
7.28 2.06 2.29
7.24 2.21 2.29
7.21 2.36 2.30
7.17 2.51 2.30
7.13 2.66 2.30
7.08 2.80 2.31
7.04 2.95 2.31
6.99 3.09 2.31
6.94 3.24 2.32
6.89 3.39 2.32
6.84 3.53 2.33
7.01 3.80 2.41
6.93 3.94 2.41
6.85 4.08 2.41
6.76 4.21 2.41
6.67 4.34 2.41
6.58 4.48 2.41
6.49 4.61 2.41
6.40 4.73 2.41
6.30 4.86 2.41
6.16 4.95 2.39
6.06 5.07 2.39
5.95 5.19 2.39
5.85 5.31 2.39
5.74 5.43 2.39
5.63 5.54 2.39
5.52 5.65 2.39
5.40 5.76 2.39
5.29 5.87 2.39
5.17 5.97 2.39
5.04 6.08 2.39
4.92 6.17 2.39
4.80 6.27 2.39
4.67 6.37 2.39
4.54 6.46 2.39
4.41 6.55 2.39
4.28 6.63 2.39
4.14 6.72 2.39
4.01 6.80 2.39
3.87 6.87 2.39
3.73 6.95 2.39
3.59 7.02 2.39
3.45 7.09 2.39
3.30 7.16 2.39
3.16 7.22 2.39
3.01 7.28 2.39
2.87 7.34 2.39
2.72 7.39 2.39
2.57 7.45 2.39
2.43 7.53 2.40
2.27 7.54 2.39
2.21 7.91 2.49
2.05 7.95 2.49
1.89 7.99 2.49
1.72 8.02 2.49
1.56 8.05 2.49
1.40 8.08 2.49
1.24 8.10 2.49
1.08 8.13 2.49
0.91 8.14 2.49
0.75 8.16 2.49
0.58 8.17 2.49
0.42 8.18 2.49
0.26 8.18 2.49
0.09 8.18 2.49
-0.07 8.18 2.49
-0.24 8.18 2.49
-0.40 8.17 2.49
-0.56 8.16 2.49
-0.73 8.14 2.49
-0.89 8.12 2.49
-1.05 8.10 2.49
-1.21 8.07 2.49
-1.38 8.05 2.49
-1.54 8.01 2.49
-1.70 7.98 2.49
-1.86 7.94 2.49
-2.01 7.90 2.49
-2.17 7.86 2.49
-2.33 7.81 2.49
-2.48 7.76 2.49
-2.64 7.70 2.49
-2.79 7.65 2.49
-2.94 7.59 2.49
-3.09 7.52 2.49
-3.24 7.46 2.49
-3.39 7.39 2.49
-3.54 7.32 2.49
-3.68 7.24 2.49
-3.82 7.16 2.49
-3.97 7.08 2.49
-4.11 7.00 2.49
-4.24 6.91 2.49
-4.38 6.82 2.49
-4.52 6.73 2.49
-4.65 6.64 2.49
-4.78 6.54 2.49
-4.91 6.44 2.49
-5.03 6.34 2.49
-5.16 6.24 2.49
-5.28 6.13 2.49
-5.40 6.02 2.49
-5.52 5.91 2.49
-5.64 5.79 2.49
-5.75 5.68 2.49
-5.86 5.56 2.49
-5.89 5.37 2.46
-5.90 5.16 2.42
-5.92 4.98 2.39
-6.02 4.86 2.39
-6.11 4.73 2.39
-6.21 4.61 2.39
-6.27 4.46 2.38
-6.27 4.28 2.35
-6.28 4.10 2.32
-6.28 3.92 2.29
-6.30 3.76 2.27
-6.36 3.63 2.27
-6.66 3.62 2.35
-6.73 3.49 2.35
-6.80 3.35 2.35
-6.86 3.21 2.35
-6.89 3.06 2.34
-6.90 2.90 2.32
-6.90 2.74 2.30
-6.90 2.58 2.29
-6.91 2.42 2.28
-6.94 2.28 2.27
-6.98 2.14 2.27
-7.02 2.00 2.27
-7.06 1.85 2.27
-7.47 1.80 2.39
-7.50 1.65 2.39
-7.53 1.50 2.39
-7.56 1.35 2.39
-7.58 1.20 2.39
-7.61 1.04 2.39
-7.62 0.89 2.39
-7.64 0.74 2.39
-7.65 0.58 2.39
-7.66 0.43 2.39
-7.66 0.28 2.39
-7.67 0.12 2.39
-7.67 -0.03 2.39
-7.66 -0.19 2.39
-7.66 -0.34 2.39
-7.65 -0.49 2.39
-7.63 -0.65 2.39
-7.62 -0.80 2.39
-7.60 -0.95 2.39
-7.58 -1.11 2.39
-7.55 -1.26 2.39
-7.52 -1.41 2.39
-7.49 -1.56 2.39
-7.46 -1.71 2.39
-7.06 -1.77 2.27
-7.01 -1.91 2.27
-7.02 -2.06 2.29
-7.03 -2.22 2.30
-7.03 -2.38 2.32
-7.04 -2.54 2.34
-7.02 -2.69 2.35
-6.97 -2.83 2.35
-6.91 -2.97 2.35
-6.85 -3.11 2.35
-6.55 -3.13 2.27
-6.48 -3.26 2.27
-6.47 -3.42 2.29
-6.47 -3.59 2.32
-6.48 -3.77 2.34
-6.48 -3.95 2.37
-6.45 -4.11 2.39
-6.36 -4.24 2.39
-6.28 -4.36 2.39
-6.19 -4.49 2.39
-6.15 -4.65 2.41
-6.15 -4.85 2.45
-6.16 -5.06 2.49
-6.06 -5.19 2.49
-5.95 -5.31 2.49
-5.85 -5.43 2.49
-5.74 -5.54 2.49
-5.63 -5.66 2.49
-5.51 -5.77 2.49
-5.39 -5.88 2.49
-5.28 -5.99 2.49
-5.15 -6.09 2.49
-5.03 -6.20 2.49
-4.91 -6.30 2.49
-4.78 -6.39 2.49
-4.65 -6.49 2.49
-4.52 -6.58 2.49
-4.39 -6.67 2.49
-4.25 -6.76 2.49
-4.12 -6.85 2.49
-3.98 -6.93 2.49
-3.84 -7.01 2.49
-3.70 -7.08 2.49
-3.56 -7.16 2.49
-3.41 -7.23 2.49
-3.27 -7.30 2.49
-3.12 -7.36 2.49
-2.97 -7.43 2.49
-2.82 -7.49 2.49
-2.67 -7.54 2.49
-2.52 -7.60 2.49
-2.37 -7.65 2.49
-2.21 -7.69 2.49
-2.06 -7.74 2.49
-1.90 -7.78 2.49
-1.75 -7.82 2.49
-1.59 -7.85 2.49
-1.43 -7.89 2.49
-1.27 -7.91 2.49
-1.11 -7.94 2.49
-0.96 -7.96 2.49
-0.80 -7.98 2.49
-0.63 -8.00 2.49
-0.47 -8.01 2.49
-0.31 -8.02 2.49
-0.15 -8.03 2.49
0.01 -7.44 2.49
0.16 -7.44 2.49
0.31 -7.43 2.49
0.46 -7.43 2.49
0.61 -7.42 2.49
0.76 -7.41 2.49
0.91 -7.39 2.49
1.05 -7.38 2.49
1.20 -7.36 2.49
1.35 -7.33 2.49
1.50 -7.31 2.49
1.64 -7.28 2.49
1.79 -7.24 2.49
1.86 -6.92 2.39
2.00 -6.87 2.39
2.13 -6.83 2.39
2.27 -6.79 2.39
2.41 -6.75 2.39
2.54 -6.70 2.39
2.68 -6.65 2.39
2.81 -6.60 2.39
2.94 -6.54 2.39
3.08 -6.48 2.39
3.21 -6.42 2.39
3.34 -6.36 2.39
2.04 -3.70 1.41
2.13 -3.69 1.42
3.72 -6.15 2.39
3.84 -6.08 2.39
3.96 -6.00 2.39
4.08 -5.92 2.39
4.20 -5.84 2.39
4.32 -5.76 2.39
4.44 -5.67 2.39
4.55 -5.58 2.39
4.66 -5.49 2.39
4.77 -5.40 2.39
4.88 -5.30 2.39
4.99 -5.20 2.39
5.10 -5.11 2.39
5.20 -5.00 2.39
5.30 -4.90 2.39
5.40 -4.79 2.39
5.05 -4.30 2.20
5.05 -4.14 2.16
5.14 -4.04 2.16
5.38 -4.06 2.23
5.58 -4.03 2.27
5.75 -3.98 2.31
5.76 -3.82 2.28
5.76 -3.66 2.25
5.76 -3.50 2.23
5.77 -3.35 2.20
5.77 -3.19 2.18
5.78 -3.05 2.15
5.78 -2.90 2.13
5.78 -2.76 2.11
5.79 -2.62 2.09
5.79 -2.48 2.08
5.79 -2.35 2.06
5.79 -2.21 2.04
5.79 -2.08 2.03
5.78 -1.95 2.01
5.78 -1.82 1.99
5.77 -1.69 1.98
5.76 -1.56 1.96
5.76 -1.44 1.95
5.76 -1.32 1.94
5.76 -1.19 1.93
5.75 -1.07 1.92
5.76 -0.96 1.92
5.77 -0.84 1.92
5.78 -0.72 1.91
5.80 -0.61 1.92
5.83 -0.49 1.92
5.87 -0.38 1.93
5.92 -0.26 1.95
5.98 -0.14 1.96
6.05 -0.03 1.99
6.15 0.10 2.02
6.26 0.22 2.05
6.42 0.36 2.11
6.66 0.51 2.19
7.27 0.70 2.39
7.25 0.85 2.39
7.24 0.99 2.40
7.23 1.14 2.40
7.21 1.28 2.40
7.20 1.43 2.40
6.92 1.52 2.32
6.88 1.66 2.32
6.85 1.80 2.32
6.82 1.94 2.32
6.79 2.08 2.33
6.76 2.21 2.33
6.73 2.35 2.33
6.69 2.49 2.34
6.65 2.63 2.34
6.61 2.77 2.34
6.56 2.91 2.35
6.52 3.04 2.35
6.47 3.18 2.36
6.42 3.32 2.36
6.36 3.45 2.37
6.31 3.59 2.37
6.33 3.77 2.41
6.25 3.89 2.41
6.12 3.99 2.39
6.04 4.11 2.39
5.96 4.23 2.39
5.87 4.35 2.39
5.78 4.46 2.39
5.69 4.58 2.39
5.60 4.69 2.39
5.50 4.80 2.39
5.41 4.91 2.39
5.31 5.02 2.39
5.20 5.12 2.39
5.10 5.23 2.39
4.99 5.33 2.39
4.89 5.43 2.39
4.78 5.52 2.39
4.66 5.62 2.39
4.55 5.71 2.39
4.43 5.80 2.39
4.32 5.88 2.39
4.20 5.97 2.39
4.08 6.05 2.39
3.95 6.13 2.39
3.83 6.21 2.39
3.70 6.28 2.39
3.58 6.35 2.39
3.45 6.42 2.39
3.32 6.49 2.39
3.19 6.56 2.39
3.05 6.62 2.39
2.92 6.68 2.39
2.79 6.73 2.39
2.65 6.79 2.39
2.51 6.84 2.39
2.37 6.88 2.39
2.24 6.93 2.39
2.19 7.27 2.49
2.04 7.31 2.49
1.89 7.35 2.49
1.74 7.38 2.49
1.60 7.42 2.49
1.45 7.45 2.49
1.30 7.47 2.49
1.15 7.49 2.49
0.99 7.51 2.49
0.84 7.53 2.49
0.69 7.54 2.49
0.54 7.55 2.49
0.39 7.56 2.49
0.24 7.57 2.49
0.09 7.57 2.49
-0.07 7.57 2.49
-0.22 7.56 2.49
-0.37 7.55 2.49
-0.52 7.54 2.49
-0.67 7.53 2.49
-0.82 7.51 2.49
-0.97 7.49 2.49
-1.12 7.47 2.49
-1.27 7.44 2.49
-1.42 7.41 2.49
-1.57 7.38 2.49
-1.72 7.35 2.49
-1.86 7.31 2.49
-2.01 7.27 2.49
-2.15 7.22 2.49
-2.30 7.18 2.49
-2.44 7.13 2.49
-2.58 7.07 2.49
-2.72 7.02 2.49
-2.86 6.96 2.49
-3.00 6.90 2.49
-3.14 6.84 2.49
-3.27 6.77 2.49
-3.41 6.70 2.49
-3.54 6.63 2.49
-3.67 6.55 2.49
-3.80 6.48 2.49
-3.93 6.40 2.49
-4.05 6.32 2.49
-4.18 6.23 2.49
-4.30 6.14 2.49
-4.42 6.05 2.49
-4.54 5.96 2.49
-4.66 5.87 2.49
-4.77 5.77 2.49
-4.89 5.67 2.49
-5.00 5.57 2.49
-5.11 5.47 2.49
-5.21 5.36 2.49
-5.32 5.26 2.49
-5.42 5.15 2.49
-5.52 5.04 2.49
-5.62 4.92 2.49
-5.72 4.81 2.49
-5.81 4.69 2.49
-5.90 4.57 2.49
-5.91 4.39 2.46
-5.92 4.21 2.43
-5.93 4.05 2.40
-5.98 3.91 2.39
-6.06 3.79 2.39
-6.13 3.66 2.39
-6.20 3.54 2.39
-6.27 3.41 2.39
-6.30 3.26 2.38
-6.30 3.11 2.35
-6.31 2.95 2.33
-6.31 2.80 2.31
-6.31 2.65 2.30
-6.32 2.51 2.28
-6.34 2.37 2.27
-6.38 2.24 2.27
-6.42 2.11 2.27
-6.46 1.98 2.27
-6.74 1.92 2.35
-6.77 1.78 2.35
-6.80 1.64 2.35
-6.83 1.51 2.35
-6.86 1.37 2.35
-6.89 1.23 2.35
-6.91 1.09 2.35
-6.93 0.95 2.35
-6.94 0.81 2.35
-6.71 0.65 2.27
-6.72 0.51 2.27
-7.09 0.40 2.39
-7.10 0.26 2.39
-7.10 0.11 2.39
-7.10 -0.03 2.39
-7.10 -0.17 2.39
-7.09 -0.31 2.39
-7.08 -0.46 2.39
-7.07 -0.60 2.39
-7.06 -0.74 2.39
-7.04 -0.88 2.39
-7.02 -1.02 2.39
-6.99 -1.16 2.39
-6.97 -1.30 2.39
-6.94 -1.44 2.39
-6.91 -1.58 2.39
-6.88 -1.72 2.39
-6.52 -1.77 2.28
-6.45 -1.89 2.27
-6.44 -2.03 2.28
-6.44 -2.18 2.29
-6.44 -2.32 2.31
-6.45 -2.47 2.33
-6.45 -2.62 2.35
-6.45 -2.78 2.37
-6.45 -2.93 2.39
-6.39 -3.06 2.39
-6.33 -3.19 2.39
-6.26 -3.31 2.39
-6.19 -3.44 2.39
-6.13 -3.56 2.39
-6.13 -3.73 2.42
-6.13 -3.90 2.45
-6.13 -4.08 2.49
-6.07 -4.22 2.49
-5.98 -4.34 2.49
-5.89 -4.46 2.49
-5.80 -4.57 2.49
-5.71 -4.69 2.49
-5.61 -4.80 2.49
-5.52 -4.92 2.49
-5.42 -5.03 2.49
-5.31 -5.13 2.49
-5.21 -5.24 2.49
-5.10 -5.34 2.49
-5.00 -5.45 2.49
-4.89 -5.55 2.49
-4.77 -5.64 2.49
-4.66 -5.74 2.49
-4.54 -5.83 2.49
-4.43 -5.92 2.49
-4.31 -6.01 2.49
-4.19 -6.10 2.49
-4.06 -6.18 2.49
-3.94 -6.26 2.49
-3.81 -6.34 2.49
-3.68 -6.42 2.49
-3.55 -6.49 2.49
-3.42 -6.56 2.49
-3.29 -6.63 2.49
-3.16 -6.70 2.49
-3.02 -6.76 2.49
-2.89 -6.82 2.49
-2.75 -6.88 2.49
-2.61 -6.93 2.49
-2.47 -6.98 2.49
-2.33 -7.03 2.49
-2.19 -7.08 2.49
-2.05 -7.12 2.49
-1.91 -7.17 2.49
-1.76 -7.20 2.49
-1.62 -7.24 2.49
-1.47 -7.27 2.49
-1.33 -7.30 2.49
-1.18 -7.33 2.49
-1.03 -7.35 2.49
-0.88 -7.37 2.49
-0.74 -7.39 2.49
-0.59 -7.41 2.49
-0.44 -7.42 2.49
-0.29 -7.43 2.49
-0.14 -7.43 2.49
0.01 -6.92 2.49
0.15 -6.92 2.49
0.29 -6.91 2.49
0.43 -6.91 2.49
0.57 -6.90 2.49
0.70 -6.89 2.49
0.84 -6.88 2.49
0.98 -6.86 2.49
1.12 -6.84 2.49
1.26 -6.82 2.49
1.39 -6.79 2.49
1.53 -6.77 2.49
1.67 -6.74 2.49
1.80 -6.70 2.49
1.87 -6.43 2.40
1.98 -6.35 2.39
2.11 -6.31 2.39
2.24 -6.27 2.39
2.37 -6.23 2.39
2.49 -6.18 2.39
2.62 -6.13 2.39
2.74 -6.08 2.39
2.86 -6.03 2.39
2.98 -5.97 2.39
3.10 -5.91 2.39
2.04 -3.70 1.51
2.13 -3.69 1.53
3.46 -5.72 2.39
3.57 -5.65 2.39
3.68 -5.58 2.39
3.80 -5.50 2.39
3.91 -5.43 2.39
4.02 -5.35 2.39
4.12 -5.27 2.39
4.23 -5.19 2.39
4.34 -5.10 2.39
4.44 -5.02 2.39
4.54 -4.93 2.39
4.64 -4.84 2.39
4.74 -4.74 2.39
4.83 -4.65 2.39
4.93 -4.55 2.39
5.02 -4.45 2.39
5.05 -4.31 2.37
5.06 -4.14 2.33
5.15 -4.05 2.33
5.36 -4.04 2.39
5.45 -3.94 2.39
5.52 -3.83 2.39
5.60 -3.72 2.39
5.68 -3.60 2.39
5.75 -3.49 2.39
5.77 -3.34 2.37
5.77 -3.19 2.34
5.78 -3.05 2.32
5.78 -2.90 2.30
5.78 -2.76 2.27
5.79 -2.62 2.25
5.79 -2.48 2.24
5.79 -2.35 2.22
5.79 -2.21 2.20
5.79 -2.08 2.18
5.78 -1.95 2.16
5.78 -1.82 2.15
5.77 -1.69 2.13
5.76 -1.56 2.11
5.76 -1.44 2.10
5.76 -1.32 2.09
5.76 -1.19 2.08
5.75 -1.07 2.07
5.76 -0.96 2.07
5.77 -0.84 2.06
5.78 -0.72 2.06
5.80 -0.61 2.06
5.83 -0.49 2.07
5.87 -0.38 2.08
5.92 -0.26 2.09
5.98 -0.14 2.11
6.05 -0.02 2.14
6.15 0.10 2.17
6.26 0.23 2.21
6.42 0.36 2.27
6.66 0.51 2.36
6.79 0.65 2.41
6.77 0.79 2.41
6.76 0.93 2.41
6.74 1.06 2.41
6.72 1.20 2.41
6.69 1.33 2.41
6.66 1.47 2.41
6.48 1.56 2.35
6.46 1.69 2.35
6.43 1.82 2.36
6.40 1.96 2.36
6.37 2.09 2.36
6.34 2.22 2.37
6.30 2.35 2.37
6.26 2.48 2.37
6.22 2.61 2.38
6.18 2.74 2.38
6.13 2.86 2.39
6.09 2.99 2.39
6.03 3.11 2.39
5.96 3.23 2.39
5.90 3.35 2.39
5.83 3.47 2.39
5.76 3.59 2.39
5.68 3.70 2.39
5.61 3.81 2.39
5.53 3.93 2.39
5.45 4.04 2.39
5.37 4.14 2.39
5.29 4.25 2.39
5.20 4.36 2.39
5.11 4.46 2.39
5.02 4.56 2.39
4.93 4.66 2.39
4.83 4.76 2.39
4.74 4.85 2.39
4.64 4.95 2.39
4.54 5.04 2.39
4.44 5.13 2.39
4.33 5.22 2.39
4.23 5.30 2.39
4.12 5.38 2.39
4.01 5.47 2.39
3.90 5.54 2.39
3.79 5.62 2.39
3.67 5.69 2.39
3.56 5.77 2.39
3.44 5.84 2.39
3.32 5.90 2.39
3.20 5.97 2.39
3.08 6.03 2.39
2.96 6.09 2.39
2.84 6.15 2.39
2.71 6.20 2.39
2.59 6.25 2.39
2.46 6.30 2.39
2.33 6.35 2.39
2.21 6.39 2.39
2.17 6.71 2.49
2.03 6.75 2.49
1.90 6.79 2.49
1.76 6.83 2.49
1.62 6.86 2.49
1.48 6.89 2.49
1.34 6.92 2.49
1.20 6.94 2.49
1.06 6.96 2.49
0.92 6.98 2.49
0.78 7.00 2.49
0.64 7.01 2.49
0.50 7.02 2.49
0.36 7.03 2.49
0.22 7.03 2.49
0.08 7.03 2.49
-0.06 7.03 2.49
-0.20 7.03 2.49
-0.34 7.02 2.49
-0.48 7.01 2.49
-0.62 6.99 2.49
-0.76 6.98 2.49
-0.90 6.96 2.49
-1.04 6.94 2.49
-1.18 6.91 2.49
-1.32 6.89 2.49
-1.46 6.86 2.49
-1.59 6.83 2.49
-1.73 6.79 2.49
-1.86 6.75 2.49
-2.00 6.71 2.49
-2.13 6.67 2.49
-2.27 6.62 2.49
-2.40 6.57 2.49
-2.53 6.52 2.49
-2.66 6.47 2.49
-2.79 6.41 2.49
-2.91 6.35 2.49
-3.04 6.29 2.49
-3.16 6.23 2.49
-3.29 6.16 2.49
-3.41 6.09 2.49
-3.53 6.02 2.49
-3.65 5.95 2.49
-3.77 5.87 2.49
-3.88 5.79 2.49
-4.00 5.71 2.49
-4.11 5.63 2.49
-4.22 5.54 2.49
-4.33 5.46 2.49
-4.44 5.37 2.49
-4.54 5.27 2.49
-4.65 5.18 2.49
-4.75 5.08 2.49
-4.85 4.99 2.49
-4.95 4.89 2.49
-5.04 4.79 2.49
-5.13 4.68 2.49
-5.23 4.58 2.49
-5.32 4.47 2.49
-5.40 4.36 2.49
-5.49 4.25 2.49
-5.57 4.14 2.49
-5.65 4.02 2.49
-5.73 3.91 2.49
-5.80 3.79 2.49
-5.88 3.67 2.49
-5.93 3.55 2.49
-5.94 3.39 2.46
-5.94 3.23 2.44
-5.95 3.09 2.41
-5.96 2.94 2.39
-6.01 2.81 2.39
-6.06 2.69 2.39
-6.11 2.57 2.39
-6.16 2.45 2.39
-6.21 2.32 2.39
-6.25 2.19 2.39
-6.29 2.07 2.39
-6.33 1.94 2.39
-6.34 1.80 2.38
-6.34 1.67 2.37
-6.34 1.53 2.36
-6.35 1.40 2.35
-6.35 1.27 2.34
-6.35 1.14 2.33
-6.36 1.00 2.33
-6.36 0.87 2.32
-6.36 0.74 2.32
-6.37 0.62 2.31
-6.38 0.49 2.31
-6.60 0.37 2.39
-6.60 0.24 2.39
-6.60 0.11 2.39
-6.60 -0.03 2.39
-6.60 -0.16 2.39
-6.60 -0.29 2.39
-6.59 -0.42 2.39
-6.58 -0.56 2.39
-6.56 -0.69 2.39
-6.55 -0.82 2.39
-6.53 -0.95 2.39
-6.51 -1.08 2.39
-6.48 -1.21 2.39
-6.46 -1.34 2.39
-6.43 -1.47 2.39
-6.40 -1.60 2.39
-6.36 -1.73 2.39
-6.33 -1.86 2.39
-6.29 -1.98 2.39
-6.24 -2.11 2.39
-6.20 -2.23 2.39
-6.15 -2.36 2.39
-6.10 -2.48 2.39
-6.10 -2.62 2.41
-6.10 -2.77 2.43
-6.10 -2.92 2.45
-6.10 -3.07 2.48
-6.07 -3.21 2.49
-6.01 -3.34 2.49
-5.94 -3.46 2.49
-5.87 -3.57 2.49
-5.80 -3.69 2.49
-5.72 -3.81 2.49
-5.64 -3.92 2.49
-5.56 -4.03 2.49
-5.48 -4.15 2.49
-5.40 -4.25 2.49
-5.31 -4.36 2.49
-5.22 -4.47 2.49
-5.13 -4.57 2.49
-5.04 -4.68 2.49
-4.94 -4.78 2.49
-4.85 -4.87 2.49
-4.75 -4.97 2.49
-4.65 -5.07 2.49
-4.55 -5.16 2.49
-4.44 -5.25 2.49
-4.33 -5.34 2.49
-4.23 -5.42 2.49
-4.12 -5.51 2.49
-4.01 -5.59 2.49
-3.89 -5.67 2.49
-3.78 -5.75 2.49
-3.66 -5.82 2.49
-3.55 -5.90 2.49
-3.43 -5.97 2.49
-3.31 -6.04 2.49
-3.18 -6.10 2.49
-3.06 -6.17 2.49
-2.94 -6.23 2.49
-2.81 -6.29 2.49
-2.69 -6.34 2.49
-2.56 -6.40 2.49
-2.43 -6.45 2.49
-2.30 -6.50 2.49
-2.17 -6.54 2.49
-2.04 -6.59 2.49
-1.91 -6.63 2.49
-1.77 -6.67 2.49
-1.64 -6.70 2.49
-1.50 -6.73 2.49
-1.37 -6.76 2.49
-1.23 -6.79 2.49
-1.10 -6.82 2.49
-0.96 -6.84 2.49
-0.82 -6.86 2.49
-0.68 -6.87 2.49
-0.55 -6.89 2.49
-0.41 -6.90 2.49
-0.27 -6.91 2.49
-0.13 -6.91 2.49
0.01 -6.46 2.49
0.14 -6.46 2.49
0.27 -6.45 2.49
0.40 -6.45 2.49
0.53 -6.44 2.49
0.66 -6.43 2.49
0.79 -6.42 2.49
0.92 -6.40 2.49
1.04 -6.38 2.49
1.17 -6.36 2.49
1.30 -6.34 2.49
1.43 -6.31 2.49
1.56 -6.29 2.49
1.68 -6.26 2.49
1.81 -6.22 2.49
1.87 -6.00 2.42
1.97 -5.89 2.39
2.09 -5.85 2.39
2.21 -5.81 2.39
2.33 -5.77 2.39
2.44 -5.72 2.39
2.56 -5.67 2.39
2.67 -5.62 2.39
2.78 -5.57 2.39
2.90 -5.51 2.39
2.04 -3.70 1.62
2.13 -3.69 1.63
3.23 -5.33 2.39
3.33 -5.27 2.39
3.44 -5.20 2.39
3.54 -5.13 2.39
3.65 -5.06 2.39
3.75 -4.99 2.39
3.85 -4.92 2.39
3.95 -4.84 2.39
4.05 -4.76 2.39
4.14 -4.68 2.39
4.24 -4.60 2.39
4.33 -4.51 2.39
4.42 -4.43 2.39
4.51 -4.34 2.39
4.60 -4.25 2.39
4.68 -4.16 2.39
4.76 -4.06 2.39
4.85 -3.97 2.39
4.93 -3.87 2.39
5.00 -3.77 2.39
5.08 -3.67 2.39
5.15 -3.57 2.39
5.23 -3.47 2.39
5.30 -3.36 2.39
5.36 -3.25 2.39
5.43 -3.15 2.39
5.49 -3.04 2.39
5.55 -2.93 2.39
5.61 -2.82 2.39
5.67 -2.70 2.39
5.72 -2.59 2.39
5.78 -2.48 2.39
5.79 -2.35 2.38
5.79 -2.21 2.36
5.79 -2.08 2.34
5.78 -1.95 2.32
5.77 -1.82 2.30
5.77 -1.69 2.28
5.76 -1.56 2.27
5.76 -1.44 2.25
5.76 -1.31 2.24
5.76 -1.19 2.23
5.75 -1.07 2.22
5.76 -0.96 2.22
5.77 -0.84 2.21
5.78 -0.72 2.21
5.80 -0.61 2.21
5.83 -0.49 2.22
5.87 -0.38 2.23
5.92 -0.26 2.25
5.98 -0.14 2.27
6.05 -0.02 2.29
6.15 0.10 2.33
6.26 0.23 2.37
6.35 0.36 2.41
6.34 0.48 2.41
6.33 0.61 2.41
6.32 0.74 2.41
6.30 0.86 2.41
6.28 0.99 2.41
6.26 1.12 2.41
6.24 1.24 2.41
6.21 1.37 2.41
6.19 1.49 2.41
6.10 1.60 2.38
6.07 1.72 2.39
6.04 1.85 2.39
6.01 1.97 2.39
5.97 2.09 2.39
5.93 2.21 2.39
5.88 2.33 2.39
5.83 2.44 2.39
5.78 2.56 2.39
5.73 2.68 2.39
5.68 2.79 2.39
5.62 2.90 2.39
5.56 3.02 2.39
5.50 3.13 2.39
5.43 3.24 2.39
5.37 3.34 2.39
5.30 3.45 2.39
5.23 3.56 2.39
5.16 3.66 2.39
5.08 3.76 2.39
5.01 3.86 2.39
4.93 3.96 2.39
4.85 4.06 2.39
4.77 4.16 2.39
4.68 4.25 2.39
4.60 4.35 2.39
4.51 4.44 2.39
4.42 4.53 2.39
4.32 4.61 2.39
4.23 4.70 2.39
4.14 4.78 2.39
4.04 4.86 2.39
3.94 4.94 2.39
3.84 5.02 2.39
3.74 5.10 2.39
3.64 5.17 2.39
3.53 5.24 2.39
3.42 5.31 2.39
3.32 5.38 2.39
3.21 5.44 2.39
3.10 5.50 2.39
2.99 5.56 2.39
2.87 5.62 2.39
2.76 5.68 2.39
2.65 5.73 2.39
2.53 5.78 2.39
2.41 5.83 2.39
2.30 5.88 2.39
2.19 5.95 2.40
2.15 6.22 2.49
2.02 6.26 2.49
1.89 6.30 2.49
1.77 6.33 2.49
1.64 6.37 2.49
1.51 6.40 2.49
1.38 6.43 2.49
1.25 6.45 2.49
1.12 6.47 2.49
0.99 6.49 2.49
0.86 6.51 2.49
0.73 6.53 2.49
0.60 6.54 2.49
0.47 6.55 2.49
0.34 6.55 2.49
0.21 6.56 2.49
0.08 6.56 2.49
-0.06 6.56 2.49
-0.19 6.55 2.49
-0.32 6.55 2.49
-0.45 6.54 2.49
-0.58 6.53 2.49
-0.71 6.51 2.49
-0.84 6.49 2.49
-0.97 6.47 2.49
-1.10 6.45 2.49
-1.23 6.43 2.49
-1.36 6.40 2.49
-1.49 6.37 2.49
-1.61 6.34 2.49
-1.74 6.30 2.49
-1.86 6.26 2.49
-1.99 6.22 2.49
-2.11 6.18 2.49
-2.24 6.13 2.49
-2.36 6.09 2.49
-2.48 6.04 2.49
-2.60 5.98 2.49
-2.72 5.93 2.49
-2.84 5.87 2.49
-2.95 5.81 2.49
-3.07 5.75 2.49
-3.18 5.68 2.49
-3.29 5.62 2.49
-3.40 5.55 2.49
-3.51 5.48 2.49
-3.62 5.41 2.49
-3.73 5.33 2.49
-3.83 5.25 2.49
-3.94 5.17 2.49
-4.04 5.09 2.49
-4.14 5.01 2.49
-4.24 4.92 2.49
-4.34 4.84 2.49
-4.43 4.75 2.49
-4.52 4.65 2.49
-4.61 4.56 2.49
-4.70 4.47 2.49
-4.79 4.37 2.49
-4.88 4.27 2.49
-4.96 4.17 2.49
-5.04 4.07 2.49
-5.12 3.97 2.49
-5.20 3.86 2.49
-5.27 3.76 2.49
-5.35 3.65 2.49
-5.42 3.54 2.49
-5.49 3.43 2.49
-5.55 3.32 2.49
-5.62 3.20 2.49
-5.68 3.09 2.49
-5.74 2.98 2.49
-5.80 2.86 2.49
-5.85 2.74 2.49
-5.90 2.62 2.49
-5.95 2.50 2.49
-5.96 2.37 2.48
-5.97 2.23 2.46
-5.97 2.10 2.45
-5.98 1.96 2.43
-5.98 1.83 2.42
-5.99 1.71 2.41
-5.99 1.58 2.40
-6.01 1.45 2.39
-6.03 1.33 2.39
-6.06 1.21 2.39
-6.08 1.09 2.39
-6.10 0.96 2.39
-6.12 0.84 2.39
-6.13 0.72 2.39
-6.14 0.59 2.39
-6.15 0.47 2.39
-6.16 0.35 2.39
-6.16 0.22 2.39
-6.17 0.10 2.39
-6.17 -0.02 2.39
-6.16 -0.15 2.39
-6.16 -0.27 2.39
-6.15 -0.40 2.39
-6.14 -0.52 2.39
-6.13 -0.64 2.39
-6.11 -0.77 2.39
-6.10 -0.89 2.39
-6.08 -1.01 2.39
-6.07 -1.13 2.39
-6.07 -1.26 2.41
-6.07 -1.39 2.42
-6.07 -1.52 2.43
-6.07 -1.65 2.44
-6.07 -1.78 2.46
-6.07 -1.92 2.47
-6.08 -2.05 2.49
-6.04 -2.18 2.49
-5.99 -2.30 2.49
-5.95 -2.42 2.49
-5.90 -2.54 2.49
-5.84 -2.65 2.49
-5.79 -2.77 2.49
-5.73 -2.89 2.49
-5.67 -3.00 2.49
-5.61 -3.11 2.49
-5.55 -3.23 2.49
-5.48 -3.34 2.49
-5.41 -3.45 2.49
-5.34 -3.56 2.49
-5.27 -3.66 2.49
-5.20 -3.77 2.49
-5.12 -3.87 2.49
-5.04 -3.97 2.49
-4.96 -4.07 2.49
-4.88 -4.17 2.49
-4.79 -4.27 2.49
-4.70 -4.37 2.49
-4.62 -4.46 2.49
-4.53 -4.55 2.49
-4.43 -4.64 2.49
-4.34 -4.73 2.49
-4.24 -4.82 2.49
-4.15 -4.90 2.49
-4.05 -4.99 2.49
-3.95 -5.07 2.49
-3.84 -5.14 2.49
-3.74 -5.22 2.49
-3.64 -5.30 2.49
-3.53 -5.37 2.49
-3.42 -5.44 2.49
-3.31 -5.51 2.49
-3.20 -5.57 2.49
-3.09 -5.64 2.49
-2.97 -5.70 2.49
-2.86 -5.76 2.49
-2.74 -5.82 2.49
-2.63 -5.87 2.49
-2.51 -5.92 2.49
-2.39 -5.97 2.49
-2.27 -6.02 2.49
-2.15 -6.07 2.49
-2.03 -6.11 2.49
-1.90 -6.15 2.49
-1.78 -6.19 2.49
-1.65 -6.22 2.49
-1.53 -6.26 2.49
-1.40 -6.29 2.49
-1.28 -6.32 2.49
-1.15 -6.34 2.49
-1.02 -6.36 2.49
-0.89 -6.38 2.49
-0.77 -6.40 2.49
-0.64 -6.42 2.49
-0.51 -6.43 2.49
-0.38 -6.44 2.49
-0.25 -6.45 2.49
-0.12 -6.45 2.49
0.01 -6.05 2.49
0.13 -6.05 2.49
0.25 -6.05 2.49
0.37 -6.04 2.49
0.50 -6.03 2.49
0.62 -6.02 2.49
0.74 -6.01 2.49
0.86 -6.00 2.49
0.98 -5.98 2.49
1.10 -5.96 2.49
1.22 -5.94 2.49
1.34 -5.91 2.49
1.46 -5.89 2.49
1.58 -5.86 2.49
1.69 -5.83 2.49
1.81 -5.79 2.49
1.88 -5.62 2.43
1.96 -5.48 2.39
2.07 -5.44 2.39
2.18 -5.40 2.39
2.29 -5.36 2.39
2.39 -5.31 2.39
2.50 -5.27 2.39
2.61 -5.22 2.39
2.71 -5.16 2.39
2.04 -3.70 1.73
2.13 -3.69 1.75
3.02 -4.99 2.39
3.12 -4.93 2.39
3.22 -4.87 2.39
3.32 -4.81 2.39
3.41 -4.74 2.39
3.51 -4.67 2.39
3.60 -4.60 2.39
3.70 -4.53 2.39
3.79 -4.46 2.39
3.88 -4.38 2.39
3.97 -4.30 2.39
4.05 -4.22 2.39
4.14 -4.14 2.39
4.22 -4.06 2.39
4.30 -3.98 2.39
4.38 -3.89 2.39
4.46 -3.80 2.39
4.54 -3.71 2.39
4.61 -3.62 2.39
4.69 -3.53 2.39
4.76 -3.44 2.39
4.83 -3.34 2.39
4.89 -3.24 2.39
4.96 -3.15 2.39
5.02 -3.05 2.39
5.08 -2.95 2.39
5.14 -2.84 2.39
5.20 -2.74 2.39
5.25 -2.64 2.39
5.31 -2.53 2.39
5.36 -2.42 2.39
5.41 -2.32 2.39
5.45 -2.21 2.39
5.50 -2.10 2.39
5.54 -1.99 2.39
5.58 -1.88 2.39
5.62 -1.77 2.39
5.65 -1.65 2.39
5.69 -1.54 2.39
5.72 -1.43 2.39
5.75 -1.31 2.39
5.76 -1.19 2.38
5.75 -1.07 2.37
5.76 -0.96 2.37
5.77 -0.84 2.36
5.78 -0.72 2.36
5.80 -0.61 2.36
5.83 -0.49 2.37
5.87 -0.38 2.38
5.90 -0.26 2.39
5.90 -0.14 2.39
5.91 -0.02 2.39
5.91 0.09 2.39
5.90 0.21 2.39
5.90 0.33 2.39
5.89 0.45 2.39
5.88 0.57 2.39
5.87 0.69 2.39
5.86 0.80 2.39
5.84 0.92 2.39
5.82 1.04 2.39
5.80 1.15 2.39
5.78 1.27 2.39
5.75 1.39 2.39
5.72 1.50 2.39
5.69 1.62 2.39
5.66 1.73 2.39
5.62 1.84 2.39
5.58 1.95 2.39
5.54 2.07 2.39
5.50 2.18 2.39
5.46 2.29 2.39
5.41 2.40 2.39
5.36 2.50 2.39
5.31 2.61 2.39
5.26 2.72 2.39
5.20 2.82 2.39
5.15 2.93 2.39
5.09 3.03 2.39
5.02 3.13 2.39
4.96 3.23 2.39
4.89 3.33 2.39
4.83 3.43 2.39
4.76 3.52 2.39
4.69 3.62 2.39
4.61 3.71 2.39
4.54 3.80 2.39
4.46 3.89 2.39
4.38 3.98 2.39
4.30 4.07 2.39
4.22 4.15 2.39
4.13 4.23 2.39
4.05 4.32 2.39
3.96 4.40 2.39
3.87 4.47 2.39
3.78 4.55 2.39
3.69 4.63 2.39
3.59 4.70 2.39
3.50 4.77 2.39
3.40 4.84 2.39
3.30 4.90 2.39
3.20 4.97 2.39
3.10 5.03 2.39
3.00 5.09 2.39
2.90 5.15 2.39
2.80 5.21 2.39
2.69 5.26 2.39
2.58 5.31 2.39
2.48 5.36 2.39
2.37 5.43 2.40
2.26 5.46 2.39
2.17 5.56 2.42
2.13 5.78 2.49
2.01 5.82 2.49
1.89 5.86 2.49
1.77 5.89 2.49
1.65 5.93 2.49
1.54 5.96 2.49
1.42 5.99 2.49
1.29 6.01 2.49
1.17 6.04 2.49
1.05 6.06 2.49
0.93 6.08 2.49
0.81 6.09 2.49
0.69 6.11 2.49
0.56 6.12 2.49
0.44 6.13 2.49
0.32 6.13 2.49
0.19 6.14 2.49
0.07 6.14 2.49
-0.05 6.14 2.49
-0.17 6.13 2.49
-0.30 6.13 2.49
-0.42 6.12 2.49
-0.54 6.11 2.49
-0.67 6.09 2.49
-0.79 6.08 2.49
-0.91 6.06 2.49
-1.03 6.04 2.49
-1.15 6.02 2.49
-1.27 5.99 2.49
-1.39 5.96 2.49
-1.51 5.93 2.49
-1.63 5.90 2.49
-1.74 5.86 2.49
-1.86 5.82 2.49
-1.98 5.78 2.49
-2.09 5.74 2.49
-2.21 5.70 2.49
-2.32 5.65 2.49
-2.43 5.60 2.49
-2.54 5.55 2.49
-2.65 5.50 2.49
-2.76 5.44 2.49
-2.87 5.38 2.49
-2.98 5.32 2.49
-3.08 5.26 2.49
-3.19 5.20 2.49
-3.29 5.13 2.49
-3.39 5.06 2.49
-3.49 4.99 2.49
-3.59 4.92 2.49
-3.69 4.84 2.49
-3.78 4.77 2.49
-3.88 4.69 2.49
-3.97 4.61 2.49
-4.06 4.53 2.49
-4.15 4.44 2.49
-4.24 4.36 2.49
-4.32 4.27 2.49
-4.40 4.18 2.49
-4.49 4.09 2.49
-4.57 4.00 2.49
-4.65 3.91 2.49
-4.72 3.81 2.49
-4.80 3.72 2.49
-4.87 3.62 2.49
-4.94 3.52 2.49
-5.01 3.42 2.49
-5.07 3.32 2.49
-5.14 3.21 2.49
-5.20 3.11 2.49
-5.26 3.00 2.49
-5.32 2.90 2.49
-5.37 2.79 2.49
-5.43 2.68 2.49
-5.48 2.57 2.49
-5.53 2.46 2.49
-5.58 2.34 2.49
-5.62 2.23 2.49
-5.66 2.12 2.49
-5.70 2.00 2.49
-5.74 1.89 2.49
-5.78 1.77 2.49
-5.81 1.65 2.49
-5.84 1.54 2.49
-5.87 1.42 2.49
-5.90 1.30 2.49
-5.92 1.18 2.49
-5.94 1.06 2.49
-5.96 0.94 2.49
-5.98 0.82 2.49
-5.99 0.70 2.49
-6.00 0.58 2.49
-6.01 0.46 2.49
-6.02 0.34 2.49
-6.02 0.22 2.49
-6.02 0.10 2.49
-6.03 -0.02 2.49
-6.02 -0.14 2.49
-6.02 -0.27 2.49
-6.01 -0.39 2.49
-6.00 -0.51 2.49
-5.99 -0.63 2.49
-5.97 -0.75 2.49
-5.96 -0.87 2.49
-5.94 -0.99 2.49
-5.92 -1.11 2.49
-5.89 -1.23 2.49
-5.87 -1.34 2.49
-5.84 -1.46 2.49
-5.81 -1.58 2.49
-5.77 -1.69 2.49
-5.74 -1.81 2.49
-5.70 -1.92 2.49
-5.66 -2.04 2.49
-5.62 -2.15 2.49
-5.57 -2.26 2.49
-5.52 -2.38 2.49
-5.48 -2.49 2.49
-5.42 -2.60 2.49
-5.37 -2.70 2.49
-5.32 -2.81 2.49
-5.26 -2.92 2.49
-5.20 -3.02 2.49
-5.14 -3.13 2.49
-5.07 -3.23 2.49
-5.01 -3.33 2.49
-4.94 -3.43 2.49
-4.87 -3.53 2.49
-4.80 -3.63 2.49
-4.72 -3.72 2.49
-4.65 -3.82 2.49
-4.57 -3.91 2.49
-4.49 -4.00 2.49
-4.41 -4.09 2.49
-4.33 -4.18 2.49
-4.24 -4.26 2.49
-4.15 -4.35 2.49
-4.07 -4.43 2.49
-3.98 -4.51 2.49
-3.89 -4.59 2.49
-3.79 -4.67 2.49
-3.70 -4.75 2.49
-3.60 -4.82 2.49
-3.50 -4.89 2.49
-3.41 -4.96 2.49
-3.31 -5.03 2.49
-3.20 -5.10 2.49
-3.10 -5.16 2.49
-3.00 -5.22 2.49
-2.89 -5.28 2.49
-2.79 -5.34 2.49
-2.68 -5.40 2.49
-2.57 -5.45 2.49
-2.46 -5.50 2.49
-2.35 -5.55 2.49
-2.24 -5.60 2.49
-2.12 -5.64 2.49
-2.01 -5.68 2.49
-1.90 -5.72 2.49
