ply
format ascii 1.0
element vertex 2976
property float32 x
property float32 y
property float32 z
end_header
-6.13 -9.71 2.39
-5.93 -9.82 2.39
-5.73 -9.93 2.39
-5.55 -10.09 2.40
-5.53 -10.53 2.48
-5.33 -10.68 2.49
-5.11 -10.78 2.49
-4.89 -10.87 2.49
-4.67 -10.96 2.49
-4.45 -11.04 2.49
-4.22 -11.12 2.49
-4.00 -11.20 2.49
-3.77 -11.27 2.49
-3.54 -11.34 2.49
-3.31 -11.40 2.49
-3.08 -11.45 2.49
-2.84 -11.51 2.49
-2.61 -11.55 2.49
-2.38 -11.59 2.49
-2.14 -11.63 2.49
-1.91 -11.67 2.49
-1.67 -11.69 2.49
-1.44 -11.72 2.49
-1.20 -11.74 2.49
-0.96 -11.75 2.49
-0.73 -11.76 2.49
-0.49 -11.76 2.49
-0.25 -11.76 2.49
-0.02 -10.58 2.49
0.20 -10.57 2.49
0.41 -10.56 2.49
0.62 -10.54 2.49
0.83 -10.52 2.49
1.04 -10.49 2.49
1.25 -10.47 2.49
1.46 -10.43 2.49
1.67 -10.39 2.49
1.87 -10.35 2.49
2.08 -10.31 2.49
2.29 -10.26 2.49
2.49 -10.20 2.49
2.58 -9.73 2.39
2.78 -9.67 2.39
2.97 -9.60 2.39
3.16 -9.54 2.39
3.35 -9.47 2.39
3.53 -9.39 2.39
3.72 -9.31 2.39
3.90 -9.23 2.39
4.09 -9.15 2.39
4.27 -9.06 2.39
4.45 -8.97 2.39
4.62 -8.87 2.39
4.80 -8.77 2.39
4.97 -8.67 2.39
5.04 -8.40 2.34
5.31 -8.45 2.39
5.48 -8.34 2.39
5.64 -8.23 2.39
5.80 -8.11 2.39
5.96 -7.99 2.39
6.12 -7.86 2.39
6.27 -7.73 2.39
6.42 -7.60 2.39
7.13 -8.11 2.59
6.37 -6.95 2.27
7.47 -7.83 2.60
7.67 -7.72 2.62
8.25 -7.98 2.76
8.93 -8.29 2.93
6.33 -5.65 2.04
9.95 -8.52 3.16
10.18 -8.37 3.18
6.29 -4.97 1.93
10.65 -8.07 3.22
10.89 -7.91 3.25
11.12 -7.74 3.27
6.29 -4.19 1.82
11.58 -7.39 3.32
11.83 -7.21 3.35
12.07 -7.04 3.38
6.24 -3.47 1.73
12.56 -6.66 3.44
12.80 -6.46 3.47
6.22 -2.98 1.67
13.27 -6.04 3.53
13.51 -5.82 3.56
13.84 -5.64 3.61
14.31 -5.50 3.71
14.79 -5.34 3.80
6.18 -2.09 1.58
6.18 -1.95 1.57
6.17 -1.82 1.56
6.16 -1.68 1.55
6.16 -1.55 1.54
44.17 -10.16 10.97
44.62 -9.32 11.04
45.11 -8.48 11.12
45.59 -7.62 11.19
46.04 -6.75 11.27
44.24 -5.58 10.80
44.41 -4.70 10.81
45.28 -3.87 11.01
2.39 -0.16 0.58
2.38 -0.11 0.58
2.42 -0.06 0.59
46.86 -0.23 11.35
35.03 0.53 8.48
34.07 1.21 8.25
33.60 1.87 8.15
33.18 2.51 8.05
33.04 3.17 8.03
32.95 3.83 8.03
32.89 4.50 8.03
33.05 5.20 8.09
33.35 5.93 8.19
33.64 6.69 8.30
34.81 7.65 8.62
37.00 8.91 9.20
37.79 9.91 9.44
38.23 10.85 9.60
39.29 12.01 9.93
6.05 1.98 1.54
6.02 2.11 1.54
6.01 2.24 1.55
6.01 2.38 1.56
6.00 2.52 1.57
6.00 2.81 1.60
5.98 2.95 1.61
5.98 3.25 1.64
14.09 8.80 4.00
12.89 8.41 3.70
12.54 8.54 3.65
12.18 8.66 3.59
11.82 8.77 3.54
11.46 8.87 3.48
11.11 8.96 3.43
5.91 4.96 1.85
10.54 9.22 3.36
10.26 9.35 3.33
10.00 9.49 3.30
5.88 5.81 1.98
9.47 9.74 3.25
9.21 9.85 3.23
5.85 6.52 2.10
7.65 8.87 2.80
5.82 7.04 2.18
6.87 8.65 2.64
6.77 8.88 2.67
6.67 9.12 2.70
5.75 8.21 2.39
5.59 8.33 2.39
5.42 8.44 2.39
5.25 8.56 2.39
5.08 8.67 2.39
4.91 8.77 2.39
4.74 8.87 2.39
4.56 8.97 2.39
4.38 9.07 2.39
4.20 9.16 2.39
4.02 9.24 2.39
3.83 9.33 2.39
3.65 9.41 2.39
3.46 9.49 2.39
3.27 9.56 2.39
3.08 9.63 2.39
2.89 9.69 2.39
2.69 9.76 2.39
2.50 9.81 2.39
2.30 9.87 2.39
2.11 9.92 2.39
1.92 10.01 2.40
1.73 10.12 2.42
1.57 10.48 2.49
1.36 10.52 2.49
1.15 10.55 2.49
0.94 10.57 2.49
0.73 10.60 2.49
0.52 10.62 2.49
0.30 10.63 2.49
0.09 10.64 2.49
-0.12 10.65 2.49
-0.34 10.65 2.49
-0.55 10.65 2.49
-0.77 10.64 2.49
-0.98 10.63 2.49
-1.19 10.61 2.49
-1.41 10.59 2.49
-1.62 10.57 2.49
-1.83 10.54 2.49
-2.05 10.51 2.49
-2.26 10.47 2.49
-2.47 10.43 2.49
-2.68 10.39 2.49
-2.89 10.34 2.49
-3.10 10.28 2.49
-3.30 10.22 2.49
-3.51 10.16 2.49
-3.72 10.09 2.49
-3.92 10.02 2.49
-4.12 9.95 2.49
-4.32 9.87 2.49
-4.52 9.78 2.49
-4.72 9.70 2.49
-4.92 9.61 2.49
-5.11 9.51 2.49
-5.30 9.41 2.49
-5.49 9.31 2.49
-5.68 9.20 2.49
-5.87 9.09 2.49
-6.05 8.97 2.49
-6.23 8.85 2.49
-6.27 8.54 2.44
-6.32 8.25 2.39
-6.48 8.12 2.39
-6.65 8.00 2.39
-6.81 7.86 2.39
-6.97 7.73 2.39
-7.13 7.59 2.39
-7.28 7.45 2.39
-7.43 7.30 2.39
-7.58 7.16 2.39
-7.72 7.01 2.39
-7.86 6.85 2.39
-8.00 6.70 2.39
-8.14 6.54 2.39
-8.27 6.37 2.39
-8.40 6.21 2.39
-8.52 6.04 2.39
-8.65 5.87 2.39
-8.77 5.70 2.39
-8.88 5.52 2.39
-8.99 5.34 2.39
-9.10 5.16 2.39
-9.20 4.98 2.39
-9.30 4.80 2.39
-9.40 4.61 2.39
-9.49 4.42 2.39
-9.30 4.11 2.32
-9.43 3.94 2.33
-9.75 3.85 2.39
-9.82 3.65 2.39
-9.90 3.45 2.39
-9.96 3.26 2.39
-10.03 3.06 2.39
-10.16 2.87 2.41
-10.21 2.67 2.41
-10.27 2.47 2.41
-10.31 2.26 2.41
-10.36 2.05 2.41
-10.40 1.84 2.41
-10.43 1.64 2.41
-10.46 1.43 2.41
-10.49 1.22 2.41
-10.51 1.01 2.41
-10.53 0.79 2.41
-10.54 0.58 2.41
-10.55 0.37 2.41
-10.56 0.16 2.41
-10.56 -0.05 2.41
-10.55 -0.26 2.41
-10.55 -0.47 2.41
-10.32 -0.67 2.36
-10.31 -0.88 2.36
-10.29 -1.08 2.36
-10.27 -1.29 2.36
-10.24 -1.50 2.36
-10.21 -1.70 2.36
-10.18 -1.91 2.36
-10.15 -2.11 2.37
-10.11 -2.32 2.37
-10.07 -2.52 2.37
-10.17 -2.76 2.41
-10.11 -2.97 2.41
-10.05 -3.17 2.41
-9.98 -3.37 2.41
-9.91 -3.57 2.41
-9.76 -3.74 2.39
-9.68 -3.93 2.39
-9.60 -4.12 2.39
-9.51 -4.31 2.39
-9.42 -4.50 2.39
-9.33 -4.69 2.39
-9.23 -4.87 2.39
-9.12 -5.06 2.39
-9.02 -5.24 2.39
-8.91 -5.41 2.39
-8.79 -5.59 2.39
-8.68 -5.76 2.39
-8.56 -5.93 2.39
-8.43 -6.10 2.39
-8.30 -6.26 2.39
-8.17 -6.43 2.39
-8.04 -6.59 2.39
-7.90 -6.74 2.39
-7.76 -6.90 2.39
-7.62 -7.05 2.39
-7.47 -7.20 2.39
-7.32 -7.34 2.39
-7.17 -7.48 2.39
-7.02 -7.62 2.39
-6.86 -7.76 2.39
-6.70 -7.89 2.39
-6.53 -8.02 2.39
-6.37 -8.14 2.39
-6.20 -8.26 2.39
-6.03 -8.38 2.39
-5.86 -8.50 2.39
-5.68 -8.61 2.39
-5.59 -8.85 2.43
-5.56 -9.20 2.49
-5.37 -9.31 2.49
-5.18 -9.41 2.49
-4.99 -9.50 2.49
-4.79 -9.59 2.49
-4.60 -9.68 2.49
-4.40 -9.77 2.49
-4.20 -9.85 2.49
-4.00 -9.92 2.49
-3.80 -10.00 2.49
-3.59 -10.07 2.49
-3.39 -10.13 2.49
-3.18 -10.19 2.49
-2.97 -10.24 2.49
-2.77 -10.30 2.49
-2.56 -10.34 2.49
-2.35 -10.39 2.49
-2.14 -10.42 2.49
-1.93 -10.46 2.49
-1.72 -10.49 2.49
-1.50 -10.52 2.49
-1.29 -10.54 2.49
-1.08 -10.55 2.49
-0.87 -10.57 2.49
-0.65 -10.58 2.49
-0.44 -10.58 2.49
-0.23 -10.58 2.49
-0.02 -9.60 2.49
0.18 -9.60 2.49
0.37 -9.59 2.49
0.56 -9.57 2.49
0.75 -9.55 2.49
0.94 -9.53 2.49
1.13 -9.50 2.49
1.32 -9.47 2.49
1.51 -9.44 2.49
1.70 -9.40 2.49
1.89 -9.36 2.49
2.08 -9.32 2.49
2.26 -9.27 2.49
2.45 -9.22 2.49
2.52 -8.78 2.39
2.69 -8.73 2.39
2.87 -8.67 2.39
3.04 -8.60 2.39
3.21 -8.54 2.39
3.38 -8.46 2.39
3.55 -8.39 2.39
3.71 -8.31 2.39
3.88 -8.23 2.39
4.04 -8.15 2.39
4.20 -8.06 2.39
4.36 -7.97 2.39
4.52 -7.88 2.39
4.67 -7.79 2.39
4.83 -7.69 2.39
4.98 -7.59 2.39
5.13 -7.48 2.39
5.27 -7.37 2.39
5.42 -7.26 2.39
5.56 -7.15 2.39
5.70 -7.03 2.39
5.84 -6.91 2.39
5.98 -6.79 2.39
6.11 -6.67 2.39
6.24 -6.54 2.39
6.37 -6.41 2.39
7.13 -6.90 2.63
7.28 -6.77 2.63
7.42 -6.62 2.63
7.56 -6.48 2.64
8.03 -6.60 2.75
6.29 -4.97 2.13
9.11 -6.90 3.03
9.66 -7.02 3.17
6.28 -4.37 2.03
10.06 -6.71 3.21
10.26 -6.54 3.23
10.45 -6.37 3.25
10.64 -6.20 3.27
10.82 -6.02 3.29
11.00 -5.83 3.31
11.18 -5.64 3.33
6.22 -2.98 1.83
11.52 -5.24 3.37
11.70 -5.05 3.39
11.89 -4.84 3.41
6.20 -2.38 1.77
12.24 -4.42 3.46
12.41 -4.21 3.49
12.58 -3.98 3.51
12.73 -3.75 3.53
12.88 -3.51 3.55
13.02 -3.27 3.57
6.16 -1.42 1.68
13.28 -2.77 3.61
13.40 -2.52 3.63
6.14 -1.03 1.66
13.85 -2.03 3.73
14.24 -1.80 3.82
14.62 -1.55 3.91
14.99 -1.28 4.00
2.39 -0.16 0.64
2.38 -0.11 0.63
2.42 -0.06 0.65
29.08 -0.14 7.74
29.01 0.44 7.72
28.92 1.02 7.70
28.80 1.60 7.68
28.73 2.18 7.66
28.68 2.75 7.67
28.70 3.34 7.68
28.70 3.93 7.70
6.06 0.95 1.63
28.91 5.15 7.81
29.13 5.79 7.89
29.33 6.45 7.98
29.68 7.15 8.11
30.12 7.90 8.27
30.56 8.68 8.44
31.15 9.53 8.65
13.16 4.32 3.68
13.01 4.56 3.66
12.85 4.79 3.64
12.68 5.02 3.62
6.01 2.52 1.73
12.30 5.45 3.57
12.09 5.65 3.54
5.98 2.95 1.77
11.65 6.03 3.48
11.43 6.21 3.45
11.19 6.38 3.41
10.99 6.56 3.39
10.79 6.74 3.37
5.95 3.89 1.88
10.39 7.08 3.32
10.18 7.24 3.30
9.97 7.40 3.28
9.75 7.55 3.26
9.53 7.69 3.23
5.91 4.96 2.04
9.08 7.95 3.19
5.91 5.38 2.11
7.52 7.14 2.73
7.02 6.94 2.60
6.94 7.14 2.62
5.86 6.27 2.26
6.78 7.56 2.67
6.68 7.76 2.69
5.80 7.01 2.39
5.66 7.12 2.39
5.51 7.24 2.39
5.37 7.35 2.39
5.22 7.46 2.39
5.08 7.57 2.39
4.93 7.67 2.39
4.77 7.78 2.39
4.62 7.87 2.39
4.46 7.97 2.39
4.30 8.06 2.39
4.14 8.15 2.39
3.98 8.24 2.39
3.81 8.32 2.39
3.65 8.40 2.39
3.48 8.47 2.39
3.31 8.55 2.39
3.14 8.62 2.39
2.97 8.68 2.39
2.80 8.75 2.39
2.62 8.80 2.39
2.45 8.86 2.39
2.27 8.91 2.39
2.09 8.96 2.39
1.91 9.01 2.39
1.76 9.20 2.43
1.62 9.48 2.49
1.43 9.51 2.49
1.24 9.55 2.49
1.04 9.57 2.49
0.85 9.60 2.49
0.66 9.62 2.49
0.47 9.64 2.49
0.27 9.65 2.49
0.08 9.66 2.49
-0.11 9.66 2.49
-0.31 9.66 2.49
-0.50 9.66 2.49
-0.70 9.65 2.49
-0.89 9.64 2.49
-1.08 9.63 2.49
-1.28 9.61 2.49
-1.47 9.59 2.49
-1.66 9.56 2.49
-1.86 9.53 2.49
-2.05 9.50 2.49
-2.24 9.46 2.49
-2.43 9.42 2.49
-2.62 9.37 2.49
-2.81 9.32 2.49
-3.00 9.27 2.49
-3.18 9.21 2.49
-3.37 9.15 2.49
-3.55 9.09 2.49
-3.74 9.02 2.49
-3.92 8.95 2.49
-4.10 8.87 2.49
-4.28 8.79 2.49
-4.46 8.71 2.49
-4.63 8.62 2.49
-4.81 8.53 2.49
-4.98 8.43 2.49
-5.15 8.34 2.49
-5.32 8.23 2.49
-5.49 8.13 2.49
-5.65 8.02 2.49
-5.81 7.91 2.49
-5.97 7.80 2.49
-6.13 7.68 2.49
-6.23 7.49 2.47
-6.22 7.18 2.41
-6.31 7.00 2.39
-6.46 6.88 2.39
-6.60 6.75 2.39
-6.73 6.62 2.39
-6.87 6.48 2.39
-7.00 6.35 2.39
-7.12 6.21 2.39
-7.25 6.06 2.39
-7.37 5.92 2.39
-7.49 5.77 2.39
-7.61 5.62 2.39
-7.72 5.47 2.39
-7.83 5.32 2.39
-7.94 5.16 2.39
-8.04 5.00 2.39
-8.14 4.84 2.39
-8.24 4.68 2.39
-8.33 4.51 2.39
-8.42 4.34 2.39
-8.51 4.18 2.39
-8.60 4.01 2.39
-8.68 3.83 2.39
-8.75 3.66 2.39
-8.83 3.48 2.39
-8.89 3.31 2.39
-8.96 3.13 2.39
-9.02 2.95 2.39
-9.08 2.77 2.39
-9.14 2.58 2.39
-9.19 2.40 2.39
-9.23 2.22 2.39
-9.28 2.03 2.39
-9.32 1.85 2.39
-9.35 1.66 2.39
-9.38 1.47 2.39
-9.41 1.28 2.39
-9.43 1.09 2.39
-9.45 0.90 2.39
-9.47 0.71 2.39
-9.48 0.52 2.39
-9.49 0.33 2.39
-9.50 0.14 2.39
-9.50 -0.05 2.39
-9.49 -0.24 2.39
-9.48 -0.43 2.39
-9.47 -0.62 2.39
-9.46 -0.81 2.39
-9.44 -1.00 2.39
-9.42 -1.18 2.39
-9.39 -1.37 2.39
-9.36 -1.56 2.39
-9.32 -1.75 2.39
-9.29 -1.93 2.39
-9.24 -2.12 2.39
-9.20 -2.30 2.39
-9.15 -2.49 2.39
-9.09 -2.67 2.39
-9.04 -2.85 2.39
-8.98 -3.03 2.39
-8.91 -3.21 2.39
-8.84 -3.38 2.39
-8.77 -3.56 2.39
-8.69 -3.73 2.39
-8.62 -3.91 2.39
-8.53 -4.08 2.39
-8.45 -4.25 2.39
-8.36 -4.41 2.39
-8.27 -4.58 2.39
-8.17 -4.74 2.39
-8.07 -4.90 2.39
-7.97 -5.06 2.39
-7.86 -5.22 2.39
-7.75 -5.37 2.39
-7.64 -5.53 2.39
-7.52 -5.68 2.39
-7.41 -5.82 2.39
-7.29 -5.97 2.39
-7.16 -6.11 2.39
-7.03 -6.25 2.39
-6.90 -6.39 2.39
-6.77 -6.52 2.39
-6.64 -6.65 2.39
-6.50 -6.78 2.39
-6.36 -6.91 2.39
-6.22 -7.03 2.39
-6.07 -7.15 2.39
-5.92 -7.27 2.39
-5.77 -7.38 2.39
-5.65 -7.53 2.40
-5.63 -7.82 2.46
-5.54 -8.04 2.49
-5.38 -8.14 2.49
-5.21 -8.24 2.49
-5.04 -8.34 2.49
-4.87 -8.44 2.49
-4.70 -8.53 2.49
-4.52 -8.62 2.49
-4.35 -8.70 2.49
-4.17 -8.78 2.49
-3.99 -8.86 2.49
-3.81 -8.93 2.49
-3.63 -9.00 2.49
-3.44 -9.07 2.49
-3.26 -9.13 2.49
-3.07 -9.19 2.49
-2.89 -9.24 2.49
-2.70 -9.29 2.49
-2.51 -9.34 2.49
-2.32 -9.39 2.49
-2.13 -9.42 2.49
-1.94 -9.46 2.49
-1.75 -9.49 2.49
-1.56 -9.52 2.49
-1.37 -9.54 2.49
-1.17 -9.56 2.49
-0.98 -9.58 2.49
-0.79 -9.59 2.49
-0.60 -9.60 2.49
-0.40 -9.61 2.49
-0.21 -9.61 2.49
-0.02 -8.79 2.49
0.16 -8.78 2.49
0.34 -8.77 2.49
0.51 -8.76 2.49
0.69 -8.74 2.49
0.86 -8.72 2.49
1.04 -8.70 2.49
1.21 -8.67 2.49
1.38 -8.64 2.49
1.56 -8.61 2.49
1.73 -8.57 2.49
1.90 -8.53 2.49
2.07 -8.48 2.49
2.24 -8.44 2.49
2.40 -8.39 2.49
2.47 -7.99 2.39
2.62 -7.93 2.39
2.78 -7.88 2.39
2.94 -7.81 2.39
3.09 -7.75 2.39
3.25 -7.68 2.39
3.40 -7.61 2.39
3.55 -7.54 2.39
3.70 -7.46 2.39
3.85 -7.38 2.39
3.99 -7.30 2.39
4.14 -7.22 2.39
4.28 -7.13 2.39
4.42 -7.04 2.39
4.56 -6.95 2.39
4.69 -6.85 2.39
4.83 -6.75 2.39
4.96 -6.65 2.39
5.09 -6.55 2.39
5.22 -6.44 2.39
5.35 -6.33 2.39
5.47 -6.22 2.39
5.59 -6.11 2.39
5.71 -5.99 2.39
5.83 -5.88 2.39
5.95 -5.76 2.39
6.06 -5.63 2.39
6.17 -5.51 2.39
6.28 -5.38 2.39
7.20 -5.92 2.70
6.29 -4.97 2.32
7.49 -5.68 2.72
6.30 -4.58 2.25
8.06 -5.61 2.84
8.40 -5.60 2.92
8.83 -5.63 3.03
9.28 -5.66 3.15
9.63 -5.61 3.23
9.79 -5.45 3.25
9.95 -5.28 3.26
10.11 -5.10 3.28
6.22 -2.98 2.00
10.41 -4.74 3.32
10.56 -4.55 3.34
10.70 -4.36 3.35
10.84 -4.17 3.37
10.94 -3.95 3.37
6.19 -2.10 1.90
11.11 -3.52 3.38
11.20 -3.30 3.39
11.27 -3.07 3.39
11.35 -2.85 3.40
11.41 -2.63 3.40
11.48 -2.40 3.40
11.57 -2.17 3.42
6.14 -1.03 1.81
11.73 -1.72 3.44
11.79 -1.49 3.45
11.84 -1.25 3.46
11.89 -1.02 3.46
2.39 -0.16 0.70
2.38 -0.11 0.69
2.42 -0.06 0.70
11.98 -0.06 3.48
11.99 0.18 3.48
12.00 0.42 3.49
6.09 0.34 1.77
11.97 0.91 3.48
11.94 1.15 3.48
11.90 1.39 3.48
11.86 1.62 3.47
6.06 0.95 1.78
11.74 2.09 3.46
11.67 2.32 3.45
11.58 2.55 3.44
11.47 2.76 3.42
11.35 2.98 3.40
6.04 1.72 1.82
11.16 3.41 3.38
6.03 1.98 1.84
6.02 2.11 1.85
10.86 4.05 3.36
10.76 4.27 3.35
10.66 4.47 3.35
10.55 4.68 3.34
10.44 4.89 3.34
5.98 2.95 1.93
10.14 5.25 3.30
9.96 5.41 3.28
9.77 5.57 3.25
9.58 5.72 3.22
9.39 5.86 3.20
9.21 6.01 3.18
8.84 6.02 3.09
8.22 5.85 2.91
7.69 5.71 2.76
7.20 5.57 2.62
5.92 4.78 2.19
5.91 4.96 2.22
5.90 5.17 2.26
6.84 6.24 2.67
6.77 6.43 2.69
5.91 5.84 2.39
5.79 5.96 2.39
5.68 6.08 2.39
5.55 6.19 2.39
5.43 6.31 2.39
5.31 6.42 2.39
5.18 6.52 2.39
5.05 6.63 2.39
4.92 6.73 2.39
4.78 6.83 2.39
4.65 6.93 2.39
4.51 7.03 2.39
4.37 7.12 2.39
4.23 7.21 2.39
4.08 7.30 2.39
3.94 7.38 2.39
3.79 7.46 2.39
3.64 7.54 2.39
3.49 7.61 2.39
3.34 7.69 2.39
3.18 7.76 2.39
2.88 7.42 2.27
2.77 7.59 2.30
2.67 7.81 2.35
2.51 7.87 2.35
2.27 7.65 2.27
2.17 7.86 2.32
2.07 8.15 2.39
1.91 8.20 2.39
1.79 8.43 2.45
1.65 8.63 2.49
1.48 8.67 2.49
1.30 8.70 2.49
1.13 8.73 2.49
0.95 8.76 2.49
0.78 8.78 2.49
0.60 8.80 2.49
0.43 8.81 2.49
0.25 8.82 2.49
0.07 8.83 2.49
-0.11 8.84 2.49
-0.28 8.84 2.49
-0.46 8.83 2.49
-0.64 8.83 2.49
-0.82 8.82 2.49
-0.99 8.80 2.49
-1.17 8.79 2.49
-1.35 8.76 2.49
-1.52 8.74 2.49
-1.70 8.71 2.49
-1.87 8.68 2.49
-2.05 8.65 2.49
-2.22 8.61 2.49
-2.40 8.56 2.49
-2.57 8.52 2.49
-2.74 8.47 2.49
-2.91 8.42 2.49
-3.08 8.36 2.49
-3.25 8.30 2.49
-3.42 8.24 2.49
-3.58 8.17 2.49
-3.75 8.10 2.49
-3.91 8.03 2.49
-4.07 7.95 2.49
-4.23 7.87 2.49
-4.39 7.79 2.49
-4.55 7.70 2.49
-4.71 7.61 2.49
-4.86 7.52 2.49
-5.01 7.43 2.49
-5.16 7.33 2.49
-5.31 7.22 2.49
-5.45 7.12 2.49
-5.60 7.01 2.49
-5.74 6.90 2.49
-5.88 6.79 2.49
-6.02 6.67 2.49
-6.15 6.55 2.49
-6.18 6.32 2.45
-6.18 6.08 2.40
-6.27 5.92 2.39
-6.39 5.79 2.39
-6.51 5.67 2.39
-6.62 5.54 2.39
-6.73 5.40 2.39
-6.84 5.27 2.39
-6.95 5.13 2.39
-7.05 4.99 2.39
-7.15 4.85 2.39
-7.25 4.71 2.39
-7.34 4.56 2.39
-7.43 4.42 2.39
-7.52 4.27 2.39
-7.61 4.12 2.39
-7.69 3.97 2.39
-7.77 3.81 2.39
-7.85 3.66 2.39
-7.92 3.50 2.39
-7.99 3.34 2.39
-8.06 3.18 2.39
-8.12 3.02 2.39
-8.18 2.85 2.39
-8.23 2.69 2.39
-8.29 2.53 2.39
-8.34 2.36 2.39
-8.38 2.19 2.39
-8.43 2.02 2.39
-8.47 1.85 2.39
-8.50 1.68 2.39
-8.53 1.51 2.39
-8.56 1.34 2.39
-8.59 1.17 2.39
-8.61 1.00 2.39
-8.63 0.83 2.39
-8.64 0.65 2.39
-8.65 0.48 2.39
-8.66 0.31 2.39
-8.67 0.13 2.39
-8.67 -0.04 2.39
-8.66 -0.22 2.39
-8.66 -0.39 2.39
-8.65 -0.56 2.39
-8.63 -0.74 2.39
-8.62 -0.91 2.39
-8.59 -1.08 2.39
-8.57 -1.25 2.39
-8.54 -1.42 2.39
-8.51 -1.59 2.39
-8.48 -1.76 2.39
-8.44 -1.93 2.39
-8.40 -2.10 2.39
-8.35 -2.27 2.39
-8.30 -2.44 2.39
-8.25 -2.60 2.39
-8.19 -2.76 2.39
-8.13 -2.93 2.39
-8.07 -3.09 2.39
-8.01 -3.25 2.39
-7.94 -3.41 2.39
-7.87 -3.57 2.39
-7.79 -3.72 2.39
-7.71 -3.88 2.39
-7.63 -4.03 2.39
-7.55 -4.18 2.39
-7.46 -4.33 2.39
-7.37 -4.48 2.39
-7.27 -4.62 2.39
-7.18 -4.76 2.39
-7.08 -4.91 2.39
-6.98 -5.04 2.39
-6.87 -5.18 2.39
-6.76 -5.32 2.39
-6.65 -5.45 2.39
-6.54 -5.58 2.39
-6.43 -5.71 2.39
-6.31 -5.83 2.39
-6.19 -5.96 2.39
-6.06 -6.08 2.39
-5.94 -6.19 2.39
-5.81 -6.31 2.39
-5.70 -6.44 2.40
-5.68 -6.68 2.45
-5.65 -6.92 2.49
-5.50 -7.03 2.49
-5.36 -7.14 2.49
-5.21 -7.24 2.49
-5.06 -7.34 2.49
-4.91 -7.44 2.49
-4.76 -7.53 2.49
-4.61 -7.62 2.49
-4.45 -7.71 2.49
-4.29 -7.79 2.49
-4.13 -7.87 2.49
-3.97 -7.95 2.49
-3.81 -8.03 2.49
-3.65 -8.10 2.49
-3.48 -8.16 2.49
-3.32 -8.23 2.49
-3.15 -8.29 2.49
-2.98 -8.35 2.49
-2.81 -8.40 2.49
-2.64 -8.45 2.49
-2.47 -8.50 2.49
-2.30 -8.54 2.49
-2.13 -8.58 2.49
-1.95 -8.62 2.49
-1.78 -8.65 2.49
-1.60 -8.68 2.49
-1.43 -8.71 2.49
-1.25 -8.73 2.49
-1.08 -8.75 2.49
-0.90 -8.76 2.49
-0.72 -8.77 2.49
-0.55 -8.78 2.49
-0.37 -8.79 2.49
-0.19 -8.79 2.49
-0.02 -8.09 2.49
0.15 -8.08 2.49
0.31 -8.07 2.49
0.47 -8.06 2.49
0.63 -8.05 2.49
0.79 -8.03 2.49
0.95 -8.01 2.49
1.11 -7.98 2.49
1.27 -7.96 2.49
1.43 -7.93 2.49
1.59 -7.89 2.49
1.75 -7.85 2.49
1.90 -7.81 2.49
2.06 -7.77 2.49
2.21 -7.72 2.49
2.37 -7.67 2.49
2.42 -7.31 2.39
2.56 -7.25 2.39
2.70 -7.20 2.39
2.85 -7.14 2.39
2.84 -6.72 2.27
2.97 -6.66 2.27
3.10 -6.59 2.27
3.24 -6.53 2.27
3.36 -6.46 2.27
3.68 -6.73 2.39
3.81 -6.65 2.39
3.94 -6.57 2.39
4.07 -6.49 2.39
4.20 -6.40 2.39
4.33 -6.31 2.39
4.45 -6.22 2.39
4.57 -6.13 2.39
4.69 -6.03 2.39
4.81 -5.94 2.39
4.93 -5.84 2.39
5.04 -5.74 2.39
5.16 -5.63 2.39
5.27 -5.52 2.39
5.37 -5.42 2.39
5.48 -5.31 2.39
5.58 -5.19 2.39
5.69 -5.08 2.39
5.79 -4.96 2.39
5.88 -4.84 2.39
5.98 -4.72 2.39
6.07 -4.60 2.39
6.16 -4.48 2.39
6.25 -4.35 2.39
7.43 -4.95 2.80
7.62 -4.86 2.84
7.89 -4.81 2.90
6.25 -3.64 2.27
8.45 -4.70 3.04
8.75 -4.64 3.11
6.24 -3.15 2.20
6.22 -2.98 2.17
9.61 -4.38 3.32
9.73 -4.20 3.34
9.83 -4.01 3.34
9.92 -3.81 3.34
10.00 -3.61 3.35
10.08 -3.42 3.35
10.16 -3.22 3.35
10.23 -3.01 3.36
6.17 -1.68 2.01
10.36 -2.60 3.36
10.41 -2.40 3.37
10.47 -2.19 3.37
10.51 -1.98 3.37
6.14 -1.03 1.96
10.59 -1.55 3.37
10.62 -1.34 3.37
10.65 -1.13 3.37
10.67 -0.91 3.37
2.39 -0.16 0.75
2.38 -0.11 0.75
2.42 -0.06 0.76
10.71 -0.05 3.37
6.12 0.09 1.93
10.70 0.38 3.37
10.70 0.59 3.37
10.68 0.81 3.37
10.66 1.02 3.37
10.63 1.24 3.37
10.58 1.45 3.36
6.06 0.95 1.93
10.46 1.86 3.34
10.41 2.07 3.34
10.35 2.28 3.33
10.29 2.48 3.33
10.22 2.68 3.32
10.15 2.88 3.32
10.06 3.08 3.31
9.97 3.27 3.30
9.88 3.46 3.29
9.78 3.65 3.28
6.01 2.38 2.03
9.58 4.02 3.26
9.48 4.21 3.26
9.33 4.37 3.24
5.98 2.95 2.09
8.60 4.45 3.04
8.03 4.36 2.87
7.54 4.30 2.72
7.17 4.28 2.62
7.10 4.43 2.62
7.04 4.60 2.64
5.95 4.06 2.26
6.92 4.93 2.66
6.86 5.10 2.68
6.80 5.26 2.69
5.95 4.80 2.39
5.85 4.92 2.39
5.75 5.04 2.39
5.65 5.15 2.39
5.55 5.27 2.39
5.45 5.38 2.39
5.34 5.49 2.39
5.23 5.60 2.39
5.12 5.71 2.39
5.00 5.81 2.39
4.89 5.91 2.39
4.77 6.01 2.39
4.65 6.11 2.39
4.53 6.20 2.39
4.40 6.30 2.39
4.28 6.39 2.39
4.15 6.47 2.39
4.02 6.56 2.39
3.89 6.64 2.39
3.76 6.72 2.39
3.62 6.80 2.39
3.49 6.87 2.39
3.35 6.94 2.39
3.21 7.01 2.39
2.92 6.72 2.27
2.80 6.81 2.28
2.74 7.08 2.35
2.60 7.14 2.35
2.46 7.20 2.35
2.23 6.99 2.27
2.19 7.35 2.37
2.06 7.46 2.39
1.91 7.51 2.39
1.81 7.79 2.47
1.68 7.91 2.49
1.52 7.95 2.49
1.36 7.98 2.49
1.20 8.01 2.49
1.04 8.04 2.49
0.88 8.06 2.49
0.71 8.08 2.49
0.55 8.10 2.49
0.39 8.11 2.49
0.23 8.12 2.49
0.06 8.13 2.49
-0.10 8.13 2.49
-0.26 8.13 2.49
-0.42 8.13 2.49
-0.59 8.12 2.49
-0.75 8.11 2.49
-0.91 8.10 2.49
-1.08 8.08 2.49
-1.24 8.06 2.49
-1.40 8.04 2.49
-1.56 8.01 2.49
-1.72 7.99 2.49
-1.89 7.95 2.49
-2.05 7.92 2.49
-2.21 7.88 2.49
-2.36 7.84 2.49
-2.52 7.79 2.49
-2.68 7.74 2.49
-2.83 7.69 2.49
-2.99 7.63 2.49
-3.14 7.58 2.49
-3.30 7.51 2.49
-3.45 7.45 2.49
-3.60 7.38 2.49
-3.75 7.31 2.49
-3.89 7.24 2.49
-4.04 7.16 2.49
-4.18 7.08 2.49
-4.33 7.00 2.49
-4.47 6.91 2.49
-4.61 6.83 2.49
-4.75 6.73 2.49
-4.88 6.64 2.49
-5.02 6.54 2.49
-5.15 6.44 2.49
-5.28 6.34 2.49
-5.40 6.24 2.49
-5.53 6.13 2.49
-5.65 6.02 2.49
-5.78 5.91 2.49
-5.89 5.79 2.49
-6.01 5.67 2.49
-6.13 5.55 2.49
-6.14 5.35 2.46
-6.14 5.14 2.41
-6.19 4.97 2.39
-6.29 4.84 2.39
-6.38 4.72 2.39
-6.48 4.59 2.39
-6.57 4.46 2.39
-6.66 4.33 2.39
-6.75 4.19 2.39
-6.83 4.06 2.39
-6.91 3.92 2.39
-6.99 3.78 2.39
-7.07 3.64 2.39
-7.14 3.50 2.39
-7.21 3.36 2.39
-7.28 3.21 2.39
-7.34 3.07 2.39
-7.40 2.92 2.39
-7.46 2.77 2.39
-7.51 2.62 2.39
-7.57 2.47 2.39
-7.61 2.32 2.39
-7.66 2.17 2.39
-7.70 2.01 2.39
-7.74 1.86 2.39
-7.78 1.70 2.39
-7.81 1.55 2.39
-7.84 1.39 2.39
-7.87 1.23 2.39
-7.89 1.08 2.39
-7.91 0.92 2.39
-7.93 0.76 2.39
-7.94 0.60 2.39
-7.95 0.44 2.39
-7.96 0.28 2.39
-7.96 0.12 2.39
-7.96 -0.04 2.39
-7.96 -0.20 2.39
-7.95 -0.36 2.39
-7.94 -0.52 2.39
-7.93 -0.68 2.39
-7.92 -0.83 2.39
-7.90 -0.99 2.39
-7.87 -1.15 2.39
-7.85 -1.31 2.39
-7.82 -1.46 2.39
-7.79 -1.62 2.39
-7.75 -1.78 2.39
-7.71 -1.93 2.39
-7.67 -2.08 2.39
-7.63 -2.24 2.39
-7.58 -2.39 2.39
-7.53 -2.54 2.39
-7.48 -2.69 2.39
-7.42 -2.84 2.39
-7.36 -2.99 2.39
-7.30 -3.13 2.39
-7.23 -3.28 2.39
-7.16 -3.42 2.39
-7.09 -3.56 2.39
-7.01 -3.70 2.39
-6.94 -3.84 2.39
-6.86 -3.98 2.39
-6.77 -4.11 2.39
-6.69 -4.25 2.39
-6.60 -4.38 2.39
-6.51 -4.51 2.39
-6.41 -4.64 2.39
-6.32 -4.76 2.39
-6.22 -4.89 2.39
-6.12 -5.01 2.39
-6.01 -5.13 2.39
-5.91 -5.25 2.39
-5.80 -5.36 2.39
-5.73 -5.51 2.41
-5.71 -5.72 2.45
-5.70 -5.94 2.49
-5.57 -6.05 2.49
-5.45 -6.16 2.49
-5.32 -6.26 2.49
-5.19 -6.37 2.49
-5.06 -6.47 2.49
-4.93 -6.56 2.49
-4.80 -6.66 2.49
-4.66 -6.75 2.49
-4.52 -6.84 2.49
-4.38 -6.93 2.49
-4.24 -7.01 2.49
-4.10 -7.09 2.49
-3.95 -7.17 2.49
-3.80 -7.24 2.49
-3.66 -7.31 2.49
-3.51 -7.38 2.49
-3.36 -7.45 2.49
-3.21 -7.51 2.49
-3.05 -7.57 2.49
-2.90 -7.63 2.49
-2.74 -7.68 2.49
-2.59 -7.73 2.49
-2.43 -7.77 2.49
-2.27 -7.82 2.49
-2.12 -7.86 2.49
-1.96 -7.90 2.49
-1.80 -7.93 2.49
-1.64 -7.96 2.49
-1.48 -7.99 2.49
-1.31 -8.01 2.49
-1.15 -8.03 2.49
-0.99 -8.05 2.49
-0.83 -8.06 2.49
-0.67 -8.08 2.49
-0.50 -8.08 2.49
-0.34 -8.09 2.49
-0.18 -8.09 2.49
-0.02 -7.48 2.49
0.13 -7.48 2.49
0.28 -7.47 2.49
0.43 -7.46 2.49
0.58 -7.45 2.49
0.73 -7.43 2.49
0.88 -7.41 2.49
1.03 -7.39 2.49
1.18 -7.36 2.49
1.32 -7.34 2.49
1.47 -7.31 2.49
1.62 -7.27 2.49
1.76 -7.23 2.49
1.90 -7.19 2.49
2.05 -7.15 2.49
2.19 -7.11 2.49
2.33 -7.06 2.49
2.39 -6.77 2.41
2.50 -6.67 2.39
2.64 -6.61 2.39
2.73 -6.45 2.35
2.75 -6.16 2.27
2.98 -6.33 2.35
3.10 -6.26 2.35
3.23 -6.20 2.35
3.30 -6.03 2.32
3.35 -5.85 2.27
3.65 -6.09 2.39
3.77 -6.01 2.39
3.89 -5.93 2.39
4.01 -5.85 2.39
4.12 -5.76 2.39
4.23 -5.68 2.39
4.35 -5.59 2.39
4.46 -5.50 2.39
4.56 -5.41 2.39
4.67 -5.31 2.39
4.78 -5.22 2.39
4.88 -5.12 2.39
4.98 -5.02 2.39
5.08 -4.91 2.39
5.17 -4.81 2.39
5.27 -4.70 2.39
5.36 -4.60 2.39
5.45 -4.49 2.39
5.54 -4.37 2.39
5.62 -4.26 2.39
5.71 -4.15 2.39
5.79 -4.03 2.39
5.87 -3.91 2.39
5.94 -3.79 2.39
6.02 -3.67 2.39
6.09 -3.55 2.39
6.16 -3.43 2.39
6.22 -3.30 2.39
7.66 -3.87 2.91
6.22 -2.98 2.34
8.07 -3.67 3.01
8.26 -3.56 3.05
6.20 -2.53 2.28
6.20 -2.38 2.26
8.80 -3.18 3.18
8.97 -3.04 3.22
9.13 -2.89 3.26
9.29 -2.74 3.29
9.45 -2.58 3.33
9.50 -2.39 3.33
9.56 -2.20 3.33
9.60 -2.01 3.33
9.64 -1.81 3.34
6.14 -1.03 2.12
9.71 -1.42 3.34
9.74 -1.23 3.34
9.77 -1.03 3.34
6.13 -0.52 2.09
2.39 -0.16 0.81
2.38 -0.11 0.81
2.42 -0.06 0.82
9.82 -0.05 3.34
9.82 0.15 3.34
9.81 0.35 3.34
9.79 0.54 3.33
6.09 0.46 2.07
9.72 0.93 3.32
9.68 1.13 3.31
9.63 1.32 3.30
6.06 0.95 2.08
9.52 1.70 3.29
9.47 1.88 3.28
9.41 2.07 3.27
9.35 2.26 3.27
9.29 2.44 3.26
9.01 2.56 3.18
8.54 2.61 3.03
8.08 2.65 2.89
7.75 2.72 2.78
7.41 2.77 2.68
7.19 2.85 2.62
7.16 3.01 2.63
7.12 3.16 2.64
7.09 3.32 2.65
5.98 2.95 2.26
7.00 3.63 2.67
6.95 3.78 2.68
6.90 3.94 2.69
6.85 4.09 2.70
5.99 3.74 2.39
5.92 3.86 2.39
5.84 3.98 2.39
5.76 4.10 2.39
5.68 4.22 2.39
5.59 4.33 2.39
5.51 4.45 2.39
5.42 4.56 2.39
5.33 4.67 2.39
5.24 4.77 2.39
5.14 4.88 2.39
5.04 4.98 2.39
4.94 5.09 2.39
4.84 5.19 2.39
4.74 5.29 2.39
4.63 5.38 2.39
4.53 5.48 2.39
4.42 5.57 2.39
4.30 5.66 2.39
4.19 5.74 2.39
4.08 5.83 2.39
3.96 5.91 2.39
3.84 5.99 2.39
3.72 6.07 2.39
3.60 6.15 2.39
3.48 6.22 2.39
3.35 6.29 2.39
3.23 6.36 2.39
2.94 6.10 2.27
2.83 6.17 2.27
2.80 6.45 2.35
2.67 6.50 2.35
2.54 6.56 2.35
2.32 6.38 2.27
2.22 6.50 2.30
2.18 6.82 2.39
2.04 6.87 2.39
1.90 6.91 2.39
1.83 7.22 2.49
1.70 7.29 2.49
1.55 7.32 2.49
1.40 7.36 2.49
1.26 7.39 2.49
1.11 7.41 2.49
0.96 7.44 2.49
0.81 7.46 2.49
0.66 7.48 2.49
0.51 7.49 2.49
0.36 7.50 2.49
0.21 7.51 2.49
0.06 7.52 2.49
-0.09 7.52 2.49
-0.24 7.52 2.49
-0.39 7.52 2.49
-0.55 7.51 2.49
-0.70 7.50 2.49
-0.85 7.49 2.49
-1.00 7.48 2.49
-1.15 7.46 2.49
-1.30 7.44 2.49
-1.45 7.41 2.49
-1.60 7.39 2.49
-1.75 7.35 2.49
-1.89 7.32 2.49
-2.04 7.29 2.49
-2.19 7.25 2.49
-2.33 7.20 2.49
-2.48 7.16 2.49
-2.62 7.11 2.49
-2.77 7.06 2.49
-2.91 7.00 2.49
-3.05 6.95 2.49
-3.19 6.89 2.49
-3.33 6.83 2.49
-3.46 6.76 2.49
-3.60 6.69 2.49
-3.74 6.62 2.49
-3.87 6.55 2.49
-4.00 6.47 2.49
-4.13 6.39 2.49
-4.26 6.31 2.49
-4.39 6.22 2.49
-4.51 6.14 2.49
-4.64 6.05 2.49
-4.76 5.96 2.49
-4.88 5.86 2.49
-5.00 5.76 2.49
-5.11 5.66 2.49
-5.23 5.56 2.49
-5.34 5.46 2.49
-5.45 5.35 2.49
-5.56 5.24 2.49
-5.66 5.13 2.49
-5.76 5.02 2.49
-5.87 4.90 2.49
-5.96 4.79 2.49
-6.06 4.67 2.49
-6.11 4.51 2.48
-6.10 4.32 2.44
-6.11 4.14 2.40
-6.15 4.00 2.39
-6.23 3.87 2.39
-6.31 3.75 2.39
-6.39 3.62 2.39
-6.46 3.50 2.39
-6.53 3.37 2.39
-6.60 3.23 2.39
-6.66 3.10 2.39
-6.72 2.97 2.39
-6.78 2.83 2.39
-6.84 2.70 2.39
-6.89 2.56 2.39
-6.94 2.42 2.39
-6.99 2.28 2.39
-7.04 2.14 2.39
-7.08 2.00 2.39
-7.12 1.86 2.39
-7.15 1.72 2.39
-7.19 1.57 2.39
-7.22 1.43 2.39
-7.24 1.28 2.39
-7.27 1.14 2.39
-7.29 0.99 2.39
-7.31 0.85 2.39
-7.32 0.70 2.39
-7.34 0.55 2.39
-7.35 0.41 2.39
-7.35 0.26 2.39
-7.36 0.11 2.39
-7.36 -0.04 2.39
-7.35 -0.18 2.39
-7.35 -0.33 2.39
-7.34 -0.48 2.39
-7.33 -0.62 2.39
-7.31 -0.77 2.39
-7.30 -0.92 2.39
-7.28 -1.06 2.39
-7.25 -1.21 2.39
-7.23 -1.35 2.39
-7.20 -1.50 2.39
-7.16 -1.64 2.39
-7.13 -1.78 2.39
-7.09 -1.93 2.39
-7.05 -2.07 2.39
-7.00 -2.21 2.39
-6.96 -2.35 2.39
-6.91 -2.48 2.39
-6.86 -2.62 2.39
-6.80 -2.76 2.39
-6.74 -2.89 2.39
-6.68 -3.03 2.39
-6.62 -3.16 2.39
-6.55 -3.29 2.39
-6.48 -3.42 2.39
-6.41 -3.55 2.39
-6.34 -3.68 2.39
-6.26 -3.80 2.39
-6.18 -3.92 2.39
-6.10 -4.05 2.39
-6.01 -4.17 2.39
-5.93 -4.28 2.39
-5.84 -4.40 2.39
-5.77 -4.53 2.40
-5.75 -4.71 2.43
-5.74 -4.90 2.47
-5.70 -5.06 2.49
-5.59 -5.17 2.49
-5.49 -5.28 2.49
-5.38 -5.39 2.49
-5.27 -5.49 2.49
-5.15 -5.59 2.49
-5.04 -5.69 2.49
-4.92 -5.79 2.49
-4.80 -5.89 2.49
-4.68 -5.98 2.49
-4.56 -6.07 2.49
-4.43 -6.16 2.49
-4.31 -6.24 2.49
-4.18 -6.32 2.49
-4.05 -6.40 2.49
-3.92 -6.48 2.49
-3.79 -6.56 2.49
-3.65 -6.63 2.49
-3.52 -6.70 2.49
-3.38 -6.76 2.49
-3.25 -6.83 2.49
-3.11 -6.89 2.49
-2.97 -6.95 2.49
-2.83 -7.00 2.49
-2.68 -7.05 2.49
-2.54 -7.10 2.49
-2.40 -7.15 2.49
-2.25 -7.19 2.49
-2.11 -7.23 2.49
-1.96 -7.27 2.49
-1.81 -7.30 2.49
-1.66 -7.34 2.49
-1.52 -7.36 2.49
-1.37 -7.39 2.49
-1.22 -7.41 2.49
-1.07 -7.43 2.49
-0.92 -7.45 2.49
-0.77 -7.46 2.49
-0.62 -7.47 2.49
-0.47 -7.48 2.49
-0.32 -7.48 2.49
-0.17 -7.49 2.49
-0.02 -6.96 2.49
0.12 -6.95 2.49
0.26 -6.95 2.49
0.40 -6.94 2.49
0.54 -6.93 2.49
0.68 -6.91 2.49
0.82 -6.89 2.49
0.96 -6.87 2.49
1.09 -6.85 2.49
1.23 -6.82 2.49
1.37 -6.79 2.49
1.50 -6.76 2.49
1.64 -6.73 2.49
1.77 -6.69 2.49
1.90 -6.65 2.49
2.04 -6.61 2.49
2.17 -6.56 2.49
2.30 -6.52 2.49
2.36 -6.30 2.43
2.45 -6.15 2.39
2.57 -6.10 2.39
2.69 -6.04 2.39
2.70 -5.74 2.29
2.78 -5.62 2.27
3.00 -5.76 2.35
3.11 -5.70 2.35
3.23 -5.64 2.35
3.27 -5.46 2.31
3.33 -5.31 2.27
3.62 -5.52 2.39
3.73 -5.44 2.39
3.83 -5.36 2.39
3.94 -5.28 2.39
4.04 -5.20 2.39
4.15 -5.12 2.39
4.25 -5.03 2.39
4.34 -4.94 2.39
4.44 -4.85 2.39
4.54 -4.76 2.39
4.63 -4.67 2.39
4.72 -4.57 2.39
4.81 -4.48 2.39
4.90 -4.38 2.39
4.99 -4.28 2.39
5.07 -4.18 2.39
5.15 -4.07 2.39
5.23 -3.97 2.39
5.31 -3.86 2.39
5.38 -3.75 2.39
5.46 -3.64 2.39
5.53 -3.53 2.39
5.60 -3.42 2.39
5.66 -3.30 2.39
5.73 -3.19 2.39
5.79 -3.07 2.39
5.85 -2.95 2.39
5.91 -2.84 2.39
5.96 -2.72 2.39
6.02 -2.59 2.39
6.07 -2.47 2.39
6.11 -2.35 2.39
6.16 -2.23 2.39
6.20 -2.10 2.39
7.40 -2.34 2.83
7.46 -2.20 2.84
7.60 -2.07 2.88
7.72 -1.94 2.91
7.82 -1.80 2.93
7.90 -1.65 2.95
7.97 -1.50 2.96
6.14 -1.03 2.27
6.14 -0.90 2.27
6.14 -0.77 2.26
6.14 -0.65 2.25
8.01 -0.68 2.94
2.39 -0.16 0.87
2.38 -0.11 0.87
2.42 -0.06 0.89
7.82 -0.04 2.86
7.78 0.12 2.84
7.69 0.27 2.81
7.55 0.42 2.76
7.40 0.56 2.71
7.28 0.70 2.67
7.26 0.85 2.67
7.24 0.99 2.67
6.06 0.95 2.24
6.08 1.08 2.25
6.06 1.21 2.25
6.05 1.33 2.26
6.05 1.46 2.27
6.04 1.59 2.28
7.07 2.01 2.68
7.04 2.15 2.68
7.01 2.30 2.69
6.98 2.45 2.70
6.95 2.60 2.70
6.92 2.74 2.71
6.89 2.89 2.72
6.00 2.66 2.39
5.95 2.78 2.39
5.89 2.90 2.39
5.83 3.02 2.39
5.77 3.14 2.39
5.71 3.26 2.39
5.64 3.37 2.39
5.58 3.48 2.39
5.51 3.60 2.39
5.43 3.71 2.39
5.36 3.82 2.39
5.28 3.93 2.39
5.20 4.03 2.39
5.12 4.14 2.39
5.04 4.24 2.39
4.96 4.34 2.39
4.87 4.44 2.39
4.78 4.54 2.39
4.69 4.64 2.39
4.60 4.73 2.39
4.50 4.83 2.39
4.41 4.92 2.39
4.31 5.01 2.39
4.21 5.09 2.39
4.11 5.18 2.39
4.00 5.26 2.39
3.90 5.34 2.39
3.79 5.42 2.39
3.68 5.50 2.39
3.57 5.58 2.39
3.46 5.65 2.39
3.35 5.72 2.39
3.23 5.79 2.39
2.96 5.56 2.27
2.85 5.62 2.27
2.83 5.86 2.35
2.72 5.94 2.35
2.60 5.99 2.35
2.48 6.05 2.35
2.28 5.88 2.27
2.23 6.14 2.35
2.15 6.30 2.39
2.02 6.34 2.39
1.90 6.38 2.39
1.84 6.70 2.49
1.71 6.74 2.49
1.58 6.77 2.49
1.44 6.81 2.49
1.30 6.84 2.49
1.17 6.87 2.49
1.03 6.89 2.49
0.89 6.91 2.49
0.75 6.93 2.49
0.61 6.95 2.49
0.47 6.96 2.49
0.33 6.97 2.49
0.19 6.98 2.49
0.05 6.99 2.49
-0.09 6.99 2.49
-0.23 6.99 2.49
-0.37 6.99 2.49
-0.51 6.98 2.49
-0.65 6.97 2.49
-0.79 6.96 2.49
-0.93 6.95 2.49
-1.07 6.93 2.49
-1.21 6.91 2.49
-1.35 6.89 2.49
-1.48 6.86 2.49
-1.62 6.83 2.49
-1.76 6.80 2.49
-1.90 6.77 2.49
-2.03 6.73 2.49
-2.17 6.69 2.49
-2.30 6.65 2.49
-2.44 6.60 2.49
-2.57 6.56 2.49
-2.70 6.51 2.49
-2.83 6.45 2.49
-2.96 6.40 2.49
-3.09 6.34 2.49
-3.22 6.28 2.49
-3.35 6.22 2.49
-3.47 6.15 2.49
-3.59 6.08 2.49
-3.72 6.01 2.49
-3.84 5.94 2.49
-3.96 5.86 2.49
-4.08 5.78 2.49
-4.19 5.70 2.49
-4.31 5.62 2.49
-4.42 5.53 2.49
-4.53 5.44 2.49
-4.64 5.35 2.49
-4.75 5.26 2.49
-4.85 5.17 2.49
-4.96 5.07 2.49
-5.06 4.97 2.49
-5.16 4.87 2.49
-5.26 4.77 2.49
-5.35 4.66 2.49
-5.45 4.55 2.49
-5.54 4.44 2.49
-5.63 4.33 2.49
-5.71 4.22 2.49
-5.80 4.11 2.49
-5.88 3.99 2.49
-5.96 3.87 2.49
-6.04 3.75 2.49
-6.08 3.61 2.48
-6.07 3.44 2.45
-6.07 3.28 2.42
-6.07 3.13 2.39
-6.12 3.00 2.39
-6.18 2.88 2.39
-6.26 2.76 2.40
-6.30 2.63 2.39
-6.35 2.50 2.39
-6.40 2.38 2.39
-6.45 2.25 2.39
-6.49 2.12 2.39
-6.53 1.99 2.39
-6.57 1.86 2.39
-6.61 1.73 2.39
-6.64 1.59 2.39
-6.67 1.46 2.39
-6.70 1.33 2.39
-6.73 1.19 2.39
-6.75 1.06 2.39
-6.77 0.92 2.39
-6.79 0.79 2.39
-6.80 0.65 2.39
-6.81 0.51 2.39
-6.82 0.38 2.39
-6.83 0.24 2.39
-6.83 0.10 2.39
-6.83 -0.03 2.39
-6.83 -0.17 2.39
-6.82 -0.31 2.39
-6.81 -0.44 2.39
-6.80 -0.58 2.39
-6.79 -0.71 2.39
-6.77 -0.85 2.39
-6.75 -0.99 2.39
-6.73 -1.12 2.39
-6.71 -1.26 2.39
-6.68 -1.39 2.39
-6.65 -1.52 2.39
-6.62 -1.66 2.39
-6.58 -1.79 2.39
-6.54 -1.92 2.39
-6.50 -2.05 2.39
-6.46 -2.18 2.39
-6.41 -2.31 2.39
-6.36 -2.43 2.39
-6.31 -2.56 2.39
-6.26 -2.69 2.39
-6.20 -2.81 2.39
-6.14 -2.93 2.39
-6.08 -3.05 2.39
-6.02 -3.18 2.39
-5.95 -3.29 2.39
-5.88 -3.41 2.39
-5.81 -3.53 2.39
-5.80 -3.68 2.42
-5.79 -3.84 2.44
-5.78 -4.00 2.47
-5.74 -4.15 2.49
-5.66 -4.26 2.49
-5.57 -4.37 2.49
-5.48 -4.48 2.49
-5.39 -4.59 2.49
-5.29 -4.70 2.49
-5.19 -4.80 2.49
-5.10 -4.90 2.49
-4.99 -5.00 2.49
-4.89 -5.10 2.49
-4.79 -5.19 2.49
-4.68 -5.29 2.49
-4.57 -5.38 2.49
-4.46 -5.47 2.49
-4.35 -5.55 2.49
-4.24 -5.64 2.49
-4.12 -5.72 2.49
-4.00 -5.80 2.49
-3.88 -5.87 2.49
-3.76 -5.95 2.49
-3.64 -6.02 2.49
-3.52 -6.09 2.49
-3.40 -6.16 2.49
-3.27 -6.22 2.49
-3.14 -6.28 2.49
-3.02 -6.34 2.49
-2.89 -6.40 2.49
-2.76 -6.45 2.49
-2.63 -6.50 2.49
-2.49 -6.55 2.49
-2.36 -6.60 2.49
-2.23 -6.64 2.49
-2.09 -6.68 2.49
-1.96 -6.72 2.49
-1.82 -6.76 2.49
-1.68 -6.79 2.49
-1.55 -6.82 2.49
-1.41 -6.84 2.49
-1.27 -6.87 2.49
-1.13 -6.89 2.49
-0.99 -6.91 2.49
-0.85 -6.92 2.49
-0.72 -6.94 2.49
-0.58 -6.95 2.49
-0.44 -6.95 2.49
-0.30 -6.96 2.49
-0.16 -6.96 2.49
-0.02 -6.49 2.49
0.11 -6.49 2.49
0.24 -6.48 2.49
0.37 -6.48 2.49
0.50 -6.46 2.49
0.63 -6.45 2.49
0.76 -6.43 2.49
0.89 -6.41 2.49
1.02 -6.39 2.49
1.15 -6.37 2.49
1.27 -6.34 2.49
1.40 -6.31 2.49
1.53 -6.28 2.49
1.65 -6.25 2.49
1.78 -6.21 2.49
1.90 -6.17 2.49
2.02 -6.13 2.49
2.14 -6.08 2.49
2.27 -6.04 2.49
2.35 -5.89 2.45
2.40 -5.69 2.39
2.53 -5.67 2.40
2.63 -5.59 2.39
2.69 -5.43 2.35
2.70 -5.19 2.27
2.80 -5.14 2.27
3.01 -5.26 2.35
3.12 -5.20 2.35
3.22 -5.13 2.35
3.26 -4.97 2.31
3.30 -4.82 2.27
3.58 -5.01 2.39
3.68 -4.93 2.39
3.77 -4.86 2.39
3.87 -4.78 2.39
3.96 -4.70 2.39
4.06 -4.62 2.39
4.15 -4.53 2.39
4.24 -4.45 2.39
4.32 -4.36 2.39
4.41 -4.27 2.39
4.49 -4.18 2.39
4.58 -4.09 2.39
4.66 -4.00 2.39
4.74 -3.90 2.39
4.81 -3.80 2.39
4.89 -3.70 2.39
4.96 -3.60 2.39
5.03 -3.50 2.39
5.10 -3.40 2.39
5.16 -3.30 2.39
5.23 -3.19 2.39
5.29 -3.09 2.39
5.35 -2.98 2.39
5.41 -2.87 2.39
5.46 -2.76 2.39
5.52 -2.65 2.39
5.57 -2.54 2.39
5.62 -2.42 2.39
5.67 -2.31 2.39
5.71 -2.20 2.39
5.75 -2.08 2.39
5.79 -1.96 2.39
5.83 -1.85 2.39
5.87 -1.73 2.39
5.90 -1.61 2.39
5.93 -1.49 2.39
5.96 -1.37 2.39
5.99 -1.25 2.39
6.01 -1.13 2.39
6.03 -1.01 2.39
6.05 -0.89 2.39
6.07 -0.77 2.39
6.08 -0.64 2.39
6.09 -0.52 2.39
2.39 -0.16 0.94
2.38 -0.11 0.93
2.42 -0.06 0.95
6.11 -0.03 2.39
6.11 0.09 2.39
6.11 0.22 2.39
6.11 0.34 2.39
6.10 0.46 2.39
6.09 0.59 2.39
6.08 0.71 2.39
6.06 0.83 2.39
6.04 0.95 2.39
6.02 1.07 2.39
6.00 1.19 2.39
5.98 1.32 2.39
5.95 1.44 2.39
5.92 1.56 2.39
5.89 1.67 2.39
5.86 1.79 2.39
5.82 1.91 2.39
5.78 2.03 2.39
5.74 2.14 2.39
5.70 2.26 2.39
5.65 2.37 2.39
5.60 2.49 2.39
5.55 2.60 2.39
5.50 2.71 2.39
5.45 2.82 2.39
5.39 2.93 2.39
5.33 3.04 2.39
5.27 3.15 2.39
5.21 3.25 2.39
5.14 3.36 2.39
5.07 3.46 2.39
5.00 3.57 2.39
4.93 3.67 2.39
4.86 3.77 2.39
4.78 3.86 2.39
4.71 3.96 2.39
4.63 4.06 2.39
4.55 4.15 2.39
4.46 4.24 2.39
4.38 4.33 2.39
4.29 4.42 2.39
4.20 4.51 2.39
4.11 4.59 2.39
4.02 4.68 2.39
3.93 4.76 2.39
3.83 4.84 2.39
3.74 4.91 2.39
3.64 4.99 2.39
3.54 5.06 2.39
3.44 5.14 2.39
3.33 5.21 2.39
3.23 5.27 2.39
2.97 5.07 2.27
2.87 5.14 2.27
2.85 5.35 2.34
2.76 5.43 2.35
2.65 5.49 2.35
2.54 5.54 2.35
2.34 5.40 2.27
2.26 5.51 2.30
2.24 5.79 2.39
2.12 5.83 2.39
2.00 5.88 2.39
1.89 5.94 2.40
1.84 6.22 2.49
1.72 6.25 2.49
1.59 6.29 2.49
1.47 6.32 2.49
1.34 6.35 2.49
1.21 6.38 2.49
1.09 6.41 2.49
0.96 6.43 2.49
0.83 6.45 2.49
0.70 6.47 2.49
0.57 6.48 2.49
0.44 6.50 2.49
0.31 6.51 2.49
0.18 6.52 2.49
0.05 6.52 2.49
-0.08 6.52 2.49
-0.21 6.52 2.49
-0.34 6.52 2.49
-0.48 6.51 2.49
-0.61 6.51 2.49
-0.74 6.49 2.49
-0.87 6.48 2.49
-1.00 6.46 2.49
-1.13 6.45 2.49
-1.26 6.42 2.49
-1.39 6.40 2.49
-1.51 6.37 2.49
-1.64 6.34 2.49
-1.77 6.31 2.49
-1.90 6.28 2.49
-2.02 6.24 2.49
-2.15 6.20 2.49
-2.27 6.16 2.49
-2.40 6.12 2.49
-2.52 6.07 2.49
-2.64 6.02 2.49
-2.76 5.97 2.49
-2.88 5.91 2.49
-3.00 5.86 2.49
-3.12 5.80 2.49
-3.24 5.73 2.49
-3.35 5.67 2.49
-3.47 5.60 2.49
-3.58 5.53 2.49
-3.69 5.46 2.49
-3.80 5.39 2.49
-3.91 5.31 2.49
-4.02 5.24 2.49
-4.12 5.16 2.49
-4.23 5.07 2.49
-4.33 4.99 2.49
-4.43 4.90 2.49
-4.53 4.82 2.49
-4.62 4.73 2.49
-4.72 4.63 2.49
-4.81 4.54 2.49
-4.90 4.44 2.49
-4.99 4.34 2.49
-5.08 4.24 2.49
-5.16 4.14 2.49
-5.25 4.04 2.49
-5.33 3.93 2.49
-5.41 3.83 2.49
-5.48 3.72 2.49
-5.56 3.61 2.49
-5.63 3.50 2.49
-5.70 3.39 2.49
-5.77 3.27 2.49
-5.83 3.16 2.49
-5.90 3.04 2.49
-5.96 2.92 2.49
-6.01 2.80 2.49
-6.04 2.67 2.48
-6.03 2.52 2.46
-6.03 2.38 2.44
-6.03 2.24 2.42
-6.03 2.10 2.40
-6.05 1.98 2.39
-6.09 1.85 2.39
-6.12 1.73 2.39
-6.16 1.61 2.39
-6.21 1.49 2.40
-6.22 1.36 2.39
-6.25 1.24 2.39
-6.27 1.11 2.39
-6.29 0.99 2.39
-6.31 0.86 2.39
-6.32 0.73 2.39
-6.34 0.61 2.39
-6.35 0.48 2.39
-6.36 0.35 2.39
-6.36 0.22 2.39
-6.37 0.10 2.39
-6.37 -0.03 2.39
-6.36 -0.16 2.39
-6.36 -0.28 2.39
-6.35 -0.41 2.39
-6.34 -0.54 2.39
-6.33 -0.67 2.39
-6.31 -0.79 2.39
-6.30 -0.92 2.39
-6.28 -1.04 2.39
-6.25 -1.17 2.39
-6.23 -1.29 2.39
-6.20 -1.42 2.39
-6.17 -1.54 2.39
-6.14 -1.67 2.39
-6.10 -1.79 2.39
-6.07 -1.91 2.39
-6.02 -2.03 2.39
-5.98 -2.15 2.39
-5.93 -2.27 2.39
-5.89 -2.39 2.39
-5.85 -2.51 2.40
-5.84 -2.64 2.41
-5.83 -2.78 2.43
-5.82 -2.92 2.45
-5.82 -3.07 2.48
-5.79 -3.20 2.49
-5.72 -3.32 2.49
-5.65 -3.43 2.49
-5.58 -3.54 2.49
-5.51 -3.65 2.49
-5.43 -3.76 2.49
-5.36 -3.87 2.49
-5.28 -3.97 2.49
-5.19 -4.08 2.49
-5.11 -4.18 2.49
-5.02 -4.28 2.49
-4.93 -4.38 2.49
-4.84 -4.48 2.49
-4.75 -4.57 2.49
-4.66 -4.66 2.49
-4.56 -4.75 2.49
-4.46 -4.84 2.49
-4.37 -4.93 2.49
-4.26 -5.01 2.49
-4.16 -5.10 2.49
-4.06 -5.18 2.49
-3.95 -5.26 2.49
-3.84 -5.33 2.49
-3.73 -5.41 2.49
-3.62 -5.48 2.49
-3.51 -5.55 2.49
-3.40 -5.62 2.49
-3.28 -5.68 2.49
-3.17 -5.74 2.49
-3.05 -5.80 2.49
-2.93 -5.86 2.49
-2.81 -5.92 2.49
-2.69 -5.97 2.49
-2.57 -6.02 2.49
-2.45 -6.07 2.49
-2.33 -6.11 2.49
-2.20 -6.16 2.49
-2.08 -6.20 2.49
-1.95 -6.23 2.49
-1.83 -6.27 2.49
-1.70 -6.30 2.49
-1.57 -6.33 2.49
-1.45 -6.36 2.49
-1.32 -6.39 2.49
-1.19 -6.41 2.49
-1.06 -6.43 2.49
-0.93 -6.45 2.49
-0.80 -6.46 2.49
-0.67 -6.47 2.49
-0.54 -6.48 2.49
-0.41 -6.49 2.49
-0.28 -6.49 2.49
-0.15 -6.49 2.49
-0.02 -6.08 2.49
0.11 -6.08 2.49
0.23 -6.07 2.49
0.35 -6.06 2.49
0.47 -6.05 2.49
0.59 -6.04 2.49
0.71 -6.03 2.49
0.83 -6.01 2.49
0.95 -5.99 2.49
1.07 -5.96 2.49
1.19 -5.94 2.49
1.31 -5.91 2.49
1.43 -5.88 2.49
1.55 -5.85 2.49
1.66 -5.82 2.49
1.78 -5.78 2.49
1.89 -5.74 2.49
2.01 -5.70 2.49
2.12 -5.66 2.49
2.23 -5.61 2.49
2.33 -5.53 2.48
2.35 -5.28 2.39
2.46 -5.23 2.39
2.56 -5.18 2.39
2.67 -5.13 2.39
2.66 -4.88 2.30
2.72 -4.76 2.27
2.92 -4.87 2.35
3.02 -4.81 2.35
3.11 -4.75 2.35
3.20 -4.68 2.35
3.24 -4.53 2.31
3.27 -4.39 2.27
3.36 -4.32 2.27
3.63 -4.48 2.39
3.71 -4.40 2.39
3.80 -4.33 2.39
3.89 -4.25 2.39
3.97 -4.17 2.39
4.05 -4.09 2.39
4.13 -4.00 2.39
4.21 -3.92 2.39
4.29 -3.83 2.39
4.36 -3.74 2.39
4.44 -3.65 2.39
4.51 -3.56 2.39
4.58 -3.47 2.39
4.65 -3.38 2.39
4.71 -3.28 2.39
4.78 -3.19 2.39
4.84 -3.09 2.39
4.90 -2.99 2.39
4.96 -2.89 2.39
5.01 -2.79 2.39
5.07 -2.69 2.39
5.12 -2.59 2.39
5.17 -2.48 2.39
5.22 -2.38 2.39
5.27 -2.27 2.39
5.31 -2.17 2.39
5.35 -2.06 2.39
5.39 -1.95 2.39
5.43 -1.84 2.39
5.47 -1.73 2.39
5.50 -1.62 2.39
5.53 -1.51 2.39
5.56 -1.40 2.39
5.59 -1.29 2.39
5.61 -1.17 2.39
5.63 -1.06 2.39
5.65 -0.95 2.39
5.67 -0.83 2.39
5.69 -0.72 2.39
5.70 -0.60 2.39
5.71 -0.49 2.39
2.39 -0.16 1.00
2.38 -0.11 0.99
2.42 -0.06 1.01
5.73 -0.03 2.39
5.73 0.09 2.39
5.73 0.20 2.39
5.72 0.32 2.39
5.72 0.43 2.39
5.71 0.55 2.39
5.69 0.66 2.39
5.68 0.78 2.39
5.66 0.89 2.39
5.65 1.01 2.39
5.62 1.12 2.39
5.60 1.23 2.39
5.58 1.35 2.39
5.55 1.46 2.39
5.52 1.57 2.39
5.49 1.68 2.39
5.45 1.79 2.39
5.42 1.90 2.39
5.38 2.01 2.39
5.34 2.12 2.39
5.30 2.23 2.39
5.25 2.33 2.39
5.20 2.44 2.39
5.15 2.54 2.39
5.10 2.65 2.39
5.05 2.75 2.39
4.99 2.85 2.39
4.94 2.95 2.39
4.88 3.05 2.39
4.82 3.15 2.39
4.75 3.25 2.39
4.69 3.34 2.39
4.62 3.44 2.39
4.55 3.53 2.39
4.48 3.62 2.39
4.41 3.71 2.39
4.34 3.80 2.39
4.26 3.89 2.39
4.18 3.97 2.39
4.10 4.06 2.39
4.02 4.14 2.39
3.94 4.22 2.39
3.85 4.30 2.39
3.77 4.38 2.39
3.68 4.46 2.39
3.59 4.53 2.39
3.50 4.60 2.39
3.41 4.67 2.39
3.31 4.74 2.39
3.22 4.81 2.39
2.96 4.63 2.27
2.88 4.70 2.28
2.87 4.90 2.34
2.78 4.98 2.35
2.68 5.03 2.35
2.58 5.09 2.35
2.39 4.96 2.27
2.29 5.01 2.27
2.27 5.24 2.35
2.20 5.38 2.39
2.10 5.43 2.39
1.99 5.46 2.39
1.90 5.58 2.42
1.84 5.78 2.49
1.73 5.82 2.49
1.61 5.86 2.49
1.49 5.89 2.49
1.37 5.92 2.49
1.26 5.95 2.49
1.14 5.98 2.49
1.02 6.00 2.49
0.90 6.02 2.49
0.78 6.04 2.49
0.65 6.06 2.49
0.53 6.07 2.49
0.41 6.08 2.49
0.29 6.09 2.49
0.17 6.10 2.49
0.04 6.10 2.49
-0.08 6.11 2.49
-0.20 6.11 2.49
-0.32 6.10 2.49
-0.45 6.10 2.49
-0.57 6.09 2.49
-0.69 6.08 2.49
-0.81 6.07 2.49
-0.93 6.05 2.49
-1.06 6.03 2.49
-1.18 6.01 2.49
-1.30 5.99 2.49
-1.42 5.97 2.49
-1.54 5.94 2.49
-1.66 5.91 2.49
-1.78 5.88 2.49
-1.89 5.84 2.49
-2.01 5.80 2.49
-2.13 5.77 2.49
-2.25 5.72 2.49
-2.36 5.68 2.49
-2.47 5.63 2.49
-2.59 5.58 2.49
-2.70 5.53 2.49
-2.81 5.48 2.49
-2.92 5.42 2.49
-3.03 5.37 2.49
-3.14 5.31 2.49
-3.25 5.24 2.49
-3.35 5.18 2.49
-3.45 5.11 2.49
-3.56 5.04 2.49
-3.66 4.97 2.49
-3.76 4.90 2.49
-3.86 4.82 2.49
-3.95 4.75 2.49
-4.05 4.67 2.49
-4.14 4.59 2.49
-4.24 4.51 2.49
-4.33 4.42 2.49
-4.41 4.33 2.49
-4.50 4.25 2.49
-4.59 4.16 2.49
-4.67 4.06 2.49
-4.75 3.97 2.49
-4.83 3.88 2.49
-4.91 3.78 2.49
-4.98 3.68 2.49
-5.06 3.58 2.49
-5.13 3.48 2.49
-5.20 3.38 2.49
-5.27 3.27 2.49
-5.33 3.17 2.49
-5.40 3.06 2.49
-5.46 2.95 2.49
-5.52 2.84 2.49
-5.57 2.73 2.49
-5.63 2.62 2.49
-5.68 2.51 2.49
-5.73 2.39 2.49
-5.78 2.28 2.49
-5.82 2.16 2.49
-5.86 2.05 2.49
-5.90 1.93 2.49
-5.94 1.81 2.49
-5.98 1.69 2.49
-6.00 1.57 2.49
-5.99 1.44 2.47
-5.99 1.31 2.46
-5.98 1.18 2.45
-5.98 1.06 2.44
-5.98 0.94 2.43
-5.97 0.81 2.42
-5.97 0.69 2.41
-5.97 0.57 2.41
-5.96 0.45 2.40
-5.96 0.33 2.40
-5.96 0.21 2.39
-5.95 0.09 2.39
-5.95 -0.03 2.39
-5.95 -0.15 2.39
-5.95 -0.27 2.39
-5.94 -0.39 2.39
-5.93 -0.50 2.39
-5.92 -0.62 2.39
-5.92 -0.74 2.40
-5.91 -0.86 2.40
-5.91 -0.98 2.41
-5.90 -1.10 2.41
-5.89 -1.22 2.42
-5.89 -1.35 2.43
-5.88 -1.47 2.44
-5.87 -1.59 2.45
-5.87 -1.72 2.46
-5.86 -1.85 2.47
-5.86 -1.97 2.49
-5.84 -2.10 2.49
-5.79 -2.21 2.49
-5.74 -2.33 2.49
-5.70 -2.44 2.49
-5.64 -2.56 2.49
-5.59 -2.67 2.49
-5.54 -2.78 2.49
-5.48 -2.89 2.49
-5.42 -3.00 2.49
-5.35 -3.10 2.49
-5.29 -3.21 2.49
-5.22 -3.31 2.49
-5.16 -3.42 2.49
-5.08 -3.52 2.49
-5.01 -3.62 2.49
-4.94 -3.72 2.49
-4.86 -3.82 2.49
-4.78 -3.91 2.49
-4.70 -4.00 2.49
-4.62 -4.10 2.49
-4.53 -4.19 2.49
-4.45 -4.28 2.49
-4.36 -4.36 2.49
-4.27 -4.45 2.49
-4.18 -4.53 2.49
-4.09 -4.61 2.49
-3.99 -4.69 2.49
-3.90 -4.77 2.49
-3.80 -4.85 2.49
-3.70 -4.92 2.49
-3.60 -4.99 2.49
-3.50 -5.06 2.49
-3.39 -5.13 2.49
-3.29 -5.19 2.49
-3.18 -5.26 2.49
-3.08 -5.32 2.49
-2.97 -5.37 2.49
-2.86 -5.43 2.49
-2.75 -5.49 2.49
-2.64 -5.54 2.49
-2.52 -5.59 2.49
-2.41 -5.63 2.49
-2.30 -5.68 2.49
-2.18 -5.72 2.49
-2.06 -5.76 2.49
-1.95 -5.80 2.49
-1.83 -5.84 2.49
-1.71 -5.87 2.49
-1.59 -5.90 2.49
-1.47 -5.93 2.49
-1.35 -5.96 2.49
-1.23 -5.98 2.49
-1.11 -6.00 2.49
-0.99 -6.02 2.49
-0.87 -6.04 2.49
-0.75 -6.05 2.49
-0.63 -6.06 2.49
-0.51 -6.07 2.49
-0.38 -6.08 2.49
-0.26 -6.08 2.49
-0.14 -6.08 2.49
-0.02 -5.71 2.49
0.10 -5.71 2.49
0.21 -5.70 2.49
0.33 -5.70 2.49
0.44 -5.69 2.49
0.55 -5.67 2.49
0.67 -5.66 2.49
0.78 -5.64 2.49
0.89 -5.62 2.49
1.01 -5.60 2.49
1.12 -5.58 2.49
1.23 -5.55 2.49
1.34 -5.53 2.49
1.45 -5.50 2.49
1.56 -5.46 2.49
1.67 -5.43 2.49
1.78 -5.39 2.49
1.89 -5.35 2.49
1.99 -5.31 2.49
2.10 -5.27 2.49
2.20 -5.23 2.49
2.31 -5.18 2.49
2.32 -4.94 2.40
2.41 -4.87 2.39
2.50 -4.82 2.39
2.60 -4.77 2.39
2.65 -4.64 2.36
2.65 -4.43 2.27
2.73 -4.36 2.27
2.92 -4.46 2.35
3.01 -4.40 2.35
3.10 -4.34 2.35
3.18 -4.27 2.35
3.22 -4.15 2.32
3.23 -3.99 2.27
3.31 -3.93 2.27
3.57 -4.07 2.39
3.65 -3.99 2.39
3.73 -3.92 2.39
3.81 -3.84 2.39
3.88 -3.76 2.39
3.96 -3.68 2.39
4.03 -3.60 2.39
4.10 -3.52 2.39
4.17 -3.44 2.39
4.24 -3.35 2.39
4.30 -3.26 2.39
4.37 -3.18 2.39
4.43 -3.09 2.39
4.49 -3.00 2.39
4.55 -2.90 2.39
4.60 -2.81 2.39
4.66 -2.72 2.39
4.71 -2.62 2.39
4.76 -2.53 2.39
4.81 -2.43 2.39
4.86 -2.33 2.39
4.91 -2.24 2.39
4.95 -2.14 2.39
4.99 -2.04 2.39
5.03 -1.93 2.39
5.07 -1.83 2.39
5.10 -1.73 2.39
5.14 -1.63 2.39
5.17 -1.52 2.39
5.20 -1.42 2.39
5.22 -1.31 2.39
5.25 -1.21 2.39
5.27 -1.10 2.39
5.29 -1.00 2.39
5.31 -0.89 2.39
5.33 -0.78 2.39
5.34 -0.67 2.39
5.36 -0.57 2.39
5.37 -0.46 2.39
2.39 -0.16 1.06
2.38 -0.11 1.06
2.42 -0.06 1.08
5.39 -0.03 2.39
5.39 0.08 2.39
5.38 0.19 2.39
5.38 0.30 2.39
5.37 0.41 2.39
5.36 0.52 2.39
5.35 0.62 2.39
5.34 0.73 2.39
5.32 0.84 2.39
5.31 0.95 2.39
5.29 1.05 2.39
5.26 1.16 2.39
5.24 1.27 2.39
5.22 1.37 2.39
5.19 1.48 2.39
5.16 1.58 2.39
5.12 1.68 2.39
5.09 1.79 2.39
5.05 1.89 2.39
5.02 1.99 2.39
4.98 2.09 2.39
4.93 2.19 2.39
4.89 2.29 2.39
4.84 2.39 2.39
4.80 2.49 2.39
4.75 2.58 2.39
4.69 2.68 2.39
4.64 2.77 2.39
4.58 2.87 2.39
4.53 2.96 2.39
4.47 3.05 2.39
4.41 3.14 2.39
4.34 3.23 2.39
4.28 3.32 2.39
4.21 3.40 2.39
4.14 3.49 2.39
4.07 3.57 2.39
4.00 3.65 2.39
3.93 3.73 2.39
3.85 3.81 2.39
3.78 3.89 2.39
3.70 3.97 2.39
3.62 4.04 2.39
3.54 4.12 2.39
3.46 4.19 2.39
3.37 4.26 2.39
3.29 4.33 2.39
3.20 4.39 2.39
2.95 4.23 2.27
2.89 4.32 2.29
2.88 4.50 2.35
2.79 4.57 2.35
2.70 4.62 2.35
2.61 4.68 2.35
2.43 4.56 2.27
2.34 4.61 2.27
2.29 4.75 2.31
2.27 4.96 2.39
2.17 5.01 2.39
2.07 5.05 2.39
1.97 5.09 2.39
1.91 5.26 2.45
1.84 5.39 2.49
1.73 5.43 2.49
1.62 5.47 2.49
1.51 5.50 2.49
1.40 5.53 2.49
1.29 5.56 2.49
1.18 5.59 2.49
1.07 5.61 2.49
0.95 5.64 2.49
0.84 5.66 2.49
0.73 5.67 2.49
0.61 5.69 2.49
0.50 5.70 2.49
0.39 5.71 2.49
0.27 5.72 2.49
0.16 5.73 2.49
0.04 5.73 2.49
-0.07 5.73 2.49
-0.19 5.73 2.49
-0.30 5.73 2.49
-0.42 5.73 2.49
-0.53 5.72 2.49
-0.65 5.71 2.49
-0.76 5.70 2.49
-0.88 5.68 2.49
-0.99 5.66 2.49
-1.11 5.65 2.49
-1.22 5.62 2.49
-1.33 5.60 2.49
-1.45 5.58 2.49
-1.56 5.55 2.49
-1.67 5.52 2.49
-1.78 5.48 2.49
-1.89 5.45 2.49
-2.00 5.41 2.49
-2.11 5.37 2.49
-2.22 5.33 2.49
-2.32 5.29 2.49
-2.43 5.24 2.49
-2.54 5.19 2.49
-2.64 5.14 2.49
-2.74 5.09 2.49
-2.85 5.04 2.49
-2.95 4.98 2.49
-3.05 4.92 2.49
-3.15 4.86 2.49
-3.24 4.80 2.49
-3.34 4.73 2.49
-3.43 4.67 2.49
-3.53 4.60 2.49
-3.62 4.53 2.49
-3.71 4.46 2.49
-3.80 4.38 2.49
-3.89 4.31 2.49
-3.98 4.23 2.49
-4.06 4.15 2.49
-4.14 4.07 2.49
-4.23 3.98 2.49
-4.31 3.90 2.49
-4.38 3.81 2.49
-4.46 3.73 2.49
-4.53 3.64 2.49
-4.61 3.55 2.49
-4.68 3.45 2.49
-4.75 3.36 2.49
-4.81 3.26 2.49
-4.88 3.17 2.49
-4.94 3.07 2.49
-5.00 2.97 2.49
-5.06 2.87 2.49
-5.12 2.77 2.49
-5.18 2.67 2.49
-5.23 2.56 2.49
-5.28 2.46 2.49
-5.33 2.35 2.49
-5.38 2.24 2.49
-5.42 2.14 2.49
-5.46 2.03 2.49
-5.50 1.92 2.49
-5.54 1.81 2.49
-5.58 1.70 2.49
-5.61 1.59 2.49
-5.64 1.47 2.49
-5.67 1.36 2.49
-5.69 1.25 2.49
-5.72 1.13 2.49
-5.74 1.02 2.49
-5.76 0.90 2.49
-5.78 0.79 2.49
-5.79 0.67 2.49
-5.80 0.56 2.49
-5.81 0.44 2.49
-5.82 0.32 2.49
-5.83 0.21 2.49
-5.83 0.09 2.49
-5.83 -0.03 2.49
-5.83 -0.14 2.49
-5.82 -0.26 2.49
-5.82 -0.38 2.49
-5.81 -0.49 2.49
-5.80 -0.61 2.49
-5.78 -0.73 2.49
-5.77 -0.84 2.49
-5.75 -0.96 2.49
-5.73 -1.07 2.49
-5.70 -1.18 2.49
-5.68 -1.30 2.49
-5.65 -1.41 2.49
-5.62 -1.52 2.49
-5.59 -1.64 2.49
-5.55 -1.75 2.49
-5.52 -1.86 2.49
-5.48 -1.97 2.49
-5.43 -2.08 2.49
-5.39 -2.18 2.49
-5.35 -2.29 2.49
-5.30 -2.40 2.49
-5.25 -2.50 2.49
-5.19 -2.61 2.49
-5.14 -2.71 2.49
-5.08 -2.81 2.49
-5.03 -2.91 2.49
-4.97 -3.01 2.49
-4.90 -3.11 2.49
-4.84 -3.21 2.49
-4.77 -3.30 2.49
-4.70 -3.40 2.49
-4.63 -3.49 2.49
-4.56 -3.58 2.49
-4.49 -3.67 2.49
-4.41 -3.76 2.49
-4.33 -3.84 2.49
-4.26 -3.93 2.49
-4.18 -4.01 2.49
-4.09 -4.09 2.49
-4.01 -4.17 2.49
-3.92 -4.25 2.49
-3.84 -4.33 2.49
-3.75 -4.40 2.49
-3.66 -4.48 2.49
-3.57 -4.55 2.49
-3.47 -4.62 2.49
-3.38 -4.68 2.49
-3.28 -4.75 2.49
-3.19 -4.81 2.49
-3.09 -4.87 2.49
-2.99 -4.93 2.49
-2.89 -4.99 2.49
-2.79 -5.05 2.49
-2.68 -5.10 2.49
-2.58 -5.15 2.49
-2.48 -5.20 2.49
-2.37 -5.24 2.49
-2.26 -5.29 2.49
-2.16 -5.33 2.49
-2.05 -5.37 2.49
-1.94 -5.41 2.49
-1.83 -5.45 2.49
-1.72 -5.48 2.49
-1.61 -5.51 2.49
-1.50 -5.54 2.49
-1.38 -5.57 2.49
-1.27 -5.59 2.49
-1.16 -5.61 2.49
-1.05 -5.63 2.49
-0.93 -5.65 2.49
-0.82 -5.67 2.49
-0.70 -5.68 2.49
-0.59 -5.69 2.49
-0.48 -5.70 2.49
-0.36 -5.71 2.49
-0.25 -5.71 2.49
-0.13 -5.71 2.49
-0.02 -5.38 2.49
0.09 -5.37 2.49
0.20 -5.37 2.49
0.31 -5.36 2.49
0.41 -5.35 2.49
0.52 -5.34 2.49
0.63 -5.33 2.49
0.74 -5.31 2.49
0.84 -5.30 2.49
0.95 -5.28 2.49
1.05 -5.25 2.49
1.16 -5.23 2.49
1.26 -5.20 2.49
1.37 -5.18 2.49
1.47 -5.15 2.49
1.57 -5.11 2.49
1.67 -5.08 2.49
1.78 -5.04 2.49
1.88 -5.01 2.49
1.98 -4.96 2.49
2.07 -4.92 2.49
2.17 -4.88 2.49
2.27 -4.83 2.49
2.30 -4.66 2.43
2.36 -4.54 2.39
2.45 -4.49 2.39
2.54 -4.44 2.39
2.63 -4.38 2.39
2.64 -4.21 2.33
2.66 -4.06 2.27
2.74 -4.00 2.27
2.92 -4.09 2.35
3.00 -4.03 2.35
3.08 -3.96 2.35
3.16 -3.90 2.35
3.21 -3.81 2.33
3.20 -3.65 2.28
3.26 -3.57 2.27
3.34 -3.51 2.28
3.59 -3.62 2.39
3.66 -3.54 2.39
3.73 -3.47 2.39
3.80 -3.39 2.39
3.86 -3.32 2.39
3.93 -3.24 2.39
3.99 -3.16 2.39
4.05 -3.07 2.39
4.11 -2.99 2.39
4.17 -2.91 2.39
4.23 -2.82 2.39
4.28 -2.74 2.39
4.34 -2.65 2.39
4.39 -2.56 2.39
4.44 -2.47 2.39
4.49 -2.38 2.39
4.53 -2.29 2.39
4.58 -2.20 2.39
4.62 -2.11 2.39
4.66 -2.01 2.39
4.70 -1.92 2.39
4.74 -1.82 2.39
4.77 -1.73 2.39
4.81 -1.63 2.39
4.84 -1.53 2.39
4.87 -1.44 2.39
4.90 -1.34 2.39
4.92 -1.24 2.39
4.95 -1.14 2.39
4.97 -1.04 2.39
4.99 -0.94 2.39
5.00 -0.84 2.39
5.02 -0.74 2.39
5.03 -0.64 2.39
5.05 -0.53 2.39
5.06 -0.43 2.39
2.39 -0.16 1.13
2.38 -0.11 1.12
2.42 -0.06 1.14
5.07 -0.02 2.39
5.07 0.08 2.39
5.07 0.18 2.39
5.07 0.28 2.39
5.06 0.38 2.39
5.05 0.49 2.39
5.04 0.59 2.39
5.03 0.69 2.39
5.02 0.79 2.39
5.00 0.89 2.39
4.98 0.99 2.39
4.96 1.09 2.39
4.94 1.19 2.39
4.91 1.29 2.39
4.89 1.39 2.39
4.86 1.49 2.39
4.83 1.59 2.39
4.80 1.68 2.39
4.76 1.78 2.39
4.73 1.88 2.39
4.69 1.97 2.39
4.65 2.07 2.39
4.61 2.16 2.39
4.56 2.25 2.39
4.52 2.34 2.39
4.47 2.43 2.39
4.42 2.52 2.39
4.37 2.61 2.39
4.32 2.70 2.39
4.26 2.79 2.39
4.21 2.87 2.39
4.15 2.96 2.39
4.09 3.04 2.39
4.03 3.12 2.39
3.97 3.21 2.39
3.90 3.29 2.39
3.84 3.36 2.39
3.77 3.44 2.39
3.70 3.52 2.39
3.63 3.59 2.39
3.56 3.67 2.39
3.48 3.74 2.39
3.41 3.81 2.39
3.33 3.88 2.39
3.26 3.94 2.39
3.01 3.81 2.27
2.94 3.87 2.27
2.91 3.99 2.30
2.88 4.13 2.35
2.80 4.19 2.35
2.72 4.24 2.35
2.63 4.30 2.35
2.55 4.35 2.35
2.37 4.25 2.27
2.30 4.33 2.29
2.30 4.54 2.37
2.23 4.63 2.39
