ply
format ascii 1.0
element vertex 2974
property float32 x
property float32 y
property float32 z
end_header
-0.78 8.77 2.49
-0.95 8.75 2.49
-1.13 8.72 2.49
-1.30 8.70 2.49
-1.48 8.66 2.49
-1.65 8.63 2.49
-1.82 8.59 2.49
-1.99 8.55 2.49
-2.16 8.50 2.49
-2.33 8.45 2.49
-2.50 8.40 2.49
-2.67 8.34 2.49
-2.83 8.29 2.49
-3.00 8.22 2.49
-3.16 8.16 2.49
-3.32 8.09 2.49
-3.48 8.02 2.49
-3.64 7.94 2.49
-3.80 7.86 2.49
-3.96 7.78 2.49
-4.11 7.70 2.49
-4.26 7.61 2.49
-4.41 7.52 2.49
-4.56 7.43 2.49
-4.71 7.33 2.49
-4.85 7.23 2.49
-4.99 7.13 2.49
-5.13 7.03 2.49
-5.27 6.92 2.49
-5.41 6.81 2.49
-5.54 6.70 2.49
-5.67 6.58 2.49
-5.70 6.36 2.45
-5.71 6.12 2.40
-5.80 5.96 2.39
-5.92 5.84 2.39
-6.03 5.72 2.39
-6.14 5.60 2.39
-6.25 5.47 2.39
-6.36 5.34 2.39
-6.46 5.21 2.39
-6.57 5.08 2.39
-6.66 4.95 2.39
-6.76 4.81 2.39
-6.85 4.67 2.39
-6.94 4.53 2.39
-5.86 3.66 1.99
-5.93 3.54 1.99
-6.08 3.46 2.02
-7.28 3.96 2.39
-7.35 3.81 2.39
-7.43 3.66 2.39
-7.50 3.51 2.39
-7.57 3.35 2.39
-7.63 3.20 2.39
-7.69 3.05 2.39
-7.75 2.89 2.39
-7.80 2.73 2.39
-7.86 2.58 2.39
-7.91 2.42 2.39
-7.95 2.26 2.39
-7.99 2.10 2.39
-8.03 1.94 2.39
-8.07 1.77 2.39
-8.10 1.61 2.39
-8.13 1.45 2.39
-8.16 1.28 2.39
-8.18 1.12 2.39
-8.20 0.95 2.39
-8.22 0.79 2.39
-8.23 0.62 2.39
-8.24 0.46 2.39
-8.25 0.29 2.39
-8.25 0.13 2.39
-8.26 -0.04 2.39
-8.25 -0.21 2.39
-8.25 -0.37 2.39
-8.24 -0.54 2.39
-8.23 -0.70 2.39
-8.21 -0.87 2.39
-8.19 -1.03 2.39
-8.17 -1.20 2.39
-8.14 -1.36 2.39
-8.11 -1.53 2.39
-8.08 -1.69 2.39
-8.05 -1.85 2.39
-8.01 -2.01 2.39
-7.97 -2.17 2.39
-7.92 -2.33 2.39
-7.88 -2.49 2.39
-7.82 -2.65 2.39
-7.77 -2.81 2.39
-7.71 -2.96 2.39
-7.65 -3.12 2.39
-7.59 -3.27 2.39
-7.52 -3.43 2.39
-7.46 -3.58 2.39
-7.38 -3.73 2.39
-7.31 -3.87 2.39
-7.23 -4.02 2.39
-7.15 -4.17 2.39
-7.07 -4.31 2.39
-6.98 -4.45 2.39
-6.89 -4.59 2.39
-6.80 -4.73 2.39
-6.70 -4.87 2.39
-6.60 -5.00 2.39
-6.50 -5.14 2.39
-6.40 -5.27 2.39
-6.30 -5.40 2.39
-6.19 -5.52 2.39
-6.08 -5.65 2.39
-5.96 -5.77 2.39
-5.85 -5.89 2.39
-5.73 -6.01 2.39
-5.71 -6.24 2.43
-5.71 -6.49 2.49
-5.60 -6.62 2.49
-5.46 -6.74 2.49
-5.33 -6.85 2.49
-5.19 -6.96 2.49
-5.05 -7.06 2.49
-4.91 -7.16 2.49
-4.77 -7.26 2.49
-4.62 -7.36 2.49
-4.48 -7.46 2.49
-4.33 -7.55 2.49
-4.18 -7.64 2.49
-4.02 -7.72 2.49
-3.87 -7.80 2.49
-3.71 -7.88 2.49
-3.55 -7.96 2.49
-3.40 -8.03 2.49
-3.23 -8.10 2.49
-3.07 -8.17 2.49
-2.91 -8.23 2.49
-2.74 -8.29 2.49
-2.58 -8.35 2.49
-2.41 -8.40 2.49
-2.24 -8.45 2.49
-2.07 -8.50 2.49
-1.90 -8.54 2.49
-1.73 -8.58 2.49
-1.56 -8.62 2.49
-1.39 -8.65 2.49
-1.21 -8.68 2.49
-1.04 -8.71 2.49
-0.86 -8.73 2.49
-0.69 -8.75 2.49
-0.51 -8.77 2.49
-0.34 -8.78 2.49
-0.16 -8.79 2.49
0.01 -8.10 2.49
0.18 -8.10 2.49
0.34 -8.10 2.49
0.50 -8.09 2.49
0.67 -8.08 2.49
0.83 -8.07 2.49
0.99 -8.06 2.49
1.15 -8.04 2.49
1.31 -8.02 2.49
1.48 -7.99 2.49
1.64 -7.97 2.49
1.80 -7.93 2.49
1.96 -7.90 2.49
2.12 -7.86 2.49
2.27 -7.82 2.49
2.34 -7.49 2.40
2.48 -7.41 2.39
2.63 -7.36 2.39
2.78 -7.31 2.39
2.93 -7.26 2.39
3.07 -7.20 2.39
2.63 -5.85 1.96
3.36 -7.08 2.39
3.50 -7.01 2.39
3.65 -6.94 2.39
3.79 -6.87 2.39
3.92 -6.80 2.39
4.06 -6.72 2.39
4.20 -6.64 2.39
4.33 -6.56 2.39
4.46 -6.47 2.39
4.59 -6.38 2.39
4.72 -6.29 2.39
4.85 -6.20 2.39
4.97 -6.10 2.39
5.10 -6.00 2.39
5.22 -5.90 2.39
5.34 -5.80 2.39
5.45 -5.69 2.39
5.57 -5.58 2.39
5.68 -5.47 2.39
5.79 -5.36 2.39
5.90 -5.24 2.39
6.01 -5.12 2.39
6.11 -5.00 2.39
6.21 -4.88 2.39
6.31 -4.76 2.39
15.64 -11.31 5.84
16.49 -11.43 6.07
17.38 -11.54 6.31
6.32 -4.02 2.26
19.53 -11.86 6.90
6.32 -3.67 2.21
6.31 -3.50 2.18
23.39 -12.35 7.99
6.32 -3.18 2.14
23.86 -11.40 7.98
28.44 -12.89 9.42
30.76 -13.21 10.10
43.96 -17.84 14.31
34.10 -13.05 11.01
34.23 -12.32 10.97
30.61 -9.65 9.68
30.73 -9.02 9.65
6.32 -1.58 1.96
45.98 -10.54 14.21
45.31 -9.43 13.94
44.30 -8.30 13.58
35.97 -6.00 10.98
43.17 -6.31 13.14
38.91 -4.89 11.81
42.81 -4.52 12.96
42.82 -3.65 12.94
42.80 -2.79 12.91
42.82 -1.93 12.90
42.84 -1.07 12.90
35.38 -0.17 10.65
42.76 0.65 12.87
38.66 1.36 11.64
38.69 2.14 11.67
6.32 0.48 1.91
42.18 4.03 12.76
38.37 4.45 11.63
37.85 5.16 11.50
36.73 5.75 11.19
36.70 6.51 11.22
36.61 7.25 11.24
36.85 8.07 11.36
34.30 8.23 10.62
6.33 1.65 1.97
37.49 10.60 11.73
35.74 10.89 11.25
35.57 11.62 11.27
37.36 13.04 11.92
34.66 12.88 11.14
6.32 2.49 2.05
34.42 14.39 11.24
34.42 15.20 11.34
6.33 2.95 2.10
29.59 14.51 9.94
29.59 15.25 10.04
25.63 13.87 8.79
24.46 13.88 8.48
7.45 4.43 2.62
6.34 3.94 2.25
6.33 4.11 2.28
6.94 4.71 2.53
6.32 4.48 2.34
6.60 4.88 2.48
6.27 4.83 2.39
6.17 4.95 2.39
6.07 5.07 2.39
5.96 5.19 2.39
5.86 5.31 2.39
5.75 5.43 2.39
5.64 5.54 2.39
5.52 5.65 2.39
5.41 5.76 2.39
5.29 5.86 2.39
5.17 5.96 2.39
5.05 6.06 2.39
4.92 6.16 2.39
4.80 6.26 2.39
4.67 6.35 2.39
4.54 6.44 2.39
4.41 6.53 2.39
4.27 6.61 2.39
4.14 6.70 2.39
4.00 6.77 2.39
3.86 6.85 2.39
3.72 6.92 2.39
3.40 6.64 2.27
3.29 6.75 2.28
3.24 7.01 2.35
3.10 7.07 2.35
2.96 7.13 2.35
2.71 6.93 2.27
2.70 7.33 2.38
2.56 7.41 2.39
2.41 7.45 2.39
2.34 7.77 2.48
2.20 7.86 2.49
2.04 7.90 2.49
1.88 7.94 2.49
1.72 7.97 2.49
1.56 8.00 2.49
1.40 8.03 2.49
1.24 8.05 2.49
1.07 8.07 2.49
0.91 8.09 2.49
0.75 8.10 2.49
0.59 8.11 2.49
0.42 8.12 2.49
0.26 8.12 2.49
0.10 8.12 2.49
-0.07 8.12 2.49
-0.23 8.11 2.49
-0.39 8.10 2.49
-0.55 8.09 2.49
-0.72 8.07 2.49
-0.88 8.05 2.49
-1.04 8.03 2.49
-1.20 8.00 2.49
-1.36 7.98 2.49
-1.52 7.94 2.49
-1.68 7.91 2.49
-1.83 7.87 2.49
-1.99 7.83 2.49
-2.15 7.78 2.49
-2.30 7.73 2.49
-2.46 7.68 2.49
-2.61 7.63 2.49
-2.76 7.57 2.49
-2.91 7.51 2.49
-3.06 7.45 2.49
-3.21 7.38 2.49
-3.35 7.31 2.49
-3.50 7.24 2.49
-3.64 7.17 2.49
-3.78 7.09 2.49
-3.92 7.01 2.49
-4.06 6.93 2.49
-4.20 6.84 2.49
-4.33 6.75 2.49
-4.47 6.66 2.49
-4.60 6.57 2.49
-4.73 6.47 2.49
-4.85 6.37 2.49
-4.98 6.27 2.49
-5.10 6.17 2.49
-5.22 6.06 2.49
-5.34 5.96 2.49
-5.46 5.85 2.49
-5.58 5.73 2.49
-5.69 5.62 2.49
-5.70 5.41 2.45
-5.71 5.21 2.41
-5.76 5.04 2.39
-5.86 4.92 2.39
-5.96 4.80 2.39
-6.05 4.68 2.39
-6.14 4.56 2.39
-6.23 4.43 2.39
-6.32 4.31 2.39
-6.40 4.18 2.39
-6.48 4.05 2.39
-6.56 3.91 2.39
-6.08 3.46 2.19
-6.71 3.65 2.39
-6.78 3.51 2.39
-6.85 3.37 2.39
-6.91 3.23 2.39
-6.97 3.09 2.39
-7.03 2.95 2.39
-7.09 2.81 2.39
-7.14 2.66 2.39
-7.19 2.52 2.39
-7.24 2.37 2.39
-7.29 2.23 2.39
-7.33 2.08 2.39
-7.37 1.93 2.39
-7.40 1.78 2.39
-7.44 1.63 2.39
-7.47 1.48 2.39
-7.50 1.33 2.39
-7.52 1.18 2.39
-7.54 1.03 2.39
-7.56 0.88 2.39
-7.58 0.73 2.39
-7.59 0.57 2.39
-7.60 0.42 2.39
-7.61 0.27 2.39
-7.61 0.12 2.39
-7.61 -0.04 2.39
-7.61 -0.19 2.39
-7.60 -0.34 2.39
-7.59 -0.50 2.39
-7.58 -0.65 2.39
-7.57 -0.80 2.39
-7.55 -0.95 2.39
-7.53 -1.10 2.39
-7.51 -1.26 2.39
-7.48 -1.41 2.39
-7.45 -1.56 2.39
-7.42 -1.71 2.39
-7.38 -1.86 2.39
-7.34 -2.00 2.39
-7.30 -2.15 2.39
-7.26 -2.30 2.39
-7.21 -2.44 2.39
-7.16 -2.59 2.39
-7.11 -2.73 2.39
-7.05 -2.88 2.39
-7.00 -3.02 2.39
-6.93 -3.16 2.39
-6.87 -3.30 2.39
-6.80 -3.43 2.39
-6.74 -3.57 2.39
-6.66 -3.71 2.39
-6.59 -3.84 2.39
-6.51 -3.97 2.39
-6.43 -4.10 2.39
-6.35 -4.23 2.39
-6.26 -4.36 2.39
-6.18 -4.49 2.39
-6.09 -4.61 2.39
-5.99 -4.73 2.39
-5.90 -4.85 2.39
-5.80 -4.97 2.39
-5.72 -5.11 2.40
-5.71 -5.31 2.44
-5.71 -5.53 2.48
-5.62 -5.66 2.49
-5.51 -5.78 2.49
-5.39 -5.89 2.49
-5.27 -6.00 2.49
-5.15 -6.10 2.49
-5.03 -6.21 2.49
-4.91 -6.31 2.49
-4.78 -6.41 2.49
-4.65 -6.51 2.49
-4.52 -6.60 2.49
-4.39 -6.69 2.49
-4.26 -6.78 2.49
-4.12 -6.87 2.49
-3.98 -6.95 2.49
-3.85 -7.03 2.49
-3.70 -7.11 2.49
-3.56 -7.19 2.49
-3.42 -7.26 2.49
-3.27 -7.33 2.49
-3.13 -7.40 2.49
-2.98 -7.46 2.49
-2.83 -7.52 2.49
-2.68 -7.58 2.49
-2.53 -7.64 2.49
-2.37 -7.69 2.49
-2.22 -7.74 2.49
-2.06 -7.78 2.49
-1.91 -7.83 2.49
-1.75 -7.87 2.49
-1.59 -7.90 2.49
-1.44 -7.94 2.49
-1.28 -7.97 2.49
-1.12 -8.00 2.49
-0.96 -8.02 2.49
-0.79 -8.04 2.49
-0.63 -8.06 2.49
-0.47 -8.07 2.49
-0.31 -8.08 2.49
-0.15 -8.09 2.49
0.01 -7.49 2.49
0.17 -7.49 2.49
0.32 -7.49 2.49
0.47 -7.49 2.49
0.62 -7.48 2.49
0.77 -7.47 2.49
0.92 -7.46 2.49
1.07 -7.44 2.49
1.22 -7.42 2.49
1.37 -7.40 2.49
1.51 -7.37 2.49
1.66 -7.34 2.49
1.81 -7.31 2.49
1.96 -7.27 2.49
2.10 -7.24 2.49
2.25 -7.19 2.49
2.34 -6.97 2.43
2.43 -6.81 2.39
2.57 -6.76 2.39
2.71 -6.71 2.39
2.84 -6.66 2.39
2.63 -5.84 2.12
3.11 -6.55 2.39
3.24 -6.48 2.39
3.37 -6.42 2.39
3.50 -6.35 2.39
3.63 -6.28 2.39
3.76 -6.21 2.39
3.88 -6.14 2.39
4.00 -6.06 2.39
4.13 -5.98 2.39
4.25 -5.90 2.39
4.37 -5.82 2.39
4.48 -5.73 2.39
4.60 -5.64 2.39
4.71 -5.55 2.39
4.82 -5.45 2.39
4.93 -5.36 2.39
5.04 -5.26 2.39
5.15 -5.16 2.39
5.25 -5.06 2.39
5.35 -4.95 2.39
5.45 -4.84 2.39
5.55 -4.74 2.39
5.65 -4.63 2.39
5.74 -4.51 2.39
5.83 -4.40 2.39
5.92 -4.28 2.39
6.01 -4.16 2.39
6.09 -4.04 2.39
6.17 -3.92 2.39
6.25 -3.80 2.39
6.33 -3.67 2.39
6.31 -3.50 2.36
19.24 -10.16 7.11
20.44 -10.27 7.47
15.22 -7.27 5.51
6.32 -2.87 2.27
15.29 -6.57 5.43
16.22 -6.58 5.71
16.40 -6.28 5.73
24.16 -8.70 8.38
24.33 -8.21 8.38
30.38 -9.58 10.39
6.32 -1.86 2.15
6.32 -1.58 2.12
30.40 -6.97 10.17
30.76 -6.40 10.24
42.59 -7.98 14.12
6.32 -1.05 2.09
41.09 -6.01 13.53
40.79 -5.13 13.40
40.67 -4.29 13.33
40.64 -3.46 13.29
40.55 -2.64 13.24
40.49 -1.82 13.20
40.39 -1.01 13.16
35.46 -0.17 11.55
40.18 0.61 13.09
40.04 1.41 13.05
39.80 2.20 12.99
6.32 0.48 2.06
39.15 3.74 12.81
38.77 4.49 12.71
38.45 5.24 12.64
6.32 0.99 2.09
33.47 5.93 11.07
34.05 6.74 11.31
37.16 8.14 12.40
33.89 8.13 11.36
33.86 8.85 11.40
36.18 10.23 12.25
35.85 10.92 12.21
35.52 11.60 12.18
6.33 2.21 2.18
34.94 12.98 12.15
6.32 2.49 2.21
34.38 14.37 12.15
6.33 2.79 2.26
6.33 2.95 2.28
7.36 3.61 2.67
7.23 3.73 2.66
7.11 3.85 2.64
6.96 3.95 2.61
6.30 3.74 2.39
6.22 3.87 2.39
6.14 3.99 2.39
6.06 4.11 2.39
5.97 4.23 2.39
5.88 4.35 2.39
5.79 4.46 2.39
5.70 4.58 2.39
5.61 4.69 2.39
5.51 4.80 2.39
5.41 4.91 2.39
5.31 5.01 2.39
5.21 5.12 2.39
5.10 5.22 2.39
5.00 5.32 2.39
4.89 5.42 2.39
4.78 5.51 2.39
4.66 5.61 2.39
4.55 5.70 2.39
4.43 5.79 2.39
4.32 5.87 2.39
4.20 5.95 2.39
4.07 6.04 2.39
3.95 6.11 2.39
3.83 6.19 2.39
3.70 6.26 2.39
3.39 6.01 2.27
3.29 6.11 2.28
3.26 6.36 2.35
3.13 6.42 2.35
3.00 6.48 2.35
2.77 6.31 2.27
2.70 6.51 2.32
2.64 6.75 2.39
2.51 6.80 2.39
2.37 6.85 2.39
2.33 7.19 2.49
2.18 7.23 2.49
2.04 7.27 2.49
1.89 7.31 2.49
1.74 7.34 2.49
1.59 7.37 2.49
1.44 7.40 2.49
1.29 7.43 2.49
1.14 7.45 2.49
0.99 7.47 2.49
0.84 7.48 2.49
0.69 7.49 2.49
0.54 7.50 2.49
0.39 7.51 2.49
0.24 7.51 2.49
0.09 7.51 2.49
-0.06 7.51 2.49
-0.21 7.50 2.49
-0.36 7.50 2.49
-0.51 7.48 2.49
-0.66 7.47 2.49
-0.81 7.45 2.49
-0.96 7.43 2.49
-1.11 7.41 2.49
-1.26 7.38 2.49
-1.40 7.35 2.49
-1.55 7.32 2.49
-1.70 7.28 2.49
-1.84 7.24 2.49
-1.99 7.20 2.49
-2.13 7.16 2.49
-2.27 7.11 2.49
-2.41 7.06 2.49
-2.55 7.01 2.49
-2.69 6.95 2.49
-2.83 6.90 2.49
-2.97 6.84 2.49
-3.10 6.77 2.49
-3.24 6.71 2.49
-3.37 6.64 2.49
-3.50 6.57 2.49
-3.63 6.49 2.49
-3.76 6.41 2.49
-3.89 6.34 2.49
-4.01 6.25 2.49
-4.14 6.17 2.49
-4.26 6.08 2.49
-4.38 5.99 2.49
-4.49 5.90 2.49
-4.61 5.81 2.49
-4.73 5.71 2.49
-4.84 5.62 2.49
-4.95 5.52 2.49
-5.06 5.41 2.49
-5.16 5.31 2.49
-5.27 5.20 2.49
-5.37 5.10 2.49
-5.47 4.98 2.49
-5.57 4.87 2.49
-5.66 4.76 2.49
-5.71 4.60 2.47
-5.71 4.42 2.44
-5.72 4.24 2.40
-5.77 4.11 2.39
-5.85 3.99 2.39
-5.93 3.87 2.39
-6.00 3.75 2.39
-6.07 3.63 2.39
-6.08 3.46 2.36
-6.21 3.38 2.39
-6.28 3.25 2.39
-6.34 3.12 2.39
-6.40 2.99 2.39
-6.46 2.86 2.39
-6.51 2.73 2.39
-6.57 2.60 2.39
-6.62 2.47 2.39
-6.66 2.34 2.39
-6.71 2.20 2.39
-6.75 2.06 2.39
-6.79 1.93 2.39
-6.83 1.79 2.39
-6.86 1.65 2.39
-6.89 1.51 2.39
-6.92 1.38 2.39
-6.94 1.24 2.39
-6.97 1.10 2.39
-6.99 0.96 2.39
-7.01 0.81 2.39
-7.02 0.67 2.39
-7.03 0.53 2.39
-7.04 0.39 2.39
-7.05 0.25 2.39
-7.05 0.11 2.39
-7.05 -0.03 2.39
-7.05 -0.18 2.39
-7.04 -0.32 2.39
-7.04 -0.46 2.39
-7.02 -0.60 2.39
-7.01 -0.74 2.39
-6.99 -0.88 2.39
-6.98 -1.02 2.39
-6.95 -1.16 2.39
-6.93 -1.30 2.39
-6.90 -1.44 2.39
-6.87 -1.58 2.39
-6.84 -1.72 2.39
-6.80 -1.86 2.39
-6.77 -1.99 2.39
-6.73 -2.13 2.39
-6.68 -2.26 2.39
-6.64 -2.40 2.39
-6.59 -2.53 2.39
-6.54 -2.66 2.39
-6.48 -2.80 2.39
-6.42 -2.93 2.39
-6.37 -3.05 2.39
-6.30 -3.18 2.39
-6.24 -3.31 2.39
-6.17 -3.43 2.39
-6.10 -3.56 2.39
-6.03 -3.68 2.39
-5.96 -3.80 2.39
-5.88 -3.92 2.39
-5.80 -4.04 2.39
-5.72 -4.16 2.39
-5.72 -4.33 2.42
-5.71 -4.51 2.46
-5.70 -4.69 2.49
-5.61 -4.81 2.49
-5.51 -4.92 2.49
-5.41 -5.03 2.49
-5.31 -5.14 2.49
-5.21 -5.25 2.49
-5.10 -5.35 2.49
-4.99 -5.45 2.49
-4.88 -5.56 2.49
-4.77 -5.65 2.49
-4.66 -5.75 2.49
-4.54 -5.84 2.49
-4.43 -5.94 2.49
-4.31 -6.03 2.49
-4.19 -6.11 2.49
-4.07 -6.20 2.49
-3.94 -6.28 2.49
-3.82 -6.36 2.49
-3.69 -6.44 2.49
-3.56 -6.51 2.49
-3.43 -6.59 2.49
-3.30 -6.66 2.49
-3.16 -6.72 2.49
-3.03 -6.79 2.49
-2.89 -6.85 2.49
-2.76 -6.91 2.49
-2.62 -6.97 2.49
-2.48 -7.02 2.49
-2.34 -7.07 2.49
-2.20 -7.12 2.49
-2.05 -7.16 2.49
-1.91 -7.21 2.49
-1.77 -7.25 2.49
-1.62 -7.28 2.49
-1.47 -7.32 2.49
-1.33 -7.35 2.49
-1.18 -7.38 2.49
-1.03 -7.40 2.49
-0.88 -7.42 2.49
-0.73 -7.44 2.49
-0.59 -7.46 2.49
-0.44 -7.47 2.49
-0.29 -7.48 2.49
-0.14 -7.49 2.49
0.01 -6.97 2.49
0.15 -6.97 2.49
0.29 -6.96 2.49
0.43 -6.96 2.49
0.57 -6.95 2.49
0.71 -6.94 2.49
0.85 -6.93 2.49
0.99 -6.91 2.49
1.13 -6.89 2.49
1.27 -6.87 2.49
1.41 -6.85 2.49
1.55 -6.82 2.49
1.68 -6.79 2.49
1.82 -6.76 2.49
1.96 -6.72 2.49
2.09 -6.69 2.49
2.23 -6.64 2.49
2.33 -6.53 2.47
2.39 -6.28 2.39
2.52 -6.26 2.40
2.64 -6.19 2.39
2.63 -5.84 2.28
2.89 -6.08 2.39
3.01 -6.02 2.39
3.13 -5.96 2.39
3.25 -5.90 2.39
3.37 -5.84 2.39
3.49 -5.77 2.39
3.61 -5.70 2.39
3.72 -5.63 2.39
3.83 -5.56 2.39
3.95 -5.48 2.39
4.06 -5.40 2.39
4.17 -5.32 2.39
4.27 -5.24 2.39
4.38 -5.15 2.39
4.48 -5.07 2.39
4.58 -4.98 2.39
4.68 -4.89 2.39
4.78 -4.79 2.39
4.88 -4.70 2.39
4.97 -4.60 2.39
5.07 -4.50 2.39
5.16 -4.40 2.39
5.25 -4.29 2.39
5.33 -4.19 2.39
5.42 -4.08 2.39
5.50 -3.98 2.39
5.58 -3.86 2.39
5.66 -3.75 2.39
5.73 -3.64 2.39
5.80 -3.53 2.39
5.88 -3.41 2.39
5.94 -3.29 2.39
6.01 -3.17 2.39
6.07 -3.05 2.39
6.13 -2.93 2.39
6.19 -2.81 2.39
6.25 -2.68 2.39
6.30 -2.56 2.39
6.35 -2.43 2.39
23.51 -8.46 8.78
24.32 -8.20 9.02
26.37 -8.31 9.71
28.01 -8.22 10.25
20.56 -5.59 7.48
6.32 -1.58 2.29
6.32 -1.45 2.28
6.32 -1.32 2.27
6.32 -1.18 2.26
6.33 -1.06 2.25
36.92 -5.39 13.09
37.35 -4.70 13.21
37.59 -3.96 13.26
37.63 -3.21 13.25
37.69 -2.45 13.25
37.68 -1.69 13.24
37.62 -0.94 13.20
37.57 -0.18 13.18
37.40 0.57 13.12
37.24 1.31 13.07
6.32 0.35 2.22
6.32 0.48 2.22
36.58 3.50 12.89
36.32 4.21 12.83
36.08 4.91 12.78
35.81 5.61 12.72
6.32 1.12 2.25
6.32 1.25 2.26
6.32 1.38 2.27
34.74 8.34 12.54
34.47 9.01 12.50
34.21 9.67 12.48
33.94 10.34 12.45
33.62 10.98 12.42
33.32 11.63 12.39
30.50 11.33 11.43
6.32 2.49 2.39
6.28 2.62 2.39
6.23 2.75 2.39
6.17 2.87 2.39
6.11 3.00 2.39
6.05 3.12 2.39
5.98 3.24 2.39
5.92 3.36 2.39
5.85 3.47 2.39
5.77 3.59 2.39
5.70 3.70 2.39
5.62 3.82 2.39
5.55 3.93 2.39
5.46 4.04 2.39
5.38 4.14 2.39
5.30 4.25 2.39
5.21 4.35 2.39
5.12 4.46 2.39
5.03 4.56 2.39
4.93 4.66 2.39
4.84 4.75 2.39
4.74 4.85 2.39
4.64 4.94 2.39
4.54 5.03 2.39
4.44 5.12 2.39
4.33 5.21 2.39
4.23 5.29 2.39
4.12 5.37 2.39
4.01 5.45 2.39
3.90 5.53 2.39
3.78 5.61 2.39
3.67 5.68 2.39
3.37 5.46 2.27
3.29 5.56 2.28
3.26 5.79 2.35
3.15 5.85 2.35
3.03 5.91 2.35
2.81 5.76 2.27
2.70 5.83 2.28
2.70 6.15 2.38
2.58 6.23 2.39
2.46 6.28 2.39
2.35 6.37 2.41
2.30 6.64 2.49
2.16 6.68 2.49
2.03 6.72 2.49
1.89 6.76 2.49
1.76 6.79 2.49
1.62 6.82 2.49
1.48 6.85 2.49
1.34 6.88 2.49
1.20 6.90 2.49
1.06 6.92 2.49
0.93 6.94 2.49
0.79 6.95 2.49
0.65 6.96 2.49
0.51 6.97 2.49
0.37 6.98 2.49
0.23 6.98 2.49
0.09 6.98 2.49
-0.06 6.98 2.49
-0.20 6.98 2.49
-0.33 6.97 2.49
-0.47 6.96 2.49
-0.61 6.94 2.49
-0.75 6.93 2.49
-0.89 6.91 2.49
-1.03 6.89 2.49
-1.17 6.86 2.49
-1.30 6.83 2.49
-1.44 6.80 2.49
-1.58 6.77 2.49
-1.71 6.74 2.49
-1.85 6.70 2.49
-1.98 6.66 2.49
-2.11 6.61 2.49
-2.24 6.57 2.49
-2.37 6.52 2.49
-2.50 6.47 2.49
-2.63 6.41 2.49
-2.76 6.36 2.49
-2.88 6.30 2.49
-3.01 6.24 2.49
-3.13 6.17 2.49
-3.26 6.11 2.49
-3.38 6.04 2.49
-3.50 5.97 2.49
-3.61 5.89 2.49
-3.73 5.82 2.49
-3.85 5.74 2.49
-3.96 5.66 2.49
-4.07 5.58 2.49
-4.18 5.49 2.49
-4.29 5.40 2.49
-4.39 5.32 2.49
-4.50 5.22 2.49
-4.60 5.13 2.49
-4.70 5.04 2.49
-4.80 4.94 2.49
-4.90 4.84 2.49
-4.99 4.74 2.49
-5.09 4.64 2.49
-5.18 4.53 2.49
-5.27 4.43 2.49
-5.35 4.32 2.49
-5.44 4.21 2.49
-5.52 4.10 2.49
-5.60 3.99 2.49
-5.68 3.87 2.49
-5.71 3.73 2.47
-5.71 3.56 2.44
-5.71 3.41 2.42
-5.72 3.26 2.39
-5.78 3.14 2.39
-5.84 3.03 2.39
-5.92 2.92 2.40
-5.96 2.79 2.39
-6.01 2.67 2.39
-6.06 2.54 2.39
-6.11 2.42 2.39
-6.16 2.30 2.39
-6.20 2.17 2.39
-6.24 2.05 2.39
-6.28 1.92 2.39
-6.32 1.79 2.39
-6.35 1.67 2.39
-6.38 1.54 2.39
-6.41 1.41 2.39
-6.44 1.28 2.39
-6.46 1.15 2.39
-6.48 1.02 2.39
-6.50 0.89 2.39
-6.52 0.76 2.39
-6.53 0.63 2.39
-6.54 0.50 2.39
-6.55 0.36 2.39
-6.56 0.23 2.39
-6.56 0.10 2.39
-6.56 -0.03 2.39
-6.56 -0.16 2.39
-6.55 -0.30 2.39
-6.55 -0.43 2.39
-6.54 -0.56 2.39
-6.52 -0.69 2.39
-6.51 -0.82 2.39
-6.49 -0.95 2.39
-6.47 -1.08 2.39
-6.45 -1.21 2.39
-6.42 -1.34 2.39
-6.39 -1.47 2.39
-6.36 -1.60 2.39
-6.33 -1.73 2.39
-6.30 -1.86 2.39
-6.26 -1.98 2.39
-6.22 -2.11 2.39
-6.17 -2.23 2.39
-6.13 -2.36 2.39
-6.08 -2.48 2.39
-6.03 -2.60 2.39
-5.98 -2.72 2.39
-5.92 -2.84 2.39
-5.87 -2.96 2.39
-5.81 -3.08 2.39
-5.74 -3.20 2.39
-5.72 -3.33 2.41
-5.71 -3.49 2.43
-5.71 -3.65 2.46
-5.71 -3.81 2.49
-5.63 -3.92 2.49
-5.55 -4.04 2.49
-5.47 -4.15 2.49
-5.39 -4.26 2.49
-5.30 -4.37 2.49
-5.21 -4.47 2.49
-5.12 -4.58 2.49
-5.03 -4.68 2.49
-4.94 -4.78 2.49
-4.84 -4.88 2.49
-4.75 -4.98 2.49
-4.65 -5.07 2.49
-4.54 -5.17 2.49
-4.44 -5.26 2.49
-4.33 -5.35 2.49
-4.23 -5.44 2.49
-4.12 -5.52 2.49
-4.01 -5.61 2.49
-3.90 -5.69 2.49
-3.78 -5.77 2.49
-3.67 -5.84 2.49
-3.55 -5.92 2.49
-3.43 -5.99 2.49
-3.31 -6.06 2.49
-3.19 -6.13 2.49
-3.07 -6.19 2.49
-2.94 -6.25 2.49
-2.82 -6.31 2.49
-2.69 -6.37 2.49
-2.56 -6.43 2.49
-2.43 -6.48 2.49
-2.30 -6.53 2.49
-2.17 -6.57 2.49
-2.04 -6.62 2.49
-1.91 -6.66 2.49
-1.77 -6.70 2.49
-1.64 -6.74 2.49
-1.51 -6.77 2.49
-1.37 -6.80 2.49
-1.23 -6.83 2.49
-1.10 -6.86 2.49
-0.96 -6.88 2.49
-0.82 -6.90 2.49
-0.68 -6.92 2.49
-0.54 -6.93 2.49
-0.40 -6.95 2.49
-0.26 -6.96 2.49
-0.12 -6.96 2.49
0.01 -6.50 2.49
0.15 -6.50 2.49
0.28 -6.50 2.49
0.41 -6.49 2.49
0.54 -6.49 2.49
0.67 -6.48 2.49
0.80 -6.47 2.49
0.93 -6.45 2.49
1.06 -6.43 2.49
1.19 -6.41 2.49
1.32 -6.39 2.49
1.44 -6.36 2.49
1.57 -6.34 2.49
1.70 -6.31 2.49
1.83 -6.27 2.49
1.95 -6.24 2.49
2.08 -6.20 2.49
2.20 -6.16 2.49
2.33 -6.11 2.49
2.35 -5.82 2.39
2.47 -5.77 2.39
2.58 -5.72 2.39
2.70 -5.67 2.39
2.81 -5.62 2.39
2.92 -5.56 2.39
3.04 -5.51 2.39
3.15 -5.45 2.39
3.26 -5.38 2.39
3.36 -5.32 2.39
3.47 -5.25 2.39
3.58 -5.18 2.39
3.68 -5.11 2.39
3.78 -5.04 2.39
3.89 -4.96 2.39
3.99 -4.88 2.39
4.08 -4.81 2.39
4.18 -4.72 2.39
4.28 -4.64 2.39
4.37 -4.56 2.39
4.46 -4.47 2.39
4.55 -4.38 2.39
4.64 -4.29 2.39
4.73 -4.20 2.39
4.81 -4.10 2.39
4.89 -4.00 2.39
4.97 -3.91 2.39
5.05 -3.81 2.39
5.13 -3.71 2.39
5.20 -3.60 2.39
5.27 -3.50 2.39
5.34 -3.39 2.39
5.41 -3.29 2.39
5.48 -3.18 2.39
5.54 -3.07 2.39
5.60 -2.96 2.39
5.66 -2.84 2.39
5.72 -2.73 2.39
5.77 -2.62 2.39
5.83 -2.50 2.39
5.88 -2.38 2.39
5.92 -2.27 2.39
5.97 -2.15 2.39
6.01 -2.03 2.39
6.05 -1.91 2.39
6.09 -1.79 2.39
6.12 -1.66 2.39
6.16 -1.54 2.39
6.19 -1.42 2.39
6.22 -1.29 2.39
6.24 -1.17 2.39
6.26 -1.04 2.39
6.28 -0.92 2.39
6.30 -0.79 2.39
6.32 -0.67 2.39
6.33 -0.54 2.39
6.34 -0.41 2.39
6.35 -0.29 2.39
6.35 -0.16 2.39
6.35 -0.03 2.39
6.35 0.10 2.39
6.35 0.22 2.39
6.34 0.35 2.39
6.32 0.48 2.38
6.32 0.60 2.39
6.31 0.73 2.39
6.29 0.86 2.39
6.28 0.98 2.39
6.25 1.11 2.39
6.23 1.23 2.39
6.20 1.36 2.39
6.18 1.48 2.39
6.14 1.61 2.39
6.11 1.73 2.39
6.07 1.85 2.39
6.04 1.97 2.39
5.99 2.09 2.39
5.95 2.21 2.39
5.90 2.33 2.39
5.86 2.45 2.39
5.81 2.56 2.39
5.75 2.68 2.39
5.70 2.79 2.39
5.64 2.91 2.39
5.58 3.02 2.39
5.52 3.13 2.39
5.45 3.24 2.39
5.38 3.35 2.39
5.32 3.45 2.39
5.24 3.56 2.39
5.17 3.66 2.39
5.10 3.76 2.39
5.02 3.86 2.39
4.94 3.96 2.39
4.86 4.06 2.39
4.77 4.16 2.39
4.69 4.25 2.39
4.60 4.34 2.39
4.51 4.43 2.39
4.42 4.52 2.39
4.33 4.61 2.39
4.23 4.69 2.39
4.14 4.77 2.39
4.04 4.85 2.39
3.94 4.93 2.39
3.84 5.01 2.39
3.74 5.08 2.39
3.64 5.16 2.39
3.35 4.96 2.27
3.29 5.08 2.29
3.26 5.27 2.35
3.15 5.34 2.35
3.05 5.40 2.35
2.83 5.26 2.27
2.73 5.32 2.27
2.70 5.53 2.34
2.64 5.71 2.39
2.53 5.77 2.40
2.41 5.81 2.39
2.34 5.98 2.44
2.27 6.15 2.49
2.14 6.19 2.49
2.02 6.23 2.49
1.89 6.27 2.49
1.77 6.30 2.49
1.64 6.34 2.49
1.51 6.37 2.49
1.38 6.39 2.49
1.25 6.42 2.49
1.12 6.44 2.49
0.99 6.46 2.49
0.86 6.47 2.49
0.73 6.49 2.49
0.60 6.50 2.49
0.47 6.51 2.49
0.34 6.51 2.49
0.21 6.52 2.49
0.08 6.52 2.49
-0.05 6.51 2.49
-0.18 6.51 2.49
-0.31 6.50 2.49
-0.44 6.49 2.49
-0.57 6.48 2.49
-0.70 6.46 2.49
-0.83 6.45 2.49
-0.96 6.43 2.49
-1.09 6.40 2.49
-1.22 6.38 2.49
-1.34 6.35 2.49
-1.47 6.32 2.49
-1.60 6.29 2.49
-1.72 6.25 2.49
-1.85 6.21 2.49
-1.97 6.17 2.49
-2.09 6.13 2.49
-2.21 6.08 2.49
-2.34 6.04 2.49
-2.46 5.99 2.49
-2.57 5.93 2.49
-2.69 5.88 2.49
-2.81 5.82 2.49
-2.92 5.76 2.49
-3.04 5.70 2.49
-3.15 5.64 2.49
-3.26 5.57 2.49
-3.37 5.50 2.49
-3.48 5.43 2.49
-3.59 5.36 2.49
-3.69 5.28 2.49
-3.80 5.21 2.49
-3.90 5.13 2.49
-4.00 5.05 2.49
-4.10 4.96 2.49
-4.20 4.88 2.49
-4.30 4.79 2.49
-4.39 4.70 2.49
-4.48 4.61 2.49
-4.57 4.52 2.49
-4.66 4.43 2.49
-4.75 4.33 2.49
-4.83 4.23 2.49
-4.92 4.13 2.49
-5.00 4.03 2.49
-5.08 3.93 2.49
-5.15 3.83 2.49
-5.23 3.72 2.49
-5.30 3.62 2.49
-5.37 3.51 2.49
-5.44 3.40 2.49
-5.51 3.29 2.49
-5.57 3.18 2.49
-5.63 3.06 2.49
-5.69 2.95 2.49
-5.71 2.81 2.48
-5.71 2.67 2.45
-5.71 2.53 2.43
-5.71 2.40 2.41
-5.72 2.27 2.40
-5.75 2.15 2.39
-5.79 2.03 2.39
-5.83 1.91 2.39
-5.87 1.79 2.39
-5.92 1.68 2.40
-5.93 1.56 2.39
-5.96 1.44 2.39
-5.99 1.32 2.39
-6.01 1.20 2.39
-6.04 1.07 2.39
-6.06 0.95 2.39
-6.07 0.83 2.39
-6.09 0.71 2.39
-6.10 0.59 2.39
-6.11 0.46 2.39
-6.12 0.34 2.39
-6.12 0.22 2.39
-6.13 0.09 2.39
-6.13 -0.03 2.39
-6.13 -0.15 2.39
-6.12 -0.28 2.39
-6.11 -0.40 2.39
-6.11 -0.52 2.39
-6.09 -0.65 2.39
-6.08 -0.77 2.39
-6.06 -0.89 2.39
-6.04 -1.01 2.39
-6.02 -1.13 2.39
-6.00 -1.25 2.39
-5.97 -1.37 2.39
-5.94 -1.49 2.39
-5.92 -1.62 2.39
-5.88 -1.73 2.39
-5.84 -1.85 2.39
-5.81 -1.97 2.39
-5.77 -2.08 2.39
-5.72 -2.20 2.39
-5.72 -2.33 2.41
-5.71 -2.46 2.43
-5.71 -2.60 2.44
-5.71 -2.74 2.47
-5.71 -2.88 2.49
-5.66 -3.00 2.49
-5.60 -3.11 2.49
-5.53 -3.23 2.49
-5.47 -3.34 2.49
-5.40 -3.45 2.49
-5.33 -3.56 2.49
-5.26 -3.66 2.49
-5.19 -3.77 2.49
-5.11 -3.87 2.49
-5.03 -3.98 2.49
-4.95 -4.08 2.49
-4.87 -4.18 2.49
-4.79 -4.27 2.49
-4.70 -4.37 2.49
-4.61 -4.47 2.49
-4.52 -4.56 2.49
-4.43 -4.65 2.49
-4.34 -4.74 2.49
-4.24 -4.83 2.49
-4.15 -4.91 2.49
-4.05 -5.00 2.49
-3.95 -5.08 2.49
-3.84 -5.16 2.49
-3.74 -5.23 2.49
-3.64 -5.31 2.49
-3.53 -5.38 2.49
-3.42 -5.46 2.49
-3.31 -5.52 2.49
-3.20 -5.59 2.49
-3.09 -5.66 2.49
-2.98 -5.72 2.49
-2.86 -5.78 2.49
-2.75 -5.84 2.49
-2.63 -5.89 2.49
-2.51 -5.95 2.49
-2.39 -6.00 2.49
-2.27 -6.05 2.49
-2.15 -6.09 2.49
-2.03 -6.14 2.49
-1.90 -6.18 2.49
-1.78 -6.22 2.49
-1.66 -6.26 2.49
-1.53 -6.29 2.49
-1.40 -6.32 2.49
-1.28 -6.35 2.49
-1.15 -6.38 2.49
-1.02 -6.40 2.49
-0.89 -6.42 2.49
-0.76 -6.44 2.49
-0.64 -6.46 2.49
-0.51 -6.47 2.49
-0.38 -6.48 2.49
-0.25 -6.49 2.49
-0.12 -6.50 2.49
0.01 -6.09 2.49
0.14 -6.09 2.49
0.26 -6.09 2.49
0.38 -6.08 2.49
0.50 -6.07 2.49
0.63 -6.07 2.49
0.75 -6.05 2.49
0.87 -6.04 2.49
0.99 -6.02 2.49
1.11 -6.00 2.49
1.23 -5.98 2.49
1.35 -5.96 2.49
1.47 -5.93 2.49
1.59 -5.90 2.49
1.71 -5.87 2.49
1.83 -5.84 2.49
1.95 -5.80 2.49
2.06 -5.76 2.49
2.18 -5.72 2.49
2.29 -5.68 2.49
2.34 -5.47 2.42
2.42 -5.36 2.39
2.53 -5.31 2.39
2.63 -5.26 2.39
2.74 -5.21 2.39
2.84 -5.15 2.39
2.95 -5.10 2.39
3.05 -5.04 2.39
3.15 -4.98 2.39
3.25 -4.91 2.39
3.35 -4.85 2.39
3.45 -4.78 2.39
3.54 -4.71 2.39
3.64 -4.64 2.39
3.73 -4.57 2.39
3.82 -4.50 2.39
3.91 -4.42 2.39
4.00 -4.34 2.39
4.09 -4.26 2.39
4.18 -4.18 2.39
4.26 -4.10 2.39
4.34 -4.01 2.39
4.42 -3.93 2.39
4.50 -3.84 2.39
4.58 -3.75 2.39
4.65 -3.66 2.39
4.73 -3.56 2.39
4.80 -3.47 2.39
4.87 -3.37 2.39
4.94 -3.27 2.39
5.00 -3.17 2.39
5.06 -3.07 2.39
5.13 -2.97 2.39
5.19 -2.87 2.39
5.24 -2.77 2.39
5.30 -2.66 2.39
5.35 -2.56 2.39
5.40 -2.45 2.39
5.45 -2.34 2.39
5.50 -2.23 2.39
5.54 -2.12 2.39
5.58 -2.01 2.39
5.62 -1.90 2.39
5.66 -1.78 2.39
5.70 -1.67 2.39
5.73 -1.56 2.39
5.76 -1.44 2.39
5.79 -1.33 2.39
5.82 -1.21 2.39
5.84 -1.09 2.39
5.86 -0.98 2.39
5.88 -0.86 2.39
5.90 -0.74 2.39
5.91 -0.62 2.39
5.92 -0.50 2.39
5.93 -0.39 2.39
5.94 -0.27 2.39
5.94 -0.15 2.39
5.94 -0.03 2.39
5.94 0.09 2.39
5.94 0.21 2.39
5.93 0.33 2.39
5.93 0.45 2.39
5.92 0.57 2.39
5.90 0.68 2.39
5.89 0.80 2.39
5.87 0.92 2.39
5.85 1.04 2.39
5.83 1.15 2.39
5.80 1.27 2.39
5.78 1.39 2.39
5.75 1.50 2.39
5.72 1.62 2.39
5.68 1.73 2.39
5.65 1.84 2.39
5.61 1.96 2.39
5.57 2.07 2.39
5.52 2.18 2.39
5.48 2.29 2.39
5.43 2.40 2.39
5.38 2.51 2.39
5.33 2.61 2.39
5.28 2.72 2.39
5.22 2.82 2.39
5.16 2.93 2.39
5.10 3.03 2.39
5.04 3.13 2.39
4.97 3.23 2.39
4.91 3.33 2.39
4.84 3.43 2.39
4.77 3.52 2.39
4.70 3.61 2.39
4.62 3.71 2.39
4.55 3.80 2.39
4.47 3.89 2.39
4.39 3.98 2.39
4.31 4.06 2.39
4.22 4.15 2.39
4.14 4.23 2.39
4.05 4.31 2.39
3.96 4.39 2.39
3.87 4.47 2.39
3.78 4.54 2.39
3.69 4.62 2.39
3.41 4.45 2.27
3.32 4.52 2.27
3.28 4.66 2.31
3.25 4.81 2.35
3.15 4.87 2.35
3.05 4.94 2.35
2.95 4.99 2.35
2.75 4.87 2.27
2.70 5.01 2.31
2.69 5.24 2.39
2.58 5.30 2.39
2.48 5.34 2.39
2.37 5.39 2.39
2.34 5.64 2.48
2.24 5.71 2.49
2.12 5.76 2.49
2.01 5.80 2.49
1.89 5.83 2.49
1.77 5.87 2.49
1.65 5.90 2.49
1.54 5.93 2.49
1.42 5.96 2.49
1.30 5.98 2.49
1.17 6.01 2.49
1.05 6.03 2.49
0.93 6.04 2.49
0.81 6.06 2.49
0.69 6.07 2.49
0.57 6.08 2.49
0.44 6.09 2.49
0.32 6.10 2.49
0.20 6.10 2.49
0.08 6.10 2.49
-0.05 6.10 2.49
-0.17 6.09 2.49
-0.29 6.09 2.49
-0.41 6.08 2.49
-0.53 6.07 2.49
-0.66 6.05 2.49
-0.78 6.04 2.49
-0.90 6.02 2.49
-1.02 6.00 2.49
-1.14 5.97 2.49
-1.26 5.95 2.49
-1.38 5.92 2.49
-1.49 5.89 2.49
-1.61 5.85 2.49
-1.73 5.82 2.49
-1.84 5.78 2.49
-1.96 5.74 2.49
-2.07 5.70 2.49
-2.19 5.65 2.49
-2.30 5.61 2.49
-2.41 5.56 2.49
-2.52 5.51 2.49
-2.63 5.45 2.49
-2.74 5.40 2.49
-2.85 5.34 2.49
-2.95 5.28 2.49
-3.06 5.22 2.49
-3.16 5.15 2.49
-3.26 5.09 2.49
-3.36 5.02 2.49
-3.46 4.95 2.49
-3.56 4.88 2.49
-3.65 4.80 2.49
-3.75 4.73 2.49
-3.84 4.65 2.49
-3.93 4.57 2.49
-4.02 4.49 2.49
-4.11 4.41 2.49
-4.20 4.32 2.49
-4.28 4.24 2.49
-4.37 4.15 2.49
-4.45 4.06 2.49
-4.53 3.97 2.49
-4.61 3.87 2.49
-4.68 3.78 2.49
-4.76 3.68 2.49
-4.83 3.59 2.49
-4.90 3.49 2.49
-4.97 3.39 2.49
-5.03 3.29 2.49
-5.10 3.18 2.49
-5.16 3.08 2.49
-5.22 2.98 2.49
-5.28 2.87 2.49
-5.33 2.76 2.49
-5.39 2.65 2.49
-5.44 2.54 2.49
-5.49 2.43 2.49
-5.53 2.32 2.49
-5.58 2.21 2.49
-5.62 2.10 2.49
-5.66 1.98 2.49
-5.70 1.87 2.49
-5.71 1.75 2.48
-5.71 1.62 2.47
-5.71 1.50 2.45
-5.71 1.38 2.44
-5.71 1.26 2.43
-5.71 1.14 2.42
-5.71 1.02 2.42
-5.72 0.90 2.41
-5.72 0.78 2.40
-5.72 0.67 2.40
-5.72 0.55 2.39
-5.73 0.43 2.39
-5.73 0.32 2.39
-5.74 0.20 2.39
-5.74 0.09 2.39
-5.74 -0.03 2.39
-5.74 -0.14 2.39
-5.74 -0.26 2.39
-5.73 -0.37 2.39
-5.72 -0.49 2.39
-5.72 -0.61 2.39
-5.72 -0.72 2.40
-5.72 -0.84 2.41
-5.72 -0.96 2.41
-5.71 -1.08 2.42
-5.71 -1.19 2.43
-5.71 -1.31 2.44
-5.71 -1.44 2.45
-5.71 -1.56 2.46
-5.71 -1.68 2.48
-5.71 -1.81 2.49
-5.68 -1.92 2.49
-5.64 -2.04 2.49
-5.60 -2.15 2.49
-5.55 -2.26 2.49
-5.51 -2.38 2.49
-5.46 -2.49 2.49
-5.41 -2.60 2.49
-5.35 -2.70 2.49
-5.30 -2.81 2.49
-5.24 -2.92 2.49
-5.18 -3.02 2.49
-5.12 -3.13 2.49
-5.06 -3.23 2.49
-4.99 -3.33 2.49
-4.93 -3.43 2.49
-4.86 -3.53 2.49
-4.79 -3.63 2.49
-4.71 -3.73 2.49
-4.64 -3.82 2.49
-4.56 -3.91 2.49
-4.48 -4.01 2.49
-4.40 -4.10 2.49
-4.32 -4.18 2.49
-4.24 -4.27 2.49
-4.15 -4.36 2.49
-4.06 -4.44 2.49
-3.97 -4.52 2.49
-3.88 -4.60 2.49
-3.79 -4.68 2.49
-3.70 -4.76 2.49
-3.60 -4.83 2.49
-3.50 -4.90 2.49
-3.41 -4.98 2.49
-3.31 -5.04 2.49
-3.20 -5.11 2.49
-3.10 -5.18 2.49
-3.00 -5.24 2.49
-2.89 -5.30 2.49
-2.79 -5.36 2.49
-2.68 -5.41 2.49
-2.57 -5.47 2.49
-2.46 -5.52 2.49
-2.35 -5.57 2.49
-2.24 -5.62 2.49
-2.13 -5.66 2.49
-2.01 -5.71 2.49
-1.90 -5.75 2.49
-1.78 -5.79 2.49
-1.67 -5.82 2.49
-1.55 -5.86 2.49
-1.43 -5.89 2.49
-1.31 -5.92 2.49
-1.20 -5.95 2.49
-1.08 -5.97 2.49
-0.96 -5.99 2.49
-0.84 -6.01 2.49
-0.72 -6.03 2.49
-0.59 -6.05 2.49
-0.47 -6.06 2.49
-0.35 -6.07 2.49
-0.23 -6.08 2.49
-0.11 -6.08 2.49
0.01 -5.72 2.49
0.13 -5.72 2.49
0.24 -5.72 2.49
0.36 -5.71 2.49
0.47 -5.70 2.49
0.59 -5.70 2.49
0.70 -5.68 2.49
0.82 -5.67 2.49
0.93 -5.66 2.49
1.04 -5.64 2.49
1.16 -5.62 2.49
1.27 -5.59 2.49
1.38 -5.57 2.49
1.50 -5.54 2.49
1.61 -5.51 2.49
1.72 -5.48 2.49
1.83 -5.45 2.49
1.94 -5.41 2.49
2.05 -5.37 2.49
2.15 -5.33 2.49
2.26 -5.29 2.49
2.33 -5.17 2.46
2.37 -4.98 2.39
2.47 -4.94 2.39
2.57 -4.89 2.39
2.67 -4.84 2.39
2.77 -4.78 2.39
2.86 -4.73 2.39
2.96 -4.67 2.39
3.05 -4.61 2.39
3.14 -4.55 2.39
3.24 -4.49 2.39
3.33 -4.43 2.39
3.42 -4.36 2.39
3.50 -4.29 2.39
3.59 -4.22 2.39
3.67 -4.15 2.39
3.76 -4.08 2.39
3.84 -4.00 2.39
3.92 -3.92 2.39
4.00 -3.85 2.39
4.08 -3.77 2.39
4.15 -3.68 2.39
4.23 -3.60 2.39
4.30 -3.52 2.39
4.37 -3.43 2.39
4.44 -3.34 2.39
4.50 -3.25 2.39
4.57 -3.16 2.39
4.63 -3.07 2.39
4.69 -2.98 2.39
4.75 -2.89 2.39
4.81 -2.79 2.39
4.87 -2.69 2.39
4.92 -2.60 2.39
4.97 -2.50 2.39
5.02 -2.40 2.39
5.07 -2.30 2.39
5.12 -2.20 2.39
5.16 -2.09 2.39
5.20 -1.99 2.39
5.24 -1.88 2.39
5.28 -1.78 2.39
5.31 -1.67 2.39
5.35 -1.57 2.39
5.38 -1.46 2.39
5.41 -1.35 2.39
5.43 -1.24 2.39
5.46 -1.14 2.39
5.48 -1.03 2.39
5.50 -0.92 2.39
5.52 -0.81 2.39
5.53 -0.70 2.39
5.55 -0.58 2.39
5.56 -0.47 2.39
5.56 -0.36 2.39
5.57 -0.25 2.39
5.58 -0.14 2.39
5.58 -0.03 2.39
5.58 0.08 2.39
5.57 0.20 2.39
5.57 0.31 2.39
5.56 0.42 2.39
5.55 0.53 2.39
5.54 0.64 2.39
5.53 0.75 2.39
5.51 0.86 2.39
5.49 0.97 2.39
5.47 1.08 2.39
5.45 1.19 2.39
5.42 1.30 2.39
5.39 1.41 2.39
5.37 1.52 2.39
5.33 1.62 2.39
5.30 1.73 2.39
5.26 1.84 2.39
5.22 1.94 2.39
5.18 2.04 2.39
5.14 2.15 2.39
5.10 2.25 2.39
5.05 2.35 2.39
5.00 2.45 2.39
4.95 2.55 2.39
4.90 2.65 2.39
4.84 2.75 2.39
4.79 2.84 2.39
4.73 2.94 2.39
4.67 3.03 2.39
4.61 3.12 2.39
4.54 3.21 2.39
4.48 3.30 2.39
4.41 3.39 2.39
4.34 3.48 2.39
4.27 3.56 2.39
4.19 3.65 2.39
4.12 3.73 2.39
4.04 3.81 2.39
3.96 3.89 2.39
3.88 3.97 2.39
3.80 4.05 2.39
3.72 4.12 2.39
3.64 4.19 2.39
3.37 4.05 2.27
3.29 4.12 2.27
3.28 4.28 2.33
3.23 4.39 2.35
3.14 4.46 2.35
3.05 4.52 2.35
2.96 4.57 2.35
2.77 4.47 2.27
2.70 4.56 2.29
2.70 4.78 2.37
2.62 4.87 2.39
2.53 4.94 2.40
2.43 4.97 2.39
2.35 5.07 2.41
2.32 5.28 2.49
2.21 5.32 2.49
2.10 5.36 2.49
2.00 5.40 2.49
1.89 5.44 2.49
1.78 5.48 2.49
1.67 5.51 2.49
1.55 5.54 2.49
1.44 5.57 2.49
1.33 5.59 2.49
1.22 5.62 2.49
1.10 5.64 2.49
0.99 5.66 2.49
0.88 5.68 2.49
0.76 5.69 2.49
0.65 5.70 2.49
0.53 5.71 2.49
0.42 5.72 2.49
0.30 5.73 2.49
0.19 5.73 2.49
0.07 5.73 2.49
-0.04 5.73 2.49
-0.16 5.72 2.49
-0.27 5.72 2.49
-0.39 5.71 2.49
-0.50 5.70 2.49
-0.62 5.69 2.49
-0.73 5.67 2.49
-0.84 5.65 2.49
-0.96 5.63 2.49
-1.07 5.61 2.49
-1.18 5.59 2.49
-1.29 5.56 2.49
-1.40 5.53 2.49
-1.51 5.50 2.49
-1.62 5.47 2.49
-1.73 5.43 2.49
-1.84 5.39 2.49
-1.95 5.35 2.49
-2.05 5.31 2.49
-2.16 5.27 2.49
-2.26 5.22 2.49
-2.37 5.17 2.49
-2.47 5.12 2.49
-2.57 5.07 2.49
-2.67 5.02 2.49
-2.77 4.96 2.49
-2.87 4.90 2.49
-2.97 4.84 2.49
-3.06 4.78 2.49
-3.16 4.72 2.49
-3.25 4.65 2.49
-3.34 4.58 2.49
-3.43 4.51 2.49
-3.52 4.44 2.49
-3.61 4.37 2.49
-3.70 4.30 2.49
-3.78 4.22 2.49
-3.86 4.14 2.49
-3.94 4.06 2.49
-4.02 3.98 2.49
-4.10 3.90 2.49
-4.18 3.81 2.49
-4.25 3.73 2.49
-4.33 3.64 2.49
-4.40 3.55 2.49
-4.47 3.46 2.49
-4.54 3.37 2.49
-4.60 3.28 2.49
-4.67 3.18 2.49
-4.73 3.09 2.49
-4.79 2.99 2.49
-4.85 2.90 2.49
-4.90 2.80 2.49
-4.96 2.70 2.49
-5.01 2.60 2.49
-5.06 2.49 2.49
-5.11 2.39 2.49
-5.16 2.29 2.49
-5.20 2.18 2.49
-5.24 2.08 2.49
-5.28 1.97 2.49
-5.32 1.87 2.49
-5.36 1.76 2.49
-5.39 1.65 2.49
-5.42 1.54 2.49
-5.45 1.43 2.49
-5.48 1.32 2.49
-5.50 1.21 2.49
-5.52 1.10 2.49
-5.55 0.99 2.49
-5.56 0.88 2.49
-5.58 0.76 2.49
-5.59 0.65 2.49
-5.61 0.54 2.49
-5.61 0.43 2.49
-5.62 0.31 2.49
-5.63 0.20 2.49
-5.63 0.09 2.49
-5.63 -0.03 2.49
-5.63 -0.14 2.49
-5.62 -0.25 2.49
-5.62 -0.37 2.49
-5.61 -0.48 2.49
-5.60 -0.59 2.49
-5.59 -0.71 2.49
-5.57 -0.82 2.49
-5.55 -0.93 2.49
-5.53 -1.04 2.49
-5.51 -1.15 2.49
-5.49 -1.26 2.49
-5.46 -1.37 2.49
-5.43 -1.48 2.49
-5.40 -1.59 2.49
-5.37 -1.70 2.49
-5.33 -1.81 2.49
-5.30 -1.92 2.49
-5.26 -2.02 2.49
-5.22 -2.13 2.49
-5.17 -2.23 2.49
-5.13 -2.34 2.49
-5.08 -2.44 2.49
-5.03 -2.54 2.49
-4.98 -2.64 2.49
-4.93 -2.74 2.49
-4.87 -2.84 2.49
-4.81 -2.94 2.49
-4.75 -3.04 2.49
-4.69 -3.13 2.49
-4.63 -3.23 2.49
-4.56 -3.32 2.49
-4.50 -3.41 2.49
-4.43 -3.50 2.49
-4.36 -3.59 2.49
-4.29 -3.68 2.49
-4.21 -3.76 2.49
-4.14 -3.85 2.49
-4.06 -3.93 2.49
-3.98 -4.01 2.49
-3.90 -4.09 2.49
-3.82 -4.17 2.49
-3.73 -4.25 2.49
-3.65 -4.32 2.49
-3.56 -4.40 2.49
-3.47 -4.47 2.49
-3.38 -4.54 2.49
-3.29 -4.61 2.49
-3.20 -4.67 2.49
-3.11 -4.74 2.49
-3.01 -4.80 2.49
-2.91 -4.86 2.49
-2.82 -4.92 2.49
-2.72 -4.98 2.49
-2.62 -5.03 2.49
-2.52 -5.09 2.49
-2.41 -5.14 2.49
-2.31 -5.19 2.49
-2.21 -5.23 2.49
-2.10 -5.28 2.49
-2.00 -5.32 2.49
-1.89 -5.36 2.49
-1.78 -5.40 2.49
-1.67 -5.44 2.49
-1.56 -5.47 2.49
-1.46 -5.50 2.49
-1.34 -5.53 2.49
-1.23 -5.56 2.49
-1.12 -5.59 2.49
-1.01 -5.61 2.49
-0.90 -5.63 2.49
-0.78 -5.65 2.49
-0.67 -5.67 2.49
-0.56 -5.68 2.49
-0.44 -5.69 2.49
-0.33 -5.70 2.49
-0.21 -5.71 2.49
-0.10 -5.71 2.49
0.01 -5.38 2.49
0.12 -5.38 2.49
0.23 -5.38 2.49
0.34 -5.38 2.49
0.45 -5.37 2.49
0.56 -5.36 2.49
0.66 -5.35 2.49
0.77 -5.34 2.49
0.88 -5.32 2.49
0.98 -5.31 2.49
1.09 -5.29 2.49
1.20 -5.27 2.49
1.30 -5.24 2.49
1.41 -5.22 2.49
1.51 -5.19 2.49
1.62 -5.16 2.49
1.72 -5.13 2.49
1.82 -5.09 2.49
1.93 -5.06 2.49
2.03 -5.02 2.49
2.13 -4.98 2.49
2.23 -4.94 2.49
2.33 -4.89 2.49
2.34 -4.68 2.41
2.42 -4.60 2.39
2.52 -4.57 2.40
2.60 -4.50 2.39
2.69 -4.45 2.39
2.78 -4.40 2.39
2.87 -4.34 2.39
2.96 -4.28 2.39
3.05 -4.23 2.39
3.13 -4.16 2.39
3.21 -4.10 2.39
3.30 -4.04 2.39
3.38 -3.97 2.39
3.46 -3.90 2.39
3.36 -3.64 2.27
3.61 -3.76 2.39
3.69 -3.69 2.39
3.76 -3.62 2.39
3.84 -3.54 2.39
3.91 -3.47 2.39
3.98 -3.39 2.39
4.04 -3.31 2.39
4.11 -3.23 2.39
4.18 -3.15 2.39
4.24 -3.06 2.39
4.30 -2.98 2.39
4.36 -2.89 2.39
4.42 -2.80 2.39
4.47 -2.71 2.39
4.53 -2.62 2.39
4.58 -2.53 2.39
4.63 -2.44 2.39
4.68 -2.35 2.39
4.73 -2.26 2.39
4.77 -2.16 2.39
4.81 -2.07 2.39
4.86 -1.97 2.39
4.89 -1.87 2.39
4.93 -1.77 2.39
4.97 -1.67 2.39
5.00 -1.57 2.39
5.03 -1.47 2.39
5.06 -1.37 2.39
5.09 -1.27 2.39
5.11 -1.17 2.39
5.13 -1.07 2.39
5.16 -0.96 2.39
5.17 -0.86 2.39
5.19 -0.76 2.39
5.21 -0.65 2.39
5.22 -0.55 2.39
5.23 -0.44 2.39
5.24 -0.34 2.39
5.24 -0.24 2.39
5.25 -0.13 2.39
5.25 -0.03 2.39
5.25 0.08 2.39
5.24 0.18 2.39
5.24 0.29 2.39
5.23 0.39 2.39
5.22 0.50 2.39
5.21 0.60 2.39
5.20 0.71 2.39
5.18 0.81 2.39
5.17 0.92 2.39
5.15 1.02 2.39
5.13 1.12 2.39
5.10 1.22 2.39
5.08 1.33 2.39
5.05 1.43 2.39
5.02 1.53 2.39
4.99 1.63 2.39
4.95 1.73 2.39
4.92 1.83 2.39
4.88 1.92 2.39
4.84 2.02 2.39
4.80 2.12 2.39
4.75 2.21 2.39
4.71 2.31 2.39
4.66 2.40 2.39
4.61 2.49 2.39
4.56 2.58 2.39
4.50 2.67 2.39
4.45 2.76 2.39
4.39 2.85 2.39
4.33 2.94 2.39
4.27 3.02 2.39
4.21 3.11 2.39
4.15 3.19 2.39
4.08 3.27 2.39
4.01 3.35 2.39
3.95 3.43 2.39
3.88 3.51 2.39
3.80 3.59 2.39
3.73 3.66 2.39
3.66 3.73 2.39
3.40 3.61 2.27
3.32 3.68 2.27
3.28 3.79 2.29
3.28 3.94 2.35
3.21 4.01 2.35
3.12 4.07 2.35
3.04 4.13 2.35
2.96 4.19 2.35
2.77 4.10 2.27
2.70 4.17 2.28
2.70 4.36 2.35
2.65 4.49 2.39
2.56 4.54 2.39
2.47 4.59 2.39
2.38 4.63 2.39
2.34 4.80 2.45
2.28 4.93 2.49
2.18 4.97 2.49
2.08 5.01 2.49
1.98 5.05 2.49
1.88 5.09 2.49
1.78 5.12 2.49
1.67 5.15 2.49
1.57 5.19 2.49
1.46 5.21 2.49
1.36 5.24 2.49
1.25 5.27 2.49
1.15 5.29 2.49
1.04 5.31 2.49
0.93 5.33 2.49
0.83 5.34 2.49
0.72 5.36 2.49
0.61 5.37 2.49
0.50 5.38 2.49
0.39 5.38 2.49
0.29 5.39 2.49
0.18 5.39 2.49
0.07 5.39 2.49
-0.04 5.39 2.49
-0.15 5.39 2.49
-0.26 5.38 2.49
-0.36 5.38 2.49
-0.47 5.37 2.49
-0.58 5.35 2.49
-0.69 5.34 2.49
-0.79 5.32 2.49
-0.90 5.30 2.49
-1.00 5.28 2.49
-1.11 5.26 2.49
-1.22 5.23 2.49
-1.32 5.21 2.49
-1.42 5.18 2.49
-1.53 5.15 2.49
-1.63 5.11 2.49
-1.73 5.08 2.49
-1.83 5.04 2.49
-1.93 5.00 2.49
-2.03 4.96 2.49
-2.13 4.92 2.49
-2.23 4.87 2.49
-2.33 4.82 2.49
-2.42 4.78 2.49
-2.52 4.72 2.49
-2.61 4.67 2.49
-2.70 4.62 2.49
-2.79 4.56 2.49
-2.88 4.50 2.49
-2.97 4.44 2.49
-3.06 4.38 2.49
-3.15 4.32 2.49
-3.23 4.25 2.49
-3.32 4.18 2.49
-3.40 4.12 2.49
-3.48 4.05 2.49
-3.56 3.97 2.49
-3.64 3.90 2.49
-3.72 3.83 2.49
-3.79 3.75 2.49
-3.86 3.67 2.49
-3.94 3.59 2.49
-4.01 3.51 2.49
-4.08 3.43 2.49
-4.14 3.35 2.49
-4.21 3.26 2.49
-4.27 3.18 2.49
-4.33 3.09 2.49
-4.40 3.00 2.49
-4.45 2.91 2.49
-4.51 2.82 2.49
-4.57 2.73 2.49
-4.62 2.64 2.49
-4.67 2.54 2.49
-4.72 2.45 2.49
-4.77 2.35 2.49
-4.81 2.25 2.49
-4.86 2.16 2.49
-4.90 2.06 2.49
-4.94 1.96 2.49
-4.98 1.86 2.49
-5.01 1.76 2.49
-5.04 1.66 2.49
-5.08 1.55 2.49
-5.11 1.45 2.49
-5.13 1.35 2.49
-5.16 1.24 2.49
-5.18 1.14 2.49
-5.20 1.04 2.49
-5.22 0.93 2.49
-5.24 0.83 2.49
-5.26 0.72 2.49
-5.27 0.61 2.49
-5.28 0.51 2.49
-5.29 0.40 2.49
-5.30 0.29 2.49
-5.30 0.19 2.49
-5.30 0.08 2.49
-5.30 -0.03 2.49
-5.30 -0.13 2.49
-5.30 -0.24 2.49
-5.29 -0.35 2.49
-5.28 -0.45 2.49
-5.27 -0.56 2.49
-5.26 -0.66 2.49
-5.25 -0.77 2.49
-5.23 -0.88 2.49
-5.21 -0.98 2.49
-5.19 -1.09 2.49
-5.17 -1.19 2.49
-5.14 -1.29 2.49
-5.12 -1.40 2.49
-5.09 -1.50 2.49
-5.06 -1.60 2.49
-5.03 -1.70 2.49
-4.99 -1.81 2.49
-4.95 -1.91 2.49
-4.91 -2.00 2.49
-4.87 -2.10 2.49
-4.83 -2.20 2.49
-4.79 -2.30 2.49
-4.74 -2.39 2.49
-4.69 -2.49 2.49
-4.64 -2.58 2.49
-4.59 -2.68 2.49
-4.53 -2.77 2.49
-4.48 -2.86 2.49
-4.42 -2.95 2.49
-4.36 -3.04 2.49
-4.30 -3.13 2.49
-4.24 -3.21 2.49
-4.17 -3.30 2.49
-4.11 -3.38 2.49
-4.04 -3.47 2.49
-3.97 -3.55 2.49
-3.90 -3.63 2.49
-3.82 -3.70 2.49
-3.75 -3.78 2.49
-3.67 -3.86 2.49
-3.60 -3.93 2.49
-3.52 -4.00 2.49
-3.44 -4.07 2.49
-3.35 -4.14 2.49
-3.27 -4.21 2.49
-3.19 -4.28 2.49
-3.10 -4.34 2.49
-3.01 -4.40 2.49
-2.92 -4.46 2.49
-2.83 -4.52 2.49
-2.74 -4.58 2.49
-2.65 -4.64 2.49
-2.56 -4.69 2.49
-2.46 -4.74 2.49
-2.37 -4.79 2.49
-2.27 -4.84 2.49
-2.18 -4.89 2.49
-2.08 -4.93 2.49
-1.98 -4.97 2.49
-1.88 -5.01 2.49
-1.78 -5.05 2.49
-1.68 -5.09 2.49
-1.58 -5.12 2.49
-1.47 -5.15 2.49
-1.37 -5.18 2.49
-1.27 -5.21 2.49
-1.16 -5.24 2.49
-1.06 -5.26 2.49
-0.95 -5.28 2.49
-0.84 -5.30 2.49
-0.74 -5.32 2.49
-0.63 -5.34 2.49
-0.52 -5.35 2.49
-0.42 -5.36 2.49
-0.31 -5.37 2.49
-0.20 -5.38 2.49
-0.09 -5.38 2.49
0.01 -5.08 2.49
0.12 -5.08 2.49
0.22 -5.08 2.49
0.32 -5.07 2.49
0.42 -5.07 2.49
0.52 -5.06 2.49
0.63 -5.05 2.49
0.73 -5.04 2.49
0.83 -5.02 2.49
0.93 -5.01 2.49
1.03 -4.99 2.49
1.13 -4.97 2.49
1.23 -4.95 2.49
1.33 -4.92 2.49
1.43 -4.90 2.49
1.53 -4.87 2.49
1.63 -4.84 2.49
1.72 -4.81 2.49
1.82 -4.77 2.49
1.91 -4.74 2.49
2.01 -4.70 2.49
2.10 -4.66 2.49
2.20 -4.62 2.49
2.29 -4.57 2.49
2.33 -4.44 2.44
2.37 -4.29 2.39
2.46 -4.25 2.39
2.54 -4.20 2.39
2.63 -4.15 2.39
2.71 -4.10 2.39
2.79 -4.04 2.39
2.87 -3.99 2.39
2.95 -3.93 2.39
2.88 -3.67 2.27
2.95 -3.61 2.27
3.03 -3.56 2.27
3.10 -3.50 2.27
3.18 -3.45 2.28
3.28 -3.42 2.30
3.30 -3.31 2.27
3.37 -3.24 2.27
3.62 -3.34 2.39
3.69 -3.27 2.39
3.75 -3.20 2.39
3.82 -3.12 2.39
3.88 -3.04 2.39
3.94 -2.97 2.39
4.00 -2.89 2.39
4.06 -2.81 2.39
4.11 -2.73 2.39
4.17 -2.64 2.39
4.22 -2.56 2.39
4.27 -2.48 2.39
4.32 -2.39 2.39
4.37 -2.30 2.39
4.41 -2.22 2.39
4.46 -2.13 2.39
4.50 -2.04 2.39
4.54 -1.95 2.39
4.58 -1.86 2.39
4.62 -1.76 2.39
4.65 -1.67 2.39
4.68 -1.58 2.39
4.72 -1.49 2.39
4.75 -1.39 2.39
4.77 -1.30 2.39
4.80 -1.20 2.39
4.82 -1.10 2.39
4.84 -1.01 2.39
4.86 -0.91 2.39
4.88 -0.81 2.39
4.90 -0.71 2.39
4.91 -0.62 2.39
4.92 -0.52 2.39
4.93 -0.42 2.39
4.94 -0.32 2.39
4.94 -0.22 2.39
4.95 -0.12 2.39
4.95 -0.02 2.39
4.95 0.08 2.39
4.95 0.17 2.39
4.94 0.27 2.39
4.94 0.37 2.39
4.93 0.47 2.39
4.92 0.57 2.39
4.90 0.67 2.39
4.89 0.77 2.39
4.87 0.86 2.39
4.85 0.96 2.39
4.83 1.06 2.39
4.81 1.15 2.39
4.79 1.25 2.39
4.76 1.35 2.39
4.73 1.44 2.39
4.70 1.53 2.39
4.67 1.63 2.39
4.64 1.72 2.39
4.60 1.81 2.39
4.56 1.91 2.39
4.52 2.00 2.39
4.48 2.09 2.39
4.44 2.17 2.39
4.39 2.26 2.39
4.35 2.35 2.39
4.30 2.44 2.39
4.25 2.52 2.39
4.20 2.61 2.39
4.14 2.69 2.39
4.09 2.77 2.39
4.03 2.85 2.39
3.97 2.93 2.39
3.91 3.01 2.39
3.85 3.09 2.39
3.79 3.16 2.39
3.72 3.24 2.39
3.66 3.31 2.39
3.59 3.38 2.39
3.52 3.45 2.39
3.36 3.44 2.33
3.23 3.44 2.29
3.14 3.47 2.27
3.06 3.53 2.27
2.99 3.59 2.27
2.92 3.65 2.27
2.95 3.84 2.35
2.77 3.76 2.27
2.70 3.83 2.28
2.70 3.99 2.34
2.67 4.13 2.39
2.59 4.18 2.39
2.50 4.23 2.39
2.42 4.28 2.39
2.35 4.36 2.41
2.34 4.56 2.49
2.25 4.60 2.49
2.15 4.65 2.49
2.06 4.69 2.49
1.97 4.73 2.49
1.87 4.76 2.49
1.77 4.80 2.49
1.68 4.83 2.49
1.58 4.86 2.49
1.48 4.89 2.49
1.38 4.92 2.49
1.28 4.94 2.49
1.18 4.97 2.49
1.08 4.99 2.49
0.98 5.01 2.49
0.88 5.03 2.49
0.78 5.04 2.49
0.68 5.05 2.49
0.58 5.07 2.49
0.47 5.07 2.49
0.37 5.08 2.49
0.27 5.09 2.49
0.17 5.09 2.49
0.07 5.09 2.49
-0.04 5.09 2.49
-0.14 5.09 2.49
-0.24 5.08 2.49
-0.34 5.07 2.49
-0.44 5.06 2.49
-0.54 5.05 2.49
-0.65 5.04 2.49
-0.75 5.02 2.49
-0.85 5.00 2.49
-0.95 4.99 2.49
-1.05 4.96 2.49
-1.15 4.94 2.49
-1.24 4.91 2.49
-1.34 4.89 2.49
-1.44 4.86 2.49
-1.54 4.83 2.49
-1.63 4.79 2.49
-1.73 4.76 2.49
-1.82 4.72 2.49
-1.92 4.68 2.49
-2.01 4.64 2.49
-2.10 4.60 2.49
-2.19 4.55 2.49
-2.28 4.51 2.49
-2.37 4.46 2.49
-2.46 4.41 2.49
-2.55 4.36 2.49
-2.64 4.31 2.49
-2.72 4.25 2.49
-2.81 4.19 2.49
-2.89 4.14 2.49
-2.97 4.08 2.49
-3.05 4.01 2.49
-3.13 3.95 2.49
-3.21 3.89 2.49
-3.28 3.82 2.49
-3.36 3.75 2.49
-3.43 3.68 2.49
-3.51 3.61 2.49
-3.58 3.54 2.49
-3.65 3.47 2.49
-3.72 3.39 2.49
-3.78 3.32 2.49
-3.85 3.24 2.49
-3.91 3.16 2.49
-3.97 3.08 2.49
-4.03 3.00 2.49
-4.09 2.92 2.49
-4.15 2.83 2.49
-4.20 2.75 2.49
-4.26 2.66 2.49
-4.31 2.58 2.49
-4.36 2.49 2.49
-4.41 2.40 2.49
-4.46 2.31 2.49
-4.50 2.22 2.49
-4.54 2.13 2.49
-4.58 2.04 2.49
-4.62 1.94 2.49
-4.66 1.85 2.49
-4.70 1.75 2.49
-4.73 1.66 2.49
-4.76 1.56 2.49
-4.79 1.47 2.49
-4.82 1.37 2.49
-4.85 1.27 2.49
-4.87 1.18 2.49
-4.89 1.08 2.49
-4.91 0.98 2.49
-4.93 0.88 2.49
-4.95 0.78 2.49
-4.96 0.68 2.49
-4.98 0.58 2.49
-4.99 0.48 2.49
-4.99 0.38 2.49
-5.00 0.28 2.49
-5.01 0.18 2.49
-5.01 0.08 2.49
-5.01 -0.02 2.49
-5.01 -0.13 2.49
-5.00 -0.23 2.49
-5.00 -0.33 2.49
-4.99 -0.43 2.49
-4.98 -0.53 2.49
-4.97 -0.63 2.49
-4.95 -0.73 2.49
-4.94 -0.83 2.49
-4.92 -0.93 2.49
-4.90 -1.03 2.49
-4.88 -1.12 2.49
-4.86 -1.22 2.49
-4.83 -1.32 2.49
-4.81 -1.42 2.49
-4.78 -1.51 2.49
-4.74 -1.61 2.49
-4.71 -1.70 2.49
-4.68 -1.80 2.49
-4.64 -1.89 2.49
-4.60 -1.99 2.49
-4.56 -2.08 2.49
-4.52 -2.17 2.49
-4.47 -2.26 2.49
-4.43 -2.35 2.49
-4.38 -2.44 2.49
-4.33 -2.53 2.49
-4.28 -2.62 2.49
-4.23 -2.70 2.49
-4.17 -2.79 2.49
-4.12 -2.87 2.49
-4.06 -2.95 2.49
-4.00 -3.03 2.49
-3.94 -3.11 2.49
-3.88 -3.19 2.49
-3.81 -3.27 2.49
-3.75 -3.35 2.49
-3.68 -3.42 2.49
-3.61 -3.50 2.49
-3.54 -3.57 2.49
-3.47 -3.64 2.49
-3.39 -3.71 2.49
-3.32 -3.78 2.49
-3.24 -3.85 2.49
-3.17 -3.91 2.49
-3.09 -3.98 2.49
-3.01 -4.04 2.49
-2.93 -4.10 2.49
-2.84 -4.16 2.49
-2.76 -4.21 2.49
-2.68 -4.27 2.49
-2.59 -4.32 2.49
-2.50 -4.38 2.49
-2.41 -4.43 2.49
-2.33 -4.48 2.49
-2.24 -4.52 2.49
-2.15 -4.57 2.49
-2.05 -4.61 2.49
-1.96 -4.65 2.49
-1.87 -4.69 2.49
-1.77 -4.73 2.49
-1.68 -4.77 2.49
-1.58 -4.80 2.49
-1.49 -4.83 2.49
-1.39 -4.86 2.49
-1.29 -4.89 2.49
-1.19 -4.92 2.49
-1.09 -4.94 2.49
-1.00 -4.97 2.49
-0.90 -4.99 2.49
-0.80 -5.00 2.49
-0.70 -5.02 2.49
-0.59 -5.04 2.49
-0.49 -5.05 2.49
-0.39 -5.06 2.49
-0.29 -5.07 2.49
-0.19 -5.07 2.49
-0.09 -5.08 2.49
0.01 -4.80 2.49
0.11 -4.80 2.49
0.21 -4.80 2.49
0.30 -4.80 2.49
0.40 -4.79 2.49
0.50 -4.78 2.49
0.59 -4.77 2.49
0.69 -4.76 2.49
0.78 -4.75 2.49
0.88 -4.73 2.49
0.98 -4.72 2.49
1.07 -4.70 2.49
1.16 -4.68 2.49
1.26 -4.65 2.49
1.35 -4.63 2.49
1.44 -4.60 2.49
1.54 -4.57 2.49
1.63 -4.54 2.49
1.72 -4.51 2.49
1.81 -4.48 2.49
1.90 -4.44 2.49
1.99 -4.40 2.49
2.08 -4.36 2.49
2.17 -4.32 2.49
2.25 -4.28 2.49
2.33 -4.23 2.49
2.34 -4.05 2.41
2.40 -3.97 2.39
2.48 -3.92 2.39
2.56 -3.87 2.39
2.64 -3.82 2.39
2.72 -3.77 2.39
2.69 -3.58 2.30
2.72 -3.47 2.27
2.79 -3.42 2.27
2.93 -3.44 2.33
3.03 -3.42 2.35
3.10 -3.36 2.35
3.17 -3.30 2.35
3.24 -3.24 2.35
3.28 -3.15 2.34
3.28 -3.03 2.29
3.31 -2.93 2.27
3.37 -2.87 2.27
3.61 -2.95 2.39
3.67 -2.88 2.39
3.72 -2.80 2.39
3.78 -2.73 2.39
3.83 -2.65 2.39
3.89 -2.58 2.39
3.94 -2.50 2.39
3.99 -2.42 2.39
4.04 -2.34 2.39
4.08 -2.26 2.39
4.13 -2.18 2.39
4.17 -2.09 2.39
4.21 -2.01 2.39
4.25 -1.93 2.39
4.29 -1.84 2.39
4.33 -1.75 2.39
4.36 -1.67 2.39
4.40 -1.58 2.39
4.43 -1.49 2.39
4.46 -1.40 2.39
4.48 -1.31 2.39
4.51 -1.22 2.39
4.53 -1.13 2.39
4.56 -1.04 2.39
4.58 -0.95 2.39
4.60 -0.86 2.39
4.61 -0.77 2.39
4.63 -0.68 2.39
4.64 -0.58 2.39
4.65 -0.49 2.39
4.66 -0.40 2.39
4.67 -0.30 2.39
4.67 -0.21 2.39
4.68 -0.12 2.39
4.68 -0.02 2.39
4.68 0.07 2.39
4.67 0.16 2.39
4.67 0.26 2.39
4.66 0.35 2.39
4.66 0.44 2.39
4.65 0.54 2.39
4.63 0.63 2.39
4.62 0.72 2.39
4.61 0.82 2.39
4.59 0.91 2.39
4.57 1.00 2.39
4.55 1.09 2.39
4.52 1.18 2.39
4.50 1.27 2.39
4.47 1.36 2.39
4.44 1.45 2.39
4.41 1.54 2.39
4.38 1.63 2.39
4.35 1.71 2.39
4.31 1.80 2.39
4.28 1.89 2.39
4.24 1.97 2.39
4.20 2.06 2.39
4.15 2.14 2.39
4.11 2.22 2.39
4.06 2.30 2.39
4.02 2.38 2.39
3.97 2.46 2.39
3.92 2.54 2.39
3.86 2.62 2.39
3.81 2.70 2.39
3.75 2.77 2.39
3.70 2.84 2.39
3.64 2.92 2.39
3.58 2.99 2.39
3.52 3.06 2.39
3.46 3.13 2.39
3.39 3.20 2.39
3.33 3.26 2.39
3.26 3.33 2.39
3.19 3.39 2.39
3.11 3.44 2.38
2.98 3.44 2.34
2.86 3.44 2.30
2.76 3.45 2.27
2.70 3.52 2.28
2.70 3.66 2.34
2.68 3.80 2.39
2.61 3.85 2.39
2.53 3.91 2.40
2.45 3.95 2.39
2.37 4.00 2.39
2.34 4.14 2.45
2.30 4.26 2.49
2.21 4.31 2.49
2.13 4.35 2.49
2.04 4.39 2.49
1.95 4.43 2.49
1.86 4.47 2.49
1.77 4.50 2.49
1.68 4.54 2.49
1.59 4.57 2.49
1.49 4.60 2.49
1.40 4.62 2.49
1.31 4.65 2.49
1.21 4.67 2.49
1.12 4.70 2.49
1.02 4.72 2.49
0.93 4.74 2.49
0.83 4.75 2.49
0.74 4.77 2.49
0.64 4.78 2.49
0.55 4.79 2.49
0.45 4.80 2.49
0.35 4.80 2.49
0.26 4.81 2.49
0.16 4.81 2.49
0.06 4.81 2.49
-0.03 4.81 2.49
-0.13 4.81 2.49
-0.23 4.80 2.49
-0.32 4.80 2.49
-0.42 4.79 2.49
-0.51 4.78 2.49
-0.61 4.76 2.49
-0.71 4.75 2.49
-0.80 4.73 2.49
-0.89 4.71 2.49
-0.99 4.69 2.49
-1.08 4.67 2.49
-1.18 4.65 2.49
-1.27 4.62 2.49
-1.36 4.59 2.49
-1.45 4.56 2.49
-1.54 4.53 2.49
-1.63 4.50 2.49
-1.72 4.46 2.49
-1.81 4.43 2.49
-1.90 4.39 2.49
-1.99 4.35 2.49
-2.07 4.31 2.49
-2.16 4.26 2.49
-2.24 4.22 2.49
-2.33 4.17 2.49
-2.41 4.12 2.49
-2.49 4.07 2.49
-2.57 4.02 2.49
-2.65 3.97 2.49
-2.73 3.91 2.49
-2.81 3.85 2.49
-2.88 3.80 2.49
-2.96 3.74 2.49
-3.03 3.68 2.49
-3.11 3.61 2.49
-3.18 3.55 2.49
-3.25 3.48 2.49
-3.32 3.42 2.49
-3.38 3.35 2.49
-3.45 3.28 2.49
-3.51 3.21 2.49
-3.58 3.14 2.49
-3.64 3.06 2.49
-3.70 2.99 2.49
-3.76 2.91 2.49
-3.81 2.84 2.49
-3.87 2.76 2.49
-3.92 2.68 2.49
-3.98 2.60 2.49
-4.03 2.52 2.49
-4.08 2.44 2.49
-4.12 2.35 2.49
-4.17 2.27 2.49
-4.21 2.19 2.49
-4.26 2.10 2.49
-4.30 2.01 2.49
-4.34 1.93 2.49
-4.37 1.84 2.49
-4.41 1.75 2.49
-4.44 1.66 2.49
-4.48 1.57 2.49
-4.51 1.48 2.49
-4.53 1.39 2.49
-4.56 1.30 2.49
-4.59 1.20 2.49
-4.61 1.11 2.49
-4.63 1.02 2.49
-4.65 0.93 2.49
-4.67 0.83 2.49
-4.68 0.74 2.49
-4.69 0.64 2.49
-4.71 0.55 2.49
-4.72 0.45 2.49
-4.72 0.36 2.49
-4.73 0.26 2.49
-4.73 0.17 2.49
-4.74 0.07 2.49
-4.74 -0.02 2.49
-4.74 -0.12 2.49
-4.73 -0.21 2.49
-4.73 -0.31 2.49
-4.72 -0.40 2.49
-4.71 -0.50 2.49
-4.70 -0.59 2.49
-4.69 -0.69 2.49
-4.67 -0.78 2.49
-4.66 -0.88 2.49
-4.64 -0.97 2.49
-4.62 -1.06 2.49
-4.60 -1.16 2.49
-4.57 -1.25 2.49
-4.55 -1.34 2.49
-4.52 -1.43 2.49
-4.49 -1.52 2.49
-4.46 -1.61 2.49
-4.42 -1.70 2.49
-4.39 -1.79 2.49
-4.35 -1.88 2.49
-4.31 -1.97 2.49
-4.27 -2.05 2.49
-4.23 -2.14 2.49
-4.19 -2.22 2.49
-4.14 -2.31 2.49
-4.10 -2.39 2.49
-4.05 -2.47 2.49
-4.00 -2.56 2.49
-3.95 -2.64 2.49
-3.89 -2.72 2.49
-3.84 -2.79 2.49
-3.78 -2.87 2.49
-3.73 -2.95 2.49
-3.67 -3.02 2.49
-3.60 -3.10 2.49
-3.54 -3.17 2.49
-3.48 -3.24 2.49
-3.41 -3.31 2.49
-3.35 -3.38 2.49
-3.28 -3.44 2.49
-3.21 -3.51 2.49
-3.14 -3.58 2.49
-3.07 -3.64 2.49
-2.99 -3.70 2.49
-2.92 -3.76 2.49
-2.84 -3.82 2.49
-2.77 -3.88 2.49
-2.69 -3.93 2.49
-2.61 -3.99 2.49
-2.53 -4.04 2.49
-2.45 -4.09 2.49
-2.37 -4.14 2.49
-2.28 -4.19 2.49
-2.20 -4.23 2.49
-2.11 -4.28 2.49
-2.03 -4.32 2.49
-1.94 -4.36 2.49
-1.85 -4.40 2.49
-1.77 -4.44 2.49
-1.68 -4.47 2.49
-1.59 -4.51 2.49
-1.50 -4.54 2.49
-1.40 -4.57 2.49
-1.31 -4.60 2.49
-1.22 -4.63 2.49
-1.13 -4.65 2.49
-1.03 -4.67 2.49
-0.94 -4.70 2.49
-0.85 -4.71 2.49
-0.75 -4.73 2.49
-0.66 -4.75 2.49
-0.56 -4.76 2.49
-0.47 -4.77 2.49
-0.37 -4.78 2.49
-0.27 -4.79 2.49
-0.18 -4.80 2.49
-0.08 -4.80 2.49
0.01 -4.55 2.49
0.11 -4.55 2.49
0.20 -4.55 2.49
0.29 -4.54 2.49
0.38 -4.54 2.49
0.47 -4.53 2.49
0.56 -4.52 2.49
0.65 -4.51 2.49
