ply
format ascii 1.0
element vertex 2749
property float32 x
property float32 y
property float32 z
end_header
-20.55 15.23 -1.27
-20.74 14.73 -1.27
-19.59 13.33 -1.18
-19.52 12.71 -1.16
-19.49 12.14 -1.15
-19.55 11.65 -1.14
-10.62 6.04 -0.61
-10.63 5.77 -0.61
-10.58 5.47 -0.60
-11.25 5.53 -0.63
-10.61 4.95 -0.59
-12.45 5.51 -0.69
-13.13 5.50 -0.72
-13.88 5.49 -0.76
-12.97 4.83 -0.70
-13.78 4.82 -0.74
-14.56 4.76 -0.78
-12.87 3.93 -0.69
-13.81 3.91 -0.73
-14.54 3.81 -0.77
-13.09 3.15 -0.69
-14.27 3.13 -0.75
-10.56 2.09 -0.55
-14.53 2.58 -0.76
-10.52 1.65 -0.55
-10.74 1.46 -0.56
-13.22 1.53 -0.68
-14.51 1.39 -0.75
-14.50 1.09 -0.75
-18.32 1.01 -0.94
-18.31 0.64 -0.94
-18.31 0.27 -0.94
-18.30 -0.09 -0.94
-18.29 -0.46 -0.94
-18.29 -0.83 -0.94
-18.28 -1.20 -0.94
-18.28 -1.56 -0.94
-18.27 -1.93 -0.94
-18.27 -2.31 -0.94
-18.26 -2.68 -0.94
-18.26 -3.05 -0.94
-18.26 -3.43 -0.94
-18.25 -3.81 -0.95
-17.16 -3.95 -0.89
-15.56 -3.91 -0.81
-15.77 -4.30 -0.83
-15.98 -4.70 -0.84
-15.97 -5.05 -0.84
-15.97 -5.41 -0.85
-15.75 -5.69 -0.84
-15.53 -5.96 -0.83
-18.25 -7.43 -0.98
-18.25 -7.86 -0.99
-17.25 -7.84 -0.94
-16.25 -7.79 -0.89
-15.51 -7.82 -0.86
-16.20 -8.58 -0.90
-16.19 -9.00 -0.91
-16.19 -9.42 -0.92
-15.78 -9.62 -0.90
-15.48 -9.86 -0.89
-18.30 -12.19 -1.07
-18.31 -12.73 -1.08
-18.32 -13.29 -1.09
-18.33 -13.87 -1.11
-18.34 -14.47 -1.12
-18.36 -15.08 -1.13
-18.37 -15.72 -1.15
-18.38 -16.39 -1.17
-18.40 -17.08 -1.19
-18.42 -17.80 -1.21
-18.44 -18.54 -1.23
-25.48 -27.77 -1.75
-24.42 -27.71 -1.71
-23.40 -27.66 -1.67
-22.42 -27.61 -1.63
-21.47 -27.55 -1.60
-20.56 -27.50 -1.56
-19.68 -27.46 -1.53
-19.49 -28.38 -1.55
-19.53 -29.70 -1.60
-19.58 -31.11 -1.64
-19.63 -32.63 -1.69
-19.17 -33.36 -1.70
-18.27 -33.33 -1.67
-17.39 -33.29 -1.64
-16.53 -33.25 -1.62
-15.84 -33.56 -1.61
-16.68 -37.24 -1.76
-15.79 -37.24 -1.74
2.49 -7.49 -0.09
7.89 45.74 -0.75
-12.73 42.52 -0.95
-12.47 38.79 -0.88
-12.34 35.91 -0.83
-12.13 33.11 -0.78
-12.74 32.72 -0.78
-11.95 27.39 -0.68
-12.20 26.51 -0.67
-11.82 24.38 -0.63
-12.05 23.62 -0.62
-12.59 23.52 -0.63
-12.00 21.37 -0.58
-12.12 20.59 -0.57
-12.45 20.23 -0.57
-22.52 34.99 -1.01
-14.35 21.34 -0.63
-14.62 20.82 -0.63
-14.92 20.37 -0.63
-15.58 20.40 -0.64
-22.42 28.17 -0.91
-22.41 27.02 -0.89
-22.39 25.92 -0.87
-22.94 25.50 -0.88
-20.27 21.65 -0.77
-20.21 20.73 -0.75
-20.72 20.41 -0.76
-21.24 20.11 -0.77
-26.22 23.84 -0.94
-36.48 31.85 -1.29
-25.36 21.26 -0.88
-20.63 16.61 -0.71
-20.49 15.82 -0.70
-20.55 15.22 -0.69
-18.71 13.29 -0.62
-18.68 12.71 -0.62
-18.66 12.15 -0.61
-18.71 11.66 -0.61
-18.89 11.25 -0.61
-19.41 11.04 -0.62
-20.18 10.94 -0.64
-10.58 5.46 -0.33
-20.67 10.16 -0.65
-20.66 9.64 -0.64
-20.65 9.14 -0.64
-20.65 8.64 -0.63
-20.64 8.16 -0.63
-14.51 5.40 -0.44
-14.56 5.09 -0.44
-23.63 7.73 -0.71
-25.26 7.71 -0.75
-27.12 7.68 -0.81
-46.45 12.16 -1.37
-46.43 11.16 -1.37
-46.42 10.18 -1.36
-46.41 9.20 -1.36
-46.39 8.23 -1.35
-10.52 1.65 -0.31
-10.74 1.46 -0.31
-14.52 1.68 -0.42
-17.71 1.69 -0.51
-17.70 1.33 -0.51
-17.69 0.98 -0.51
-17.69 0.62 -0.51
-17.68 0.27 -0.51
-17.68 -0.09 -0.51
-17.67 -0.44 -0.51
-17.66 -0.80 -0.51
-17.66 -1.15 -0.51
-17.65 -1.51 -0.51
-17.65 -1.87 -0.51
-17.64 -2.23 -0.51
-17.64 -2.59 -0.51
-17.63 -2.95 -0.51
-17.63 -3.31 -0.51
-17.25 -3.60 -0.50
-15.57 -3.58 -0.45
-15.59 -3.91 -0.45
-15.77 -4.30 -0.46
-15.98 -4.70 -0.46
-15.97 -5.05 -0.46
-15.97 -5.40 -0.47
-15.75 -5.68 -0.46
-15.74 -6.04 -0.46
-15.53 -6.32 -0.46
-17.34 -7.47 -0.51
-16.34 -7.43 -0.49
-15.51 -7.43 -0.46
-16.21 -8.17 -0.49
-16.44 -8.70 -0.50
-16.43 -9.13 -0.50
-16.42 -9.56 -0.50
-16.18 -9.86 -0.50
-15.67 -9.98 -0.49
-15.47 -10.30 -0.48
-17.56 -12.20 -0.55
-17.55 -12.73 -0.56
-17.55 -13.28 -0.56
-17.55 -13.84 -0.57
-17.55 -14.42 -0.57
-17.55 -15.02 -0.58
-17.55 -15.64 -0.58
-17.55 -16.28 -0.59
-17.55 -16.95 -0.60
-17.55 -17.64 -0.61
-17.55 -18.37 -0.61
-17.55 -19.12 -0.62
-23.64 -26.82 -0.85
-22.67 -26.78 -0.83
-21.73 -26.75 -0.81
-20.83 -26.71 -0.78
-19.95 -26.68 -0.76
-19.10 -26.64 -0.75
-18.32 -26.67 -0.73
-18.33 -27.86 -0.74
-18.33 -29.12 -0.76
-18.34 -30.47 -0.78
-18.34 -31.91 -0.80
-17.85 -32.56 -0.80
-17.00 -32.53 -0.78
-16.16 -32.49 -0.76
-16.20 -34.29 -0.79
-16.32 -36.41 -0.82
-16.27 -38.36 -0.85
-18.42 -45.95 -1.00
2.49 -7.49 0.08
7.88 45.73 0.30
-12.39 48.32 0.08
-13.35 48.04 0.06
-12.73 42.48 0.05
-12.49 38.82 0.03
-12.36 35.94 0.02
-12.21 33.30 0.01
-12.80 32.86 0.01
-13.52 32.75 -0.00
-11.91 27.29 -0.01
-12.22 26.54 -0.01
-11.99 24.71 -0.02
-12.14 23.80 -0.02
-12.48 23.29 -0.03
-12.02 21.40 -0.03
-12.10 20.55 -0.03
-12.46 20.23 -0.04
-13.27 20.61 -0.04
-14.55 21.62 -0.05
-14.61 20.80 -0.05
-14.94 20.39 -0.06
-15.79 20.66 -0.07
-22.49 28.24 -0.10
-22.47 27.09 -0.10
-22.46 25.99 -0.10
-22.95 25.50 -0.11
-23.84 25.45 -0.12
-20.37 20.89 -0.10
-20.71 20.40 -0.11
-21.68 20.51 -0.11
-26.23 23.84 -0.14
-36.27 31.66 -0.20
-25.31 21.21 -0.14
-20.77 16.71 -0.12
-20.75 16.02 -0.12
-20.75 15.36 -0.12
-19.22 13.64 -0.11
-20.73 14.09 -0.12
-20.72 13.49 -0.12
-20.57 12.81 -0.12
-19.19 11.42 -0.11
-10.05 5.71 -0.06
-10.48 5.68 -0.06
-10.58 5.46 -0.06
-11.53 5.67 -0.07
-12.12 5.66 -0.07
-12.77 5.65 -0.08
-13.47 5.64 -0.08
-14.24 5.63 -0.09
-14.51 5.40 -0.09
-22.19 7.75 -0.14
-23.64 7.73 -0.15
-25.27 7.71 -0.16
-27.13 7.68 -0.17
-46.60 12.19 -0.29
-46.59 11.20 -0.29
-46.57 10.21 -0.29
-46.56 9.23 -0.29
-46.54 8.26 -0.29
-10.52 1.65 -0.07
-10.33 1.41 -0.06
-11.94 1.38 -0.07
-14.14 1.35 -0.09
-17.12 1.29 -0.11
-17.11 0.95 -0.11
-17.11 0.60 -0.11
-17.10 0.26 -0.11
-17.09 -0.09 -0.10
-17.09 -0.43 -0.10
-17.08 -0.77 -0.10
-17.08 -1.12 -0.10
-17.07 -1.46 -0.10
-17.06 -1.81 -0.10
-17.06 -2.15 -0.10
-17.05 -2.50 -0.10
-17.04 -2.85 -0.10
-17.04 -3.20 -0.10
-15.57 -3.25 -0.09
-15.58 -3.58 -0.09
-15.77 -3.96 -0.09
-15.77 -4.30 -0.09
-15.76 -4.64 -0.09
-15.76 -4.98 -0.09
-15.75 -5.33 -0.09
-15.75 -5.68 -0.08
-15.74 -6.04 -0.08
-15.73 -6.40 -0.08
-15.52 -6.68 -0.08
-15.54 -7.06 -0.08
-15.52 -7.43 -0.08
-16.21 -8.17 -0.08
-16.44 -8.70 -0.08
-16.43 -9.12 -0.08
-16.42 -9.56 -0.07
-16.18 -9.85 -0.07
-16.17 -10.30 -0.07
-15.56 -10.36 -0.07
-16.86 -11.72 -0.07
-16.85 -12.22 -0.07
-16.84 -12.73 -0.06
-16.83 -13.26 -0.06
-16.82 -13.81 -0.06
-16.80 -14.37 -0.06
-16.79 -14.96 -0.05
-16.78 -15.56 -0.05
-16.76 -16.18 -0.05
-16.75 -16.83 -0.04
-16.73 -17.50 -0.04
-16.72 -18.21 -0.04
-16.70 -18.94 -0.03
-21.98 -25.96 -0.04
-21.08 -25.94 -0.03
-20.22 -25.92 -0.02
-19.38 -25.90 -0.01
-18.56 -25.88 -0.01
-17.78 -25.86 -0.00
-17.27 -26.23 0.01
-17.24 -27.37 0.01
-17.21 -28.58 0.02
-17.18 -29.87 0.03
-17.14 -31.24 0.04
-16.63 -31.80 0.05
-15.87 -31.89 0.05
-16.05 -33.94 0.06
-15.83 -35.31 0.08
-16.47 -38.79 0.09
-15.76 -39.29 0.10
-16.82 -44.51 0.12
-0.01 -41.13 1.21
0.81 -41.12 1.22
2.49 -7.49 0.26
26.74 41.55 1.66
25.63 41.65 1.63
23.31 41.53 1.56
21.15 41.49 1.51
18.08 41.47 1.44
15.58 45.36 1.48
12.39 41.40 1.31
9.70 41.32 1.26
7.86 45.70 1.34
-10.67 45.35 1.13
-10.55 37.93 0.94
-12.75 42.52 1.05
-10.51 32.66 0.80
-12.44 36.15 0.89
-10.38 28.29 0.69
-12.51 32.08 0.78
-12.28 26.65 0.65
-12.85 26.48 0.64
-12.17 23.83 0.58
-12.61 23.53 0.57
-11.83 21.04 0.51
-12.19 20.70 0.51
-12.55 20.37 0.50
-22.52 34.96 0.86
-20.78 30.88 0.77
-14.59 20.77 0.52
-15.08 20.58 0.52
-15.70 20.55 0.52
-22.49 28.23 0.72
-22.47 27.08 0.69
-22.46 25.98 0.67
-22.95 25.50 0.66
-23.84 25.44 0.67
-20.26 20.77 0.55
-20.81 20.49 0.55
-25.21 23.84 0.65
-26.24 23.84 0.66
-37.42 32.65 0.92
-25.53 21.39 0.61
-20.77 16.70 0.49
-20.76 16.02 0.47
-20.75 15.36 0.46
-20.74 14.71 0.45
-20.73 14.09 0.44
-20.72 13.48 0.44
-20.60 12.83 0.42
-19.22 11.44 0.39
-20.65 11.73 0.41
-20.68 11.21 0.40
-10.58 5.46 0.20
-20.67 10.15 0.39
-20.66 9.64 0.39
-20.65 9.14 0.38
-20.65 8.64 0.38
-20.64 8.16 0.37
-14.51 5.40 0.26
-22.19 7.75 0.39
-23.64 7.73 0.41
-25.27 7.71 0.44
-27.13 7.68 0.46
-46.69 12.21 0.79
-33.94 8.16 0.57
-46.57 10.21 0.78
-46.73 9.26 0.78
-46.71 8.29 0.78
-10.52 1.65 0.17
-10.74 1.46 0.18
-16.80 1.95 0.28
-16.80 1.61 0.28
-16.79 1.27 0.27
-16.79 0.93 0.27
-16.78 0.59 0.27
-16.78 0.25 0.27
-16.77 -0.08 0.27
-16.77 -0.42 0.28
-16.76 -0.76 0.28
-16.76 -1.09 0.28
-16.75 -1.43 0.28
-16.75 -1.77 0.28
-16.74 -2.11 0.28
-16.74 -2.45 0.28
-16.73 -2.80 0.28
-16.57 -3.11 0.28
-15.57 -3.25 0.27
-15.78 -3.62 0.27
-15.77 -3.96 0.28
-15.77 -4.29 0.28
-15.76 -4.63 0.28
-15.76 -4.98 0.29
-15.75 -5.33 0.29
-15.75 -5.68 0.29
-15.74 -6.04 0.30
-15.75 -6.40 0.30
-15.74 -6.77 0.31
-15.52 -7.05 0.31
-16.21 -7.76 0.32
-16.21 -8.16 0.33
-16.27 -8.61 0.34
-16.26 -9.02 0.34
-16.43 -9.55 0.35
-16.18 -9.85 0.35
-16.17 -10.30 0.36
-16.16 -10.75 0.37
-15.48 -10.75 0.36
-16.60 -12.03 0.40
-16.59 -12.54 0.41
-16.58 -13.07 0.42
-16.58 -13.61 0.43
-16.57 -14.17 0.44
-16.56 -14.75 0.45
-16.58 -15.37 0.46
-16.57 -15.99 0.47
-16.56 -16.63 0.49
-16.55 -17.30 0.50
-16.54 -18.00 0.52
-16.53 -18.73 0.53
-16.51 -19.49 0.55
-21.09 -25.93 0.72
-20.23 -25.92 0.72
-19.40 -25.91 0.71
-18.59 -25.90 0.71
-17.80 -25.89 0.71
-17.14 -26.03 0.71
-17.39 -27.60 0.75
-17.10 -28.39 0.77
-17.35 -30.16 0.81
-17.06 -31.07 0.84
-16.68 -31.88 0.86
-16.24 -32.62 0.87
-16.22 -34.27 0.92
-16.50 -36.77 0.99
-16.47 -38.77 1.04
-17.17 -42.77 1.15
-16.86 -44.58 1.20
-0.02 -41.09 2.13
0.80 -41.12 2.15
1.88 -47.53 2.49
2.71 -45.39 2.39
3.60 -45.05 2.39
4.48 -44.77 2.39
5.19 -43.08 2.32
6.22 -44.17 2.39
6.60 -40.92 2.23
2.49 -7.49 0.44
26.72 41.55 2.77
25.55 41.53 2.72
24.40 41.52 2.68
23.29 41.50 2.64
22.19 41.48 2.60
21.12 41.47 2.56
20.08 41.45 2.52
19.05 41.44 2.49
18.05 41.42 2.45
17.06 41.41 2.42
16.09 41.39 2.39
15.14 41.38 2.36
14.20 41.37 2.33
13.27 41.35 2.31
12.36 41.34 2.28
11.45 41.33 2.26
10.56 41.31 2.24
9.68 41.30 2.21
8.81 41.29 2.19
7.94 41.27 2.17
7.08 41.26 2.16
6.23 41.25 2.14
5.39 41.24 2.12
5.16 46.79 2.39
4.24 47.11 2.39
3.31 47.41 2.39
2.37 47.69 2.39
1.42 47.96 2.39
-0.34 31.84 1.57
-0.98 31.94 1.57
-10.55 44.79 2.15
-10.52 40.96 1.97
-10.48 37.65 1.81
-9.92 33.06 1.59
-10.40 32.29 1.56
-10.33 30.00 1.45
-10.31 28.08 1.36
-10.28 26.36 1.28
-10.26 24.82 1.21
-10.28 22.29 1.10
-12.92 26.60 1.31
-10.30 20.17 1.00
-10.37 19.34 0.97
-10.86 19.31 0.97
-12.25 20.79 1.05
-12.70 20.61 1.05
-12.42 19.27 0.99
-12.89 19.14 0.99
-14.52 20.66 1.08
-15.12 20.62 1.09
-22.37 29.25 1.57
-15.22 19.10 1.04
-15.94 19.20 1.05
-22.46 25.97 1.44
-17.17 19.07 1.08
-17.97 19.17 1.10
-18.70 19.16 1.11
-19.34 19.04 1.12
-20.23 19.13 1.15
-21.05 19.12 1.17
-21.78 19.00 1.19
-22.67 18.99 1.21
-20.77 16.70 1.09
-20.76 16.01 1.06
-20.75 15.35 1.04
-20.74 14.71 1.03
-20.73 14.09 1.01
-20.72 13.48 0.99
-20.60 12.83 0.97
-19.22 11.44 0.89
-20.65 11.73 0.95
-20.68 11.21 0.94
-10.58 5.46 0.47
-20.67 10.15 0.91
-20.66 9.64 0.90
-20.65 9.13 0.89
-20.65 8.64 0.88
-20.64 8.15 0.87
-14.51 5.40 0.61
-22.19 7.75 0.92
-23.65 7.73 0.97
-25.28 7.71 1.03
-27.14 7.68 1.10
-46.59 12.19 1.88
-33.87 8.14 1.36
-26.96 5.91 1.07
-28.16 5.58 1.12
-31.44 5.58 1.24
-10.52 1.65 0.41
-10.74 1.46 0.42
-16.84 1.95 0.66
-17.10 1.64 0.67
-17.10 1.29 0.67
-17.10 0.95 0.67
-16.81 0.59 0.65
-16.81 0.25 0.65
-16.80 -0.08 0.65
-16.80 -0.42 0.65
-16.79 -0.76 0.66
-17.07 -1.11 0.67
-17.06 -1.46 0.67
-17.05 -1.80 0.67
-17.05 -2.15 0.67
-16.76 -2.45 0.66
-16.76 -2.80 0.67
-16.75 -3.14 0.67
-15.78 -3.29 0.64
-15.95 -3.66 0.65
-15.94 -4.00 0.65
-15.94 -4.34 0.66
-15.93 -4.68 0.66
-15.93 -5.03 0.67
-15.92 -5.38 0.67
-15.92 -5.74 0.68
-15.91 -6.10 0.68
-15.91 -6.47 0.69
-15.74 -6.77 0.69
-16.22 -7.37 0.72
-16.21 -7.76 0.73
-16.21 -8.16 0.74
-16.62 -8.79 0.77
-16.61 -9.22 0.78
-16.19 -9.41 0.77
-16.18 -9.85 0.78
-16.17 -10.29 0.79
-16.17 -10.75 0.81
-16.63 -11.55 0.84
-16.62 -12.04 0.86
-16.62 -12.55 0.88
-16.61 -13.08 0.89
-16.88 -13.85 0.93
-16.87 -14.42 0.94
-16.86 -15.01 0.96
-16.58 -15.36 0.97
-16.57 -15.98 0.99
-16.56 -16.63 1.02
-16.82 -17.58 1.06
-16.56 -18.02 1.07
-16.53 -18.72 1.09
-16.51 -19.49 1.12
-18.60 -22.86 1.30
-17.84 -22.85 1.29
-17.08 -22.81 1.27
-16.39 -22.83 1.26
-15.70 -22.82 1.25
-15.03 -22.81 1.24
-14.38 -22.80 1.23
-13.74 -22.79 1.22
-13.10 -22.75 1.20
-12.51 -22.77 1.20
-11.92 -22.76 1.19
-11.32 -22.72 1.18
-10.77 -22.75 1.18
-10.20 -22.70 1.17
-9.69 -22.79 1.17
-14.14 -35.20 1.80
-13.31 -35.16 1.79
-12.50 -35.12 1.79
-14.78 -47.48 2.41
-10.13 -35.00 1.77
-12.73 -47.57 2.41
-11.72 -47.59 2.41
-10.71 -47.59 2.41
-9.71 -47.56 2.41
-8.65 -47.21 2.39
-7.67 -47.15 2.39
-6.69 -47.07 2.39
-5.71 -46.97 2.39
-4.95 -48.87 2.49
-3.95 -48.74 2.49
-2.96 -48.58 2.49
-1.97 -48.40 2.49
-1.00 -48.21 2.49
-0.03 -33.44 2.49
0.64 -33.33 2.49
1.31 -33.21 2.49
1.97 -33.07 2.49
2.51 -31.56 2.39
3.14 -31.41 2.39
3.75 -31.24 2.39
4.37 -31.06 2.39
4.97 -30.88 2.39
5.58 -30.68 2.39
4.86 -23.97 1.88
6.43 -28.76 2.27
8.18 -33.41 2.66
9.94 -37.34 3.00
10.78 -37.44 3.03
11.51 -37.18 3.04
2.48 -7.49 0.62
12.97 -36.62 3.05
13.69 -36.32 3.05
14.57 -36.42 3.09
15.52 -36.64 3.15
26.72 41.57 3.89
25.53 41.53 3.83
24.39 41.52 3.77
23.27 41.50 3.71
22.18 41.48 3.66
21.11 41.47 3.61
20.07 41.45 3.56
19.04 41.44 3.52
18.04 41.42 3.47
17.05 41.41 3.43
16.08 41.39 3.40
15.13 41.38 3.36
14.19 41.37 3.32
13.26 41.35 3.29
12.35 41.34 3.26
11.44 41.33 3.23
10.55 41.31 3.20
9.67 41.30 3.17
8.37 39.29 3.00
7.13 37.09 2.81
5.45 31.80 2.39
4.83 32.00 2.39
4.20 32.20 2.39
3.56 32.37 2.39
2.92 32.55 2.39
2.22 31.99 2.34
1.62 32.86 2.39
1.01 34.41 2.49
0.32 34.54 2.49
-0.38 34.65 2.49
-1.08 34.75 2.49
-1.78 34.84 2.49
-2.49 34.91 2.49
-3.20 34.97 2.49
-3.91 35.01 2.49
-4.63 35.04 2.49
-5.35 35.06 2.49
-6.07 35.06 2.49
-6.54 33.73 2.40
-7.21 33.57 2.39
-7.91 33.52 2.39
-8.61 33.47 2.39
-9.31 33.39 2.39
-9.61 31.97 2.29
-9.57 29.68 2.14
-10.33 29.98 2.17
-10.31 28.05 2.03
-10.28 26.34 1.92
-10.26 24.80 1.82
-10.24 23.41 1.72
-10.22 22.14 1.64
-10.20 20.99 1.56
-9.88 19.34 1.45
-10.31 19.22 1.45
-10.81 19.20 1.46
-11.31 19.19 1.48
-11.83 19.17 1.49
-12.35 19.16 1.50
-12.89 19.14 1.52
-13.45 19.13 1.53
-14.03 19.12 1.55
-14.62 19.11 1.57
-15.23 19.10 1.59
-15.86 19.09 1.61
-16.51 19.08 1.63
-17.18 19.07 1.66
-17.88 19.06 1.68
-18.60 19.05 1.71
-19.35 19.04 1.74
-20.13 19.03 1.77
-20.94 19.02 1.80
-21.79 19.00 1.84
-20.78 17.40 1.72
-20.77 16.69 1.69
-20.84 16.08 1.66
-20.83 15.41 1.63
-19.24 13.65 1.48
-20.73 14.08 1.57
-20.65 13.44 1.55
-20.60 12.82 1.52
-19.23 11.44 1.40
-20.65 11.73 1.48
-20.68 11.21 1.47
-10.58 5.46 0.74
-20.70 10.16 1.43
-20.75 9.68 1.42
-20.74 9.17 1.41
-20.65 8.64 1.39
-20.64 8.15 1.37
-14.51 5.40 0.96
-16.47 5.75 1.08
-17.55 5.74 1.14
-18.95 5.78 1.22
-20.33 5.76 1.30
-21.80 5.70 1.39
-23.75 5.71 1.50
-25.75 5.64 1.62
-28.44 5.64 1.78
-31.44 5.58 1.96
-10.52 1.65 0.65
-10.74 1.46 0.67
-16.84 1.95 1.04
-17.10 1.64 1.06
-17.10 1.29 1.05
-17.10 0.95 1.05
-16.81 0.59 1.03
-16.81 0.25 1.03
-16.80 -0.08 1.03
-16.80 -0.42 1.03
-16.79 -0.76 1.03
-17.07 -1.11 1.05
-17.06 -1.46 1.06
-17.05 -1.80 1.06
-17.01 -2.14 1.06
-16.76 -2.45 1.05
-16.76 -2.80 1.05
-16.75 -3.14 1.06
-15.78 -3.29 1.00
-15.95 -3.66 1.02
-15.94 -4.00 1.02
-15.94 -4.34 1.03
-15.93 -4.68 1.04
-15.93 -5.03 1.04
-15.92 -5.38 1.05
-15.92 -5.74 1.06
-15.91 -6.10 1.07
-15.91 -6.47 1.08
-15.74 -6.77 1.08
-16.22 -7.36 1.12
-16.21 -7.76 1.14
-16.21 -8.16 1.15
-16.62 -8.79 1.19
-16.61 -9.21 1.21
-16.19 -9.41 1.19
-16.18 -9.84 1.21
-16.17 -10.29 1.23
-16.17 -10.75 1.25
-16.63 -11.54 1.30
-16.62 -12.04 1.32
-16.62 -12.55 1.35
-16.61 -13.07 1.37
-16.88 -13.84 1.42
-16.87 -14.41 1.45
-16.86 -15.00 1.47
-16.58 -15.35 1.48
-16.57 -15.97 1.51
-16.56 -16.62 1.54
-16.55 -17.29 1.58
-16.54 -17.99 1.62
-16.53 -18.72 1.66
-16.51 -19.48 1.70
-18.61 -22.86 1.97
-17.85 -22.85 1.94
-17.09 -22.81 1.92
-16.40 -22.83 1.90
-15.71 -22.82 1.87
-15.04 -22.81 1.85
-14.38 -22.80 1.83
-13.75 -22.79 1.82
-13.11 -22.75 1.80
-12.52 -22.77 1.79
-11.92 -22.76 1.77
-11.33 -22.72 1.76
-10.78 -22.75 1.75
-10.20 -22.70 1.73
-9.69 -22.78 1.73
-12.75 -31.73 2.40
-9.74 -25.71 1.93
-11.42 -32.06 2.40
-9.64 -28.90 2.16
-9.61 -30.86 2.29
-9.33 -32.23 2.39
-8.66 -32.31 2.39
-7.98 -32.37 2.39
-7.31 -32.42 2.39
-6.63 -32.45 2.39
-5.96 -32.47 2.39
-5.52 -33.88 2.49
-4.82 -33.87 2.49
-4.13 -33.85 2.49
-3.43 -33.81 2.49
-2.75 -33.77 2.49
-2.06 -33.71 2.49
-1.38 -33.63 2.49
-0.70 -33.54 2.49
-0.03 -25.64 2.49
0.48 -25.57 2.49
1.00 -25.50 2.49
1.50 -25.41 2.49
2.01 -25.31 2.49
2.41 -24.17 2.39
2.88 -23.98 2.38
3.36 -23.94 2.39
3.83 -23.81 2.39
4.30 -23.67 2.39
4.76 -23.53 2.39
5.07 -22.72 2.32
4.67 -19.09 1.97
5.07 -19.08 1.98
7.24 -25.18 2.63
6.33 -20.45 2.16
2.48 -7.49 0.80
10.07 -28.46 3.05
6.24 -16.57 1.79
11.27 -28.18 3.08
6.22 -14.70 1.62
6.20 -13.87 1.55
13.32 -28.25 3.19
14.27 -28.75 3.29
15.75 -30.20 3.50
25.90 42.15 5.00
24.72 42.10 4.93
23.57 42.05 4.86
22.45 42.01 4.79
21.35 41.97 4.72
20.28 41.93 4.66
19.24 41.89 4.60
18.21 41.85 4.55
17.20 41.81 4.49
16.22 41.78 4.44
5.77 15.80 1.66
14.29 41.71 4.35
13.35 41.68 4.31
12.43 41.65 4.27
11.51 41.63 4.23
9.89 38.77 3.91
5.58 23.87 2.39
5.11 24.04 2.39
4.64 24.20 2.39
4.17 24.34 2.39
3.69 24.48 2.39
3.20 24.61 2.39
2.71 24.74 2.39
2.22 24.85 2.39
1.73 24.95 2.39
1.28 26.12 2.49
0.76 26.21 2.49
0.23 26.28 2.49
-0.29 26.35 2.49
-0.83 26.40 2.49
-1.36 26.45 2.49
-1.89 26.48 2.49
-2.43 26.51 2.49
-2.97 26.52 2.49
-3.51 26.52 2.49
-4.05 26.51 2.49
-4.59 26.49 2.49
-5.14 26.46 2.49
-5.68 26.41 2.49
-6.23 26.36 2.49
-6.49 25.21 2.39
-7.01 25.13 2.39
-7.53 25.05 2.39
-8.05 24.95 2.39
-8.57 24.84 2.39
-9.09 24.72 2.39
-9.61 24.60 2.39
-10.12 24.46 2.39
-10.24 23.39 2.30
-10.22 22.13 2.19
-10.20 20.98 2.09
-9.88 19.33 1.94
-10.32 19.22 1.95
-10.81 19.20 1.96
-11.32 19.19 1.98
-11.83 19.17 2.00
-12.36 19.16 2.02
-12.90 19.14 2.04
-13.46 19.13 2.06
-14.03 19.12 2.09
-14.62 19.11 2.11
-15.23 19.10 2.14
-15.86 19.09 2.17
-16.51 19.08 2.20
-17.19 19.07 2.24
-17.64 18.80 2.24
-18.05 18.48 2.24
-18.44 18.14 2.24
-18.84 17.80 2.24
-19.22 17.45 2.24
-19.60 17.09 2.24
-19.97 16.72 2.24
-20.33 16.34 2.24
-20.69 15.95 2.24
-20.75 15.34 2.21
-19.11 13.55 2.01
-19.40 13.18 2.01
-19.69 12.81 2.01
-19.97 12.42 2.01
-19.20 11.42 1.90
-20.50 11.64 2.01
-11.12 6.02 1.07
-10.58 5.46 1.01
-11.86 5.82 1.12
-12.52 5.84 1.17
-13.26 5.86 1.23
-13.99 5.85 1.28
-14.70 5.81 1.34
-14.51 5.40 1.31
-16.55 5.78 1.48
-17.63 5.76 1.56
-18.95 5.78 1.67
-20.34 5.76 1.78
-21.80 5.70 1.90
-23.76 5.71 2.06
-25.76 5.64 2.22
-26.15 5.18 2.24
-25.98 4.61 2.22
-10.52 1.65 0.90
-16.84 2.30 1.43
-16.84 1.95 1.42
-17.10 1.64 1.44
-17.10 1.29 1.44
-17.10 0.95 1.44
-16.81 0.59 1.41
-16.81 0.25 1.41
-16.80 -0.08 1.41
-16.80 -0.42 1.41
-16.79 -0.76 1.42
-17.07 -1.11 1.44
-17.06 -1.46 1.44
-17.05 -1.80 1.45
-16.98 -2.14 1.44
-16.76 -2.45 1.43
-16.76 -2.80 1.44
-16.75 -3.14 1.44
-15.78 -3.29 1.36
-15.95 -3.66 1.39
-15.95 -4.00 1.39
-15.94 -4.34 1.40
-15.93 -4.68 1.41
-15.93 -5.03 1.42
-15.92 -5.38 1.43
-15.92 -5.74 1.44
-15.91 -6.10 1.45
-15.91 -6.46 1.47
-15.75 -6.77 1.47
-16.22 -7.36 1.53
-16.21 -7.75 1.54
-16.21 -8.15 1.56
-16.62 -8.78 1.62
-16.61 -9.21 1.64
-16.19 -9.40 1.62
-16.18 -9.84 1.64
-16.17 -10.29 1.66
-16.17 -10.74 1.69
-16.63 -11.54 1.76
-16.62 -12.03 1.79
-16.62 -12.54 1.82
-16.61 -13.07 1.85
-16.60 -13.61 1.88
-16.59 -14.17 1.92
-16.58 -14.75 1.95
-16.58 -15.35 1.99
-16.57 -15.97 2.03
-16.56 -16.61 2.08
-16.55 -17.28 2.12
-16.54 -17.98 2.17
-16.53 -18.71 2.22
-16.47 -19.41 2.27
-16.08 -19.75 2.28
-15.89 -20.33 2.31
-15.44 -20.60 2.31
-14.99 -20.85 2.31
-14.53 -21.10 2.31
-14.08 -21.34 2.31
-13.61 -21.56 2.31
-13.15 -21.78 2.31
-12.68 -21.99 2.31
-12.20 -22.18 2.31
-11.73 -22.37 2.31
-11.25 -22.55 2.31
-10.77 -22.71 2.31
-10.21 -22.70 2.30
-9.69 -22.76 2.29
-9.62 -23.91 2.39
-9.12 -24.04 2.39
-8.61 -24.16 2.39
-8.10 -24.27 2.39
-7.60 -24.36 2.39
-7.09 -24.45 2.39
-6.58 -24.53 2.39
-6.07 -24.59 2.39
-5.66 -25.08 2.43
-5.27 -25.76 2.49
-4.74 -25.79 2.49
-4.21 -25.82 2.49
-3.68 -25.83 2.49
-3.16 -25.83 2.49
-2.63 -25.83 2.49
-2.11 -25.81 2.49
-1.58 -25.78 2.49
-1.06 -25.75 2.49
-0.55 -25.70 2.49
-0.03 -20.77 2.49
0.39 -20.73 2.49
0.80 -20.68 2.49
1.21 -20.62 2.49
1.62 -20.55 2.49
2.03 -20.47 2.49
2.34 -19.54 2.39
2.72 -19.45 2.39
3.11 -19.36 2.39
3.49 -19.26 2.39
3.87 -19.15 2.39
4.24 -19.03 2.39
4.62 -18.90 2.39
4.99 -18.77 2.39
4.84 -16.86 2.16
4.83 -15.64 2.02
2.48 -7.49 0.98
7.18 -20.30 2.67
6.24 -16.58 2.20
8.08 -20.23 2.71
9.39 -22.20 3.00
10.06 -22.50 3.08
10.60 -22.48 3.11
6.18 -12.46 1.74
11.65 -22.35 3.16
12.24 -22.37 3.20
6.16 -10.73 1.56
13.44 -22.38 3.29
14.26 -22.69 3.38
15.16 -23.09 3.49
5.83 11.46 1.58
19.62 45.11 6.02
18.54 45.10 5.96
14.49 42.32 5.43
13.52 42.24 5.38
5.64 18.93 2.39
5.27 19.08 2.39
4.90 19.22 2.39
4.52 19.35 2.39
4.14 19.48 2.39
3.75 19.60 2.39
3.37 19.71 2.39
2.98 19.81 2.39
2.54 19.58 2.35
2.09 19.10 2.28
1.79 20.08 2.39
1.45 21.02 2.49
1.03 21.08 2.49
0.61 21.14 2.49
0.18 21.20 2.49
-0.24 21.24 2.49
-0.67 21.27 2.49
-1.10 21.30 2.49
-1.53 21.31 2.49
-1.96 21.32 2.49
-2.39 21.32 2.49
-2.83 21.31 2.49
-3.26 21.30 2.49
-3.69 21.27 2.49
-4.13 21.23 2.49
-4.56 21.19 2.49
-5.00 21.13 2.49
-5.43 21.07 2.49
-5.86 21.00 2.49
-6.30 20.92 2.49
-6.45 19.97 2.39
-6.86 19.87 2.39
-7.27 19.77 2.39
-7.68 19.65 2.39
-8.09 19.53 2.39
-8.50 19.40 2.39
-8.90 19.26 2.39
-9.30 19.12 2.39
-9.70 18.96 2.39
-10.10 18.79 2.39
-10.56 18.75 2.41
-10.95 18.56 2.41
-11.14 18.04 2.36
-11.18 17.32 2.29
-12.08 17.91 2.40
-12.44 17.68 2.40
-11.07 15.07 2.07
-11.12 14.53 2.02
-13.48 16.89 2.39
-13.75 16.54 2.37
-14.00 16.17 2.35
-14.23 15.79 2.34
-14.45 15.40 2.32
-14.66 15.01 2.30
-14.81 14.56 2.27
-14.23 13.45 2.14
-14.44 13.10 2.13
-14.71 12.82 2.13
-14.96 12.52 2.12
-15.20 12.21 2.12
-15.43 11.89 2.12
-15.67 11.58 2.11
-16.32 11.57 2.17
-17.14 11.64 2.24
-17.39 11.31 2.24
-17.63 10.97 2.24
-10.12 6.02 1.27
-10.15 5.76 1.26
-10.15 5.50 1.24
-10.18 5.25 1.23
-10.17 4.99 1.22
-10.14 4.72 1.20
-10.13 4.48 1.19
-10.16 4.25 1.18
-10.16 4.01 1.17
-10.10 3.75 1.15
-10.09 3.52 1.15
-10.09 3.30 1.14
-10.09 3.07 1.13
-10.08 2.85 1.12
-10.08 2.64 1.11
-10.08 2.42 1.11
-10.07 2.21 1.10
-10.07 2.00 1.10
-10.07 1.79 1.09
-10.06 1.58 1.09
-10.06 1.37 1.08
-10.06 1.17 1.08
-10.05 0.96 1.08
-10.05 0.76 1.08
-10.05 0.56 1.07
-10.05 0.35 1.07
-10.05 0.15 1.07
-10.05 -0.05 1.07
-10.05 -0.25 1.07
-10.04 -0.45 1.07
-10.03 -0.65 1.08
-10.03 -0.86 1.08
-10.02 -1.06 1.08
-10.02 -1.26 1.08
-10.02 -1.47 1.09
-10.02 -1.67 1.09
-10.01 -1.88 1.09
-10.01 -2.08 1.10
-10.01 -2.29 1.10
-10.00 -2.51 1.11
-10.00 -2.72 1.12
-10.00 -2.93 1.12
-9.99 -3.15 1.13
-9.99 -3.37 1.14
-9.99 -3.60 1.15
-9.98 -3.82 1.16
-15.91 -6.46 1.86
-15.75 -6.77 1.86
-16.22 -7.36 1.93
-16.21 -7.75 1.95
-16.21 -8.15 1.97
-16.62 -8.78 2.05
-16.61 -9.21 2.07
-16.19 -9.40 2.04
-16.18 -9.84 2.07
-16.17 -10.28 2.10
-16.16 -10.73 2.13
-16.63 -11.53 2.22
-16.37 -11.84 2.22
-16.10 -12.15 2.22
-15.83 -12.45 2.22
-15.50 -12.70 2.21
-15.22 -12.99 2.21
-14.94 -13.28 2.21
-14.66 -13.56 2.21
-14.46 -13.93 2.23
-14.44 -14.49 2.28
-14.19 -14.81 2.29
-13.93 -15.13 2.30
-13.61 -15.40 2.30
-13.28 -15.65 2.30
-12.95 -15.90 2.30
-12.65 -16.18 2.31
-12.39 -16.51 2.33
-12.12 -16.85 2.34
-11.84 -17.18 2.36
-11.54 -17.49 2.37
-11.23 -17.79 2.39
-10.92 -18.08 2.40
-10.55 -18.30 2.41
-10.17 -18.47 2.41
-9.71 -18.51 2.39
-9.32 -18.67 2.39
-8.92 -18.81 2.39
-8.53 -18.95 2.39
-8.13 -19.08 2.39
-7.73 -19.20 2.39
-7.33 -19.31 2.39
-6.92 -19.42 2.39
-6.52 -19.51 2.39
-6.12 -19.60 2.39
-5.75 -19.80 2.41
-5.53 -20.60 2.49
-5.11 -20.66 2.49
-4.68 -20.72 2.49
-4.26 -20.77 2.49
-3.83 -20.81 2.49
-3.41 -20.84 2.49
-2.98 -20.86 2.49
-2.56 -20.87 2.49
-2.13 -20.88 2.49
-1.71 -20.87 2.49
-1.29 -20.86 2.49
-0.87 -20.84 2.49
-0.45 -20.81 2.49
-0.03 -17.45 2.49
0.32 -17.41 2.49
0.67 -17.37 2.49
1.02 -17.33 2.49
1.36 -17.28 2.49
1.71 -17.22 2.49
2.05 -17.15 2.49
2.29 -16.37 2.39
2.61 -16.30 2.39
2.93 -16.21 2.39
3.25 -16.13 2.39
3.57 -16.03 2.39
3.89 -15.93 2.39
4.20 -15.83 2.39
4.51 -15.71 2.39
4.82 -15.60 2.39
2.48 -7.49 1.16
5.42 -15.34 2.39
5.72 -15.21 2.39
6.02 -15.07 2.39
7.15 -16.92 2.71
6.22 -13.92 2.25
7.47 -15.86 2.59
6.18 -12.47 2.06
9.73 -18.67 3.12
10.18 -18.62 3.15
10.64 -18.56 3.18
11.10 -18.50 3.21
11.59 -18.46 3.25
12.11 -18.46 3.30
12.64 -18.45 3.34
6.12 -8.56 1.58
6.13 -8.22 1.54
14.67 -18.86 3.59
15.51 -19.13 3.70
17.52 -20.74 4.08
5.87 8.75 1.55
5.86 9.54 1.64
5.83 11.47 1.88
5.83 13.41 2.13
18.53 45.10 7.07
6.94 17.90 2.78
5.66 15.53 2.39
5.36 15.66 2.39
5.05 15.79 2.39
4.74 15.92 2.39
4.43 16.04 2.39
4.11 16.15 2.39
3.79 16.26 2.39
3.47 16.36 2.39
3.15 16.45 2.39
2.72 15.97 2.31
2.45 16.35 2.35
2.13 16.44 2.35
1.83 16.76 2.39
1.56 17.55 2.49
1.21 17.61 2.49
0.86 17.66 2.49
0.50 17.71 2.49
0.15 17.74 2.49
-0.21 17.77 2.49
-0.57 17.80 2.49
-0.92 17.81 2.49
-1.28 17.82 2.49
-1.64 17.82 2.49
-2.00 17.81 2.49
-2.37 17.80 2.49
-2.73 17.78 2.49
-3.09 17.75 2.49
-3.45 17.72 2.49
-3.81 17.67 2.49
-4.17 17.62 2.49
-4.53 17.56 2.49
-4.89 17.50 2.49
-5.25 17.42 2.49
-5.61 17.34 2.49
-5.96 17.26 2.49
-6.28 17.07 2.48
-6.40 16.35 2.39
-6.73 16.24 2.39
-7.07 16.13 2.39
-7.40 16.01 2.39
-7.73 15.88 2.39
-8.06 15.75 2.39
-8.39 15.61 2.39
-8.71 15.46 2.39
-9.03 15.30 2.39
-9.35 15.14 2.39
-9.67 14.97 2.39
-9.98 14.80 2.39
-10.36 14.71 2.41
-10.67 14.52 2.41
-10.97 14.32 2.41
-10.92 13.68 2.33
-11.14 13.40 2.32
-11.36 13.12 2.31
-11.57 12.83 2.29
-11.78 12.54 2.28
-11.98 12.25 2.27
-12.17 11.96 2.26
-11.00 10.39 2.00
-10.99 9.97 1.96
-11.10 9.67 1.94
-13.13 10.98 2.25
-13.29 10.67 2.24
-13.51 10.41 2.24
-13.73 10.15 2.24
-13.95 9.88 2.24
-14.16 9.61 2.24
-14.36 9.33 2.24
-14.55 9.05 2.24
-10.12 6.01 1.54
-10.15 5.76 1.52
-10.15 5.49 1.51
-10.18 5.25 1.49
-10.17 4.99 1.48
-10.14 4.72 1.46
-10.13 4.48 1.44
-10.16 4.25 1.43
-10.16 4.01 1.42
-10.12 3.76 1.40
-10.12 3.53 1.39
-10.15 3.32 1.39
-10.15 3.09 1.38
-10.14 2.87 1.37
-10.10 2.64 1.36
-10.14 2.43 1.35
-10.13 2.22 1.35
-10.13 2.01 1.34
-10.09 1.79 1.33
-10.09 1.58 1.32
-10.12 1.38 1.32
-10.12 1.17 1.32
-10.11 0.97 1.32
-10.08 0.76 1.31
-10.07 0.56 1.31
-10.10 0.36 1.31
-10.10 0.15 1.31
-10.10 -0.05 1.31
-10.06 -0.25 1.31
-10.06 -0.45 1.31
-10.09 -0.66 1.31
-10.09 -0.86 1.31
-10.08 -1.06 1.32
-10.05 -1.26 1.32
-10.04 -1.47 1.32
-10.07 -1.68 1.33
-10.07 -1.89 1.33
-10.07 -2.10 1.34
-10.03 -2.30 1.34
-10.03 -2.51 1.35
-10.06 -2.73 1.36
-10.06 -2.95 1.37
-10.05 -3.17 1.38
-10.02 -3.38 1.38
-10.05 -3.62 1.40
-10.04 -3.84 1.41
-15.73 -6.39 2.23
-15.67 -6.73 2.24
-15.34 -6.96 2.21
-14.71 -7.03 2.14
-14.71 -7.39 2.17
-14.49 -7.65 2.16
-14.28 -7.91 2.15
-14.15 -8.21 2.16
-14.01 -8.51 2.17
-13.87 -8.81 2.17
-13.72 -9.11 2.18
-13.56 -9.40 2.19
-13.40 -9.70 2.20
-13.71 -10.34 2.28
-13.52 -10.63 2.29
-13.34 -10.93 2.30
-13.16 -11.23 2.31
-12.98 -11.53 2.32
-12.80 -11.84 2.33
-12.59 -12.13 2.34
-12.37 -12.40 2.35
-12.15 -12.68 2.36
-11.92 -12.95 2.37
-11.68 -13.21 2.38
-11.44 -13.48 2.38
-11.20 -13.74 2.39
-10.95 -13.99 2.40
-10.66 -14.20 2.41
-10.36 -14.39 2.41
-10.05 -14.58 2.41
-9.68 -14.65 2.39
-9.36 -14.82 2.39
-9.05 -14.98 2.39
-8.73 -15.14 2.39
-8.42 -15.28 2.39
-8.09 -15.42 2.39
-7.77 -15.56 2.39
-7.44 -15.68 2.39
-7.12 -15.80 2.39
-6.79 -15.92 2.39
-6.46 -16.02 2.39
-6.12 -16.12 2.39
-5.80 -16.25 2.40
-5.69 -17.00 2.49
-5.34 -17.08 2.49
-4.98 -17.16 2.49
-4.63 -17.23 2.49
-4.28 -17.29 2.49
-3.92 -17.34 2.49
-3.57 -17.38 2.49
-3.21 -17.42 2.49
-2.86 -17.45 2.49
-2.50 -17.48 2.49
-2.15 -17.49 2.49
-1.79 -17.50 2.49
-1.44 -17.51 2.49
-1.08 -17.50 2.49
-0.73 -17.49 2.49
-0.38 -17.47 2.49
-0.03 -15.02 2.49
0.27 -15.00 2.49
0.57 -14.97 2.49
0.87 -14.93 2.49
1.17 -14.89 2.49
1.47 -14.84 2.49
1.76 -14.79 2.49
2.05 -14.73 2.49
2.25 -14.06 2.39
2.53 -13.99 2.39
2.66 -13.21 2.27
3.03 -13.61 2.35
3.18 -13.05 2.27
3.62 -13.67 2.39
3.89 -13.57 2.39
4.16 -13.47 2.39
2.47 -7.46 1.33
4.68 -13.26 2.39
4.94 -13.15 2.39
5.20 -13.03 2.39
5.45 -12.91 2.39
5.70 -12.78 2.39
5.95 -12.64 2.39
6.18 -12.48 2.38
7.16 -13.76 2.66
7.49 -13.70 2.68
8.20 -14.32 2.84
9.17 -15.28 3.07
6.15 -9.80 1.99
6.16 -9.39 1.94
10.60 -15.47 3.24
6.12 -8.56 1.82
11.45 -15.35 3.31
11.91 -15.31 3.36
12.37 -15.27 3.41
12.84 -15.21 3.45
13.31 -15.13 3.50
6.10 -6.66 1.57
6.10 -6.39 1.54
16.31 -16.44 4.03
5.90 6.84 1.55
5.89 7.42 1.62
5.87 8.76 1.80
5.86 9.54 1.90
5.83 11.47 2.18
5.82 12.06 2.26
4.65 10.14 1.88
4.45 10.25 1.88
4.25 10.35 1.88
4.21 10.88 1.96
4.88 13.39 2.39
4.62 13.51 2.39
4.35 13.62 2.39
4.08 13.72 2.39
3.81 13.82 2.39
3.54 13.91 2.39
3.26 14.00 2.39
2.83 13.37 2.27
2.66 13.93 2.35
2.30 13.51 2.27
2.14 14.30 2.39
1.86 14.36 2.39
1.64 15.04 2.49
1.34 15.09 2.49
1.04 15.14 2.49
0.73 15.18 2.49
0.43 15.22 2.49
0.12 15.24 2.49
-0.18 15.27 2.49
-0.49 15.28 2.49
-0.80 15.29 2.49
-1.11 15.29 2.49
-1.41 15.29 2.49
-1.72 15.28 2.49
-2.03 15.27 2.49
-2.34 15.25 2.49
-2.65 15.22 2.49
-2.96 15.18 2.49
-3.27 15.14 2.49
-3.58 15.10 2.49
-3.89 15.04 2.49
-4.19 14.98 2.49
-4.50 14.92 2.49
-4.80 14.84 2.49
-5.11 14.77 2.49
-5.41 14.68 2.49
-5.71 14.59 2.49
-6.01 14.49 2.49
-6.24 14.24 2.47
-6.33 13.69 2.39
-6.61 13.57 2.39
-6.89 13.46 2.39
-7.17 13.33 2.39
-7.44 13.20 2.39
-7.72 13.07 2.39
-7.99 12.93 2.39
-8.26 12.78 2.39
-8.52 12.63 2.39
-8.78 12.47 2.39
-9.04 12.30 2.39
-9.30 12.13 2.39
-9.55 11.96 2.39
-6.24 7.50 1.52
-10.04 11.59 2.39
-10.35 11.48 2.41
-10.59 11.28 2.41
-10.83 11.07 2.41
-11.06 10.87 2.41
-11.02 10.41 2.35
-11.02 9.99 2.30
-11.10 9.67 2.28
-11.77 9.84 2.37
-11.94 9.59 2.37
-12.11 9.33 2.36
-12.27 9.07 2.35
-10.96 7.76 2.07
-10.95 7.44 2.04
-10.95 7.12 2.01
-11.10 6.90 2.01
-10.12 6.01 1.81
-10.15 5.76 1.79
-10.15 5.49 1.77
-10.18 5.25 1.76
-10.17 4.99 1.74
-10.14 4.72 1.71
-10.13 4.48 1.70
-10.16 4.25 1.69
-10.16 4.01 1.67
-10.12 3.76 1.65
-10.12 3.53 1.64
-10.15 3.32 1.63
-10.15 3.09 1.62
-10.14 2.87 1.61
-10.10 2.64 1.60
-10.14 2.43 1.59
-10.13 2.22 1.58
-10.13 2.01 1.58
-10.09 1.79 1.56
-10.09 1.58 1.56
-10.12 1.38 1.56
-10.12 1.17 1.55
-10.11 0.97 1.55
-10.08 0.76 1.54
-10.07 0.56 1.54
-10.10 0.36 1.54
-10.10 0.15 1.54
-10.10 -0.05 1.54
-10.06 -0.25 1.54
-10.06 -0.45 1.54
-10.09 -0.66 1.54
-10.09 -0.86 1.55
-10.08 -1.06 1.55
-10.05 -1.26 1.55
-10.04 -1.47 1.55
-10.07 -1.68 1.56
-10.07 -1.89 1.57
-10.07 -2.10 1.58
-10.03 -2.30 1.58
-10.03 -2.51 1.59
-10.06 -2.73 1.60
-9.44 -2.77 1.51
-9.15 -2.89 1.47
-9.15 -3.09 1.48
-10.05 -3.62 1.64
-10.04 -3.84 1.66
-13.83 -5.61 2.30
-13.73 -5.90 2.30
-13.63 -6.18 2.31
-13.52 -6.46 2.31
-13.38 -6.72 2.31
-13.21 -6.98 2.31
-13.05 -7.23 2.31
-12.88 -7.48 2.31
-12.59 -7.65 2.28
-12.25 -7.78 2.25
-12.12 -8.04 2.26
-11.98 -8.30 2.27
-11.84 -8.56 2.27
-11.69 -8.82 2.28
-11.54 -9.07 2.29
-11.39 -9.33 2.30
-11.23 -9.58 2.31
-11.38 -10.11 2.38
-11.22 -10.37 2.39
-11.03 -10.62 2.40
-10.82 -10.84 2.41
-10.59 -11.04 2.41
-10.35 -11.24 2.41
-10.11 -11.43 2.41
-9.80 -11.54 2.39
-9.56 -11.72 2.39
-9.31 -11.89 2.39
-9.05 -12.06 2.39
-8.80 -12.22 2.39
-8.54 -12.38 2.39
-8.28 -12.53 2.39
-8.02 -12.68 2.39
-7.75 -12.82 2.39
-7.48 -12.95 2.39
-7.21 -13.08 2.39
-6.94 -13.21 2.39
-6.66 -13.32 2.39
-6.38 -13.44 2.39
-6.10 -13.54 2.39
-5.84 -13.68 2.40
-5.78 -14.33 2.49
-5.48 -14.42 2.49
-5.18 -14.51 2.49
-4.88 -14.59 2.49
-4.58 -14.66 2.49
-4.28 -14.73 2.49
-3.98 -14.79 2.49
-3.68 -14.84 2.49
-3.37 -14.89 2.49
-3.07 -14.93 2.49
-2.76 -14.97 2.49
-2.46 -15.00 2.49
-2.15 -15.02 2.49
-1.85 -15.04 2.49
-1.55 -15.05 2.49
-1.24 -15.06 2.49
-0.94 -15.06 2.49
-0.63 -15.05 2.49
-0.33 -15.04 2.49
-0.03 -13.18 2.49
0.24 -13.16 2.49
0.50 -13.13 2.49
0.76 -13.10 2.49
1.02 -13.07 2.49
1.28 -13.03 2.49
1.54 -12.99 2.49
1.80 -12.94 2.49
2.06 -12.88 2.49
2.22 -12.29 2.39
2.46 -12.23 2.39
2.57 -11.54 2.27
2.89 -11.89 2.35
3.13 -11.81 2.35
3.24 -11.33 2.27
3.65 -11.85 2.39
2.46 -7.45 1.51
4.12 -11.67 2.39
4.35 -11.57 2.39
4.57 -11.46 2.39
4.80 -11.36 2.39
5.02 -11.25 2.39
5.24 -11.13 2.39
5.45 -11.01 2.39
5.67 -10.89 2.39
5.88 -10.76 2.39
6.09 -10.63 2.39
7.43 -12.40 2.82
6.15 -9.80 2.26
8.37 -12.76 2.99
8.98 -13.12 3.12
6.12 -8.57 2.07
9.87 -13.23 3.24
10.18 -13.10 3.26
10.53 -12.99 3.29
10.88 -12.89 3.32
11.24 -12.78 3.35
11.61 -12.68 3.39
12.02 -12.61 3.44
12.43 -12.53 3.48
12.84 -12.43 3.53
13.25 -12.32 3.58
13.79 -12.32 3.66
14.60 -12.52 3.81
6.07 -5.00 1.56
6.08 -4.81 1.54
5.92 5.18 1.54
5.92 5.40 1.57
5.92 5.62 1.60
5.90 6.86 1.76
5.89 7.42 1.84
16.29 24.32 5.67
15.11 23.56 5.42
14.67 23.92 5.42
6.91 11.79 2.64
6.62 11.85 2.62
5.84 10.95 2.39
5.62 11.08 2.39
5.41 11.21 2.39
5.19 11.33 2.39
4.43 10.20 2.13
4.59 11.18 2.31
4.33 11.18 2.29
4.28 11.76 2.39
4.05 11.86 2.39
3.82 11.96 2.39
3.58 12.05 2.39
3.34 12.13 2.39
3.10 12.21 2.39
2.86 12.29 2.39
2.62 12.36 2.39
2.36 12.37 2.38
2.12 12.49 2.39
1.87 12.54 2.39
1.69 13.14 2.49
1.43 13.19 2.49
1.17 13.23 2.49
0.90 13.27 2.49
0.64 13.30 2.49
0.37 13.33 2.49
0.10 13.35 2.49
-0.16 13.37 2.49
-0.43 13.38 2.49
-0.70 13.38 2.49
-0.97 13.38 2.49
-1.24 13.38 2.49
-1.51 13.37 2.49
-1.78 13.35 2.49
-2.05 13.33 2.49
-2.32 13.31 2.49
-2.59 13.27 2.49
-2.86 13.24 2.49
-3.13 13.19 2.49
-3.40 13.14 2.49
-3.67 13.09 2.49
-3.93 13.03 2.49
-4.20 12.96 2.49
-4.46 12.89 2.49
-4.73 12.82 2.49
-4.99 12.73 2.49
-5.25 12.65 2.49
-5.51 12.55 2.49
-5.76 12.45 2.49
-6.02 12.35 2.49
-6.21 12.12 2.47
-6.25 11.63 2.39
-6.49 11.51 2.39
-6.73 11.39 2.39
-6.97 11.27 2.39
-7.20 11.14 2.39
-7.43 11.00 2.39
-7.65 10.86 2.39
-7.88 10.72 2.39
-8.10 10.57 2.39
-8.32 10.41 2.39
-6.24 7.50 1.75
-8.74 10.09 2.39
-8.95 9.92 2.39
-9.16 9.75 2.39
-9.36 9.57 2.39
-9.56 9.39 2.39
-9.75 9.20 2.39
-9.94 9.02 2.39
-10.13 8.82 2.39
-10.38 8.68 2.41
-10.56 8.48 2.41
-10.74 8.27 2.41
-10.91 8.06 2.41
-10.98 7.78 2.39
-10.98 7.45 2.35
-10.97 7.13 2.32
-11.14 6.92 2.32
-10.12 6.01 2.08
-10.15 5.76 2.06
-10.15 5.49 2.04
-10.18 5.25 2.02
-10.17 4.99 2.00
-10.14 4.72 1.97
-10.13 4.47 1.95
-10.16 4.25 1.94
-10.16 4.01 1.92
-10.12 3.76 1.90
-10.12 3.53 1.89
-10.15 3.31 1.88
-10.15 3.09 1.87
-10.14 2.87 1.85
-10.10 2.64 1.84
-10.14 2.43 1.83
-10.13 2.22 1.82
-10.13 2.01 1.82
-10.09 1.79 1.80
-10.09 1.58 1.79
-10.12 1.38 1.79
-10.12 1.17 1.79
-10.11 0.97 1.79
-10.08 0.76 1.78
-10.07 0.56 1.77
-10.10 0.36 1.78
-10.10 0.15 1.78
-10.10 -0.05 1.78
-10.06 -0.25 1.77
-10.06 -0.45 1.77
-10.09 -0.66 1.78
-10.09 -0.86 1.78
-10.08 -1.06 1.78
-10.05 -1.26 1.78
-10.04 -1.47 1.79
-10.07 -1.68 1.80
-10.07 -1.89 1.81
-10.07 -2.09 1.81
-10.03 -2.30 1.82
-10.03 -2.51 1.82
-10.06 -2.73 1.84
-9.49 -2.78 1.75
-9.16 -2.89 1.70
-9.16 -3.09 1.71
-10.05 -3.61 1.89
-10.04 -3.84 1.90
-12.34 -5.01 2.36
-12.25 -5.26 2.36
-12.15 -5.51 2.37
-12.05 -5.75 2.37
-11.94 -6.00 2.37
-11.81 -6.23 2.37
-11.67 -6.46 2.37
-11.53 -6.69 2.37
-11.42 -6.93 2.38
-11.30 -7.18 2.39
-11.18 -7.42 2.39
-11.03 -7.64 2.40
-10.61 -7.67 2.34
-10.48 -7.90 2.35
-10.34 -8.13 2.36
-10.20 -8.35 2.36
-10.06 -8.57 2.37
-9.91 -8.80 2.38
-9.76 -9.02 2.39
-9.56 -9.20 2.39
-9.37 -9.38 2.39
-9.17 -9.56 2.39
-8.97 -9.73 2.39
-8.76 -9.90 2.39
-8.55 -10.06 2.39
-8.34 -10.22 2.39
-8.12 -10.37 2.39
-7.90 -10.52 2.39
-7.68 -10.66 2.39
-7.46 -10.80 2.39
-7.23 -10.94 2.39
-7.00 -11.07 2.39
-6.77 -11.19 2.39
-6.54 -11.31 2.39
-6.30 -11.43 2.39
-6.07 -11.55 2.39
-5.86 -11.73 2.41
-5.82 -12.25 2.49
-5.57 -12.35 2.49
-5.31 -12.44 2.49
-5.05 -12.53 2.49
-4.80 -12.61 2.49
-4.54 -12.69 2.49
-4.28 -12.76 2.49
-4.01 -12.83 2.49
-3.75 -12.89 2.49
-3.49 -12.94 2.49
-3.22 -12.99 2.49
-2.96 -13.04 2.49
-2.69 -13.08 2.49
-2.42 -13.11 2.49
-2.16 -13.14 2.49
-1.89 -13.16 2.49
-1.63 -13.18 2.49
-1.36 -13.19 2.49
-1.09 -13.20 2.49
-0.83 -13.20 2.49
-0.56 -13.20 2.49
-0.29 -13.19 2.49
-0.03 -11.73 2.49
0.21 -11.71 2.49
0.44 -11.69 2.49
0.67 -11.67 2.49
0.91 -11.64 2.49
1.14 -11.60 2.49
1.37 -11.56 2.49
1.60 -11.52 2.49
1.83 -11.47 2.49
2.06 -11.42 2.49
2.19 -10.90 2.39
2.41 -10.84 2.39
2.53 -10.40 2.31
2.79 -10.53 2.35
2.99 -10.46 2.35
3.11 -10.10 2.29
2.46 -7.45 1.70
3.67 -10.40 2.39
3.87 -10.32 2.39
4.07 -10.23 2.39
4.28 -10.13 2.39
4.47 -10.03 2.39
4.67 -9.93 2.39
4.86 -9.83 2.39
5.06 -9.72 2.39
5.24 -9.61 2.39
5.43 -9.49 2.39
5.62 -9.37 2.39
5.80 -9.25 2.39
5.98 -9.12 2.39
6.15 -8.99 2.39
6.12 -8.57 2.31
6.13 -8.22 2.25
9.06 -11.66 3.25
9.53 -11.76 3.33
9.78 -11.59 3.34
10.03 -11.41 3.35
10.28 -11.23 3.36
10.52 -11.04 3.37
10.76 -10.85 3.38
11.00 -10.65 3.39
6.09 -5.66 1.84
11.48 -10.26 3.41
11.82 -10.14 3.45
12.16 -10.01 3.49
12.49 -9.87 3.53
12.83 -9.73 3.57
13.17 -9.58 3.62
6.07 -4.23 1.64
14.51 -9.68 3.88
15.40 -9.83 4.07
6.05 -3.69 1.58
6.05 -3.53 1.56
6.05 -3.37 1.54
42.03 -22.30 10.60
43.39 -21.91 10.84
43.57 -20.91 10.78
43.81 -19.95 10.74
44.12 -19.03 10.73
44.70 -18.23 10.78
45.28 -17.41 10.84
45.84 -16.57 10.89
47.46 -8.93 10.80
48.05 -8.04 10.90
47.61 -1.18 10.66
44.23 -0.21 9.89
42.14 0.65 9.43
41.73 1.48 9.34
41.40 2.30 9.27
41.62 3.16 9.33
42.24 4.06 9.48
43.00 5.01 9.68
42.99 5.89 9.70
42.98 6.77 9.72
5.96 3.56 1.54
5.94 3.71 1.55
5.94 3.88 1.57
22.72 15.51 6.08
22.49 16.02 6.09
5.94 4.99 1.71
5.93 5.41 1.76
5.91 6.59 1.94
5.89 7.43 2.07
19.91 26.17 7.16
6.99 10.00 2.65
6.88 10.27 2.68
4.68 7.30 1.88
4.53 7.40 1.88
4.39 7.50 1.88
4.27 7.64 1.89
4.26 7.99 1.96
5.01 9.88 2.39
4.82 9.99 2.39
4.62 10.09 2.39
4.42 10.20 2.39
4.22 10.29 2.39
4.02 10.39 2.39
3.81 10.48 2.39
3.60 10.57 2.39
3.40 10.65 2.39
3.18 10.73 2.39
2.97 10.80 2.39
2.76 10.87 2.39
2.54 10.94 2.39
2.32 11.00 2.39
2.11 11.05 2.39
1.89 11.11 2.39
1.74 11.64 2.49
1.50 11.68 2.49
1.27 11.73 2.49
1.04 11.76 2.49
0.80 11.79 2.49
0.56 11.82 2.49
0.33 11.84 2.49
0.09 11.86 2.49
-0.15 11.88 2.49
-0.39 11.88 2.49
-0.63 11.89 2.49
-0.87 11.89 2.49
-1.11 11.88 2.49
-1.35 11.87 2.49
-1.58 11.86 2.49
-1.82 11.83 2.49
-2.06 11.81 2.49
-2.30 11.78 2.49
-2.54 11.74 2.49
-2.78 11.70 2.49
-3.02 11.66 2.49
-3.25 11.61 2.49
-3.49 11.55 2.49
-3.73 11.49 2.49
-3.96 11.43 2.49
-4.19 11.36 2.49
-4.42 11.29 2.49
-4.65 11.21 2.49
-4.88 11.12 2.49
-5.11 11.03 2.49
-5.34 10.94 2.49
-5.56 10.84 2.49
-5.78 10.74 2.49
-6.00 10.63 2.49
-6.19 10.46 2.48
-6.19 10.01 2.40
-6.39 9.88 2.40
-6.58 9.74 2.39
-6.78 9.61 2.39
-6.97 9.48 2.39
-7.17 9.35 2.39
-7.36 9.21 2.39
-6.24 7.50 1.98
-7.74 8.92 2.39
-7.92 8.77 2.39
-8.10 8.62 2.39
-8.28 8.46 2.39
-8.45 8.30 2.39
-8.63 8.14 2.39
-8.79 7.97 2.39
-8.96 7.80 2.39
-9.12 7.62 2.39
-9.28 7.44 2.39
-9.43 7.26 2.39
-9.58 7.07 2.39
-9.72 6.88 2.39
-9.87 6.69 2.39
-10.00 6.50 2.39
-10.14 6.30 2.39
-10.12 6.01 2.36
-10.15 5.76 2.33
-10.15 5.49 2.31
-10.18 5.25 2.29
-10.17 4.99 2.26
-10.14 4.72 2.23
-10.13 4.47 2.21
-10.16 4.25 2.20
-10.16 4.01 2.18
-10.12 3.76 2.15
-10.12 3.53 2.14
-10.15 3.31 2.13
-10.15 3.09 2.11
-10.14 2.87 2.10
-10.10 2.64 2.08
-10.14 2.43 2.08
-10.13 2.22 2.07
-10.13 2.01 2.06
-10.09 1.79 2.04
-10.09 1.58 2.03
-10.12 1.38 2.03
-10.12 1.17 2.03
-10.11 0.97 2.02
-10.08 0.76 2.01
-10.07 0.56 2.01
-10.10 0.36 2.01
-10.10 0.15 2.01
-10.10 -0.05 2.01
-10.06 -0.25 2.00
-10.06 -0.45 2.01
-10.09 -0.66 2.01
-10.09 -0.86 2.02
-10.08 -1.06 2.02
-10.05 -1.26 2.02
-10.04 -1.47 2.02
-10.07 -1.68 2.04
-10.07 -1.88 2.04
-10.07 -2.09 2.05
-10.03 -2.30 2.06
-10.03 -2.51 2.07
-10.06 -2.73 2.08
-9.54 -2.80 1.99
-9.17 -2.89 1.92
-9.17 -3.09 1.94
-10.05 -3.61 2.14
-10.04 -3.84 2.15
-11.11 -4.50 2.40
-11.02 -4.73 2.41
-10.92 -4.95 2.41
-10.81 -5.16 2.41
-10.70 -5.37 2.41
-10.58 -5.58 2.41
-10.46 -5.79 2.41
-10.34 -5.99 2.41
-10.21 -6.19 2.41
-10.07 -6.39 2.41
-9.87 -6.54 2.39
-9.73 -6.74 2.39
-9.58 -6.92 2.39
-9.43 -7.11 2.39
-9.28 -7.29 2.39
-9.13 -7.47 2.39
-8.97 -7.64 2.39
-8.80 -7.81 2.39
-8.64 -7.98 2.39
-8.47 -8.15 2.39
-8.30 -8.31 2.39
-8.12 -8.46 2.39
-7.94 -8.62 2.39
-7.76 -8.76 2.39
-7.57 -8.91 2.39
-7.39 -9.05 2.39
-7.20 -9.19 2.39
-7.00 -9.32 2.39
-6.81 -9.45 2.39
-6.61 -9.57 2.39
-6.41 -9.69 2.39
-6.21 -9.81 2.39
-6.00 -9.92 2.39
-5.88 -10.18 2.43
-5.83 -10.57 2.49
-5.61 -10.67 2.49
-5.39 -10.77 2.49
-5.17 -10.86 2.49
-4.94 -10.95 2.49
-4.72 -11.04 2.49
-4.49 -11.12 2.49
-4.26 -11.19 2.49
-4.03 -11.26 2.49
-3.80 -11.33 2.49
-3.57 -11.39 2.49
-3.33 -11.44 2.49
-3.10 -11.50 2.49
-2.87 -11.54 2.49
-2.63 -11.58 2.49
-2.39 -11.62 2.49
-2.16 -11.65 2.49
-1.92 -11.68 2.49
-1.68 -11.70 2.49
-1.45 -11.72 2.49
-1.21 -11.73 2.49
-0.97 -11.74 2.49
-0.74 -11.74 2.49
-0.50 -11.74 2.49
-0.26 -11.74 2.49
-0.03 -10.55 2.49
0.18 -10.54 2.49
0.39 -10.52 2.49
0.60 -10.50 2.49
0.81 -10.48 2.49
1.02 -10.45 2.49
1.23 -10.41 2.49
1.44 -10.38 2.49
1.65 -10.33 2.49
1.85 -10.29 2.49
2.06 -10.24 2.49
2.17 -9.80 2.40
2.36 -9.71 2.39
2.51 -9.52 2.36
2.64 -9.25 2.31
2.85 -9.25 2.32
2.46 -7.44 1.88
3.30 -9.38 2.39
3.49 -9.30 2.39
3.67 -9.22 2.39
3.85 -9.14 2.39
4.03 -9.05 2.39
4.21 -8.96 2.39
4.38 -8.86 2.39
4.56 -8.77 2.39
4.73 -8.67 2.39
4.90 -8.56 2.39
5.07 -8.45 2.39
5.23 -8.34 2.39
5.39 -8.23 2.39
5.55 -8.11 2.39
5.71 -7.99 2.39
5.86 -7.87 2.39
6.02 -7.75 2.39
7.23 -8.93 2.80
7.31 -8.67 2.77
6.11 -6.95 2.26
6.10 -6.67 2.21
9.37 -9.84 3.32
6.10 -6.15 2.12
9.80 -9.50 3.34
10.01 -9.31 3.35
10.21 -9.13 3.36
10.41 -8.93 3.36
10.60 -8.73 3.37
10.79 -8.53 3.38
10.97 -8.32 3.38
11.15 -8.11 3.39
11.33 -7.89 3.40
11.57 -7.72 3.42
6.06 -3.87 1.77
12.12 -7.40 3.50
12.39 -7.23 3.54
12.66 -7.05 3.57
12.93 -6.86 3.61
13.19 -6.66 3.65
13.81 -6.63 3.78
6.04 -2.75 1.64
29.96 -12.93 8.06
6.03 -2.46 1.61
6.05 -2.33 1.60
31.73 -11.47 8.34
6.03 -2.04 1.57
6.02 -1.91 1.56
6.02 -1.77 1.55
6.02 -1.64 1.54
6.03 -1.51 1.54
31.43 -7.23 7.98
31.45 -6.57 7.95
31.44 -5.91 7.92
31.52 -5.27 7.91
31.74 -4.66 7.94
31.92 -4.03 7.96
32.08 -3.39 7.99
32.51 -2.78 8.08
32.95 -2.15 8.17
33.37 -1.50 8.27
34.27 -0.85 8.49
35.39 -0.17 8.76
36.95 0.57 9.15
37.93 1.35 9.39
38.44 2.14 9.52
39.04 2.96 9.68
39.90 3.84 9.91
40.46 4.72 10.07
41.46 5.68 10.34
40.54 6.39 10.14
6.00 1.71 1.54
5.97 1.83 1.54
5.97 1.96 1.55
5.97 2.09 1.56
5.96 2.23 1.57
5.96 2.37 1.58
24.00 13.70 6.78
23.44 14.01 6.69
22.48 14.05 6.49
22.29 14.57 6.52
5.94 4.06 1.76
12.88 9.18 3.87
12.66 9.41 3.85
12.43 9.63 3.84
12.12 9.79 3.80
11.77 9.91 3.75
11.41 10.00 3.69
5.93 5.41 1.95
10.88 10.34 3.65
10.53 10.42 3.60
10.19 10.49 3.55
9.89 10.60 3.52
9.60 10.72 3.49
7.08 8.23 2.63
6.98 8.46 2.65
5.89 7.43 2.29
6.79 8.93 2.71
4.76 6.53 1.95
4.56 6.52 1.92
4.37 6.53 1.89
4.28 6.68 1.91
4.27 6.98 1.97
4.27 7.29 2.03
4.35 7.78 2.14
4.69 8.80 2.39
4.51 8.90 2.39
4.34 9.00 2.39
4.16 9.10 2.39
3.98 9.19 2.39
3.80 9.27 2.39
3.61 9.36 2.39
3.43 9.44 2.39
3.24 9.51 2.39
3.05 9.59 2.39
2.86 9.66 2.39
2.67 9.72 2.39
2.48 9.78 2.39
2.28 9.84 2.39
2.09 9.90 2.39
1.89 9.95 2.39
1.77 10.43 2.49
1.56 10.47 2.49
1.35 10.51 2.49
1.14 10.55 2.49
0.93 10.58 2.49
0.72 10.61 2.49
0.50 10.63 2.49
0.29 10.65 2.49
0.08 10.66 2.49
-0.14 10.67 2.49
-0.35 10.68 2.49
-0.57 10.68 2.49
-0.78 10.68 2.49
-1.00 10.67 2.49
-1.21 10.66 2.49
-1.43 10.65 2.49
-1.64 10.63 2.49
-1.86 10.60 2.49
-2.07 10.58 2.49
-2.28 10.54 2.49
-2.50 10.51 2.49
-2.71 10.47 2.49
-2.92 10.42 2.49
-3.14 10.37 2.49
-3.35 10.31 2.49
-3.56 10.26 2.49
-3.76 10.19 2.49
-3.97 10.12 2.49
-4.18 10.05 2.49
-4.38 9.98 2.49
-4.59 9.90 2.49
-4.79 9.81 2.49
-4.99 9.72 2.49
-5.19 9.63 2.49
-5.38 9.53 2.49
-5.58 9.43 2.49
-5.77 9.32 2.49
-5.96 9.21 2.49
-6.15 9.10 2.49
-6.16 8.74 2.43
-6.25 8.50 2.39
-6.43 8.38 2.39
-6.60 8.25 2.39
-6.24 7.50 2.21
-6.93 7.99 2.39
-7.10 7.86 2.39
-7.26 7.72 2.39
-7.42 7.58 2.39
-7.57 7.43 2.39
-7.72 7.29 2.39
-7.87 7.13 2.39
-8.02 6.98 2.39
-8.16 6.82 2.39
-8.30 6.66 2.39
-8.44 6.50 2.39
-8.57 6.33 2.39
-8.70 6.16 2.39
-8.83 5.99 2.39
-8.95 5.81 2.39
-9.07 5.64 2.39
-9.19 5.46 2.39
-9.30 5.27 2.39
-9.41 5.09 2.39
-9.51 4.90 2.39
-9.61 4.71 2.39
-9.71 4.52 2.39
-9.80 4.33 2.39
-9.89 4.13 2.39
-9.97 3.93 2.39
-10.05 3.73 2.39
-10.12 3.53 2.39
-10.15 3.31 2.38
-10.15 3.09 2.36
-10.14 2.87 2.35
-10.10 2.64 2.33
-10.14 2.43 2.32
-10.13 2.22 2.31
-10.13 2.01 2.30
-10.09 1.79 2.28
-10.09 1.58 2.27
-10.12 1.38 2.27
-10.12 1.17 2.27
-10.11 0.97 2.26
-10.08 0.76 2.25
-10.07 0.56 2.25
-10.10 0.36 2.25
-10.10 0.15 2.25
-10.10 -0.05 2.25
-10.06 -0.25 2.24
-10.06 -0.45 2.24
-10.09 -0.65 2.25
-10.09 -0.86 2.26
-10.08 -1.06 2.26
-10.05 -1.26 2.26
-10.04 -1.47 2.26
-10.07 -1.68 2.28
-10.07 -1.88 2.29
-10.07 -2.09 2.29
-10.03 -2.30 2.30
-10.03 -2.51 2.31
-10.06 -2.73 2.33
-9.55 -2.80 2.22
-9.18 -2.89 2.15
-9.18 -3.09 2.17
-10.05 -3.61 2.39
-9.97 -3.81 2.39
-9.89 -4.01 2.39
-9.80 -4.20 2.39
-9.71 -4.40 2.39
-9.61 -4.59 2.39
-9.51 -4.78 2.39
-9.41 -4.96 2.39
-9.30 -5.15 2.39
-9.19 -5.33 2.39
-9.08 -5.51 2.39
-8.96 -5.69 2.39
-8.84 -5.86 2.39
-8.71 -6.03 2.39
-8.58 -6.20 2.39
-8.45 -6.37 2.39
-8.32 -6.53 2.39
-8.18 -6.69 2.39
-8.04 -6.85 2.39
-7.89 -7.00 2.39
-7.74 -7.15 2.39
-7.59 -7.30 2.39
-7.44 -7.44 2.39
-7.28 -7.58 2.39
-7.12 -7.72 2.39
-6.96 -7.86 2.39
-6.79 -7.99 2.39
-6.63 -8.11 2.39
-6.46 -8.24 2.39
-6.28 -8.36 2.39
-6.12 -8.48 2.39
-5.93 -8.59 2.39
-5.90 -8.91 2.45
-5.81 -9.18 2.49
-5.62 -9.29 2.49
-5.43 -9.39 2.49
-5.24 -9.48 2.49
-5.04 -9.58 2.49
-4.84 -9.67 2.49
-4.64 -9.75 2.49
-4.44 -9.83 2.49
-4.24 -9.91 2.49
-4.03 -9.98 2.49
-3.83 -10.05 2.49
-3.62 -10.12 2.49
-3.42 -10.18 2.49
-3.21 -10.23 2.49
-3.00 -10.28 2.49
-2.79 -10.33 2.49
-2.58 -10.37 2.49
-2.37 -10.41 2.49
-2.16 -10.45 2.49
-1.94 -10.48 2.49
-1.73 -10.50 2.49
-1.52 -10.52 2.49
-1.31 -10.54 2.49
-1.09 -10.55 2.49
-0.88 -10.56 2.49
-0.67 -10.56 2.49
-0.45 -10.56 2.49
-0.24 -10.56 2.49
-0.03 -9.58 2.49
0.16 -9.57 2.49
0.35 -9.56 2.49
0.55 -9.54 2.49
0.74 -9.52 2.49
0.93 -9.49 2.49
1.12 -9.46 2.49
1.31 -9.43 2.49
1.49 -9.39 2.49
1.68 -9.35 2.49
1.87 -9.31 2.49
2.05 -9.26 2.49
2.16 -8.89 2.41
2.32 -8.77 2.39
2.49 -8.72 2.39
2.66 -8.66 2.39
2.45 -7.44 2.07
3.00 -8.53 2.39
3.17 -8.46 2.39
3.34 -8.39 2.39
3.50 -8.31 2.39
3.67 -8.23 2.39
3.83 -8.15 2.39
3.99 -8.07 2.39
4.14 -7.98 2.39
4.30 -7.89 2.39
4.46 -7.79 2.39
4.61 -7.69 2.39
4.76 -7.59 2.39
4.91 -7.49 2.39
5.05 -7.39 2.39
5.20 -7.28 2.39
5.34 -7.17 2.39
5.48 -7.05 2.39
5.61 -6.94 2.39
5.75 -6.82 2.39
5.88 -6.70 2.39
6.01 -6.57 2.39
7.09 -7.45 2.76
7.16 -7.22 2.73
7.22 -7.00 2.70
7.28 -6.78 2.68
8.22 -7.35 2.97
9.34 -8.02 3.32
9.53 -7.85 3.33
9.70 -7.67 3.33
9.86 -7.48 3.34
10.03 -7.29 3.35
10.19 -7.10 3.35
10.34 -6.90 3.36
10.49 -6.70 3.36
10.64 -6.50 3.37
10.78 -6.29 3.37
10.91 -6.07 3.38
11.03 -5.85 3.38
11.16 -5.64 3.38
11.29 -5.42 3.39
11.45 -5.22 3.41
11.64 -5.03 3.44
6.03 -2.46 1.77
12.01 -4.62 3.49
12.19 -4.41 3.52
6.03 -2.05 1.73
12.51 -3.96 3.56
12.66 -3.73 3.58
12.83 -3.50 3.61
13.00 -3.27 3.64
13.16 -3.03 3.67
13.31 -2.78 3.69
14.59 -2.74 4.03
27.47 -4.60 7.56
27.74 -4.07 7.61
6.02 -0.76 1.65
28.33 -3.00 7.74
6.00 -0.51 1.64
29.10 -1.90 7.92
6.01 -0.27 1.63
30.05 -0.75 8.16
30.65 -0.14 8.32
31.25 0.48 8.48
32.07 1.14 8.71
33.02 1.84 8.98
34.12 2.59 9.29
36.01 3.47 9.82
37.64 4.39 10.28
39.04 5.35 10.69
40.35 6.36 11.08
41.36 7.38 11.39
5.99 1.19 1.65
15.20 3.35 4.22
5.98 1.44 1.66
13.75 3.61 3.85
13.25 3.77 3.73
13.08 4.01 3.70
12.91 4.24 3.67
12.74 4.47 3.65
12.58 4.70 3.63
12.41 4.92 3.61
12.22 5.14 3.58
12.03 5.35 3.55
5.97 2.80 1.78
11.61 5.73 3.49
11.39 5.91 3.46
11.17 6.08 3.43
5.98 3.41 1.85
10.91 6.52 3.42
10.80 6.76 3.43
10.69 6.99 3.43
10.57 7.22 3.44
10.44 7.45 3.44
10.31 7.67 3.45
10.13 7.85 3.44
9.94 8.04 3.42
5.93 4.99 2.08
9.56 8.38 3.40
5.93 5.41 2.15
5.94 5.65 2.19
7.06 6.98 2.65
5.91 6.09 2.26
6.89 7.39 2.69
6.80 7.59 2.71
5.86 6.81 2.39
5.72 6.93 2.39
5.59 7.05 2.39
5.45 7.17 2.39
5.31 7.28 2.39
5.16 7.39 2.39
4.52 6.76 2.15
4.36 6.81 2.14
4.72 7.71 2.39
4.53 7.74 2.37
4.35 7.79 2.35
4.26 8.00 2.39
4.10 8.10 2.39
3.94 8.18 2.39
3.78 8.27 2.39
3.61 8.35 2.39
3.45 8.43 2.39
3.28 8.50 2.39
3.11 8.58 2.39
2.94 8.65 2.39
2.77 8.71 2.39
2.60 8.77 2.39
2.43 8.83 2.39
2.25 8.89 2.39
2.08 8.95 2.39
1.89 8.99 2.39
1.79 9.42 2.49
1.60 9.47 2.49
1.41 9.51 2.49
1.22 9.54 2.49
1.03 9.57 2.49
0.84 9.60 2.49
0.65 9.63 2.49
0.45 9.65 2.49
0.26 9.66 2.49
0.07 9.68 2.49
-0.13 9.68 2.49
-0.32 9.69 2.49
-0.52 9.69 2.49
-0.71 9.69 2.49
-0.91 9.68 2.49
-1.10 9.67 2.49
-1.30 9.66 2.49
-1.49 9.64 2.49
-1.69 9.61 2.49
-1.88 9.59 2.49
-2.07 9.56 2.49
-2.27 9.52 2.49
-2.46 9.48 2.49
-2.65 9.44 2.49
-2.84 9.40 2.49
-3.03 9.34 2.49
-3.22 9.29 2.49
-3.41 9.23 2.49
-3.60 9.17 2.49
-3.79 9.10 2.49
-3.97 9.03 2.49
-4.16 8.96 2.49
-4.34 8.88 2.49
-4.52 8.80 2.49
-4.70 8.72 2.49
-4.88 8.63 2.49
-5.05 8.54 2.49
-5.23 8.44 2.49
-5.40 8.34 2.49
-5.57 8.24 2.49
-5.74 8.13 2.49
-5.90 8.02 2.49
-6.07 7.90 2.49
-6.14 7.68 2.46
-6.15 7.38 2.40
-6.27 7.23 2.39
-6.42 7.11 2.39
-6.57 6.98 2.39
-6.71 6.85 2.39
-6.85 6.72 2.39
-6.99 6.59 2.39
-7.12 6.45 2.39
-7.25 6.31 2.39
-7.38 6.17 2.39
-7.51 6.02 2.39
-7.63 5.87 2.39
-7.75 5.72 2.39
-7.87 5.57 2.39
-7.98 5.41 2.39
-8.09 5.25 2.39
-8.20 5.09 2.39
-8.31 4.93 2.39
-8.41 4.77 2.39
-8.50 4.60 2.39
-8.60 4.43 2.39
-8.69 4.26 2.39
-8.77 4.08 2.39
