ply
format ascii 1.0
element vertex 2867
property float32 x
property float32 y
property float32 z
end_header
-12.87 -32.08 2.31
-12.22 -32.34 2.31
-11.57 -32.58 2.31
-10.92 -32.81 2.31
-10.26 -33.03 2.31
-9.59 -33.23 2.31
-9.17 -34.33 2.38
-8.52 -34.69 2.39
-7.83 -34.86 2.39
-7.12 -35.00 2.39
-6.42 -35.13 2.39
-5.71 -35.24 2.39
-5.19 -36.68 2.48
-4.48 -36.96 2.49
-3.73 -37.03 2.49
-2.99 -37.08 2.49
-2.24 -37.12 2.49
-1.50 -37.14 2.49
-0.75 -37.14 2.49
-0.00 -27.77 2.49
0.55 -27.75 2.49
1.11 -27.72 2.49
1.66 -27.68 2.49
2.22 -27.63 2.49
2.68 -26.71 2.42
3.02 -25.01 2.27
3.60 -25.51 2.32
4.23 -26.17 2.39
4.75 -26.07 2.39
5.27 -25.95 2.39
5.79 -25.82 2.39
6.30 -25.68 2.39
7.37 -27.64 2.59
8.01 -27.78 2.62
10.02 -32.31 3.07
10.85 -32.66 3.12
6.51 -18.35 1.77
12.49 -33.10 3.21
6.48 -16.17 1.58
14.35 -33.84 3.35
15.68 -35.00 3.49
38.08 30.61 4.95
36.45 30.53 4.82
34.91 30.45 4.70
33.45 30.38 4.59
32.06 30.32 4.48
30.73 30.25 4.38
29.46 30.19 4.29
28.25 30.14 4.20
27.08 30.08 4.12
25.85 29.89 4.02
24.77 29.84 3.95
23.73 29.79 3.88
22.74 29.75 3.82
21.80 29.73 3.76
20.88 29.72 3.71
19.99 29.70 3.66
19.12 29.69 3.61
18.28 29.67 3.56
17.46 29.66 3.52
16.66 29.64 3.48
15.88 29.63 3.44
15.11 29.62 3.40
14.36 29.60 3.37
13.63 29.59 3.33
12.91 29.58 3.30
12.20 29.56 3.27
11.51 29.55 3.25
10.83 29.54 3.22
10.16 29.53 3.20
8.96 27.87 3.00
8.16 27.23 2.91
6.68 24.05 2.56
5.80 22.62 2.39
5.34 22.73 2.39
4.89 22.84 2.39
4.43 22.93 2.39
2.26 13.13 1.36
3.50 23.10 2.39
3.04 23.17 2.39
2.50 22.60 2.33
2.11 23.28 2.39
1.71 24.33 2.49
1.22 24.37 2.49
0.73 24.40 2.49
0.24 24.41 2.49
-0.25 24.42 2.49
-0.74 24.42 2.49
-1.23 24.41 2.49
-1.72 24.39 2.49
-2.21 24.36 2.49
-2.70 24.33 2.49
-3.19 24.28 2.49
-3.68 24.22 2.49
-4.17 24.16 2.49
-4.66 24.08 2.49
-5.14 24.00 2.49
-5.63 23.90 2.49
-6.11 23.80 2.49
-6.32 22.71 2.39
-6.78 22.59 2.39
-7.23 22.47 2.39
-7.69 22.33 2.39
-8.14 22.19 2.39
-8.59 22.04 2.39
-9.04 21.88 2.39
-8.84 20.24 2.23
-9.27 20.11 2.23
-8.80 18.13 2.03
-9.12 17.85 2.02
-11.01 20.52 2.34
-10.02 17.82 2.06
-10.01 16.99 1.98
-9.99 16.21 1.91
-9.98 15.49 1.85
-9.97 14.80 1.79
-9.96 14.17 1.73
-9.95 13.56 1.68
-9.94 12.99 1.63
-9.93 12.45 1.59
-9.92 11.94 1.55
-9.91 11.46 1.51
-9.90 10.99 1.47
-9.89 10.55 1.44
-9.89 10.13 1.40
-9.88 9.72 1.37
-9.87 9.33 1.34
-9.87 8.96 1.32
-9.86 8.60 1.29
-9.85 8.25 1.27
-9.85 7.91 1.24
-9.59 7.40 1.19
-9.98 7.38 1.22
-10.39 7.37 1.25
-10.83 7.35 1.28
-11.29 7.34 1.32
-11.77 7.32 1.36
-12.29 7.31 1.40
-12.84 7.29 1.44
-13.44 7.28 1.49
-14.08 7.26 1.54
-14.78 7.25 1.60
-15.54 7.24 1.66
-16.35 7.22 1.73
-17.25 7.21 1.81
-18.22 7.19 1.89
-19.30 7.17 1.99
-20.50 7.15 2.09
-21.83 7.13 2.21
-22.34 6.80 2.24
-22.50 6.36 2.24
-20.43 5.33 2.02
-20.42 4.90 2.01
-20.41 4.46 2.00
-20.41 4.03 1.99
-20.40 3.61 1.97
-20.39 3.19 1.96
-20.38 2.77 1.96
-20.38 2.35 1.95
-20.37 1.94 1.94
-20.30 1.52 1.93
-20.25 1.11 1.92
-20.24 0.70 1.91
-20.23 0.29 1.91
-20.29 -0.11 1.91
-20.32 -0.52 1.91
-20.32 -0.93 1.91
-20.31 -1.34 1.91
-20.30 -1.75 1.91
-20.30 -2.16 1.91
-20.29 -2.57 1.91
-20.28 -2.98 1.91
-20.27 -3.40 1.92
-20.27 -3.82 1.92
-23.61 -4.94 2.24
-23.54 -5.42 2.24
-23.45 -5.90 2.24
-21.40 -5.84 2.06
-19.85 -5.85 1.92
-18.28 -5.79 1.77
-17.09 -5.79 1.67
-15.99 -5.78 1.57
-15.00 -5.76 1.48
-14.04 -5.72 1.40
-13.22 -5.70 1.32
-12.57 -5.72 1.27
-11.90 -5.71 1.21
-11.17 -5.63 1.15
-10.61 -5.62 1.10
-10.28 -5.71 1.08
-10.17 -5.92 1.08
-10.06 -6.13 1.08
-9.94 -6.34 1.08
-9.82 -6.54 1.08
-9.74 -6.77 1.08
-5.91 -4.29 0.66
-9.72 -7.36 1.11
-9.72 -7.67 1.12
-9.71 -7.98 1.14
-9.71 -8.31 1.16
-9.76 -8.70 1.18
-9.75 -9.05 1.20
-9.71 -9.38 1.22
-9.74 -9.79 1.25
-9.70 -10.15 1.27
-9.73 -10.60 1.30
-9.72 -11.03 1.33
-9.71 -11.47 1.36
-9.70 -11.94 1.39
-9.69 -12.43 1.42
-9.68 -12.95 1.46
-9.67 -13.49 1.49
-9.63 -14.02 1.53
-9.65 -14.67 1.58
-9.20 -14.61 1.55
-8.79 -14.60 1.53
-12.37 -21.51 2.23
-12.42 -22.65 2.32
-12.09 -23.12 2.34
-11.72 -23.56 2.36
-11.32 -23.94 2.37
-10.91 -24.33 2.39
-10.49 -24.71 2.41
-10.00 -24.93 2.41
-9.50 -25.13 2.41
-8.93 -25.15 2.39
-8.43 -25.33 2.39
-7.92 -25.49 2.39
-7.40 -25.65 2.39
-6.89 -25.79 2.39
-6.37 -25.92 2.39
-5.85 -26.04 2.39
-5.38 -26.43 2.42
-5.00 -27.38 2.49
-4.45 -27.47 2.49
-3.90 -27.55 2.49
-3.35 -27.62 2.49
-2.79 -27.67 2.49
-2.23 -27.72 2.49
-1.68 -27.75 2.49
-1.12 -27.76 2.49
-0.56 -27.77 2.49
-0.00 -22.16 2.49
0.44 -22.14 2.49
0.88 -22.12 2.49
1.33 -22.09 2.49
1.77 -22.05 2.49
2.21 -22.00 2.49
2.59 -21.42 2.43
2.96 -20.97 2.39
3.38 -20.90 2.39
3.80 -20.82 2.39
4.21 -20.73 2.39
4.62 -20.63 2.39
5.03 -20.52 2.39
5.44 -20.40 2.39
5.84 -20.28 2.39
6.25 -20.14 2.39
7.97 -24.00 2.87
6.51 -18.35 2.21
9.76 -25.86 3.14
10.53 -26.28 3.22
11.23 -26.49 3.27
11.95 -26.69 3.33
12.75 -27.00 3.40
13.54 -27.25 3.47
6.40 -12.26 1.58
15.93 -29.06 3.79
18.78 -32.69 4.31
34.16 33.62 5.96
29.99 30.73 5.35
28.66 30.58 5.22
27.45 30.49 5.11
26.31 30.43 5.01
25.21 30.37 4.92
24.16 30.32 4.84
23.14 30.27 4.75
22.15 30.22 4.68
21.20 30.17 4.61
20.28 30.13 4.54
19.38 30.09 4.47
18.52 30.05 4.41
17.67 30.01 4.35
16.85 29.97 4.30
16.04 29.94 4.25
5.97 11.70 1.64
14.50 29.87 4.16
13.75 29.84 4.11
5.95 13.62 1.86
12.24 29.65 4.02
11.54 29.62 3.98
10.85 29.59 3.95
5.88 17.11 2.27
5.85 18.18 2.39
5.48 18.29 2.39
5.11 18.40 2.39
4.74 18.50 2.39
4.37 18.59 2.39
4.00 18.68 2.39
3.62 18.76 2.39
2.26 13.13 1.67
2.81 18.54 2.35
2.36 17.98 2.27
2.10 19.00 2.39
1.80 19.86 2.49
1.40 19.89 2.49
1.00 19.92 2.49
0.60 19.94 2.49
0.20 19.96 2.49
-0.20 19.96 2.49
-0.61 19.96 2.49
-1.01 19.95 2.49
-1.41 19.93 2.49
-1.81 19.91 2.49
-2.21 19.88 2.49
-2.61 19.84 2.49
-3.01 19.79 2.49
-3.41 19.73 2.49
-3.80 19.67 2.49
-4.20 19.60 2.49
-4.60 19.52 2.49
-4.99 19.43 2.49
-5.38 19.34 2.49
-5.77 19.24 2.49
-6.16 19.13 2.49
-6.28 18.23 2.39
-6.65 18.11 2.39
-7.01 17.98 2.39
-7.38 17.85 2.39
-7.74 17.71 2.39
-8.10 17.56 2.39
-8.46 17.41 2.39
-8.81 17.25 2.39
-9.16 17.08 2.39
-9.51 16.90 2.39
-9.85 16.72 2.39
-9.99 16.21 2.34
-9.98 15.48 2.27
-9.97 14.80 2.19
-9.96 14.16 2.13
-9.95 13.56 2.06
-9.94 12.99 2.01
-9.93 12.45 1.95
-9.92 11.94 1.90
-9.91 11.45 1.85
-9.90 10.99 1.81
-9.89 10.55 1.77
-9.89 10.12 1.73
-9.88 9.72 1.69
-9.87 9.33 1.65
-9.87 8.95 1.62
-9.86 8.59 1.59
-9.85 8.25 1.56
-9.85 7.91 1.53
-9.59 7.40 1.47
-9.99 7.38 1.50
-10.40 7.37 1.54
-10.83 7.35 1.58
-11.29 7.34 1.62
-11.78 7.32 1.67
-12.29 7.31 1.72
-12.84 7.29 1.78
-13.44 7.28 1.84
-14.09 7.26 1.90
-14.79 7.25 1.97
-15.54 7.24 2.05
-16.36 7.22 2.14
-17.25 7.21 2.23
-17.48 6.89 2.24
-17.64 6.55 2.24
-17.78 6.20 2.24
-17.92 5.85 2.24
-18.06 5.49 2.24
-18.18 5.14 2.24
-18.30 4.77 2.24
-18.41 4.41 2.24
-18.52 4.05 2.24
-18.62 3.68 2.24
-18.71 3.31 2.24
-18.79 2.93 2.24
-18.87 2.56 2.24
-18.93 2.18 2.24
-18.68 1.77 2.21
-18.56 1.39 2.19
-18.61 1.01 2.19
-18.65 0.64 2.19
-18.65 0.27 2.18
-18.64 -0.11 2.18
-18.64 -0.48 2.18
-19.20 -0.88 2.24
-19.20 -1.27 2.24
-19.19 -1.65 2.24
-19.17 -2.04 2.24
-19.15 -2.43 2.24
-19.12 -2.82 2.24
-19.08 -3.20 2.24
-19.03 -3.59 2.24
-18.97 -3.97 2.24
-18.90 -4.36 2.24
-18.83 -4.74 2.24
-18.75 -5.12 2.24
-18.66 -5.50 2.24
-18.27 -5.79 2.21
-17.09 -5.79 2.08
-15.99 -5.78 1.96
-14.99 -5.76 1.85
-14.04 -5.72 1.74
-13.21 -5.70 1.65
-12.56 -5.72 1.58
-11.90 -5.71 1.51
-11.22 -5.66 1.44
-10.73 -5.69 1.39
-10.15 -5.64 1.33
-9.74 -5.68 1.29
-9.81 -5.98 1.31
-9.77 -6.23 1.32
-9.80 -6.53 1.34
-9.79 -6.81 1.36
-5.91 -4.29 0.83
-9.75 -7.38 1.39
-9.78 -7.71 1.41
-9.74 -8.00 1.43
-9.73 -8.33 1.45
-9.76 -8.70 1.48
-9.75 -9.05 1.51
-9.71 -9.39 1.53
-9.74 -9.80 1.56
-9.70 -10.16 1.59
-9.73 -10.60 1.63
-9.72 -11.03 1.66
-9.71 -11.47 1.70
-9.70 -11.94 1.74
-9.69 -12.43 1.78
-9.68 -12.95 1.82
-9.67 -13.49 1.87
-9.63 -14.02 1.92
-9.65 -14.67 1.98
-9.21 -14.63 1.95
-8.80 -14.62 1.92
-10.64 -18.51 2.40
-10.29 -18.76 2.41
-9.92 -18.97 2.41
-9.47 -19.04 2.39
-9.09 -19.23 2.39
-8.70 -19.41 2.39
-8.31 -19.59 2.39
-7.92 -19.75 2.39
-7.52 -19.91 2.39
-7.12 -20.06 2.39
-6.72 -20.20 2.39
-6.31 -20.33 2.39
-5.90 -20.45 2.39
-5.49 -20.57 2.39
-5.30 -21.56 2.49
-4.86 -21.66 2.49
-4.43 -21.76 2.49
-3.99 -21.84 2.49
-3.55 -21.91 2.49
-3.11 -21.97 2.49
-2.67 -22.03 2.49
-2.23 -22.07 2.49
-1.78 -22.11 2.49
-1.34 -22.13 2.49
-0.89 -22.15 2.49
-0.45 -22.16 2.49
-0.00 -18.42 2.49
0.36 -18.41 2.49
0.73 -18.39 2.49
1.10 -18.37 2.49
1.47 -18.34 2.49
1.84 -18.30 2.49
2.20 -18.25 2.49
2.52 -17.87 2.45
2.81 -17.38 2.39
3.16 -17.31 2.39
3.50 -17.24 2.39
3.84 -17.16 2.39
4.19 -17.07 2.39
4.52 -16.97 2.39
4.86 -16.87 2.39
5.20 -16.76 2.39
5.53 -16.65 2.39
5.86 -16.52 2.39
6.19 -16.39 2.39
6.50 -16.24 2.39
6.46 -15.24 2.26
9.97 -22.26 3.33
10.46 -22.17 3.35
10.96 -22.06 3.37
6.40 -12.26 1.89
11.99 -21.89 3.42
12.73 -22.16 3.51
13.47 -22.40 3.59
14.57 -23.17 3.76
15.88 -24.15 3.97
6.35 -9.25 1.54
34.16 33.62 7.06
33.91 34.74 7.16
30.21 33.55 6.66
29.00 33.53 6.54
28.83 34.73 6.66
24.53 33.45 6.13
6.03 8.58 1.55
6.04 9.37 1.65
6.01 9.75 1.69
6.02 10.23 1.76
6.01 10.69 1.81
16.23 30.28 5.09
5.97 11.70 1.95
5.98 12.31 2.03
13.90 30.17 4.92
5.95 13.62 2.20
12.43 30.10 4.82
5.86 15.04 2.39
5.56 15.16 2.39
5.25 15.26 2.39
4.94 15.37 2.39
4.63 15.46 2.39
4.32 15.55 2.39
4.01 15.64 2.39
3.69 15.71 2.39
3.38 15.79 2.39
2.99 15.48 2.34
2.26 13.13 1.97
2.34 15.47 2.32
2.11 16.06 2.40
1.85 16.75 2.49
1.52 16.78 2.49
1.18 16.81 2.49
0.84 16.84 2.49
0.50 16.85 2.49
0.17 16.86 2.49
-0.17 16.87 2.49
-0.51 16.86 2.49
-0.85 16.86 2.49
-1.19 16.84 2.49
-1.53 16.82 2.49
-1.87 16.79 2.49
-2.20 16.75 2.49
-2.54 16.71 2.49
-2.88 16.66 2.49
-3.21 16.61 2.49
-3.55 16.55 2.49
-3.88 16.48 2.49
-4.21 16.41 2.49
-4.54 16.33 2.49
-4.87 16.24 2.49
-5.20 16.15 2.49
-5.53 16.05 2.49
-5.85 15.94 2.49
-6.13 15.70 2.48
-6.23 15.06 2.39
-6.53 14.94 2.39
-6.83 14.81 2.39
-7.13 14.68 2.39
-7.43 14.55 2.39
-7.73 14.40 2.39
-8.02 14.25 2.39
-8.31 14.10 2.39
-8.60 13.94 2.39
-8.88 13.77 2.39
-9.16 13.60 2.39
-9.44 13.42 2.39
-9.71 13.24 2.39
-9.99 13.05 2.39
-9.93 12.45 2.32
-9.92 11.94 2.26
-9.91 11.45 2.20
-9.90 10.99 2.15
-9.89 10.54 2.10
-9.89 10.12 2.05
-9.88 9.72 2.01
-9.87 9.33 1.96
-9.87 8.95 1.93
-9.86 8.59 1.89
-9.85 8.24 1.85
-9.85 7.91 1.82
-9.60 7.40 1.75
-9.99 7.38 1.79
-10.40 7.37 1.83
-10.83 7.35 1.88
-11.29 7.34 1.93
-11.78 7.32 1.99
-12.30 7.31 2.05
-12.84 7.29 2.11
-13.45 7.28 2.19
-14.09 7.26 2.27
-14.79 7.25 2.35
-15.06 7.01 2.37
-15.15 6.69 2.36
-15.24 6.36 2.35
-15.29 6.03 2.34
-15.29 5.67 2.32
-15.28 5.32 2.30
-15.26 4.98 2.28
-15.24 4.63 2.26
-15.24 4.30 2.24
-15.34 4.00 2.24
-15.43 3.69 2.24
-15.52 3.39 2.24
-15.60 3.08 2.24
-15.67 2.77 2.24
-15.74 2.45 2.24
-15.80 2.14 2.24
-14.97 1.72 2.12
-15.01 1.42 2.12
-15.04 1.12 2.12
-15.07 0.82 2.12
-15.10 0.52 2.12
-15.12 0.21 2.12
-15.13 -0.09 2.12
-16.05 -0.42 2.24
-16.05 -0.74 2.24
-16.05 -1.06 2.24
-16.04 -1.39 2.24
-16.02 -1.71 2.24
-16.00 -2.03 2.24
-15.97 -2.35 2.24
-15.93 -2.68 2.24
-15.89 -3.00 2.24
-15.84 -3.32 2.24
-15.78 -3.64 2.24
-15.72 -3.96 2.24
-15.65 -4.28 2.24
-15.57 -4.59 2.24
-15.49 -4.91 2.24
-15.40 -5.22 2.24
-15.30 -5.53 2.24
-14.99 -5.76 2.21
-14.04 -5.73 2.09
-13.21 -5.70 1.98
-12.56 -5.72 1.90
-11.90 -5.71 1.81
-11.22 -5.66 1.72
-10.73 -5.69 1.67
-10.15 -5.64 1.59
-9.74 -5.68 1.54
-9.81 -5.98 1.57
-9.77 -6.23 1.59
-9.80 -6.53 1.61
-9.79 -6.81 1.63
-5.91 -4.29 1.00
-9.75 -7.38 1.67
-9.78 -7.71 1.70
-9.74 -8.01 1.72
-9.73 -8.33 1.75
-9.76 -8.70 1.78
-9.75 -9.05 1.81
-9.71 -9.39 1.84
-9.74 -9.80 1.88
-9.70 -10.16 1.91
-9.73 -10.60 1.95
-9.72 -11.03 2.00
-9.71 -11.48 2.04
-9.70 -11.94 2.09
-9.69 -12.44 2.14
-9.68 -12.95 2.19
-9.67 -13.49 2.25
-9.63 -14.02 2.31
-9.65 -14.67 2.38
-9.20 -14.61 2.34
-8.81 -14.64 2.31
-8.80 -15.31 2.39
-8.50 -15.49 2.39
-8.19 -15.66 2.39
-7.87 -15.82 2.39
-7.55 -15.98 2.39
-7.23 -16.13 2.39
-6.91 -16.28 2.39
-6.58 -16.41 2.39
-6.25 -16.54 2.39
-5.92 -16.67 2.39
-5.58 -16.78 2.39
-5.47 -17.62 2.49
-5.12 -17.73 2.49
-4.76 -17.83 2.49
-4.40 -17.92 2.49
-4.04 -18.00 2.49
-3.68 -18.08 2.49
-3.32 -18.15 2.49
-2.95 -18.21 2.49
-2.59 -18.26 2.49
-2.22 -18.31 2.49
-1.85 -18.34 2.49
-1.48 -18.37 2.49
-1.11 -18.40 2.49
-0.74 -18.41 2.49
-0.37 -18.42 2.49
-0.00 -15.74 2.49
0.31 -15.74 2.49
0.63 -15.72 2.49
0.94 -15.70 2.49
1.26 -15.68 2.49
1.57 -15.64 2.49
1.88 -15.60 2.49
2.19 -15.56 2.49
2.48 -15.32 2.47
2.70 -14.81 2.39
2.84 -13.99 2.27
3.23 -14.44 2.35
3.40 -13.88 2.27
3.87 -14.52 2.39
4.16 -14.43 2.39
4.44 -14.34 2.39
4.73 -14.24 2.39
5.01 -14.14 2.39
5.29 -14.03 2.39
5.57 -13.91 2.39
5.84 -13.79 2.39
6.12 -13.66 2.39
6.39 -13.53 2.39
7.44 -14.99 2.68
6.40 -12.26 2.21
9.86 -18.00 3.29
10.30 -17.94 3.31
10.74 -17.86 3.34
11.17 -17.77 3.37
11.61 -17.67 3.39
12.17 -17.73 3.45
6.35 -8.86 1.75
13.56 -18.15 3.64
15.56 -19.98 4.08
6.32 -7.47 1.58
6.31 -7.17 1.54
34.17 33.62 8.17
33.91 34.74 8.28
6.06 6.73 1.55
6.06 7.00 1.58
28.83 34.72 7.70
6.08 7.62 1.66
6.04 8.24 1.75
23.69 33.71 7.04
6.01 9.75 1.96
19.65 33.36 6.62
18.75 33.35 6.55
18.41 34.35 6.67
5.97 11.70 2.25
5.85 12.69 2.39
5.59 12.80 2.39
5.33 12.91 2.39
5.07 13.01 2.39
4.81 13.11 2.39
4.54 13.21 2.39
4.28 13.29 2.39
4.01 13.38 2.39
3.74 13.45 2.39
3.47 13.53 2.39
3.19 13.59 2.39
2.92 13.66 2.39
2.65 13.71 2.39
2.26 13.13 2.28
2.09 13.81 2.39
1.89 14.45 2.49
1.60 14.49 2.49
1.31 14.52 2.49
1.02 14.54 2.49
0.73 14.56 2.49
0.44 14.58 2.49
0.14 14.59 2.49
-0.15 14.59 2.49
-0.44 14.59 2.49
-0.74 14.58 2.49
-1.03 14.56 2.49
-1.32 14.54 2.49
-1.62 14.52 2.49
-1.91 14.49 2.49
-2.20 14.45 2.49
-2.49 14.41 2.49
-2.78 14.36 2.49
-3.07 14.31 2.49
-3.36 14.25 2.49
-3.64 14.18 2.49
-3.93 14.11 2.49
-4.21 14.04 2.49
-4.50 13.96 2.49
-4.78 13.87 2.49
-5.06 13.78 2.49
-5.34 13.68 2.49
-5.61 13.57 2.49
-5.89 13.47 2.49
-6.08 13.18 2.46
-6.16 12.68 2.39
-6.42 12.56 2.39
-6.68 12.44 2.39
-6.93 12.31 2.39
-7.18 12.17 2.39
-7.43 12.03 2.39
-7.67 11.89 2.39
-7.91 11.74 2.39
-8.15 11.59 2.39
-8.39 11.43 2.39
-8.62 11.26 2.39
-8.85 11.09 2.39
-9.08 10.92 2.39
-9.30 10.74 2.39
-9.52 10.56 2.39
-9.74 10.38 2.39
-9.89 10.12 2.38
-9.88 9.71 2.33
-9.87 9.32 2.28
-9.87 8.95 2.23
-9.86 8.59 2.19
-9.85 8.24 2.15
-9.85 7.91 2.11
-9.60 7.40 2.03
-9.99 7.38 2.07
-10.40 7.37 2.13
-10.84 7.35 2.18
-11.30 7.34 2.24
-11.78 7.32 2.31
-10.77 6.40 2.08
-10.77 6.11 2.06
-10.76 5.82 2.03
-10.76 5.54 2.01
-11.13 5.45 2.06
-13.00 6.05 2.38
-13.12 5.79 2.37
-13.22 5.52 2.37
-13.32 5.25 2.37
-13.42 4.98 2.36
-13.51 4.71 2.36
-11.12 3.63 1.93
-13.67 4.15 2.35
-13.73 3.87 2.35
-13.77 3.59 2.34
-13.72 3.28 2.32
-13.66 2.98 2.30
-13.60 2.68 2.28
-13.54 2.39 2.26
-13.59 2.12 2.25
-13.19 1.78 2.18
-13.22 1.52 2.18
-13.25 1.25 2.18
-13.27 0.99 2.17
-13.29 0.72 2.17
-13.31 0.45 2.17
-13.32 0.19 2.17
-13.33 -0.08 2.17
-13.78 -0.36 2.24
-13.78 -0.64 2.24
-13.78 -0.91 2.24
-13.76 -1.19 2.24
-13.75 -1.47 2.24
-13.73 -1.74 2.24
-13.70 -2.02 2.24
-13.67 -2.30 2.24
-13.65 -2.58 2.25
-13.66 -2.86 2.26
-13.66 -3.15 2.26
-13.65 -3.44 2.27
-13.64 -3.73 2.28
-13.59 -4.01 2.28
-13.52 -4.29 2.29
-13.45 -4.56 2.29
-13.38 -4.84 2.29
-13.30 -5.12 2.29
-13.22 -5.39 2.29
-13.13 -5.67 2.30
-12.56 -5.72 2.21
-11.89 -5.71 2.12
-11.21 -5.66 2.01
-10.72 -5.69 1.94
-10.14 -5.64 1.86
-9.74 -5.68 1.80
-9.81 -5.98 1.84
-9.77 -6.23 1.85
-9.80 -6.53 1.88
-9.79 -6.81 1.91
-5.91 -4.29 1.16
-9.75 -7.38 1.95
-9.78 -7.72 1.99
-9.74 -8.01 2.01
-9.73 -8.33 2.04
-9.76 -8.70 2.08
-9.75 -9.05 2.12
-9.71 -9.39 2.15
-9.74 -9.80 2.20
-9.70 -10.16 2.23
-9.73 -10.60 2.29
-9.72 -11.03 2.34
-9.71 -11.48 2.39
-9.50 -11.70 2.39
-9.27 -11.89 2.39
-9.03 -12.07 2.39
-8.79 -12.26 2.39
-8.54 -12.43 2.39
-8.29 -12.61 2.39
-8.04 -12.77 2.39
-7.78 -12.93 2.39
-7.52 -13.09 2.39
-7.26 -13.24 2.39
-7.00 -13.39 2.39
-6.73 -13.53 2.39
-6.46 -13.66 2.39
-6.18 -13.79 2.39
-5.90 -13.91 2.39
-5.62 -14.03 2.39
-5.57 -14.75 2.49
-5.28 -14.86 2.49
-4.98 -14.96 2.49
-4.68 -15.06 2.49
-4.37 -15.15 2.49
-4.07 -15.23 2.49
-3.76 -15.31 2.49
-3.45 -15.38 2.49
-3.15 -15.45 2.49
-2.83 -15.51 2.49
-2.52 -15.56 2.49
-2.21 -15.61 2.49
-1.90 -15.65 2.49
-1.58 -15.68 2.49
-1.27 -15.70 2.49
-0.95 -15.72 2.49
-0.64 -15.74 2.49
-0.32 -15.74 2.49
-0.00 -13.73 2.49
0.27 -13.73 2.49
0.55 -13.72 2.49
0.82 -13.70 2.49
1.09 -13.68 2.49
1.37 -13.65 2.49
1.64 -13.62 2.49
1.91 -13.58 2.49
2.18 -13.53 2.49
2.44 -13.40 2.48
2.62 -12.93 2.40
2.78 -12.42 2.32
3.07 -12.54 2.35
3.32 -12.47 2.35
3.44 -11.96 2.27
3.88 -12.52 2.39
4.13 -12.43 2.39
4.37 -12.34 2.39
4.62 -12.25 2.39
4.86 -12.15 2.39
5.10 -12.04 2.39
5.34 -11.93 2.39
5.58 -11.82 2.39
5.81 -11.70 2.39
6.04 -11.57 2.39
6.27 -11.44 2.39
7.31 -12.74 2.69
6.38 -10.61 2.27
6.37 -10.13 2.20
8.50 -12.94 2.84
9.94 -14.49 3.23
10.39 -14.52 3.28
10.81 -14.48 3.33
11.19 -14.38 3.35
11.57 -14.26 3.38
12.07 -14.29 3.45
12.68 -14.41 3.54
13.29 -14.50 3.63
15.32 -16.06 4.10
6.29 -6.34 1.65
6.30 -6.09 1.62
6.28 -5.61 1.56
6.31 -5.41 1.54
6.10 5.11 1.54
6.09 5.31 1.56
6.09 5.53 1.59
6.08 5.75 1.62
6.08 5.98 1.65
33.91 34.73 9.41
30.22 33.55 8.75
6.06 7.01 1.80
28.83 34.71 8.75
6.08 7.62 1.89
24.53 33.45 8.05
23.69 33.70 8.00
6.01 9.75 2.22
19.65 33.36 7.52
6.03 10.73 2.39
5.81 10.84 2.39
5.59 10.96 2.39
5.37 11.07 2.39
5.15 11.17 2.39
4.92 11.27 2.39
4.69 11.37 2.39
4.46 11.46 2.39
4.23 11.54 2.39
4.00 11.63 2.39
3.76 11.70 2.39
3.53 11.78 2.39
3.29 11.85 2.39
2.90 11.30 2.27
2.67 11.36 2.27
2.44 11.41 2.27
2.33 12.07 2.39
2.09 12.12 2.39
1.92 12.68 2.49
1.67 12.72 2.49
1.41 12.75 2.49
1.15 12.78 2.49
0.90 12.80 2.49
0.64 12.82 2.49
0.38 12.83 2.49
0.12 12.84 2.49
-0.13 12.84 2.49
-0.39 12.84 2.49
-0.65 12.83 2.49
-0.91 12.82 2.49
-1.17 12.80 2.49
-1.42 12.78 2.49
-1.68 12.75 2.49
-1.94 12.72 2.49
-2.19 12.68 2.49
-2.45 12.64 2.49
-2.70 12.59 2.49
-2.95 12.54 2.49
-3.21 12.48 2.49
-3.46 12.42 2.49
-3.71 12.35 2.49
-3.96 12.28 2.49
-4.20 12.20 2.49
-4.45 12.12 2.49
-4.70 12.03 2.49
-4.94 11.94 2.49
-5.18 11.84 2.49
-5.42 11.74 2.49
-5.66 11.63 2.49
-5.89 11.52 2.49
-6.05 11.26 2.46
-6.09 10.82 2.39
-6.31 10.70 2.39
-6.53 10.58 2.39
-6.74 10.45 2.39
-6.96 10.32 2.39
-7.17 10.18 2.39
-7.37 10.04 2.39
-7.58 9.90 2.39
-7.78 9.75 2.39
-7.98 9.60 2.39
-8.17 9.44 2.39
-8.37 9.28 2.39
-8.56 9.11 2.39
-8.74 8.95 2.39
-8.93 8.77 2.39
-9.11 8.60 2.39
-9.28 8.42 2.39
-9.46 8.24 2.39
-9.62 8.05 2.39
-9.79 7.86 2.39
-9.60 7.40 2.31
-9.99 7.38 2.36
-10.33 7.32 2.41
-10.49 7.11 2.41
-10.63 6.91 2.41
-10.78 6.70 2.41
-10.80 6.41 2.38
-10.79 6.12 2.35
-10.79 5.83 2.32
-10.78 5.55 2.30
-11.43 5.60 2.41
-11.55 5.37 2.41
-11.67 5.14 2.41
-11.77 4.91 2.41
-11.88 4.68 2.41
-11.98 4.44 2.41
-10.73 3.73 2.14
-10.72 3.49 2.12
-10.72 3.26 2.11
-10.71 3.02 2.09
-10.71 2.79 2.08
-12.06 2.88 2.33
-12.10 2.64 2.32
-12.14 2.39 2.32
-12.17 2.15 2.31
-12.20 1.90 2.31
-11.93 1.61 2.25
-11.96 1.37 2.25
-11.98 1.13 2.25
-12.01 0.89 2.25
-12.02 0.65 2.25
-12.04 0.41 2.24
-12.05 0.17 2.24
-12.06 -0.07 2.24
-12.32 -0.32 2.29
-12.32 -0.57 2.29
-12.31 -0.82 2.29
-12.31 -1.07 2.29
-10.64 -1.14 1.98
-10.64 -1.35 1.99
-10.63 -1.57 1.99
-10.63 -1.79 1.99
-10.62 -2.01 2.00
-12.28 -2.58 2.32
-12.28 -2.83 2.33
-12.27 -3.09 2.34
-12.22 -3.34 2.34
-12.17 -3.59 2.34
-12.12 -3.84 2.34
-12.06 -4.09 2.35
-10.75 -3.89 2.10
-10.59 -4.07 2.09
-10.58 -4.32 2.10
-10.58 -4.57 2.12
-10.57 -4.82 2.13
-11.62 -5.58 2.37
-11.21 -5.66 2.30
-10.72 -5.69 2.23
-10.14 -5.64 2.13
-9.74 -5.68 2.07
-9.81 -5.98 2.10
-9.77 -6.23 2.12
-9.80 -6.53 2.15
-9.79 -6.82 2.18
-5.89 -4.28 1.33
-9.75 -7.38 2.23
-9.78 -7.72 2.27
-9.74 -8.01 2.30
-9.73 -8.34 2.34
-9.76 -8.70 2.39
-9.61 -8.93 2.39
-9.43 -9.12 2.39
-9.25 -9.31 2.39
-9.07 -9.50 2.39
-8.88 -9.68 2.39
-8.69 -9.86 2.39
-8.49 -10.03 2.39
-8.29 -10.21 2.39
-8.08 -10.37 2.39
-7.88 -10.54 2.39
-7.67 -10.69 2.39
-7.45 -10.85 2.39
-7.23 -11.00 2.39
-7.01 -11.14 2.39
-6.79 -11.28 2.39
-6.56 -11.42 2.39
-6.33 -11.55 2.39
-6.10 -11.68 2.39
-5.87 -11.80 2.39
-5.64 -11.94 2.40
-5.62 -12.54 2.49
-5.37 -12.66 2.49
-5.12 -12.76 2.49
-4.86 -12.86 2.49
-4.60 -12.96 2.49
-4.34 -13.05 2.49
-4.08 -13.14 2.49
-3.81 -13.21 2.49
-3.55 -13.29 2.49
-3.28 -13.36 2.49
-3.01 -13.42 2.49
-2.74 -13.48 2.49
-2.47 -13.53 2.49
-2.20 -13.57 2.49
-1.93 -13.61 2.49
-1.65 -13.65 2.49
-1.38 -13.68 2.49
-1.11 -13.70 2.49
-0.83 -13.72 2.49
-0.56 -13.73 2.49
-0.28 -13.73 2.49
-0.00 -12.17 2.49
0.24 -12.16 2.49
0.48 -12.15 2.49
0.73 -12.14 2.49
0.97 -12.12 2.49
1.21 -12.10 2.49
1.45 -12.07 2.49
1.70 -12.03 2.49
1.94 -11.99 2.49
2.17 -11.95 2.49
2.41 -11.90 2.49
2.54 -11.35 2.39
2.76 -11.27 2.39
2.93 -11.01 2.34
3.17 -11.00 2.36
3.41 -11.00 2.37
3.66 -11.02 2.39
3.88 -10.94 2.39
4.09 -10.86 2.39
4.31 -10.77 2.39
4.52 -10.68 2.39
4.73 -10.58 2.39
4.94 -10.48 2.39
5.15 -10.37 2.39
5.35 -10.26 2.39
4.71 -8.61 2.03
4.71 -8.20 1.96
4.71 -7.84 1.89
4.84 -7.70 1.88
4.99 -7.60 1.88
5.14 -7.49 1.88
6.35 -8.87 2.26
6.34 -8.49 2.20
8.38 -10.76 2.83
6.33 -7.80 2.09
10.00 -11.84 3.22
10.37 -11.79 3.26
10.74 -11.72 3.31
11.11 -11.65 3.35
6.29 -6.34 1.86
11.91 -11.53 3.45
12.41 -11.54 3.53
12.92 -11.53 3.61
13.44 -11.52 3.69
15.65 -12.89 4.23
29.69 -23.46 7.90
31.21 -23.66 8.19
6.26 -4.36 1.60
6.26 -4.17 1.57
6.25 -3.99 1.55
6.26 -3.83 1.54
34.73 -18.44 8.26
34.82 -17.60 8.20
35.07 -16.85 8.18
35.59 -16.23 8.23
36.10 -15.60 8.28
36.63 -14.96 8.34
37.75 -14.54 8.53
42.97 -10.85 9.38
42.56 -9.84 9.25
42.46 -8.92 9.19
43.03 -8.14 9.28
43.70 -7.36 9.40
43.78 -5.58 9.37
44.59 -4.78 9.53
6.12 3.63 1.54
6.11 3.80 1.56
6.11 3.97 1.58
38.19 25.92 9.99
38.50 28.46 10.37
35.66 31.08 10.26
6.08 5.74 1.82
34.17 33.62 10.41
33.90 34.71 10.54
30.22 33.55 9.81
6.06 7.01 2.02
28.83 34.71 9.81
6.08 7.62 2.12
6.05 7.92 2.17
24.53 33.45 9.03
23.69 33.69 8.97
5.95 9.23 2.39
5.76 9.35 2.39
5.57 9.46 2.39
5.38 9.57 2.39
5.19 9.67 2.39
4.99 9.78 2.39
4.79 9.87 2.39
4.59 9.97 2.39
4.39 10.06 2.39
4.19 10.14 2.39
3.98 10.22 2.39
3.78 10.30 2.39
3.57 10.37 2.39
3.36 10.44 2.39
2.99 9.97 2.27
2.89 10.40 2.35
2.68 10.45 2.35
2.39 10.15 2.27
2.29 10.73 2.39
2.08 10.77 2.39
1.94 11.28 2.49
1.71 11.32 2.49
1.49 11.35 2.49
1.26 11.38 2.49
1.03 11.40 2.49
0.80 11.42 2.49
0.57 11.44 2.49
0.34 11.45 2.49
0.11 11.45 2.49
-0.12 11.46 2.49
-0.35 11.45 2.49
-0.58 11.45 2.49
-0.81 11.44 2.49
-1.04 11.42 2.49
-1.27 11.40 2.49
-1.50 11.37 2.49
-1.73 11.34 2.49
-1.96 11.31 2.49
-2.18 11.27 2.49
-2.41 11.23 2.49
-2.64 11.18 2.49
-2.86 11.13 2.49
-3.09 11.07 2.49
-3.31 11.01 2.49
-3.53 10.95 2.49
-3.75 10.88 2.49
-3.97 10.80 2.49
-4.19 10.73 2.49
-4.40 10.64 2.49
-4.62 10.56 2.49
-4.83 10.47 2.49
-5.04 10.37 2.49
-5.25 10.27 2.49
-5.46 10.17 2.49
-5.67 10.06 2.49
-5.87 9.95 2.49
-6.02 9.75 2.47
-6.02 9.33 2.40
-6.22 9.23 2.40
-6.39 9.07 2.39
-6.57 8.95 2.39
-6.75 8.82 2.39
-6.93 8.69 2.39
-7.11 8.55 2.39
-7.28 8.41 2.39
-7.45 8.26 2.39
-7.62 8.12 2.39
-7.79 7.97 2.39
-7.95 7.81 2.39
-8.11 7.66 2.39
-8.27 7.50 2.39
-8.42 7.33 2.39
-8.57 7.17 2.39
-8.72 7.00 2.39
-8.86 6.82 2.39
-9.00 6.65 2.39
-9.14 6.47 2.39
-9.27 6.29 2.39
-9.40 6.11 2.39
-9.53 5.92 2.39
-9.65 5.73 2.39
-9.77 5.54 2.39
-9.89 5.34 2.39
-10.07 5.18 2.41
-10.17 4.98 2.41
-10.28 4.78 2.41
-10.38 4.58 2.41
-10.48 4.37 2.41
-10.57 4.16 2.41
-10.66 3.95 2.41
-10.74 3.74 2.41
-10.75 3.50 2.39
-10.74 3.26 2.37
-10.74 3.03 2.36
-10.73 2.79 2.34
-11.06 2.64 2.40
-11.10 2.42 2.40
-11.13 2.19 2.39
-11.17 1.97 2.39
-10.87 1.69 2.32
-10.90 1.47 2.31
-10.92 1.25 2.31
-10.95 1.03 2.31
-10.97 0.81 2.31
-10.98 0.59 2.31
-10.99 0.37 2.31
-11.00 0.15 2.31
-11.01 -0.07 2.31
-11.33 -0.30 2.37
-11.32 -0.53 2.37
-11.32 -0.75 2.37
-11.31 -0.98 2.37
-10.64 -1.14 2.23
-10.64 -1.35 2.24
-10.63 -1.57 2.24
-10.63 -1.79 2.25
-10.62 -2.01 2.25
-11.23 -2.36 2.39
-11.19 -2.58 2.39
-11.15 -2.81 2.39
-11.11 -3.04 2.39
-11.06 -3.27 2.40
-11.01 -3.49 2.40
-10.95 -3.72 2.40
-10.81 -3.91 2.39
-10.61 -4.08 2.36
-10.61 -4.33 2.37
-10.60 -4.58 2.39
-10.58 -4.82 2.41
-10.49 -5.04 2.41
-10.39 -5.25 2.41
-10.29 -5.46 2.41
-10.14 -5.64 2.40
-9.74 -5.68 2.33
-9.81 -5.99 2.37
-9.77 -6.23 2.39
-9.65 -6.43 2.39
-9.52 -6.63 2.39
-5.88 -4.27 1.50
-9.25 -7.01 2.39
-9.11 -7.19 2.39
-8.97 -7.38 2.39
-8.82 -7.56 2.39
-8.67 -7.74 2.39
-8.52 -7.91 2.39
-8.36 -8.08 2.39
-8.20 -8.25 2.39
-8.04 -8.42 2.39
-7.87 -8.58 2.39
-7.70 -8.74 2.39
-7.52 -8.89 2.39
-7.34 -9.04 2.39
-7.16 -9.19 2.39
-6.98 -9.34 2.39
-6.79 -9.48 2.39
-6.60 -9.61 2.39
-6.41 -9.74 2.39
-6.21 -9.87 2.39
-6.02 -10.00 2.39
-5.81 -10.12 2.39
-5.67 -10.34 2.42
-5.64 -10.79 2.49
-5.42 -10.90 2.49
-5.20 -11.01 2.49
-4.98 -11.12 2.49
-4.76 -11.21 2.49
-4.53 -11.31 2.49
-4.31 -11.40 2.49
-4.08 -11.48 2.49
-3.85 -11.56 2.49
-3.61 -11.64 2.49
-3.38 -11.71 2.49
-3.14 -11.77 2.49
-2.91 -11.83 2.49
-2.67 -11.89 2.49
-2.43 -11.94 2.49
-2.19 -11.98 2.49
-1.95 -12.02 2.49
-1.71 -12.06 2.49
-1.47 -12.09 2.49
-1.22 -12.12 2.49
-0.98 -12.14 2.49
-0.74 -12.15 2.49
-0.49 -12.16 2.49
-0.25 -12.17 2.49
-0.00 -10.91 2.49
0.21 -10.91 2.49
0.43 -10.90 2.49
0.65 -10.89 2.49
0.87 -10.87 2.49
1.09 -10.85 2.49
1.30 -10.82 2.49
1.52 -10.79 2.49
1.74 -10.76 2.49
1.95 -10.72 2.49
2.16 -10.67 2.49
2.38 -10.62 2.49
2.48 -10.13 2.39
2.68 -10.08 2.39
2.88 -10.02 2.39
3.08 -9.96 2.39
3.28 -9.89 2.39
3.48 -9.82 2.39
3.67 -9.74 2.39
3.87 -9.67 2.39
4.06 -9.58 2.39
4.25 -9.50 2.39
4.44 -9.41 2.39
4.62 -9.31 2.39
4.81 -9.21 2.39
4.99 -9.11 2.39
4.80 -8.36 2.22
4.99 -8.30 2.23
4.69 -7.47 2.03
4.69 -7.14 1.97
4.86 -7.09 1.98
5.07 -7.08 2.01
6.19 -8.30 2.39
6.36 -8.17 2.39
7.27 -8.97 2.67
6.32 -7.49 2.27
7.50 -8.53 2.63
8.17 -8.92 2.80
9.15 -9.60 3.07
6.29 -6.34 2.07
10.06 -9.74 3.25
10.35 -9.63 3.28
10.64 -9.50 3.31
6.29 -5.39 1.92
11.20 -9.22 3.37
11.48 -9.07 3.40
11.79 -8.94 3.44
12.15 -8.84 3.50
6.26 -4.36 1.78
12.91 -8.62 3.62
13.29 -8.49 3.68
6.26 -3.82 1.71
28.06 -16.38 7.58
28.62 -15.94 7.65
29.16 -15.49 7.72
29.74 -15.04 7.79
30.40 -14.61 7.89
31.05 -14.17 7.99
31.70 -13.70 8.09
6.23 -2.54 1.58
6.22 -2.40 1.56
6.22 -2.26 1.55
6.22 -2.11 1.54
6.24 -1.98 1.54
37.43 -11.07 9.17
38.38 -10.52 9.36
38.99 -9.85 9.46
39.59 -9.16 9.57
40.27 -8.47 9.69
40.83 -7.73 9.79
41.41 -6.98 9.90
42.31 -6.27 10.09
43.02 -5.49 10.24
43.32 -4.65 10.29
6.17 1.87 1.54
6.15 2.00 1.54
6.14 2.14 1.55
6.14 2.28 1.57
6.14 2.42 1.58
44.18 19.48 11.56
40.28 18.74 10.64
43.03 21.08 11.48
41.57 21.41 11.20
6.13 3.31 1.67
6.12 3.63 1.71
37.91 24.63 10.86
37.45 25.42 10.87
36.66 25.97 10.79
36.34 26.86 10.86
33.56 28.08 10.53
35.12 30.61 11.21
34.95 31.72 11.36
6.08 5.74 2.01
33.94 33.38 11.47
33.67 34.47 11.61
33.25 35.45 11.71
30.03 33.33 10.82
28.92 33.43 10.66
28.63 34.46 10.81
29.04 36.42 11.24
6.02 7.87 2.39
5.86 7.99 2.39
5.70 8.11 2.39
5.53 8.22 2.39
5.37 8.33 2.39
5.20 8.43 2.39
5.03 8.53 2.39
4.85 8.63 2.39
4.68 8.72 2.39
4.50 8.82 2.39
4.32 8.90 2.39
4.14 8.99 2.39
3.96 9.07 2.39
3.78 9.15 2.39
3.59 9.22 2.39
3.41 9.29 2.39
3.05 8.88 2.27
2.97 9.25 2.35
2.79 9.32 2.35
2.51 9.05 2.27
2.39 9.33 2.33
2.26 9.63 2.39
2.07 9.68 2.39
1.96 10.13 2.49
1.75 10.17 2.49
1.55 10.21 2.49
1.34 10.24 2.49
1.13 10.26 2.49
0.93 10.28 2.49
0.72 10.30 2.49
0.51 10.32 2.49
0.31 10.32 2.49
0.10 10.33 2.49
-0.11 10.33 2.49
-0.32 10.33 2.49
-0.52 10.32 2.49
-0.73 10.31 2.49
-0.94 10.30 2.49
-1.15 10.28 2.49
-1.35 10.26 2.49
-1.56 10.23 2.49
-1.76 10.20 2.49
-1.97 10.16 2.49
-2.17 10.12 2.49
-2.38 10.08 2.49
-2.58 10.03 2.49
-2.78 9.98 2.49
-2.98 9.93 2.49
-3.18 9.87 2.49
-3.38 9.81 2.49
-3.58 9.74 2.49
-3.78 9.67 2.49
-3.97 9.59 2.49
-4.16 9.52 2.49
-4.36 9.43 2.49
-4.55 9.35 2.49
-4.74 9.26 2.49
-4.92 9.16 2.49
-5.11 9.07 2.49
-5.29 8.97 2.49
-5.47 8.86 2.49
-5.65 8.75 2.49
-5.83 8.64 2.49
-6.00 8.52 2.49
-6.00 8.16 2.42
-6.08 7.94 2.39
-6.25 7.82 2.39
-6.40 7.70 2.39
-6.56 7.57 2.39
-6.71 7.44 2.39
-6.87 7.31 2.39
-7.02 7.17 2.39
-7.16 7.04 2.39
-7.31 6.89 2.39
-7.45 6.75 2.39
-7.58 6.60 2.39
-7.72 6.45 2.39
-7.85 6.30 2.39
-7.98 6.14 2.39
-8.11 5.98 2.39
-8.23 5.82 2.39
-8.35 5.66 2.39
-8.47 5.49 2.39
-8.58 5.33 2.39
-8.69 5.16 2.39
-8.80 4.98 2.39
-8.90 4.81 2.39
-9.00 4.63 2.39
-9.09 4.45 2.39
-9.19 4.27 2.39
-9.28 4.09 2.39
-9.36 3.90 2.39
-9.44 3.72 2.39
-9.52 3.53 2.39
-9.60 3.34 2.39
-9.67 3.15 2.39
-9.73 2.95 2.39
-9.80 2.76 2.39
-9.86 2.56 2.39
-9.98 2.38 2.41
-10.03 2.18 2.41
-10.08 1.98 2.41
-9.96 1.75 2.37
-9.99 1.55 2.37
-10.02 1.35 2.37
-10.04 1.15 2.36
-10.07 0.95 2.36
-10.08 0.75 2.36
-10.10 0.54 2.36
-10.11 0.34 2.36
-10.12 0.14 2.36
-10.12 -0.07 2.36
-10.33 -0.27 2.41
-10.33 -0.48 2.41
-10.32 -0.69 2.41
-10.31 -0.90 2.41
-10.30 -1.10 2.41
-10.28 -1.31 2.41
-10.26 -1.52 2.41
-10.23 -1.72 2.41
-10.20 -1.93 2.41
-10.16 -2.13 2.41
-10.12 -2.34 2.41
-10.08 -2.54 2.41
-10.03 -2.75 2.41
-9.98 -2.95 2.41
-9.92 -3.15 2.41
-9.80 -3.33 2.39
-9.73 -3.52 2.39
-9.66 -3.72 2.39
-9.59 -3.92 2.39
-9.51 -4.11 2.39
-9.43 -4.30 2.39
-9.35 -4.49 2.39
-9.26 -4.68 2.39
-9.17 -4.87 2.39
-9.08 -5.05 2.39
-8.98 -5.23 2.39
-8.87 -5.42 2.39
-8.77 -5.59 2.39
-8.65 -5.77 2.39
-8.54 -5.95 2.39
-5.88 -4.27 1.67
-8.30 -6.29 2.39
-8.18 -6.46 2.39
-8.05 -6.62 2.39
-7.92 -6.78 2.39
-7.78 -6.94 2.39
-7.64 -7.10 2.39
-7.50 -7.25 2.39
-7.36 -7.40 2.39
-7.21 -7.55 2.39
-7.06 -7.70 2.39
-6.90 -7.84 2.39
-6.75 -7.98 2.39
-6.59 -8.11 2.39
-6.42 -8.25 2.39
-6.26 -8.37 2.39
-6.09 -8.50 2.39
-5.92 -8.62 2.39
-5.75 -8.74 2.39
-5.68 -9.03 2.44
-5.63 -9.35 2.49
-5.44 -9.47 2.49
-5.25 -9.57 2.49
-5.06 -9.68 2.49
-4.86 -9.78 2.49
-4.67 -9.88 2.49
-4.47 -9.97 2.49
-4.27 -10.06 2.49
-4.07 -10.14 2.49
-3.86 -10.22 2.49
-3.66 -10.30 2.49
-3.45 -10.37 2.49
-3.24 -10.43 2.49
-3.03 -10.50 2.49
-2.82 -10.56 2.49
-2.61 -10.61 2.49
-2.39 -10.66 2.49
-2.18 -10.71 2.49
-1.96 -10.75 2.49
-1.75 -10.78 2.49
-1.53 -10.82 2.49
-1.31 -10.84 2.49
-1.10 -10.87 2.49
-0.88 -10.88 2.49
-0.66 -10.90 2.49
-0.44 -10.91 2.49
-0.22 -10.91 2.49
-0.00 -9.88 2.49
0.19 -9.88 2.49
0.39 -9.87 2.49
0.59 -9.86 2.49
0.79 -9.85 2.49
0.98 -9.83 2.49
1.18 -9.80 2.49
1.38 -9.77 2.49
1.57 -9.74 2.49
1.77 -9.71 2.49
1.96 -9.67 2.49
2.15 -9.62 2.49
2.34 -9.58 2.49
2.43 -9.13 2.39
2.61 -9.08 2.39
2.79 -9.02 2.39
2.97 -8.96 2.39
3.15 -8.90 2.39
3.33 -8.83 2.39
3.50 -8.76 2.39
3.68 -8.68 2.39
3.85 -8.60 2.39
4.02 -8.52 2.39
4.19 -8.44 2.39
4.35 -8.35 2.39
4.52 -8.26 2.39
4.68 -8.16 2.39
4.84 -8.06 2.39
5.00 -7.96 2.39
4.81 -7.33 2.23
5.02 -7.32 2.26
5.46 -7.64 2.39
5.61 -7.52 2.39
5.76 -7.40 2.39
5.90 -7.28 2.39
6.05 -7.16 2.39
6.19 -7.04 2.39
6.32 -6.91 2.39
7.24 -7.60 2.68
6.30 -6.34 2.28
7.43 -7.20 2.65
7.51 -6.99 2.63
8.30 -7.42 2.85
9.36 -8.03 3.16
9.75 -8.03 3.24
9.98 -7.89 3.26
10.20 -7.74 3.28
10.42 -7.58 3.31
6.26 -4.36 1.96
10.85 -7.25 3.35
11.06 -7.07 3.37
11.26 -6.88 3.39
11.46 -6.69 3.41
6.25 -3.48 1.84
11.95 -6.35 3.48
12.21 -6.18 3.53
6.24 -3.00 1.79
12.72 -5.81 3.61
12.96 -5.61 3.65
13.21 -5.40 3.68
13.47 -5.19 3.73
6.22 -2.26 1.71
15.01 -5.11 4.10
32.10 -10.20 8.71
33.18 -9.82 8.96
34.19 -9.38 9.18
35.37 -8.94 9.46
36.67 -8.49 9.76
37.82 -7.96 10.03
38.73 -7.34 10.23
39.68 -6.70 10.45
40.64 -6.02 10.68
40.77 -5.21 10.68
42.51 -4.57 11.12
6.20 -0.54 1.62
6.19 -0.29 1.61
6.19 -0.17 1.61
23.65 2.71 6.23
23.35 3.15 6.16
23.07 3.58 6.11
22.88 4.03 6.08
23.00 4.52 6.14
6.18 1.35 1.66
46.59 12.12 12.63
6.15 1.73 1.68
44.94 13.64 12.34
44.64 14.54 12.33
6.15 2.14 1.71
44.14 16.36 12.38
42.16 16.60 11.92
43.91 18.32 12.52
39.25 17.31 11.29
39.92 18.57 11.60
6.14 3.01 1.80
42.89 22.09 12.72
36.12 19.53 10.83
38.13 21.61 11.56
6.12 3.63 1.88
40.57 25.21 12.61
37.65 24.45 11.86
37.15 25.20 11.86
36.15 25.60 11.70
33.56 24.80 11.03
32.84 25.30 10.96
33.48 26.88 11.36
33.33 27.88 11.50
6.09 5.31 2.14
34.30 31.12 12.26
6.08 5.74 2.21
6.08 5.98 2.26
30.14 30.86 11.43
7.25 7.73 2.81
6.04 6.70 2.39
5.90 6.82 2.39
5.76 6.94 2.39
5.62 7.05 2.39
5.48 7.16 2.39
5.33 7.27 2.39
5.18 7.37 2.39
5.03 7.48 2.39
4.88 7.57 2.39
4.73 7.67 2.39
4.57 7.76 2.39
4.42 7.85 2.39
4.26 7.94 2.39
4.09 8.02 2.39
3.93 8.10 2.39
3.77 8.18 2.39
3.60 8.25 2.39
3.44 8.32 2.39
3.10 7.96 2.27
3.00 8.18 2.32
2.88 8.37 2.35
2.71 8.43 2.35
2.45 8.18 2.27
2.41 8.67 2.39
2.24 8.73 2.40
2.06 8.76 2.39
1.96 9.18 2.49
1.78 9.22 2.49
1.59 9.25 2.49
1.41 9.29 2.49
1.22 9.31 2.49
1.03 9.34 2.49
0.84 9.36 2.49
0.66 9.37 2.49
0.47 9.38 2.49
0.28 9.39 2.49
0.09 9.40 2.49
-0.10 9.40 2.49
-0.29 9.40 2.49
-0.48 9.39 2.49
-0.67 9.38 2.49
-0.85 9.37 2.49
-1.04 9.35 2.49
-1.23 9.33 2.49
-1.42 9.30 2.49
-1.61 9.28 2.49
-1.79 9.24 2.49
-1.98 9.21 2.49
-2.16 9.17 2.49
-2.35 9.13 2.49
-2.53 9.08 2.49
-2.71 9.03 2.49
-2.90 8.98 2.49
-3.08 8.92 2.49
-3.26 8.86 2.49
-3.43 8.79 2.49
-3.61 8.72 2.49
-3.79 8.65 2.49
-3.96 8.58 2.49
-4.13 8.50 2.49
-4.31 8.42 2.49
-4.48 8.33 2.49
-4.64 8.24 2.49
-4.81 8.15 2.49
-4.98 8.06 2.49
-5.14 7.96 2.49
-5.30 7.86 2.49
-5.46 7.75 2.49
-5.62 7.64 2.49
-5.77 7.53 2.49
-5.92 7.42 2.49
-5.97 7.18 2.45
-5.98 6.90 2.40
-6.10 6.76 2.39
-6.24 6.64 2.39
-6.38 6.52 2.39
-6.51 6.39 2.39
-6.64 6.26 2.39
-6.77 6.13 2.39
-6.89 6.00 2.39
-7.01 5.86 2.39
-7.13 5.72 2.39
-7.25 5.58 2.39
-7.36 5.44 2.39
-7.48 5.29 2.39
-7.58 5.14 2.39
-7.69 4.99 2.39
-7.79 4.84 2.39
-7.89 4.68 2.39
-7.99 4.52 2.39
-8.08 4.37 2.39
-8.17 4.20 2.39
-8.26 4.04 2.39
-8.34 3.88 2.39
-8.42 3.71 2.39
-8.50 3.54 2.39
-8.57 3.37 2.39
-8.65 3.20 2.39
-8.71 3.03 2.39
-8.78 2.86 2.39
-8.84 2.68 2.39
-8.89 2.50 2.39
-8.95 2.33 2.39
-9.00 2.15 2.39
-9.04 1.97 2.39
-9.08 1.79 2.39
-9.12 1.60 2.39
-9.16 1.42 2.39
-9.19 1.24 2.39
-9.22 1.05 2.39
-9.24 0.87 2.39
-9.26 0.68 2.39
-9.28 0.50 2.39
-9.29 0.31 2.39
-9.30 0.13 2.39
-9.31 -0.06 2.39
-9.31 -0.25 2.39
-9.31 -0.43 2.39
-9.30 -0.62 2.39
-9.29 -0.81 2.39
-9.28 -1.00 2.39
-9.26 -1.18 2.39
-9.24 -1.37 2.39
-9.21 -1.55 2.39
-9.18 -1.74 2.39
-9.15 -1.92 2.39
-9.12 -2.11 2.39
-9.08 -2.29 2.39
-9.03 -2.47 2.39
-8.98 -2.66 2.39
-8.93 -2.84 2.39
-8.88 -3.02 2.39
-8.82 -3.20 2.39
-8.76 -3.37 2.39
-8.69 -3.55 2.39
-8.62 -3.72 2.39
-8.55 -3.90 2.39
-8.47 -4.07 2.39
-8.39 -4.24 2.39
-8.31 -4.41 2.39
-8.22 -4.58 2.39
-8.13 -4.74 2.39
-8.04 -4.91 2.39
-7.94 -5.07 2.39
-7.84 -5.23 2.39
-7.74 -5.39 2.39
-5.88 -4.27 1.84
-7.52 -5.70 2.39
-7.41 -5.85 2.39
-7.29 -6.00 2.39
-7.17 -6.14 2.39
-7.05 -6.29 2.39
-6.92 -6.43 2.39
-6.79 -6.57 2.39
-6.66 -6.71 2.39
-6.53 -6.84 2.39
-6.39 -6.97 2.39
-6.25 -7.10 2.39
-6.11 -7.23 2.39
-5.97 -7.35 2.39
-5.82 -7.47 2.39
-5.72 -7.65 2.41
-5.70 -7.96 2.47
-5.59 -8.15 2.49
-5.43 -8.26 2.49
-5.26 -8.37 2.49
-5.10 -8.47 2.49
-4.93 -8.57 2.49
-4.75 -8.67 2.49
-4.58 -8.76 2.49
-4.40 -8.86 2.49
-4.23 -8.94 2.49
-4.05 -9.03 2.49
-3.86 -9.11 2.49
-3.68 -9.18 2.49
-3.50 -9.25 2.49
-3.31 -9.32 2.49
-3.12 -9.39 2.49
-2.93 -9.45 2.49
-2.74 -9.51 2.49
-2.55 -9.56 2.49
-2.36 -9.61 2.49
-2.17 -9.65 2.49
-1.97 -9.69 2.49
-1.78 -9.73 2.49
-1.58 -9.76 2.49
-1.39 -9.79 2.49
-1.19 -9.82 2.49
-0.99 -9.84 2.49
-0.80 -9.86 2.49
-0.60 -9.87 2.49
-0.40 -9.88 2.49
-0.20 -9.88 2.49
-0.00 -9.02 2.49
0.18 -9.02 2.49
0.36 -9.01 2.49
0.54 -9.00 2.49
0.72 -8.99 2.49
0.90 -8.97 2.49
1.08 -8.95 2.49
1.26 -8.92 2.49
1.43 -8.89 2.49
1.61 -8.86 2.49
1.79 -8.83 2.49
1.96 -8.79 2.49
2.14 -8.74 2.49
2.31 -8.70 2.49
2.38 -8.29 2.39
2.55 -8.24 2.39
2.71 -8.18 2.39
2.88 -8.12 2.39
3.04 -8.06 2.39
3.20 -8.00 2.39
3.36 -7.93 2.39
3.51 -7.86 2.39
3.67 -7.78 2.39
3.82 -7.71 2.39
3.97 -7.63 2.39
4.13 -7.54 2.39
4.27 -7.45 2.39
4.42 -7.36 2.39
4.57 -7.27 2.39
4.71 -7.18 2.39
4.85 -7.08 2.39
4.99 -6.98 2.39
5.13 -6.87 2.39
5.26 -6.77 2.39
5.39 -6.66 2.39
5.52 -6.54 2.39
5.65 -6.43 2.39
4.65 -5.08 1.93
4.66 -4.89 1.89
4.74 -4.78 1.88
4.83 -4.68 1.88
4.92 -4.58 1.88
5.01 -4.48 1.88
5.10 -4.37 1.88
7.36 -6.07 2.67
7.43 -5.88 2.66
7.49 -5.69 2.64
6.27 -4.56 2.18
6.26 -4.37 2.14
9.71 -6.48 3.28
9.88 -6.32 3.30
10.05 -6.15 3.31
6.25 -3.65 2.04
10.39 -5.79 3.35
10.55 -5.61 3.37
6.25 -3.16 1.97
10.87 -5.23 3.40
11.02 -5.03 3.42
11.17 -4.83 3.44
11.32 -4.63 3.45
11.46 -4.42 3.47
6.22 -2.26 1.87
11.88 -4.04 3.55
12.10 -3.85 3.59
12.33 -3.65 3.64
12.54 -3.44 3.68
6.22 -1.57 1.82
13.03 -3.02 3.79
13.30 -2.80 3.85
13.58 -2.58 3.92
14.11 -2.38 4.06
6.21 -0.92 1.78
15.28 -1.95 4.38
16.77 -1.80 4.80
28.81 -2.52 8.23
28.83 -1.93 8.22
6.19 -0.29 1.76
28.83 -0.77 8.21
29.48 -0.20 8.40
6.18 0.33 1.77
22.89 2.15 6.57
22.65 2.59 6.51
22.73 3.06 6.56
22.69 3.52 6.57
22.57 3.97 6.56
22.74 4.47 6.63
46.45 10.10 13.61
45.52 10.86 13.41
44.73 11.63 13.25
6.15 1.73 1.83
43.47 13.19 13.03
30.52 9.93 9.21
30.52 10.62 9.28
42.30 15.67 12.96
42.11 16.57 13.00
41.84 17.45 13.03
41.55 18.32 13.06
41.18 19.15 13.06
40.75 19.95 13.05
40.31 20.75 13.05
35.57 19.23 11.64
35.01 19.84 11.59
6.12 3.63 2.05
37.81 23.49 12.83
37.14 24.12 12.77
36.50 24.76 12.72
20.27 14.36 7.17
15.64 11.55 5.61
15.26 11.76 5.56
6.10 4.90 2.26
14.81 12.38 5.57
7.28 6.34 2.79
7.19 6.52 2.81
6.02 5.68 2.39
5.90 5.80 2.39
5.78 5.92 2.39
5.66 6.03 2.39
5.54 6.14 2.39
5.41 6.25 2.39
5.28 6.36 2.39
5.15 6.46 2.39
5.02 6.56 2.39
4.89 6.66 2.39
4.75 6.76 2.39
4.61 6.85 2.39
4.47 6.94 2.39
4.33 7.03 2.39
4.19 7.11 2.39
4.05 7.19 2.39
3.90 7.27 2.39
3.75 7.35 2.39
3.60 7.42 2.39
3.45 7.49 2.39
3.13 7.18 2.27
3.02 7.30 2.29
2.95 7.56 2.35
2.79 7.62 2.35
2.55 7.40 2.27
2.42 7.54 2.30
2.37 7.90 2.39
2.21 7.95 2.39
2.06 8.06 2.41
1.97 8.38 2.49
1.80 8.41 2.49
1.63 8.45 2.49
1.46 8.48 2.49
1.29 8.51 2.49
1.12 8.53 2.49
0.95 8.55 2.49
0.77 8.57 2.49
0.60 8.59 2.49
0.43 8.60 2.49
0.26 8.61 2.49
0.08 8.61 2.49
-0.09 8.61 2.49
-0.26 8.61 2.49
-0.44 8.60 2.49
-0.61 8.59 2.49
-0.78 8.58 2.49
-0.96 8.57 2.49
-1.13 8.55 2.49
-1.30 8.52 2.49
-1.47 8.50 2.49
-1.64 8.47 2.49
-1.81 8.44 2.49
-1.98 8.40 2.49
-2.15 8.36 2.49
-2.32 8.32 2.49
-2.49 8.27 2.49
-2.65 8.22 2.49
-2.82 8.17 2.49
-2.98 8.11 2.49
-3.15 8.05 2.49
-3.31 7.99 2.49
-3.47 7.93 2.49
-3.63 7.86 2.49
-3.79 7.78 2.49
-3.94 7.71 2.49
-4.10 7.63 2.49
-4.25 7.55 2.49
-4.41 7.46 2.49
-4.56 7.38 2.49
-4.71 7.29 2.49
-4.85 7.19 2.49
-5.00 7.10 2.49
-5.14 7.00 2.49
-5.28 6.90 2.49
-5.42 6.79 2.49
-5.56 6.68 2.49
-5.70 6.57 2.49
-5.83 6.46 2.49
-5.96 6.34 2.49
-5.95 6.09 2.44
-5.96 5.85 2.39
-6.08 5.73 2.39
-6.19 5.61 2.39
-6.31 5.49 2.39
-6.42 5.36 2.39
-6.53 5.24 2.39
-6.64 5.11 2.39
-6.74 4.97 2.39
-6.84 4.84 2.39
-6.94 4.70 2.39
-7.04 4.57 2.39
-7.13 4.42 2.39
-7.22 4.28 2.39
-7.31 4.14 2.39
-7.40 3.99 2.39
-7.48 3.85 2.39
-7.56 3.70 2.39
-7.63 3.55 2.39
-7.71 3.39 2.39
-7.78 3.24 2.39
-7.84 3.08 2.39
-7.91 2.93 2.39
-7.97 2.77 2.39
-8.03 2.61 2.39
-8.08 2.45 2.39
-8.13 2.29 2.39
-8.18 2.13 2.39
-8.23 1.96 2.39
-8.27 1.80 2.39
-8.31 1.63 2.39
-8.34 1.47 2.39
-8.37 1.30 2.39
-8.40 1.13 2.39
-8.43 0.96 2.39
-8.45 0.79 2.39
-8.47 0.62 2.39
-8.48 0.45 2.39
-8.49 0.28 2.39
-8.50 0.11 2.39
-8.51 -0.06 2.39
-8.51 -0.23 2.39
-8.51 -0.40 2.39
-8.50 -0.57 2.39
-8.49 -0.74 2.39
-8.48 -0.91 2.39
-8.46 -1.08 2.39
-8.44 -1.25 2.39
-8.42 -1.42 2.39
-8.39 -1.59 2.39
-8.36 -1.76 2.39
-8.33 -1.93 2.39
-8.29 -2.09 2.39
-8.25 -2.26 2.39
-8.21 -2.43 2.39
-8.16 -2.59 2.39
-8.11 -2.76 2.39
-8.06 -2.92 2.39
-8.00 -3.08 2.39
-7.94 -3.24 2.39
-7.88 -3.40 2.39
-7.81 -3.56 2.39
-7.74 -3.72 2.39
-7.67 -3.88 2.39
-7.59 -4.03 2.39
-7.51 -4.18 2.39
-7.43 -4.33 2.39
-7.34 -4.48 2.39
-7.25 -4.63 2.39
-7.16 -4.78 2.39
-7.07 -4.92 2.39
-5.88 -4.27 2.02
-6.87 -5.20 2.39
-6.76 -5.34 2.39
-6.66 -5.48 2.39
-6.55 -5.61 2.39
-6.43 -5.74 2.39
-6.32 -5.87 2.39
-6.20 -6.00 2.39
-6.08 -6.12 2.39
-5.96 -6.25 2.39
-5.84 -6.37 2.39
-5.74 -6.52 2.40
-5.72 -6.77 2.45
-5.68 -7.00 2.49
-5.54 -7.11 2.49
-5.40 -7.22 2.49
-5.25 -7.33 2.49
-5.11 -7.44 2.49
-4.96 -7.54 2.49
-4.80 -7.64 2.49
-4.65 -7.73 2.49
-4.50 -7.83 2.49
-4.34 -7.91 2.49
-4.18 -8.00 2.49
-4.02 -8.08 2.49
-3.86 -8.16 2.49
-3.69 -8.24 2.49
-3.53 -8.31 2.49
-3.36 -8.38 2.49
-3.19 -8.45 2.49
-3.02 -8.51 2.49
-2.85 -8.57 2.49
-2.68 -8.62 2.49
-2.50 -8.68 2.49
-2.33 -8.73 2.49
-2.16 -8.77 2.49
-1.98 -8.81 2.49
-1.80 -8.85 2.49
-1.62 -8.88 2.49
-1.45 -8.91 2.49
-1.27 -8.94 2.49
-1.09 -8.96 2.49
-0.91 -8.98 2.49
-0.73 -9.00 2.49
-0.55 -9.01 2.49
-0.37 -9.02 2.49
-0.19 -9.02 2.49
-0.00 -8.29 2.49
0.16 -8.29 2.49
0.33 -8.28 2.49
0.49 -8.27 2.49
0.66 -8.26 2.49
0.82 -8.24 2.49
0.99 -8.22 2.49
1.15 -8.20 2.49
1.32 -8.17 2.49
1.48 -8.14 2.49
1.64 -8.11 2.49
1.80 -8.08 2.49
1.97 -8.04 2.49
2.13 -7.99 2.49
2.29 -7.95 2.49
2.35 -7.59 2.40
2.49 -7.52 2.39
2.64 -7.47 2.39
2.79 -7.41 2.39
2.94 -7.35 2.39
3.08 -7.29 2.39
3.23 -7.22 2.39
3.37 -7.16 2.39
3.51 -7.08 2.39
3.65 -7.01 2.39
3.79 -6.93 2.39
3.93 -6.85 2.39
4.06 -6.77 2.39
4.20 -6.69 2.39
4.33 -6.60 2.39
4.46 -6.51 2.39
4.59 -6.41 2.39
4.71 -6.32 2.39
4.84 -6.22 2.39
4.96 -6.12 2.39
5.08 -6.02 2.39
5.20 -5.91 2.39
5.31 -5.80 2.39
4.65 -4.88 2.05
4.64 -4.68 2.01
4.64 -4.50 1.97
4.64 -4.32 1.93
4.64 -4.15 1.90
4.69 -4.02 1.88
4.76 -3.93 1.88
4.84 -3.83 1.88
4.91 -3.73 1.88
5.06 -3.68 1.91
6.26 -4.37 2.33
7.31 -4.88 2.69
6.26 -4.00 2.27
7.41 -4.53 2.65
7.45 -4.35 2.64
9.23 -5.15 3.24
9.64 -5.13 3.34
9.78 -4.95 3.36
9.92 -4.77 3.37
10.05 -4.59 3.39
10.18 -4.40 3.40
10.30 -4.21 3.41
10.42 -4.02 3.43
6.22 -2.26 2.03
10.64 -3.62 3.45
10.75 -3.42 3.47
10.86 -3.22 3.48
11.00 -3.02 3.51
11.14 -2.82 3.54
6.21 -1.44 1.96
11.41 -2.40 3.59
6.21 -1.18 1.95
11.75 -1.99 3.67
11.94 -1.77 3.72
12.13 -1.55 3.77
12.31 -1.33 3.82
12.51 -1.09 3.88
12.73 -0.86 3.94
6.19 -0.29 1.92
13.16 -0.36 4.07
13.37 -0.09 4.14
13.63 0.18 4.22
13.98 0.47 4.33
14.32 0.76 4.44
14.79 1.09 4.60
15.31 1.44 4.77
16.47 1.88 5.14
22.49 3.02 7.04
22.51 3.49 7.07
22.59 3.97 7.12
22.89 4.50 7.25
34.05 7.40 10.83
44.39 10.59 14.19
43.46 11.29 13.97
6.15 1.73 1.99
23.26 7.05 7.57
22.93 7.46 7.51
30.24 10.51 9.98
6.15 2.28 2.04
30.12 11.85 10.09
24.50 10.21 8.28
24.10 10.62 8.22
24.03 11.17 8.27
38.04 18.62 13.23
37.60 19.35 13.21
37.03 20.01 13.15
6.13 3.47 2.20
6.12 3.63 2.22
6.12 3.80 2.25
34.66 22.50 12.93
7.26 4.92 2.75
7.19 5.09 2.76
7.12 5.26 2.77
6.05 4.66 2.39
5.95 4.78 2.39
5.85 4.90 2.39
5.75 5.01 2.39
5.65 5.13 2.39
5.55 5.24 2.39
5.44 5.35 2.39
5.33 5.45 2.39
5.22 5.56 2.39
5.10 5.66 2.39
4.99 5.76 2.39
4.87 5.86 2.39
4.75 5.95 2.39
4.63 6.05 2.39
4.50 6.14 2.39
4.38 6.23 2.39
4.25 6.31 2.39
4.12 6.40 2.39
3.99 6.48 2.39
3.86 6.56 2.39
3.73 6.63 2.39
3.60 6.70 2.39
3.46 6.77 2.39
3.16 6.51 2.28
3.02 6.56 2.27
2.89 6.61 2.27
2.76 6.67 2.27
2.62 6.72 2.27
2.48 6.78 2.27
2.43 7.07 2.35
2.33 7.24 2.39
2.18 7.28 2.39
2.07 7.45 2.43
1.97 7.68 2.49
1.81 7.72 2.49
1.66 7.76 2.49
1.50 7.79 2.49
1.35 7.82 2.49
1.19 7.84 2.49
1.03 7.87 2.49
0.87 7.89 2.49
0.71 7.90 2.49
0.55 7.92 2.49
0.39 7.93 2.49
0.24 7.93 2.49
0.08 7.94 2.49
-0.08 7.94 2.49
-0.24 7.94 2.49
-0.40 7.93 2.49
-0.56 7.92 2.49
-0.72 7.91 2.49
-0.88 7.90 2.49
-1.04 7.88 2.49
-1.20 7.86 2.49
-1.36 7.83 2.49
-1.51 7.81 2.49
-1.67 7.77 2.49
-1.83 7.74 2.49
-1.98 7.70 2.49
-2.14 7.67 2.49
-2.29 7.62 2.49
-2.45 7.58 2.49
-2.60 7.53 2.49
-2.75 7.48 2.49
-2.90 7.42 2.49
-3.05 7.36 2.49
-3.20 7.30 2.49
-3.35 7.24 2.49
-3.49 7.17 2.49
-3.64 7.10 2.49
-3.78 7.03 2.49
-3.92 6.96 2.49
-4.06 6.88 2.49
-4.20 6.80 2.49
-4.34 6.71 2.49
-4.47 6.63 2.49
-4.61 6.54 2.49
-4.74 6.45 2.49
-4.87 6.35 2.49
-5.00 6.26 2.49
-5.12 6.16 2.49
-5.25 6.05 2.49
-5.37 5.95 2.49
-5.49 5.84 2.49
-5.61 5.73 2.49
-5.73 5.62 2.49
-5.84 5.51 2.49
-5.94 5.38 2.49
-5.94 5.16 2.44
-5.94 4.96 2.40
-6.01 4.82 2.39
-6.11 4.70 2.39
-6.21 4.58 2.39
-6.30 4.46 2.39
-6.39 4.33 2.39
-6.48 4.20 2.39
-6.57 4.07 2.39
-6.65 3.94 2.39
-6.73 3.81 2.39
-6.81 3.68 2.39
-6.89 3.54 2.39
-6.96 3.40 2.39
-7.03 3.26 2.39
-7.10 3.12 2.39
-7.16 2.98 2.39
-7.22 2.84 2.39
-7.28 2.69 2.39
-7.34 2.55 2.39
-7.39 2.40 2.39
-7.44 2.25 2.39
-7.49 2.10 2.39
-7.53 1.95 2.39
-7.57 1.80 2.39
-7.61 1.65 2.39
-7.65 1.50 2.39
-7.68 1.35 2.39
-7.71 1.19 2.39
-7.73 1.04 2.39
-7.75 0.88 2.39
-7.77 0.73 2.39
-7.79 0.57 2.39
-7.80 0.42 2.39
-7.81 0.26 2.39
-7.82 0.10 2.39
-7.83 -0.05 2.39
-7.83 -0.21 2.39
-7.82 -0.37 2.39
-7.82 -0.53 2.39
-7.81 -0.68 2.39
-7.80 -0.84 2.39
-7.78 -1.00 2.39
-7.76 -1.15 2.39
-7.74 -1.31 2.39
-7.72 -1.46 2.39
-7.69 -1.62 2.39
-7.66 -1.77 2.39
-7.63 -1.93 2.39
-7.59 -2.08 2.39
-7.55 -2.23 2.39
-7.50 -2.39 2.39
-7.46 -2.54 2.39
-7.41 -2.69 2.39
-7.36 -2.84 2.39
-7.30 -2.98 2.39
-7.24 -3.13 2.39
-7.18 -3.28 2.39
-7.11 -3.42 2.39
-7.05 -3.56 2.39
-6.98 -3.71 2.39
-6.90 -3.85 2.39
-6.83 -3.98 2.39
-6.75 -4.12 2.39
-6.67 -4.26 2.39
-6.58 -4.39 2.39
-6.49 -4.52 2.39
-5.88 -4.27 2.20
-6.31 -4.78 2.39
-6.22 -4.91 2.39
-6.12 -5.03 2.39
-6.02 -5.16 2.39
-5.91 -5.28 2.39
-5.81 -5.40 2.39
-5.75 -5.57 2.41
-5.74 -5.78 2.46
-5.71 -5.99 2.49
-5.59 -6.10 2.49
-5.47 -6.22 2.49
-5.35 -6.32 2.49
-5.22 -6.43 2.49
-5.09 -6.54 2.49
-4.96 -6.64 2.49
-4.83 -6.74 2.49
-4.69 -6.83 2.49
-4.55 -6.93 2.49
-4.41 -7.02 2.49
-4.27 -7.11 2.49
-4.13 -7.19 2.49
-3.99 -7.27 2.49
-3.84 -7.35 2.49
-3.69 -7.43 2.49
-3.54 -7.50 2.49
-3.39 -7.57 2.49
-3.24 -7.64 2.49
-3.09 -7.70 2.49
-2.93 -7.76 2.49
-2.78 -7.82 2.49
-2.62 -7.87 2.49
-2.46 -7.93 2.49
-2.30 -7.97 2.49
-2.14 -8.02 2.49
-1.98 -8.06 2.49
-1.82 -8.10 2.49
-1.66 -8.13 2.49
-1.49 -8.16 2.49
-1.33 -8.19 2.49
-1.16 -8.21 2.49
-1.00 -8.24 2.49
-0.83 -8.25 2.49
-0.67 -8.27 2.49
-0.50 -8.28 2.49
-0.34 -8.29 2.49
-0.17 -8.29 2.49
-0.00 -7.66 2.49
0.15 -7.66 2.49
0.30 -7.65 2.49
0.46 -7.64 2.49
0.61 -7.63 2.49
0.76 -7.62 2.49
0.91 -7.60 2.49
1.07 -7.58 2.49
1.22 -7.55 2.49
1.37 -7.53 2.49
1.52 -7.50 2.49
1.67 -7.46 2.49
1.82 -7.43 2.49
1.96 -7.39 2.49
2.11 -7.34 2.49
2.26 -7.30 2.49
2.33 -7.04 2.42
2.44 -6.90 2.39
2.58 -6.85 2.39
2.71 -6.80 2.39
2.85 -6.74 2.39
2.98 -6.68 2.39
3.12 -6.61 2.39
3.25 -6.55 2.39
3.38 -6.48 2.39
3.50 -6.41 2.39
3.63 -6.34 2.39
3.76 -6.26 2.39
3.88 -6.18 2.39
4.00 -6.10 2.39
4.12 -6.02 2.39
4.24 -5.93 2.39
4.36 -5.84 2.39
4.47 -5.75 2.39
4.58 -5.66 2.39
4.70 -5.56 2.39
4.80 -5.47 2.39
4.91 -5.37 2.39
4.73 -4.97 2.26
4.86 -4.90 2.27
5.06 -4.90 2.32
5.32 -4.95 2.39
4.64 -4.15 2.05
4.63 -3.98 2.01
4.63 -3.82 1.98
4.66 -3.69 1.96
4.85 -3.68 2.01
5.86 -4.27 2.39
5.94 -4.15 2.39
6.02 -4.02 2.39
6.10 -3.90 2.39
6.17 -3.78 2.39
6.24 -3.65 2.39
7.16 -4.00 2.71
7.20 -3.83 2.70
7.24 -3.67 2.69
7.28 -3.51 2.68
6.24 -2.85 2.27
6.24 -2.70 2.25
7.39 -3.02 2.65
6.23 -2.41 2.22
6.22 -2.26 2.20
6.23 -2.12 2.18
9.77 -3.11 3.41
9.89 -2.93 3.43
10.01 -2.75 3.45
10.11 -2.56 3.47
10.20 -2.37 3.49
10.29 -2.17 3.50
10.37 -1.97 3.52
10.44 -1.77 3.53
10.51 -1.56 3.54
6.20 -0.80 2.09
10.67 -1.15 3.58
10.81 -0.95 3.62
10.95 -0.74 3.66
6.19 -0.29 2.07
11.21 -0.30 3.75
11.34 -0.08 3.79
11.46 0.15 3.83
6.19 0.20 2.07
11.72 0.62 3.93
11.86 0.87 3.98
12.04 1.13 4.05
12.22 1.39 4.12
12.38 1.66 4.19
12.54 1.94 4.26
12.68 2.22 4.32
12.80 2.51 4.38
12.91 2.80 4.43
13.08 3.12 4.52
13.26 3.44 4.60
6.15 1.73 2.15
13.68 4.15 4.81
13.91 4.52 4.92
14.13 4.91 5.03
14.34 5.31 5.15
14.53 5.72 5.26
7.33 3.05 2.67
6.14 2.70 2.26
6.14 2.85 2.28
7.12 3.49 2.67
7.05 3.63 2.67
6.97 3.76 2.67
6.88 3.90 2.67
6.09 3.62 2.39
6.02 3.74 2.39
5.94 3.86 2.39
5.86 3.97 2.39
5.78 4.09 2.39
5.69 4.20 2.39
5.60 4.32 2.39
5.52 4.43 2.39
5.42 4.54 2.39
5.33 4.64 2.39
5.24 4.75 2.39
5.14 4.85 2.39
5.04 4.95 2.39
4.94 5.05 2.39
4.83 5.15 2.39
4.73 5.24 2.39
4.62 5.34 2.39
4.51 5.43 2.39
4.40 5.52 2.39
4.29 5.60 2.39
4.17 5.69 2.39
4.06 5.77 2.39
3.94 5.85 2.39
3.82 5.93 2.39
3.70 6.00 2.39
3.58 6.07 2.39
3.46 6.14 2.39
3.33 6.21 2.39
3.21 6.28 2.39
3.08 6.34 2.39
2.95 6.40 2.39
2.82 6.46 2.39
2.69 6.51 2.39
2.53 6.50 2.37
2.43 6.61 2.39
2.29 6.66 2.39
2.16 6.71 2.39
2.08 6.94 2.46
1.97 7.08 2.49
1.82 7.12 2.49
1.68 7.15 2.49
1.54 7.19 2.49
1.39 7.22 2.49
1.25 7.24 2.49
1.10 7.27 2.49
0.95 7.29 2.49
0.81 7.31 2.49
0.66 7.32 2.49
0.51 7.33 2.49
0.37 7.34 2.49
0.22 7.35 2.49
0.07 7.35 2.49
-0.08 7.36 2.49
-0.23 7.35 2.49
-0.37 7.35 2.49
-0.52 7.34 2.49
-0.67 7.33 2.49
-0.82 7.32 2.49
-0.96 7.30 2.49
-1.11 7.28 2.49
-1.26 7.26 2.49
-1.40 7.23 2.49
-1.55 7.20 2.49
-1.69 7.17 2.49
-1.84 7.14 2.49
-1.98 7.10 2.49
-2.12 7.06 2.49
-2.27 7.02 2.49
-2.41 6.97 2.49
-2.55 6.93 2.49
-2.69 6.87 2.49
-2.83 6.82 2.49
-2.96 6.76 2.49
-3.10 6.71 2.49
-3.23 6.64 2.49
-3.37 6.58 2.49
-3.50 6.51 2.49
-3.63 6.44 2.49
-3.76 6.37 2.49
-3.89 6.29 2.49
-4.02 6.22 2.49
-4.14 6.14 2.49
-4.27 6.05 2.49
-4.39 5.97 2.49
-4.51 5.88 2.49
-4.63 5.79 2.49
-4.75 5.70 2.49
-4.86 5.61 2.49
-4.97 5.51 2.49
-5.09 5.41 2.49
-5.20 5.31 2.49
-5.30 5.20 2.49
-5.41 5.10 2.49
-5.51 4.99 2.49
-5.61 4.88 2.49
-5.71 4.77 2.49
-5.81 4.66 2.49
-5.90 4.54 2.49
-5.92 4.37 2.46
-5.92 4.19 2.43
-5.93 4.01 2.40
-6.00 3.89 2.39
-6.08 3.77 2.39
-6.16 3.65 2.39
-6.23 3.53 2.39
-6.30 3.40 2.39
-6.37 3.28 2.39
-6.44 3.15 2.39
-6.51 3.02 2.39
-6.57 2.89 2.39
-6.63 2.76 2.39
-6.68 2.63 2.39
-6.74 2.49 2.39
-6.79 2.36 2.39
-6.84 2.22 2.39
-6.88 2.08 2.39
-6.93 1.95 2.39
-6.97 1.81 2.39
-7.01 1.67 2.39
-7.04 1.53 2.39
-7.07 1.39 2.39
-7.10 1.25 2.39
-7.13 1.10 2.39
-7.15 0.96 2.39
-7.17 0.82 2.39
