ply
format ascii 1.0
element vertex 2898
property float32 x
property float32 y
property float32 z
end_header
-9.88 -18.92 2.41
-9.44 -18.99 2.39
-9.06 -19.18 2.39
-8.68 -19.37 2.39
-8.29 -19.55 2.39
-7.90 -19.72 2.39
-7.51 -19.88 2.39
-7.11 -20.03 2.39
-6.71 -20.17 2.39
-6.30 -20.31 2.39
-5.90 -20.44 2.39
-5.65 -21.16 2.46
-5.29 -21.56 2.49
-4.86 -21.66 2.49
-4.43 -21.76 2.49
-3.99 -21.84 2.49
-3.55 -21.92 2.49
-3.11 -21.99 2.49
-2.67 -22.05 2.49
-2.23 -22.10 2.49
-1.78 -22.14 2.49
-1.34 -22.17 2.49
-0.89 -22.19 2.49
-0.45 -22.20 2.49
-0.00 -18.45 2.49
0.37 -18.45 2.49
0.74 -18.43 2.49
1.11 -18.41 2.49
1.48 -18.38 2.49
1.84 -18.35 2.49
2.21 -18.30 2.49
2.47 -17.50 2.39
2.82 -17.44 2.39
3.17 -17.37 2.39
3.52 -17.30 2.39
3.86 -17.22 2.39
4.20 -17.14 2.39
4.55 -17.04 2.39
4.89 -16.94 2.39
4.83 -15.57 2.21
4.75 -14.28 2.04
5.06 -14.26 2.05
6.22 -16.47 2.39
7.37 -18.40 2.69
7.57 -17.84 2.64
6.39 -14.27 2.13
10.32 -21.86 3.29
10.94 -22.02 3.35
11.60 -22.22 3.41
6.37 -11.62 1.81
13.58 -23.64 3.72
6.36 -10.12 1.63
6.36 -9.67 1.58
6.37 -9.28 1.54
2.62 -0.77 0.38
2.63 -0.72 0.38
43.81 19.34 6.94
43.81 20.40 7.01
33.39 16.37 5.40
31.25 16.11 5.11
29.61 16.02 4.89
28.10 15.94 4.70
26.70 15.87 4.52
25.41 15.80 4.36
24.21 15.74 4.21
22.89 15.54 4.03
21.84 15.48 3.91
20.89 15.45 3.79
20.03 15.44 3.70
19.22 15.44 3.60
18.45 15.44 3.52
17.71 15.44 3.44
17.01 15.44 3.36
16.33 15.44 3.29
15.69 15.44 3.23
15.07 15.43 3.17
14.47 15.43 3.11
13.90 15.43 3.05
13.35 15.43 3.00
12.82 15.43 2.95
12.30 15.43 2.90
6.35 8.30 1.54
6.32 8.62 1.57
10.84 15.43 2.78
10.39 15.43 2.74
9.52 14.76 2.59
6.33 10.26 1.78
8.50 14.42 2.47
8.20 14.58 2.47
7.90 14.74 2.47
7.60 14.89 2.47
7.49 15.42 2.53
6.31 13.70 2.23
6.74 15.42 2.49
6.17 14.95 2.39
5.87 15.06 2.39
5.57 15.17 2.39
5.26 15.28 2.39
4.95 15.38 2.39
4.64 15.47 2.39
4.33 15.56 2.39
4.01 15.64 2.39
3.70 15.72 2.39
3.38 15.79 2.39
3.06 15.85 2.39
2.74 15.91 2.39
2.42 15.96 2.39
2.19 16.69 2.49
1.86 16.73 2.49
1.52 16.77 2.49
1.18 16.79 2.49
0.84 16.81 2.49
0.51 16.83 2.49
0.17 16.84 2.49
-0.17 16.84 2.49
-0.51 16.83 2.49
-0.85 16.82 2.49
-1.18 16.80 2.49
-1.52 16.78 2.49
-1.86 16.75 2.49
-2.20 16.71 2.49
-2.53 16.66 2.49
-2.87 16.61 2.49
-3.20 16.56 2.49
-3.53 16.49 2.49
-3.87 16.42 2.49
-4.20 16.35 2.49
-4.52 16.26 2.49
-4.85 16.18 2.49
-5.18 16.08 2.49
-5.50 15.98 2.49
-5.72 15.58 2.45
-5.89 15.10 2.39
-6.19 14.99 2.39
-6.50 14.87 2.39
-6.80 14.74 2.39
-7.10 14.61 2.39
-7.39 14.47 2.39
-7.68 14.32 2.39
-7.97 14.17 2.39
-8.26 14.02 2.39
-8.55 13.86 2.39
-8.83 13.69 2.39
-5.93 8.80 1.56
-6.09 8.66 1.55
-9.61 13.09 2.38
-9.61 12.56 2.32
-9.60 12.05 2.26
-9.60 11.56 2.20
-9.60 11.10 2.15
-9.60 10.66 2.10
-9.60 10.23 2.05
-9.60 9.83 2.00
-9.60 9.44 1.96
-9.60 9.07 1.92
-9.60 8.71 1.89
-8.87 7.73 1.71
-8.90 7.45 1.69
-9.28 7.46 1.73
-9.60 7.40 1.76
-9.60 7.09 1.73
-9.59 6.80 1.70
-9.59 6.51 1.68
-9.72 6.32 1.68
-14.13 8.79 2.41
-14.32 8.51 2.41
-14.18 8.05 2.35
-14.29 7.73 2.34
-14.49 7.47 2.35
-14.66 7.19 2.35
-9.56 4.45 1.52
-9.55 4.22 1.50
-9.55 3.99 1.49
-9.55 3.77 1.47
-9.55 3.55 1.46
-9.55 3.33 1.45
-9.55 3.12 1.44
-9.55 2.90 1.43
-9.55 2.70 1.42
-9.55 2.49 1.41
-9.55 2.29 1.40
-9.55 2.08 1.39
-9.55 1.88 1.39
-9.55 1.69 1.38
-9.55 1.49 1.37
-9.55 1.29 1.37
-9.55 1.10 1.36
-9.55 0.90 1.36
-9.55 0.71 1.36
-9.55 0.52 1.35
-9.55 0.33 1.35
-9.55 0.14 1.35
-9.55 -0.06 1.35
-9.55 -0.25 1.35
-9.55 -0.44 1.35
-9.55 -0.63 1.35
-9.55 -0.82 1.35
-9.55 -1.02 1.35
-9.54 -1.21 1.35
-9.54 -1.41 1.35
-9.54 -1.60 1.36
-9.54 -1.80 1.36
-9.54 -2.00 1.36
-9.54 -2.20 1.37
-9.54 -2.40 1.37
-9.54 -2.61 1.38
-9.54 -2.82 1.39
-9.54 -3.02 1.39
-9.54 -3.24 1.40
-9.54 -3.45 1.41
-9.54 -3.67 1.42
-9.54 -3.89 1.43
-9.54 -4.12 1.44
-9.54 -4.34 1.45
-9.54 -4.58 1.46
-9.54 -4.81 1.48
-9.54 -5.06 1.49
-9.54 -5.30 1.51
-9.54 -5.56 1.52
-9.54 -5.82 1.54
-9.53 -6.08 1.56
-9.25 -6.16 1.53
-13.84 -9.63 2.32
-13.72 -9.96 2.33
-13.54 -10.25 2.33
-13.26 -10.47 2.32
-12.99 -10.68 2.31
-12.71 -10.88 2.29
-12.44 -11.09 2.28
-10.79 -10.02 2.02
-10.48 -10.13 1.99
-10.48 -10.55 2.03
-10.48 -10.98 2.07
-11.28 -12.30 2.28
-11.09 -12.59 2.29
-10.90 -12.88 2.30
-10.70 -13.18 2.31
-10.50 -13.47 2.33
-10.29 -13.76 2.34
-10.31 -14.38 2.41
-10.02 -14.59 2.41
-9.67 -14.70 2.39
-9.37 -14.89 2.39
-9.08 -15.09 2.39
-8.78 -15.27 2.39
-8.47 -15.45 2.39
-8.16 -15.62 2.39
-7.85 -15.79 2.39
-7.53 -15.95 2.39
-7.22 -16.10 2.39
-6.89 -16.25 2.39
-6.57 -16.39 2.39
-6.24 -16.52 2.39
-5.91 -16.65 2.39
-5.66 -17.02 2.43
-5.46 -17.61 2.49
-5.11 -17.72 2.49
-4.76 -17.82 2.49
-4.40 -17.91 2.49
-4.04 -18.00 2.49
-3.68 -18.08 2.49
-3.31 -18.15 2.49
-2.95 -18.22 2.49
-2.58 -18.27 2.49
-2.22 -18.32 2.49
-1.85 -18.36 2.49
-1.48 -18.39 2.49
-1.11 -18.42 2.49
-0.74 -18.44 2.49
-0.37 -18.45 2.49
-0.00 -15.77 2.49
0.31 -15.76 2.49
0.63 -15.75 2.49
0.95 -15.73 2.49
1.26 -15.71 2.49
1.58 -15.68 2.49
1.89 -15.64 2.49
2.20 -15.60 2.49
2.41 -14.91 2.39
2.71 -14.85 2.39
3.01 -14.79 2.39
3.30 -14.72 2.39
3.59 -14.65 2.39
3.89 -14.57 2.39
4.18 -14.49 2.39
4.46 -14.40 2.39
4.75 -14.30 2.39
5.03 -14.20 2.39
5.32 -14.09 2.39
5.60 -13.97 2.39
5.87 -13.85 2.39
6.15 -13.73 2.39
6.96 -14.74 2.59
6.37 -12.82 2.28
9.75 -18.67 3.35
10.24 -18.68 3.39
10.70 -18.62 3.42
11.15 -18.54 3.45
11.60 -18.45 3.48
12.27 -18.67 3.57
12.98 -18.91 3.66
6.36 -8.88 1.75
6.35 -7.51 1.58
6.35 -7.21 1.54
2.62 -0.77 0.45
2.63 -0.72 0.45
43.81 19.33 8.04
43.81 20.39 8.12
39.63 19.43 7.42
39.63 20.42 7.50
35.37 19.14 6.77
34.65 19.66 6.71
27.55 16.37 5.40
25.93 16.12 5.15
24.69 16.05 4.97
23.54 15.98 4.80
22.46 15.91 4.65
21.45 15.86 4.51
20.50 15.80 4.38
19.61 15.75 4.26
18.77 15.71 4.15
17.80 15.52 4.00
17.04 15.47 3.90
16.34 15.44 3.81
15.69 15.44 3.74
6.33 6.48 1.54
6.33 6.74 1.57
13.90 15.43 3.53
6.35 7.34 1.65
6.32 7.61 1.68
12.30 15.43 3.36
6.33 8.28 1.77
6.34 8.64 1.83
10.85 15.43 3.21
9.36 13.90 2.86
8.74 13.56 2.75
6.33 10.26 2.06
7.35 12.48 2.47
7.09 12.61 2.47
6.95 12.96 2.51
6.76 13.25 2.54
6.11 12.59 2.39
5.86 12.71 2.39
5.60 12.82 2.39
5.34 12.93 2.39
5.08 13.03 2.39
4.81 13.13 2.39
4.55 13.22 2.39
4.28 13.30 2.39
4.01 13.38 2.39
3.74 13.46 2.39
3.29 12.84 2.27
3.14 13.34 2.35
2.78 12.96 2.27
2.65 13.71 2.39
2.37 13.76 2.39
2.19 14.40 2.49
1.90 14.44 2.49
1.61 14.48 2.49
1.31 14.50 2.49
1.02 14.53 2.49
0.73 14.55 2.49
0.44 14.56 2.49
0.14 14.57 2.49
-0.15 14.57 2.49
-0.44 14.56 2.49
-0.73 14.55 2.49
-1.03 14.54 2.49
-1.32 14.51 2.49
-1.61 14.49 2.49
-1.90 14.45 2.49
-2.19 14.42 2.49
-2.48 14.37 2.49
-2.77 14.32 2.49
-3.06 14.27 2.49
-3.34 14.20 2.49
-3.63 14.14 2.49
-3.91 14.07 2.49
-4.20 13.99 2.49
-4.48 13.91 2.49
-4.76 13.82 2.49
-5.04 13.72 2.49
-5.31 13.62 2.49
-5.59 13.52 2.49
-5.71 13.07 2.43
-5.88 12.74 2.39
-6.13 12.63 2.39
-6.39 12.51 2.39
-6.64 12.38 2.39
-6.89 12.25 2.39
-7.14 12.12 2.39
-7.39 11.97 2.39
-7.63 11.83 2.39
-5.90 8.76 1.79
-6.07 8.64 1.79
-8.34 11.37 2.39
-8.57 11.20 2.39
-8.80 11.03 2.39
-9.02 10.86 2.39
-9.24 10.68 2.39
-9.46 10.50 2.39
-9.60 10.23 2.37
-9.60 9.83 2.32
-9.60 9.44 2.27
-9.60 9.07 2.23
-9.60 8.71 2.19
-8.88 7.74 1.99
-8.92 7.46 1.96
-9.30 7.47 2.01
-9.60 7.39 2.04
-9.60 7.09 2.01
-9.59 6.80 1.98
-9.59 6.51 1.95
-9.72 6.32 1.95
-10.84 6.74 2.14
-12.39 7.36 2.41
-12.54 7.11 2.41
-12.10 6.55 2.30
-12.26 6.32 2.31
-12.44 6.10 2.31
-9.56 4.45 1.76
-9.55 4.22 1.74
-9.55 3.99 1.73
-9.55 3.76 1.71
-9.55 3.54 1.70
-9.55 3.33 1.68
-9.55 3.11 1.67
-9.55 2.90 1.66
-9.55 2.69 1.65
-9.55 2.49 1.64
-9.55 2.29 1.63
-9.55 2.08 1.62
-9.55 1.88 1.61
-9.55 1.68 1.60
-9.55 1.49 1.60
-9.55 1.29 1.59
-9.55 1.10 1.58
-9.55 0.90 1.58
-9.55 0.71 1.58
-9.55 0.52 1.57
-9.55 0.33 1.57
-9.55 0.13 1.57
-9.55 -0.06 1.57
-9.55 -0.25 1.57
-9.55 -0.44 1.57
-9.55 -0.63 1.57
-9.55 -0.83 1.57
-9.55 -1.02 1.57
-9.54 -1.21 1.57
-9.54 -1.41 1.57
-9.54 -1.61 1.58
-9.54 -1.80 1.58
-9.54 -2.00 1.59
-9.54 -2.20 1.59
-9.54 -2.41 1.60
-9.54 -2.61 1.61
-9.54 -2.82 1.61
-9.54 -3.03 1.62
-9.54 -3.24 1.63
-9.54 -3.45 1.64
-9.54 -3.67 1.65
-9.54 -3.89 1.67
-9.54 -4.12 1.68
-9.54 -4.35 1.69
-9.54 -4.58 1.71
-9.54 -4.82 1.72
-9.54 -5.06 1.74
-9.54 -5.31 1.76
-9.54 -5.56 1.78
-9.54 -5.82 1.80
-9.53 -6.08 1.82
-9.25 -6.16 1.78
-10.49 -7.30 2.05
-10.49 -7.62 2.08
-10.49 -7.94 2.11
-10.49 -8.28 2.14
-11.54 -9.49 2.39
-11.29 -9.68 2.38
-11.10 -9.90 2.38
-10.82 -10.04 2.36
-10.51 -10.16 2.33
-10.51 -10.57 2.38
-10.42 -10.91 2.41
-10.20 -11.12 2.41
-9.98 -11.33 2.41
-9.75 -11.53 2.41
-9.46 -11.65 2.39
-9.23 -11.85 2.39
-9.00 -12.04 2.39
-8.76 -12.22 2.39
-8.51 -12.40 2.39
-8.27 -12.57 2.39
-8.01 -12.74 2.39
-7.76 -12.90 2.39
-7.50 -13.06 2.39
-7.24 -13.21 2.39
-6.98 -13.36 2.39
-6.71 -13.50 2.39
-6.44 -13.64 2.39
-6.17 -13.77 2.39
-5.89 -13.89 2.39
-5.67 -14.15 2.42
-5.56 -14.73 2.49
-5.27 -14.84 2.49
-4.97 -14.95 2.49
-4.67 -15.05 2.49
-4.37 -15.14 2.49
-4.06 -15.23 2.49
-3.76 -15.31 2.49
-3.45 -15.38 2.49
-3.14 -15.45 2.49
-2.83 -15.51 2.49
-2.52 -15.57 2.49
-2.21 -15.61 2.49
-1.89 -15.66 2.49
-1.58 -15.69 2.49
-1.27 -15.72 2.49
-0.95 -15.74 2.49
-0.63 -15.76 2.49
-0.32 -15.77 2.49
-0.00 -13.75 2.49
0.27 -13.75 2.49
0.55 -13.74 2.49
0.83 -13.73 2.49
1.10 -13.70 2.49
1.37 -13.68 2.49
1.65 -13.65 2.49
1.92 -13.61 2.49
2.19 -13.56 2.49
2.39 -13.10 2.42
2.62 -12.90 2.39
2.74 -12.23 2.28
3.08 -12.57 2.35
3.32 -12.46 2.34
3.46 -12.00 2.27
3.89 -12.56 2.39
4.14 -12.48 2.39
4.39 -12.39 2.39
4.64 -12.29 2.39
4.88 -12.19 2.39
5.12 -12.09 2.39
5.36 -11.98 2.39
5.60 -11.87 2.39
5.84 -11.75 2.39
6.07 -11.62 2.39
6.30 -11.49 2.39
7.39 -12.87 2.71
6.36 -10.59 2.26
6.36 -10.12 2.18
10.59 -16.12 3.53
11.08 -16.15 3.58
11.53 -16.10 3.62
12.10 -16.20 3.70
12.75 -16.37 3.80
13.37 -16.48 3.89
14.16 -16.75 4.02
15.28 -17.36 4.24
27.95 -30.50 7.59
28.88 -30.27 7.68
6.35 -6.39 1.66
6.36 -6.15 1.63
31.67 -29.42 7.95
6.35 -5.67 1.57
6.35 -5.44 1.54
34.53 -28.41 8.24
35.51 -28.05 8.34
37.40 -28.34 8.66
2.62 -0.77 0.51
2.63 -0.72 0.51
43.81 19.33 9.15
43.81 20.39 9.24
39.63 19.42 8.45
39.62 20.41 8.54
35.38 19.14 7.71
34.65 19.65 7.64
34.64 20.58 7.73
30.78 19.13 6.96
29.57 19.21 6.77
29.57 20.07 6.87
23.19 16.43 5.46
21.90 16.19 5.24
6.33 4.88 1.54
6.33 5.08 1.56
19.08 15.97 4.79
18.26 15.91 4.67
17.48 15.87 4.55
6.34 5.99 1.68
16.04 15.78 4.34
15.37 15.74 4.25
14.73 15.70 4.16
14.12 15.67 4.08
13.40 15.49 3.96
6.32 7.61 1.91
12.30 15.43 3.82
6.35 8.30 2.02
11.32 15.43 3.70
7.47 10.63 2.52
7.16 10.62 2.48
6.33 9.81 2.26
6.70 10.86 2.47
6.26 10.63 2.39
6.04 10.75 2.39
5.83 10.86 2.39
5.60 10.97 2.39
5.38 11.08 2.39
5.16 11.18 2.39
4.93 11.28 2.39
4.70 11.38 2.39
4.47 11.47 2.39
4.24 11.55 2.39
4.00 11.63 2.39
3.77 11.71 2.39
3.35 11.18 2.27
3.24 11.65 2.35
3.01 11.72 2.35
2.69 11.45 2.29
2.57 12.02 2.39
2.34 12.14 2.40
2.18 12.64 2.49
1.92 12.68 2.49
1.67 12.71 2.49
1.41 12.74 2.49
1.16 12.77 2.49
0.90 12.79 2.49
0.64 12.81 2.49
0.39 12.82 2.49
0.13 12.82 2.49
-0.13 12.82 2.49
-0.39 12.82 2.49
-0.65 12.81 2.49
-0.90 12.80 2.49
-1.16 12.78 2.49
-1.42 12.75 2.49
-1.67 12.72 2.49
-1.93 12.69 2.49
-2.18 12.65 2.49
-2.44 12.61 2.49
-2.69 12.56 2.49
-2.94 12.50 2.49
-3.20 12.44 2.49
-3.45 12.38 2.49
-3.69 12.31 2.49
-3.94 12.24 2.49
-4.19 12.16 2.49
-4.43 12.08 2.49
-4.68 11.99 2.49
-4.92 11.90 2.49
-5.16 11.80 2.49
-5.40 11.70 2.49
-5.63 11.59 2.49
-5.71 11.18 2.43
-5.84 10.89 2.39
-6.06 10.78 2.39
-6.28 10.66 2.39
-6.50 10.53 2.39
-6.71 10.40 2.39
-6.09 9.04 2.10
-6.07 8.63 2.04
-7.33 9.99 2.39
-7.54 9.85 2.39
-7.74 9.70 2.39
-7.93 9.55 2.39
-8.13 9.39 2.39
-8.32 9.23 2.39
-8.51 9.07 2.39
-8.69 8.90 2.39
-8.88 8.73 2.39
-9.05 8.55 2.39
-9.23 8.37 2.39
-8.90 7.75 2.26
-8.94 7.48 2.23
-8.33 6.69 2.05
-8.33 6.42 2.01
-8.56 6.32 2.04
-9.59 6.80 2.25
-9.59 6.51 2.22
-9.72 6.32 2.22
-10.46 6.50 2.35
-10.56 6.27 2.34
-10.66 6.05 2.34
-10.76 5.82 2.33
-10.86 5.59 2.33
-10.95 5.37 2.32
-9.56 4.45 2.00
-9.55 4.21 1.98
-9.55 3.99 1.97
-9.55 3.76 1.95
-9.55 3.54 1.93
-9.55 3.33 1.92
-9.55 3.11 1.90
-9.55 2.90 1.89
-9.55 2.69 1.88
-9.55 2.49 1.87
-9.55 2.28 1.86
-9.55 2.08 1.85
-9.55 1.88 1.84
-9.55 1.68 1.83
-9.55 1.49 1.82
-9.55 1.29 1.81
-9.55 1.10 1.81
-9.55 0.90 1.80
-9.55 0.71 1.80
-9.55 0.52 1.80
-9.55 0.32 1.79
-9.55 0.13 1.79
-9.55 -0.06 1.79
-9.55 -0.25 1.79
-9.55 -0.44 1.79
-9.55 -0.63 1.79
-9.55 -0.83 1.79
-9.55 -1.02 1.79
-9.54 -1.22 1.79
-9.54 -1.41 1.80
-9.54 -1.61 1.80
-9.54 -1.80 1.81
-9.54 -2.00 1.81
-9.54 -2.20 1.82
-9.54 -2.41 1.83
-9.54 -2.61 1.84
-9.54 -2.82 1.85
-9.54 -3.03 1.86
-9.54 -3.24 1.87
-9.54 -3.45 1.88
-9.54 -3.67 1.89
-9.54 -3.89 1.91
-9.54 -4.12 1.92
-9.54 -4.35 1.94
-9.54 -4.58 1.95
-9.54 -4.82 1.97
-9.54 -5.06 1.99
-9.54 -5.31 2.01
-9.54 -5.56 2.03
-9.54 -5.82 2.06
-9.53 -6.08 2.08
-9.25 -6.16 2.04
-10.51 -7.32 2.35
-10.51 -7.63 2.39
-10.46 -7.92 2.41
-10.30 -8.13 2.41
-10.14 -8.34 2.41
-9.98 -8.55 2.41
-9.81 -8.75 2.41
-9.57 -8.89 2.39
-9.40 -9.09 2.39
-9.22 -9.28 2.39
-9.03 -9.46 2.39
-8.85 -9.65 2.39
-8.65 -9.83 2.39
-8.46 -10.00 2.39
-8.26 -10.18 2.39
-8.06 -10.34 2.39
-7.85 -10.51 2.39
-7.64 -10.67 2.39
-7.43 -10.82 2.39
-7.21 -10.97 2.39
-6.99 -11.12 2.39
-6.77 -11.26 2.39
-6.55 -11.40 2.39
-6.32 -11.53 2.39
-6.09 -11.66 2.39
-5.88 -11.82 2.40
-5.67 -12.01 2.41
-5.61 -12.53 2.49
-5.36 -12.64 2.49
-5.11 -12.75 2.49
-4.85 -12.85 2.49
-4.59 -12.95 2.49
-4.33 -13.04 2.49
-4.07 -13.13 2.49
-3.81 -13.21 2.49
-3.54 -13.28 2.49
-3.28 -13.35 2.49
-3.01 -13.42 2.49
-2.74 -13.48 2.49
-2.47 -13.53 2.49
-2.20 -13.58 2.49
-1.93 -13.62 2.49
-1.65 -13.66 2.49
-1.38 -13.69 2.49
-1.10 -13.71 2.49
-0.83 -13.73 2.49
-0.55 -13.74 2.49
-0.28 -13.75 2.49
-0.00 -12.18 2.49
0.24 -12.18 2.49
0.49 -12.17 2.49
0.73 -12.16 2.49
0.97 -12.14 2.49
1.22 -12.12 2.49
1.46 -12.09 2.49
1.70 -12.06 2.49
1.94 -12.02 2.49
2.18 -11.97 2.49
2.38 -11.72 2.45
2.57 -11.46 2.41
2.74 -11.16 2.36
2.85 -10.69 2.27
3.17 -11.02 2.35
3.32 -10.72 2.30
3.67 -11.06 2.39
3.89 -10.98 2.39
4.11 -10.90 2.39
4.33 -10.81 2.39
4.54 -10.72 2.39
4.75 -10.62 2.39
4.96 -10.52 2.39
5.17 -10.41 2.39
5.38 -10.30 2.39
5.58 -10.19 2.39
5.78 -10.07 2.39
5.98 -9.95 2.39
6.18 -9.82 2.39
6.37 -9.70 2.39
7.31 -10.66 2.67
6.36 -8.88 2.25
6.36 -8.52 2.19
11.08 -14.23 3.72
6.36 -7.84 2.09
12.11 -14.33 3.88
12.68 -14.41 3.97
13.27 -14.48 4.06
13.94 -14.61 4.18
6.35 -6.39 1.87
15.68 -15.17 4.52
17.48 -16.24 4.95
6.37 -5.68 1.77
30.27 -25.95 8.27
31.35 -25.80 8.43
32.44 -25.63 8.59
33.62 -25.48 8.77
6.35 -4.62 1.63
36.04 -25.10 9.14
6.35 -4.24 1.59
6.35 -4.05 1.57
6.34 -3.87 1.55
6.37 -3.72 1.54
40.70 -22.66 9.72
41.39 -21.97 9.78
42.12 -21.29 9.86
43.28 -20.79 10.04
43.26 -19.73 9.95
43.89 -18.96 10.01
2.62 -0.78 0.57
2.63 -0.72 0.57
43.81 19.32 10.28
43.81 20.38 10.37
39.62 19.41 9.48
39.62 20.41 9.58
6.33 3.42 1.55
6.33 3.59 1.57
6.34 3.76 1.59
30.78 19.13 7.81
29.57 19.21 7.60
29.57 20.06 7.70
25.88 19.12 6.94
24.82 19.12 6.76
6.34 5.09 1.76
24.41 20.42 6.88
18.73 16.32 5.37
17.78 16.13 5.19
17.01 16.07 5.06
16.29 16.02 4.95
6.33 6.48 1.96
14.95 15.93 4.73
6.33 7.03 2.05
13.72 15.86 4.55
6.32 7.61 2.15
12.59 15.79 4.38
6.33 8.27 2.26
7.02 9.57 2.58
6.34 9.01 2.39
6.15 9.13 2.39
5.97 9.25 2.39
5.78 9.37 2.39
5.59 9.48 2.39
5.39 9.59 2.39
5.20 9.69 2.39
5.00 9.79 2.39
4.80 9.89 2.39
4.60 9.98 2.39
4.40 10.07 2.39
4.19 10.15 2.39
3.99 10.23 2.39
3.78 10.31 2.39
3.39 9.85 2.27
3.28 10.20 2.33
3.10 10.34 2.35
2.79 10.03 2.27
2.70 10.51 2.36
2.53 10.75 2.41
2.34 10.93 2.44
2.17 11.24 2.49
1.94 11.28 2.49
1.72 11.31 2.49
1.49 11.34 2.49
1.26 11.37 2.49
1.03 11.39 2.49
0.80 11.41 2.49
0.57 11.43 2.49
0.34 11.44 2.49
0.11 11.44 2.49
-0.12 11.44 2.49
-0.35 11.44 2.49
-0.58 11.43 2.49
-0.81 11.42 2.49
-1.04 11.40 2.49
-1.26 11.38 2.49
-1.49 11.35 2.49
-1.72 11.32 2.49
-1.95 11.29 2.49
-2.18 11.25 2.49
-2.40 11.20 2.49
-2.63 11.15 2.49
-2.85 11.10 2.49
-3.07 11.04 2.49
-3.30 10.98 2.49
-3.52 10.92 2.49
-3.74 10.85 2.49
-3.96 10.77 2.49
-4.17 10.69 2.49
-4.39 10.61 2.49
-4.60 10.52 2.49
-4.81 10.43 2.49
-5.02 10.34 2.49
-5.23 10.24 2.49
-5.44 10.13 2.49
-5.64 10.02 2.49
-5.71 9.68 2.44
-5.79 9.39 2.39
-5.98 9.28 2.39
-6.09 9.04 2.36
-6.07 8.63 2.28
-6.54 8.91 2.39
-6.72 8.78 2.39
-6.90 8.65 2.39
-7.07 8.51 2.39
-7.25 8.37 2.39
-7.42 8.23 2.39
-7.58 8.08 2.39
-7.75 7.93 2.39
-7.91 7.78 2.39
-8.07 7.62 2.39
-8.22 7.46 2.39
-8.38 7.30 2.39
-8.53 7.13 2.39
-8.36 6.71 2.31
-8.35 6.43 2.26
-8.59 6.35 2.30
-9.09 6.44 2.39
-9.22 6.26 2.39
-9.35 6.07 2.39
-9.48 5.89 2.39
-9.60 5.70 2.39
-9.72 5.51 2.39
-8.33 4.50 2.03
-8.33 4.29 2.00
-8.34 4.09 1.99
-8.73 4.06 2.06
-9.55 4.21 2.23
-9.55 3.99 2.21
-9.55 3.76 2.19
-9.55 3.54 2.17
-9.55 3.32 2.15
-9.55 3.11 2.14
-9.55 2.90 2.12
-9.55 2.69 2.11
-9.55 2.49 2.10
-9.55 2.28 2.09
-9.55 2.08 2.07
-9.55 1.88 2.06
-9.55 1.68 2.06
-9.55 1.48 2.05
-9.55 1.29 2.04
-9.55 1.09 2.03
-9.55 0.90 2.03
-9.55 0.71 2.02
-9.55 0.51 2.02
-9.55 0.32 2.02
-9.55 0.13 2.01
-9.55 -0.06 2.01
-9.55 -0.25 2.01
-9.55 -0.44 2.01
-9.55 -0.64 2.01
-9.55 -0.83 2.01
-9.55 -1.02 2.02
-9.54 -1.22 2.02
-9.54 -1.41 2.02
-9.54 -1.61 2.03
-9.54 -1.81 2.04
-9.54 -2.00 2.04
-9.54 -2.21 2.05
-9.54 -2.41 2.06
-9.54 -2.61 2.07
-9.54 -2.82 2.08
-9.54 -3.03 2.09
-9.54 -3.24 2.10
-9.54 -3.46 2.12
-9.54 -3.67 2.13
-9.54 -3.89 2.15
-9.54 -4.12 2.16
-9.54 -4.35 2.18
-9.54 -4.58 2.20
-9.54 -4.82 2.22
-9.54 -5.06 2.24
-9.54 -5.31 2.27
-9.54 -5.56 2.29
-9.54 -5.82 2.32
-9.53 -6.09 2.35
-9.25 -6.17 2.30
-9.48 -6.60 2.39
-9.35 -6.79 2.39
-9.21 -6.98 2.39
-9.08 -7.17 2.39
-8.93 -7.35 2.39
-8.79 -7.53 2.39
-8.64 -7.71 2.39
-8.49 -7.89 2.39
-8.33 -8.06 2.39
-8.17 -8.23 2.39
-8.01 -8.39 2.39
-7.84 -8.55 2.39
-7.67 -8.71 2.39
-7.50 -8.87 2.39
-7.32 -9.02 2.39
-7.14 -9.17 2.39
-6.96 -9.31 2.39
-6.77 -9.45 2.39
-6.58 -9.59 2.39
-6.39 -9.72 2.39
-6.20 -9.85 2.39
-6.00 -9.98 2.39
-5.80 -10.10 2.39
-5.67 -10.35 2.42
-5.63 -10.78 2.49
-5.41 -10.89 2.49
-5.19 -11.00 2.49
-4.97 -11.10 2.49
-4.75 -11.20 2.49
-4.53 -11.30 2.49
-4.30 -11.39 2.49
-4.07 -11.47 2.49
-3.84 -11.55 2.49
-3.61 -11.63 2.49
-3.37 -11.70 2.49
-3.14 -11.77 2.49
-2.90 -11.83 2.49
-2.67 -11.89 2.49
-2.43 -11.94 2.49
-2.19 -11.99 2.49
-1.95 -12.03 2.49
-1.71 -12.07 2.49
-1.46 -12.10 2.49
-1.22 -12.12 2.49
-0.98 -12.15 2.49
-0.73 -12.16 2.49
-0.49 -12.18 2.49
-0.25 -12.18 2.49
-0.00 -10.93 2.49
0.22 -10.92 2.49
0.44 -10.92 2.49
0.66 -10.90 2.49
0.87 -10.89 2.49
1.09 -10.87 2.49
1.31 -10.84 2.49
1.53 -10.81 2.49
1.74 -10.78 2.49
1.96 -10.74 2.49
2.17 -10.70 2.49
2.38 -10.61 2.49
2.49 -10.16 2.39
2.69 -10.10 2.39
2.75 -9.54 2.27
3.04 -9.82 2.35
3.24 -9.76 2.35
3.32 -9.37 2.28
3.69 -9.77 2.39
3.88 -9.69 2.39
4.07 -9.61 2.39
4.26 -9.53 2.39
4.45 -9.44 2.39
4.64 -9.34 2.39
4.82 -9.24 2.39
5.01 -9.14 2.39
5.19 -9.04 2.39
5.37 -8.93 2.39
5.54 -8.82 2.39
5.72 -8.70 2.39
5.89 -8.58 2.39
6.06 -8.46 2.39
6.22 -8.33 2.39
6.38 -8.20 2.39
7.51 -9.25 2.74
6.36 -7.53 2.27
11.14 -12.66 3.88
11.64 -12.71 3.97
6.37 -6.68 2.13
6.35 -6.40 2.08
13.25 -12.82 4.25
13.84 -12.86 4.36
14.57 -13.01 4.51
6.35 -5.45 1.93
6.35 -5.23 1.90
17.65 -13.95 5.21
29.30 -22.22 8.51
30.68 -22.30 8.78
31.93 -22.25 9.02
33.57 -22.41 9.36
35.26 -22.52 9.70
6.35 -3.88 1.73
37.85 -22.09 10.18
38.83 -21.63 10.33
39.89 -21.18 10.50
40.81 -20.64 10.64
24.00 -11.54 6.20
24.36 -11.11 6.23
43.64 -18.86 11.07
6.35 -2.45 1.59
6.34 -2.30 1.57
6.34 -2.16 1.56
6.34 -2.01 1.55
2.62 -0.78 0.64
2.63 -0.72 0.64
47.78 3.53 11.31
47.35 4.46 11.24
47.21 5.40 11.23
48.15 6.49 11.49
6.34 1.38 1.54
6.33 1.51 1.54
6.33 1.65 1.55
6.33 1.78 1.56
6.33 1.92 1.57
41.18 15.26 10.45
43.63 19.24 11.36
40.83 18.99 10.74
39.62 19.40 10.52
6.34 3.26 1.70
35.40 19.13 9.61
6.33 3.59 1.74
34.64 20.57 9.63
30.79 19.13 8.67
29.57 19.20 8.43
29.56 20.05 8.55
6.34 4.49 1.86
25.88 19.12 7.71
24.82 19.12 7.51
24.41 19.59 7.50
24.40 20.41 7.63
20.24 19.11 6.68
19.44 19.11 6.55
19.15 19.59 6.58
15.32 16.33 5.38
6.33 7.02 2.27
7.40 8.55 2.72
6.32 7.61 2.38
6.20 7.77 2.39
6.04 7.89 2.39
5.88 8.01 2.39
5.71 8.12 2.39
5.55 8.23 2.39
5.38 8.34 2.39
5.21 8.44 2.39
5.04 8.55 2.39
4.86 8.64 2.39
4.69 8.74 2.39
4.51 8.83 2.39
4.33 8.91 2.39
4.15 9.00 2.39
3.97 9.08 2.39
3.78 9.15 2.39
3.41 8.76 2.27
3.24 8.82 2.27
3.17 9.21 2.35
2.98 9.27 2.35
2.70 9.02 2.27
2.65 9.54 2.39
2.46 9.59 2.39
2.34 9.95 2.47
2.16 10.09 2.49
1.96 10.13 2.49
1.75 10.17 2.49
1.55 10.20 2.49
1.34 10.23 2.49
1.14 10.26 2.49
0.93 10.28 2.49
0.72 10.29 2.49
0.52 10.31 2.49
0.31 10.32 2.49
0.10 10.32 2.49
-0.11 10.32 2.49
-0.31 10.32 2.49
-0.52 10.31 2.49
-0.73 10.30 2.49
-0.93 10.28 2.49
-1.14 10.26 2.49
-1.35 10.24 2.49
-1.55 10.21 2.49
-1.76 10.18 2.49
-1.96 10.14 2.49
-2.17 10.10 2.49
-2.37 10.06 2.49
-2.57 10.01 2.49
-2.77 9.96 2.49
-2.97 9.90 2.49
-3.17 9.84 2.49
-3.37 9.78 2.49
-3.57 9.71 2.49
-3.76 9.64 2.49
-3.96 9.57 2.49
-4.15 9.49 2.49
-4.34 9.40 2.49
-4.53 9.32 2.49
-4.72 9.23 2.49
-4.90 9.13 2.49
-5.09 9.04 2.49
-5.27 8.94 2.49
-5.45 8.83 2.49
-5.63 8.72 2.49
-5.70 8.46 2.45
-5.73 8.14 2.39
-5.91 8.05 2.40
-6.06 7.91 2.39
-6.22 7.79 2.39
-6.38 7.67 2.39
-6.53 7.54 2.39
-6.68 7.41 2.39
-6.84 7.28 2.39
-6.98 7.14 2.39
-7.13 7.01 2.39
-7.27 6.86 2.39
-7.41 6.72 2.39
-7.55 6.57 2.39
-7.68 6.42 2.39
-7.81 6.27 2.39
-7.94 6.11 2.39
-8.07 5.96 2.39
-8.19 5.80 2.39
-8.31 5.63 2.39
-8.42 5.47 2.39
-8.53 5.30 2.39
-8.64 5.13 2.39
-8.75 4.96 2.39
-8.34 4.51 2.25
-8.33 4.29 2.23
-8.35 4.09 2.21
-9.14 4.25 2.39
-9.23 4.07 2.39
-9.31 3.88 2.39
-9.39 3.70 2.39
-9.47 3.51 2.39
-9.54 3.32 2.39
-9.55 3.11 2.38
-9.55 2.90 2.36
-9.55 2.69 2.34
-9.55 2.48 2.33
-9.55 2.28 2.32
-9.55 2.08 2.31
-9.55 1.88 2.29
-9.55 1.68 2.28
-9.55 1.48 2.28
-9.55 1.29 2.27
-9.55 1.09 2.26
-9.55 0.90 2.25
-9.55 0.71 2.25
-9.55 0.51 2.24
-9.55 0.32 2.24
-9.55 0.13 2.24
-9.55 -0.06 2.24
-9.55 -0.25 2.24
-9.55 -0.45 2.24
-9.55 -0.64 2.24
-9.55 -0.83 2.24
-9.55 -1.02 2.24
-9.54 -1.22 2.25
-9.54 -1.41 2.25
-9.54 -1.61 2.26
-9.54 -1.81 2.26
-9.54 -2.01 2.27
-9.54 -2.21 2.28
-9.54 -2.41 2.29
-9.54 -2.61 2.30
-9.54 -2.82 2.31
-9.54 -3.03 2.33
-9.54 -3.24 2.34
-9.54 -3.46 2.36
-9.54 -3.67 2.37
-9.55 -3.90 2.39
-9.47 -4.09 2.39
-9.39 -4.28 2.39
-9.31 -4.47 2.39
-9.22 -4.66 2.39
-9.13 -4.85 2.39
-9.04 -5.03 2.39
-8.94 -5.21 2.39
-8.84 -5.40 2.39
-8.73 -5.57 2.39
-8.62 -5.75 2.39
-8.51 -5.92 2.39
-8.39 -6.10 2.39
-8.27 -6.27 2.39
-8.15 -6.43 2.39
-8.02 -6.60 2.39
-7.89 -6.76 2.39
-7.75 -6.92 2.39
-7.62 -7.08 2.39
-7.48 -7.23 2.39
-7.33 -7.38 2.39
-7.19 -7.53 2.39
-7.04 -7.68 2.39
-6.88 -7.82 2.39
-6.73 -7.96 2.39
-6.57 -8.09 2.39
-6.41 -8.23 2.39
-6.24 -8.36 2.39
-6.08 -8.48 2.39
-5.91 -8.60 2.39
-5.73 -8.72 2.39
-5.67 -9.02 2.44
-5.61 -9.34 2.49
-5.43 -9.45 2.49
-5.24 -9.56 2.49
-5.05 -9.67 2.49
-4.85 -9.77 2.49
-4.66 -9.86 2.49
-4.46 -9.96 2.49
-4.26 -10.05 2.49
-4.06 -10.13 2.49
-3.86 -10.21 2.49
-3.65 -10.29 2.49
-3.44 -10.36 2.49
-3.24 -10.43 2.49
-3.03 -10.49 2.49
-2.82 -10.55 2.49
-2.60 -10.61 2.49
-2.39 -10.66 2.49
-2.18 -10.71 2.49
-1.96 -10.75 2.49
-1.75 -10.79 2.49
-1.53 -10.82 2.49
-1.31 -10.85 2.49
-1.09 -10.87 2.49
-0.88 -10.89 2.49
-0.66 -10.91 2.49
-0.44 -10.92 2.49
-0.22 -10.92 2.49
-0.00 -9.89 2.49
0.20 -9.89 2.49
0.39 -9.89 2.49
0.59 -9.87 2.49
0.79 -9.86 2.49
0.99 -9.84 2.49
1.18 -9.82 2.49
1.38 -9.79 2.49
1.58 -9.76 2.49
1.77 -9.73 2.49
1.97 -9.69 2.49
2.16 -9.64 2.49
2.35 -9.60 2.49
2.44 -9.15 2.39
2.62 -9.10 2.39
2.73 -8.81 2.33
2.83 -8.53 2.27
3.00 -8.47 2.27
3.18 -8.44 2.28
3.38 -8.44 2.30
3.69 -8.71 2.39
3.86 -8.63 2.39
4.03 -8.55 2.39
4.20 -8.46 2.39
4.37 -8.37 2.39
4.54 -8.28 2.39
4.70 -8.19 2.39
4.86 -8.09 2.39
5.02 -7.99 2.39
5.18 -7.88 2.39
5.33 -7.78 2.39
5.49 -7.66 2.39
5.64 -7.55 2.39
5.78 -7.43 2.39
5.93 -7.31 2.39
6.07 -7.19 2.39
6.21 -7.06 2.39
6.35 -6.93 2.39
7.55 -7.92 2.78
6.35 -6.40 2.29
6.36 -6.16 2.25
12.21 -11.36 4.25
12.73 -11.37 4.35
13.27 -11.38 4.46
13.84 -11.39 4.57
14.52 -11.48 4.72
15.24 -11.56 4.88
16.05 -11.67 5.07
17.04 -11.88 5.31
18.24 -12.17 5.61
19.80 -12.65 6.01
21.80 -13.32 6.54
24.18 -14.12 7.17
25.89 -14.43 7.59
6.35 -3.37 1.84
22.79 -11.53 6.55
6.35 -3.05 1.81
22.85 -10.43 6.45
22.97 -9.93 6.43
23.34 -9.54 6.48
43.71 -16.85 12.04
6.34 -2.30 1.74
2.62 -0.78 0.70
2.63 -0.72 0.70
6.36 -0.68 1.66
6.34 -0.30 1.64
46.98 -1.26 12.19
6.34 -0.04 1.65
44.10 0.59 11.45
45.92 1.54 11.94
42.71 2.29 11.12
45.96 3.39 11.98
46.04 4.33 12.03
44.83 5.12 11.74
46.11 6.21 12.12
42.25 6.56 11.14
42.14 7.41 11.16
6.34 1.25 1.69
43.63 9.49 11.65
43.15 10.30 11.58
6.33 1.65 1.71
41.65 11.73 11.31
38.17 11.58 10.43
38.29 12.46 10.53
6.34 2.21 1.76
39.47 14.63 11.02
39.68 15.62 11.17
38.11 15.89 10.82
36.91 16.26 10.58
36.15 16.80 10.46
37.31 18.27 10.90
37.61 19.36 11.11
35.37 19.11 10.56
6.34 3.59 1.91
34.61 20.54 10.58
30.80 19.13 9.54
29.56 19.19 9.28
6.35 4.30 2.02
34.99 24.77 11.29
25.89 19.12 8.48
24.83 19.12 8.26
24.41 19.59 8.25
24.40 20.41 8.39
6.33 5.52 2.22
6.33 5.74 2.26
20.24 19.11 7.35
19.44 19.11 7.20
6.33 6.47 2.39
6.19 6.60 2.39
6.06 6.72 2.39
5.92 6.84 2.39
5.78 6.95 2.39
5.64 7.07 2.39
5.49 7.18 2.39
5.35 7.28 2.39
5.20 7.39 2.39
5.05 7.49 2.39
4.89 7.59 2.39
4.74 7.68 2.39
4.58 7.77 2.39
4.42 7.86 2.39
4.26 7.95 2.39
4.10 8.03 2.39
3.94 8.11 2.39
3.78 8.19 2.39
3.61 8.26 2.39
3.44 8.33 2.39
3.27 8.39 2.39
3.10 8.46 2.39
2.93 8.52 2.39
2.76 8.57 2.39
2.59 8.63 2.39
2.41 8.67 2.39
2.33 9.10 2.49
2.15 9.14 2.49
1.97 9.18 2.49
1.78 9.22 2.49
1.60 9.25 2.49
1.41 9.28 2.49
1.22 9.31 2.49
1.03 9.33 2.49
0.85 9.35 2.49
0.66 9.37 2.49
0.47 9.38 2.49
0.28 9.38 2.49
0.09 9.39 2.49
-0.10 9.39 2.49
-0.28 9.39 2.49
-0.47 9.38 2.49
-0.66 9.37 2.49
-0.85 9.35 2.49
-1.04 9.34 2.49
-1.23 9.31 2.49
-1.41 9.29 2.49
-1.60 9.26 2.49
-1.79 9.23 2.49
-1.97 9.19 2.49
-2.16 9.15 2.49
-2.34 9.11 2.49
-2.52 9.06 2.49
-2.70 9.01 2.49
-2.89 8.95 2.49
-3.07 8.90 2.49
-3.25 8.83 2.49
-3.42 8.77 2.49
-3.60 8.70 2.49
-3.77 8.63 2.49
-3.95 8.55 2.49
-4.12 8.47 2.49
-4.29 8.39 2.49
-4.46 8.31 2.49
-4.63 8.22 2.49
-4.79 8.13 2.49
-4.96 8.03 2.49
-5.12 7.93 2.49
-5.28 7.83 2.49
-5.44 7.72 2.49
-5.59 7.62 2.49
-5.70 7.45 2.48
-5.71 7.15 2.41
-5.80 6.97 2.39
-5.94 6.86 2.39
-6.08 6.74 2.39
-6.21 6.62 2.39
-6.35 6.49 2.39
-6.48 6.37 2.39
-6.61 6.24 2.39
-6.74 6.11 2.39
-6.86 5.97 2.39
-6.98 5.84 2.39
-7.10 5.70 2.39
-7.22 5.56 2.39
-7.33 5.41 2.39
-7.44 5.27 2.39
-7.55 5.12 2.39
-7.65 4.97 2.39
-7.76 4.81 2.39
-7.85 4.66 2.39
-7.95 4.50 2.39
-8.04 4.35 2.39
-8.13 4.18 2.39
-8.22 4.02 2.39
-8.30 3.86 2.39
-8.38 3.69 2.39
-8.46 3.53 2.39
-8.53 3.36 2.39
-8.60 3.19 2.39
-8.67 3.01 2.39
-8.73 2.84 2.39
-8.79 2.67 2.39
-8.85 2.49 2.39
-8.90 2.31 2.39
-8.95 2.14 2.39
-9.00 1.96 2.39
-9.04 1.78 2.39
-9.08 1.60 2.39
-9.11 1.41 2.39
-9.14 1.23 2.39
-9.17 1.05 2.39
-9.20 0.86 2.39
-9.22 0.68 2.39
-9.23 0.49 2.39
-9.25 0.31 2.39
-9.25 0.12 2.39
-9.26 -0.06 2.39
-9.26 -0.25 2.39
-9.26 -0.43 2.39
-9.25 -0.62 2.39
-9.24 -0.81 2.39
-9.23 -0.99 2.39
-9.21 -1.18 2.39
-9.19 -1.36 2.39
-9.17 -1.55 2.39
-9.14 -1.73 2.39
-9.11 -1.92 2.39
-9.07 -2.10 2.39
-9.03 -2.28 2.39
-8.99 -2.46 2.39
-8.94 -2.65 2.39
-8.89 -2.83 2.39
-8.84 -3.01 2.39
-8.78 -3.18 2.39
-8.72 -3.36 2.39
-8.66 -3.54 2.39
-8.59 -3.71 2.39
-8.51 -3.88 2.39
-8.44 -4.06 2.39
-8.36 -4.23 2.39
-8.28 -4.40 2.39
-8.19 -4.56 2.39
-8.10 -4.73 2.39
-8.01 -4.89 2.39
-7.91 -5.05 2.39
-7.81 -5.21 2.39
-7.71 -5.37 2.39
-7.60 -5.53 2.39
-7.49 -5.68 2.39
-7.38 -5.83 2.39
-7.27 -5.98 2.39
-7.15 -6.13 2.39
-7.03 -6.27 2.39
-6.90 -6.41 2.39
-6.77 -6.55 2.39
-6.64 -6.69 2.39
-6.51 -6.82 2.39
-6.37 -6.96 2.39
-6.23 -7.08 2.39
-6.09 -7.21 2.39
-5.95 -7.33 2.39
-5.80 -7.45 2.39
-5.68 -7.61 2.40
-5.67 -7.92 2.47
-5.58 -8.13 2.49
-5.42 -8.24 2.49
-5.25 -8.35 2.49
-5.08 -8.46 2.49
-4.92 -8.56 2.49
-4.74 -8.66 2.49
-4.57 -8.75 2.49
-4.39 -8.85 2.49
-4.22 -8.93 2.49
-4.04 -9.02 2.49
-3.86 -9.10 2.49
-3.67 -9.18 2.49
-3.49 -9.25 2.49
-3.31 -9.32 2.49
-3.12 -9.38 2.49
-2.93 -9.45 2.49
-2.74 -9.50 2.49
-2.55 -9.56 2.49
-2.36 -9.61 2.49
-2.16 -9.65 2.49
-1.97 -9.70 2.49
-1.78 -9.73 2.49
-1.58 -9.77 2.49
-1.39 -9.80 2.49
-1.19 -9.82 2.49
-0.99 -9.85 2.49
-0.79 -9.86 2.49
-0.60 -9.88 2.49
-0.40 -9.89 2.49
-0.20 -9.89 2.49
-0.00 -9.03 2.49
0.18 -9.03 2.49
0.36 -9.02 2.49
0.54 -9.01 2.49
0.72 -9.00 2.49
0.90 -8.98 2.49
1.08 -8.96 2.49
1.26 -8.94 2.49
1.44 -8.91 2.49
1.62 -8.88 2.49
1.79 -8.84 2.49
1.97 -8.80 2.49
2.15 -8.76 2.49
2.32 -8.71 2.49
2.39 -8.31 2.39
2.56 -8.28 2.40
2.72 -8.20 2.39
2.89 -8.14 2.39
3.05 -8.08 2.39
3.21 -8.02 2.39
3.37 -7.95 2.39
3.52 -7.88 2.39
3.68 -7.80 2.39
3.84 -7.73 2.39
3.99 -7.65 2.39
4.14 -7.56 2.39
4.29 -7.48 2.39
4.44 -7.39 2.39
4.58 -7.29 2.39
4.73 -7.20 2.39
4.87 -7.10 2.39
5.01 -7.00 2.39
5.15 -6.90 2.39
5.28 -6.79 2.39
5.42 -6.68 2.39
5.55 -6.57 2.39
5.67 -6.45 2.39
5.80 -6.33 2.39
5.92 -6.21 2.39
6.05 -6.09 2.39
6.16 -5.97 2.39
6.28 -5.84 2.39
7.46 -6.67 2.79
11.82 -10.14 4.35
12.30 -10.13 4.45
6.35 -5.02 2.26
13.28 -10.07 4.66
13.80 -10.04 4.77
14.42 -10.05 4.92
15.07 -10.06 5.07
15.76 -10.07 5.24
6.36 -3.89 2.09
17.64 -10.30 5.72
18.78 -10.47 6.03
20.09 -10.67 6.38
21.64 -10.95 6.81
22.76 -10.95 7.09
22.81 -10.41 7.04
22.94 -9.92 7.02
23.46 -9.59 7.13
24.83 -9.58 7.48
6.34 -2.30 1.90
43.19 -14.69 12.84
43.89 -13.96 12.97
2.62 -0.78 0.77
2.63 -0.72 0.77
2.68 -0.68 0.78
6.35 -1.34 1.83
6.35 -1.07 1.82
47.48 -5.11 13.51
46.97 -4.10 13.35
45.73 -3.07 12.98
6.34 -0.30 1.80
44.60 -1.20 12.65
38.99 -0.27 11.06
44.18 0.59 12.54
44.11 1.47 12.53
6.34 0.34 1.80
39.64 2.92 11.30
39.91 3.75 11.40
40.40 4.61 11.57
6.34 0.85 1.82
43.92 6.81 12.66
38.74 6.80 11.20
43.55 8.56 12.65
43.26 9.41 12.63
42.94 10.24 12.59
6.33 1.65 1.87
38.02 10.70 11.28
36.92 11.20 11.02
36.97 12.03 11.11
36.72 12.77 11.12
39.94 14.79 12.18
6.34 2.49 1.95
34.54 14.39 10.71
36.58 16.11 11.45
6.34 2.95 2.00
37.36 18.28 11.92
34.91 17.96 11.26
34.98 18.90 11.41
6.34 3.59 2.09
34.40 20.41 11.48
6.35 3.94 2.15
29.56 19.19 10.13
29.56 20.04 10.27
34.56 24.46 12.18
6.34 4.68 2.27
24.83 19.12 9.02
24.40 19.58 9.01
24.40 20.40 9.16
6.26 5.45 2.39
6.15 5.57 2.39
6.03 5.70 2.39
5.92 5.81 2.39
5.80 5.93 2.39
5.67 6.04 2.39
5.55 6.15 2.39
5.42 6.26 2.39
5.29 6.37 2.39
5.16 6.47 2.39
5.03 6.57 2.39
4.90 6.67 2.39
4.76 6.77 2.39
4.62 6.86 2.39
4.48 6.95 2.39
4.34 7.04 2.39
4.20 7.12 2.39
4.05 7.20 2.39
3.91 7.28 2.39
3.76 7.36 2.39
3.61 7.43 2.39
3.46 7.50 2.39
3.31 7.57 2.39
3.15 7.63 2.39
3.00 7.69 2.39
2.84 7.75 2.39
2.69 7.80 2.39
2.54 7.87 2.40
2.37 7.90 2.39
2.31 8.29 2.49
2.14 8.34 2.49
1.97 8.38 2.49
1.80 8.41 2.49
1.63 8.45 2.49
1.46 8.48 2.49
1.29 8.51 2.49
1.12 8.53 2.49
0.95 8.55 2.49
0.78 8.57 2.49
0.60 8.58 2.49
0.43 8.59 2.49
0.26 8.60 2.49
0.09 8.60 2.49
-0.09 8.60 2.49
-0.26 8.60 2.49
-0.43 8.59 2.49
-0.61 8.58 2.49
-0.78 8.57 2.49
-0.95 8.55 2.49
-1.12 8.53 2.49
-1.29 8.51 2.49
-1.47 8.48 2.49
-1.64 8.45 2.49
-1.81 8.42 2.49
-1.98 8.38 2.49
-2.14 8.34 2.49
-2.31 8.30 2.49
-2.48 8.25 2.49
-2.64 8.20 2.49
-2.81 8.15 2.49
-2.97 8.09 2.49
-3.14 8.03 2.49
-3.30 7.97 2.49
-3.46 7.91 2.49
-3.62 7.84 2.49
-3.78 7.76 2.49
-3.93 7.69 2.49
-4.09 7.61 2.49
-4.24 7.53 2.49
-4.39 7.44 2.49
-4.54 7.36 2.49
-4.69 7.26 2.49
-4.84 7.17 2.49
-4.98 7.07 2.49
-5.12 6.98 2.49
-5.26 6.87 2.49
-5.40 6.77 2.49
-5.54 6.66 2.49
-5.67 6.55 2.49
-5.70 6.32 2.45
-5.71 6.08 2.40
-5.81 5.95 2.39
-5.94 5.83 2.39
-6.05 5.71 2.39
-6.17 5.59 2.39
-6.28 5.47 2.39
-6.39 5.34 2.39
-6.50 5.22 2.39
-6.61 5.09 2.39
-6.71 4.95 2.39
-6.81 4.82 2.39
-6.91 4.68 2.39
-7.01 4.55 2.39
-7.10 4.41 2.39
-7.19 4.26 2.39
-7.28 4.12 2.39
-7.36 3.98 2.39
-7.44 3.83 2.39
-7.52 3.68 2.39
-7.60 3.53 2.39
-7.67 3.38 2.39
-7.74 3.23 2.39
-7.81 3.07 2.39
-7.87 2.91 2.39
-7.93 2.76 2.39
-7.99 2.60 2.39
-8.04 2.44 2.39
-8.10 2.28 2.39
-8.14 2.12 2.39
-8.19 1.95 2.39
-8.23 1.79 2.39
-8.27 1.62 2.39
-8.30 1.46 2.39
-8.34 1.29 2.39
-8.36 1.12 2.39
-8.39 0.96 2.39
-8.41 0.79 2.39
-8.43 0.62 2.39
-8.44 0.45 2.39
-8.45 0.28 2.39
-8.46 0.11 2.39
-8.47 -0.06 2.39
-8.47 -0.23 2.39
-8.47 -0.40 2.39
-8.46 -0.57 2.39
-8.45 -0.74 2.39
-8.44 -0.91 2.39
-8.42 -1.08 2.39
-8.40 -1.25 2.39
-8.38 -1.42 2.39
-8.36 -1.58 2.39
-8.33 -1.75 2.39
-8.29 -1.92 2.39
-8.26 -2.09 2.39
-8.22 -2.25 2.39
-8.17 -2.42 2.39
-8.13 -2.58 2.39
-8.08 -2.75 2.39
-8.02 -2.91 2.39
-7.97 -3.07 2.39
-7.91 -3.23 2.39
-7.85 -3.39 2.39
-7.78 -3.55 2.39
-7.71 -3.71 2.39
-7.64 -3.86 2.39
-7.56 -4.02 2.39
-7.48 -4.17 2.39
-7.40 -4.32 2.39
-7.31 -4.47 2.39
-7.23 -4.62 2.39
-7.14 -4.76 2.39
-7.04 -4.91 2.39
-6.94 -5.05 2.39
-6.84 -5.19 2.39
-6.74 -5.33 2.39
-6.64 -5.46 2.39
-6.53 -5.60 2.39
-6.42 -5.73 2.39
-6.30 -5.86 2.39
-6.18 -5.99 2.39
-6.07 -6.11 2.39
-5.94 -6.23 2.39
-5.82 -6.35 2.39
-5.69 -6.47 2.39
-5.68 -6.72 2.44
-5.67 -6.99 2.49
-5.53 -7.10 2.49
-5.38 -7.21 2.49
-5.24 -7.32 2.49
-5.09 -7.42 2.49
-4.95 -7.53 2.49
-4.79 -7.63 2.49
-4.64 -7.72 2.49
-4.49 -7.82 2.49
-4.33 -7.91 2.49
-4.17 -7.99 2.49
-4.01 -8.08 2.49
-3.85 -8.16 2.49
-3.69 -8.23 2.49
-3.52 -8.31 2.49
-3.35 -8.38 2.49
-3.19 -8.44 2.49
-3.02 -8.51 2.49
-2.85 -8.57 2.49
-2.67 -8.62 2.49
-2.50 -8.67 2.49
-2.33 -8.72 2.49
-2.15 -8.77 2.49
-1.98 -8.81 2.49
-1.80 -8.85 2.49
-1.62 -8.88 2.49
-1.44 -8.92 2.49
-1.26 -8.94 2.49
-1.08 -8.97 2.49
-0.90 -8.99 2.49
-0.72 -9.00 2.49
-0.54 -9.02 2.49
-0.36 -9.02 2.49
-0.18 -9.03 2.49
-0.00 -8.30 2.49
0.16 -8.30 2.49
0.33 -8.29 2.49
0.50 -8.28 2.49
0.66 -8.27 2.49
0.83 -8.25 2.49
0.99 -8.24 2.49
1.16 -8.21 2.49
1.32 -8.19 2.49
1.49 -8.16 2.49
1.65 -8.13 2.49
1.81 -8.09 2.49
1.97 -8.05 2.49
2.13 -8.01 2.49
2.29 -7.96 2.49
2.38 -7.68 2.42
2.50 -7.54 2.39
2.65 -7.48 2.39
2.73 -7.24 2.33
2.80 -6.99 2.27
3.04 -7.19 2.35
3.19 -7.12 2.35
3.31 -7.03 2.34
3.35 -6.74 2.27
3.67 -7.03 2.39
3.80 -6.95 2.39
3.94 -6.87 2.39
4.08 -6.79 2.39
4.21 -6.71 2.39
4.34 -6.62 2.39
4.48 -6.53 2.39
4.60 -6.43 2.39
4.73 -6.34 2.39
4.85 -6.24 2.39
4.98 -6.14 2.39
5.10 -6.04 2.39
5.22 -5.93 2.39
5.33 -5.82 2.39
5.45 -5.71 2.39
5.56 -5.60 2.39
5.67 -5.49 2.39
5.77 -5.37 2.39
5.88 -5.25 2.39
5.98 -5.13 2.39
6.08 -5.01 2.39
6.18 -4.88 2.39
6.27 -4.76 2.39
6.36 -4.63 2.39
12.74 -8.88 4.72
13.19 -8.81 4.83
13.66 -8.74 4.94
6.35 -3.88 2.27
14.83 -8.66 5.23
15.43 -8.60 5.38
16.18 -8.60 5.59
17.06 -8.63 5.83
18.03 -8.67 6.10
19.11 -8.73 6.41
6.35 -2.75 2.11
21.84 -8.93 7.21
23.24 -8.97 7.61
6.34 -2.30 2.06
26.24 -8.93 8.48
23.59 -7.50 7.58
2.62 -0.78 0.84
2.63 -0.72 0.83
2.68 -0.68 0.85
34.26 -7.94 10.78
6.35 -1.34 1.99
30.86 -4.58 9.58
30.70 -3.93 9.51
45.74 -4.93 14.15
45.12 -3.95 13.93
44.17 -2.97 13.62
6.34 -0.30 1.95
35.88 -0.97 11.06
42.84 -0.30 13.20
42.52 0.56 13.11
42.35 1.41 13.07
42.26 2.25 13.06
6.34 0.47 1.96
42.06 3.94 13.05
41.91 4.78 13.03
6.34 0.85 1.98
41.54 6.43 13.00
41.28 7.24 12.97
40.94 8.04 12.92
40.49 8.80 12.83
40.00 9.53 12.74
6.33 1.65 2.03
38.10 10.71 12.27
34.06 10.32 11.04
33.45 10.87 10.91
6.34 2.20 2.08
37.28 13.80 12.35
33.90 13.33 11.32
33.85 14.10 11.40
36.00 15.85 12.23
35.58 16.53 12.20
35.19 17.22 12.19
34.81 17.91 12.19
34.45 18.61 12.19
6.34 3.59 2.27
29.94 17.76 10.85
30.44 18.89 11.17
29.33 19.03 10.91
6.35 4.30 2.39
6.26 4.43 2.39
6.16 4.55 2.39
6.07 4.67 2.39
5.97 4.79 2.39
5.87 4.91 2.39
5.77 5.02 2.39
5.67 5.14 2.39
5.56 5.25 2.39
5.45 5.36 2.39
5.34 5.46 2.39
5.23 5.57 2.39
5.12 5.67 2.39
5.00 5.77 2.39
4.88 5.87 2.39
4.76 5.96 2.39
4.64 6.06 2.39
4.51 6.15 2.39
4.39 6.23 2.39
4.26 6.32 2.39
4.13 6.40 2.39
4.00 6.49 2.39
3.87 6.56 2.39
3.74 6.64 2.39
3.42 6.37 2.27
3.29 6.44 2.27
3.33 6.85 2.39
3.19 6.91 2.39
3.05 6.97 2.39
2.91 7.03 2.39
2.77 7.09 2.39
2.62 7.14 2.39
2.48 7.19 2.39
2.35 7.30 2.41
2.28 7.60 2.49
2.13 7.64 2.49
1.97 7.68 2.49
1.82 7.72 2.49
1.66 7.76 2.49
1.51 7.79 2.49
1.35 7.82 2.49
1.19 7.84 2.49
1.03 7.86 2.49
0.87 7.88 2.49
0.72 7.90 2.49
0.56 7.91 2.49
0.40 7.92 2.49
0.24 7.93 2.49
0.08 7.93 2.49
-0.08 7.93 2.49
-0.24 7.93 2.49
-0.40 7.92 2.49
-0.56 7.91 2.49
-0.72 7.90 2.49
-0.88 7.89 2.49
-1.04 7.87 2.49
-1.19 7.85 2.49
-1.35 7.82 2.49
-1.51 7.79 2.49
-1.67 7.76 2.49
-1.82 7.73 2.49
-1.98 7.69 2.49
-2.13 7.65 2.49
-2.29 7.61 2.49
-2.44 7.56 2.49
-2.59 7.51 2.49
-2.74 7.46 2.49
-2.89 7.40 2.49
-3.04 7.35 2.49
-3.19 7.29 2.49
-3.33 7.22 2.49
-3.48 7.15 2.49
-3.62 7.09 2.49
-3.77 7.01 2.49
-3.91 6.94 2.49
-4.05 6.86 2.49
-4.19 6.78 2.49
-4.32 6.69 2.49
-4.46 6.61 2.49
-4.59 6.52 2.49
-4.72 6.43 2.49
-4.85 6.33 2.49
-4.98 6.24 2.49
-5.11 6.14 2.49
-5.23 6.03 2.49
-5.35 5.93 2.49
-5.47 5.82 2.49
-5.59 5.71 2.49
-5.70 5.60 2.49
-5.70 5.37 2.44
-5.71 5.17 2.40
-5.79 5.04 2.39
-5.91 4.94 2.40
-5.99 4.80 2.39
-6.09 4.68 2.39
-6.18 4.56 2.39
-6.28 4.44 2.39
-6.37 4.31 2.39
-6.46 4.19 2.39
-6.54 4.06 2.39
-6.62 3.93 2.39
-6.70 3.79 2.39
-6.78 3.66 2.39
-6.86 3.53 2.39
-6.93 3.39 2.39
-7.00 3.25 2.39
-7.07 3.11 2.39
-7.13 2.97 2.39
-7.19 2.83 2.39
-7.25 2.68 2.39
-7.30 2.54 2.39
-7.36 2.39 2.39
-7.41 2.24 2.39
-7.45 2.10 2.39
-7.50 1.95 2.39
-7.54 1.80 2.39
-7.58 1.65 2.39
-7.61 1.49 2.39
-7.64 1.34 2.39
-7.67 1.19 2.39
-7.70 1.03 2.39
-7.72 0.88 2.39
-7.74 0.73 2.39
-7.76 0.57 2.39
-7.77 0.41 2.39
-7.78 0.26 2.39
-7.79 0.10 2.39
-7.79 -0.05 2.39
-7.79 -0.21 2.39
-7.79 -0.37 2.39
-7.79 -0.52 2.39
-7.78 -0.68 2.39
-7.77 -0.84 2.39
-7.75 -0.99 2.39
-7.73 -1.15 2.39
-7.71 -1.30 2.39
-7.69 -1.46 2.39
-7.66 -1.61 2.39
-7.63 -1.77 2.39
-7.60 -1.92 2.39
-7.56 -2.07 2.39
-7.52 -2.23 2.39
-7.48 -2.38 2.39
-7.43 -2.53 2.39
-7.38 -2.68 2.39
-7.33 -2.83 2.39
-7.27 -2.97 2.39
-7.21 -3.12 2.39
-7.15 -3.27 2.39
-7.09 -3.41 2.39
-7.02 -3.55 2.39
-6.95 -3.69 2.39
-6.88 -3.83 2.39
-6.80 -3.97 2.39
-6.73 -4.11 2.39
-6.64 -4.25 2.39
-6.56 -4.38 2.39
-6.47 -4.51 2.39
-6.38 -4.64 2.39
-6.29 -4.77 2.39
-6.20 -4.90 2.39
-6.10 -5.02 2.39
-6.00 -5.15 2.39
-5.90 -5.27 2.39
-5.79 -5.39 2.39
-5.69 -5.51 2.39
-5.68 -5.72 2.44
-5.68 -5.95 2.49
-5.58 -6.09 2.49
-5.46 -6.20 2.49
-5.33 -6.31 2.49
-5.21 -6.42 2.49
-5.08 -6.53 2.49
-4.95 -6.63 2.49
-4.82 -6.73 2.49
-4.68 -6.82 2.49
-4.54 -6.92 2.49
-4.41 -7.01 2.49
-4.27 -7.10 2.49
-4.12 -7.18 2.49
-3.98 -7.26 2.49
-3.83 -7.34 2.49
-3.69 -7.42 2.49
-3.54 -7.49 2.49
-3.39 -7.57 2.49
-3.24 -7.63 2.49
-3.08 -7.70 2.49
-2.93 -7.76 2.49
-2.77 -7.82 2.49
-2.61 -7.87 2.49
-2.46 -7.92 2.49
-2.30 -7.97 2.49
-2.14 -8.02 2.49
-1.98 -8.06 2.49
-1.82 -8.10 2.49
-1.65 -8.13 2.49
-1.49 -8.16 2.49
-1.33 -8.19 2.49
-1.16 -8.22 2.49
-1.00 -8.24 2.49
-0.83 -8.26 2.49
-0.67 -8.27 2.49
-0.50 -8.28 2.49
-0.33 -8.29 2.49
-0.17 -8.30 2.49
-0.00 -7.67 2.49
0.15 -7.67 2.49
0.31 -7.66 2.49
0.46 -7.65 2.49
0.61 -7.64 2.49
0.77 -7.63 2.49
0.92 -7.61 2.49
1.07 -7.59 2.49
1.22 -7.57 2.49
1.37 -7.54 2.49
1.52 -7.51 2.49
1.67 -7.48 2.49
1.82 -7.44 2.49
1.97 -7.40 2.49
2.12 -7.36 2.49
2.26 -7.31 2.49
2.37 -7.15 2.45
2.45 -6.92 2.39
2.59 -6.86 2.39
2.72 -6.81 2.39
2.73 -6.44 2.28
2.84 -6.35 2.27
3.07 -6.52 2.35
3.20 -6.46 2.35
3.31 -6.36 2.34
3.34 -6.10 2.27
3.64 -6.35 2.39
3.77 -6.28 2.39
3.89 -6.20 2.39
4.02 -6.12 2.39
4.14 -6.03 2.39
4.25 -5.95 2.39
4.37 -5.86 2.39
4.49 -5.77 2.39
4.60 -5.68 2.39
4.71 -5.58 2.39
4.82 -5.48 2.39
4.93 -5.38 2.39
5.03 -5.28 2.39
5.14 -5.18 2.39
5.24 -5.07 2.39
5.34 -4.97 2.39
5.43 -4.86 2.39
5.53 -4.74 2.39
5.62 -4.63 2.39
5.71 -4.52 2.39
5.80 -4.40 2.39
5.88 -4.28 2.39
5.96 -4.16 2.39
6.04 -4.04 2.39
6.12 -3.91 2.39
6.20 -3.79 2.39
6.27 -3.66 2.39
6.34 -3.54 2.39
13.91 -7.40 5.19
14.44 -7.31 5.34
14.99 -7.22 5.49
15.57 -7.12 5.65
16.31 -7.06 5.87
6.35 -2.60 2.27
6.36 -2.46 2.25
6.34 -2.30 2.23
20.21 -6.88 7.06
21.60 -6.88 7.50
2.62 -0.78 0.91
2.63 -0.72 0.90
2.68 -0.68 0.92
27.83 -6.46 9.47
30.58 -6.45 10.36
30.15 -5.73 10.18
24.83 -4.20 8.36
24.38 -3.63 8.18
16.74 -2.15 5.60
6.36 -0.69 2.13
16.90 -1.48 5.64
30.38 -2.05 10.13
6.34 -0.30 2.11
31.40 -0.85 10.45
40.49 -0.29 13.48
6.34 0.08 2.11
40.11 1.33 13.38
39.88 2.12 13.32
39.66 2.91 13.27
39.46 3.69 13.23
39.25 4.47 13.19
39.06 5.24 13.16
38.81 6.01 13.12
38.52 6.75 13.07
38.16 7.48 13.00
6.34 1.38 2.17
37.36 8.90 12.85
6.33 1.64 2.19
6.34 1.78 2.21
36.26 10.98 12.69
33.46 10.87 11.79
6.35 2.21 2.25
6.34 2.35 2.27
34.75 13.66 12.53
34.39 14.32 12.51
34.04 14.98 12.49
33.64 15.62 12.46
33.22 16.25 12.43
6.33 3.25 2.39
6.26 3.38 2.39
6.19 3.50 2.39
6.11 3.62 2.39
6.04 3.75 2.39
5.96 3.86 2.39
5.88 3.98 2.39
5.79 4.10 2.39
5.71 4.21 2.39
5.62 4.33 2.39
5.53 4.44 2.39
5.44 4.54 2.39
5.35 4.65 2.39
5.25 4.76 2.39
5.15 4.86 2.39
5.05 4.96 2.39
4.95 5.06 2.39
4.84 5.16 2.39
4.74 5.25 2.39
4.63 5.35 2.39
4.52 5.44 2.39
4.41 5.52 2.39
4.30 5.61 2.39
4.18 5.70 2.39
4.07 5.78 2.39
3.95 5.86 2.39
3.83 5.93 2.39
3.71 6.01 2.39
3.40 5.77 2.27
3.30 5.85 2.28
3.28 6.11 2.35
3.16 6.18 2.35
3.02 6.21 2.34
2.80 6.08 2.27
2.70 6.18 2.29
2.69 6.52 2.39
2.56 6.57 2.39
2.43 6.62 2.39
2.35 6.81 2.44
2.25 7.00 2.49
2.11 7.04 2.49
1.97 7.08 2.49
1.83 7.12 2.49
1.68 7.15 2.49
1.54 7.19 2.49
1.39 7.22 2.49
1.25 7.24 2.49
1.10 7.27 2.49
0.96 7.29 2.49
0.81 7.30 2.49
0.66 7.32 2.49
0.52 7.33 2.49
0.37 7.34 2.49
0.22 7.35 2.49
0.07 7.35 2.49
-0.08 7.35 2.49
-0.22 7.35 2.49
-0.37 7.34 2.49
-0.52 7.33 2.49
-0.67 7.32 2.49
-0.81 7.31 2.49
-0.96 7.29 2.49
-1.11 7.27 2.49
-1.25 7.25 2.49
-1.40 7.22 2.49
-1.54 7.19 2.49
-1.69 7.16 2.49
-1.83 7.13 2.49
-1.98 7.09 2.49
-2.12 7.05 2.49
-2.26 7.01 2.49
-2.40 6.96 2.49
-2.54 6.91 2.49
-2.68 6.86 2.49
-2.82 6.81 2.49
-2.95 6.75 2.49
-3.09 6.69 2.49
-3.22 6.63 2.49
-3.36 6.56 2.49
-3.49 6.50 2.49
-3.62 6.43 2.49
-3.75 6.35 2.49
-3.88 6.28 2.49
-4.00 6.20 2.49
-4.13 6.12 2.49
-4.25 6.04 2.49
-4.37 5.95 2.49
-4.49 5.87 2.49
-4.61 5.78 2.49
-4.73 5.68 2.49
-4.84 5.59 2.49
-4.96 5.49 2.49
-5.07 5.39 2.49
-5.18 5.29 2.49
-5.28 5.19 2.49
-5.39 5.08 2.49
-5.49 4.97 2.49
-5.59 4.87 2.49
-5.69 4.75 2.49
-5.70 4.57 2.46
-5.70 4.39 2.42
-5.73 4.22 2.39
-5.81 4.11 2.39
-5.91 4.00 2.40
-5.98 3.88 2.39
-6.06 3.76 2.39
-6.13 3.64 2.39
-6.21 3.51 2.39
-6.28 3.39 2.39
-6.35 3.26 2.39
-6.41 3.14 2.39
-6.48 3.01 2.39
-6.54 2.88 2.39
-6.60 2.75 2.39
-6.66 2.62 2.39
-6.71 2.48 2.39
-6.76 2.35 2.39
-6.81 2.21 2.39
-6.86 2.08 2.39
-6.90 1.94 2.39
-6.94 1.80 2.39
-6.98 1.66 2.39
-7.01 1.52 2.39
-7.04 1.38 2.39
-7.07 1.24 2.39
-7.10 1.10 2.39
-7.12 0.96 2.39
-7.14 0.81 2.39
-7.16 0.67 2.39
-7.18 0.53 2.39
-7.19 0.38 2.39
-7.20 0.24 2.39
-7.21 0.09 2.39
-7.21 -0.05 2.39
-7.21 -0.20 2.39
-7.21 -0.34 2.39
-7.20 -0.49 2.39
-7.19 -0.63 2.39
-7.18 -0.77 2.39
-7.17 -0.92 2.39
-7.15 -1.06 2.39
-7.13 -1.21 2.39
-7.11 -1.35 2.39
-7.08 -1.49 2.39
-7.06 -1.64 2.39
-7.02 -1.78 2.39
-6.99 -1.92 2.39
-6.95 -2.06 2.39
-6.91 -2.20 2.39
-6.87 -2.34 2.39
-6.82 -2.48 2.39
-6.78 -2.61 2.39
-6.72 -2.75 2.39
-6.67 -2.89 2.39
-6.61 -3.02 2.39
-6.55 -3.15 2.39
-6.49 -3.29 2.39
-6.43 -3.42 2.39
-6.36 -3.55 2.39
-6.29 -3.67 2.39
-6.22 -3.80 2.39
-6.14 -3.93 2.39
-6.06 -4.05 2.39
-5.98 -4.17 2.39
-5.90 -4.29 2.39
-5.82 -4.41 2.39
-5.73 -4.53 2.39
-5.69 -4.68 2.41
-5.68 -4.87 2.45
-5.68 -5.07 2.49
-5.58 -5.19 2.49
-5.48 -5.31 2.49
-5.37 -5.42 2.49
-5.27 -5.52 2.49
-5.16 -5.63 2.49
-5.04 -5.73 2.49
-4.93 -5.84 2.49
-4.81 -5.93 2.49
-4.69 -6.03 2.49
-4.57 -6.13 2.49
-4.45 -6.22 2.49
-4.33 -6.31 2.49
-4.20 -6.39 2.49
-4.07 -6.48 2.49
-3.94 -6.56 2.49
-3.81 -6.64 2.49
-3.68 -6.71 2.49
-3.54 -6.79 2.49
-3.41 -6.86 2.49
-3.27 -6.93 2.49
-3.13 -6.99 2.49
-2.99 -7.05 2.49
-2.85 -7.11 2.49
-2.70 -7.17 2.49
-2.56 -7.22 2.49
-2.42 -7.27 2.49
-2.27 -7.32 2.49
-2.12 -7.37 2.49
-1.98 -7.41 2.49
-1.83 -7.45 2.49
-1.68 -7.48 2.49
-1.53 -7.51 2.49
-1.38 -7.54 2.49
-1.23 -7.57 2.49
-1.07 -7.59 2.49
-0.92 -7.61 2.49
-0.77 -7.63 2.49
-0.62 -7.64 2.49
-0.46 -7.65 2.49
-0.31 -7.66 2.49
-0.16 -7.67 2.49
-0.00 -7.12 2.49
0.14 -7.12 2.49
0.28 -7.11 2.49
0.43 -7.10 2.49
0.57 -7.09 2.49
0.71 -7.08 2.49
0.85 -7.06 2.49
0.99 -7.05 2.49
1.13 -7.02 2.49
1.27 -7.00 2.49
1.41 -6.97 2.49
1.55 -6.94 2.49
1.69 -6.91 2.49
1.83 -6.87 2.49
1.97 -6.83 2.49
2.10 -6.79 2.49
2.24 -6.75 2.49
2.37 -6.69 2.49
2.40 -6.37 2.39
2.53 -6.32 2.39
2.65 -6.27 2.39
2.73 -6.10 2.35
2.75 -5.84 2.27
2.97 -6.00 2.35
3.09 -5.93 2.35
3.21 -5.87 2.35
3.31 -5.78 2.34
3.32 -5.54 2.27
3.43 -5.46 2.27
3.73 -5.68 2.39
3.84 -5.60 2.39
3.95 -5.52 2.39
4.06 -5.44 2.39
4.17 -5.36 2.39
4.27 -5.27 2.39
4.38 -5.18 2.39
4.48 -5.09 2.39
4.58 -5.00 2.39
4.67 -4.91 2.39
4.77 -4.81 2.39
4.86 -4.71 2.39
4.96 -4.61 2.39
5.05 -4.51 2.39
5.13 -4.41 2.39
5.22 -4.30 2.39
5.30 -4.20 2.39
5.38 -4.09 2.39
5.46 -3.98 2.39
5.54 -3.87 2.39
5.61 -3.75 2.39
5.69 -3.64 2.39
5.76 -3.52 2.39
5.82 -3.40 2.39
5.89 -3.29 2.39
5.95 -3.17 2.39
6.01 -3.04 2.39
6.07 -2.92 2.39
6.12 -2.80 2.39
6.18 -2.67 2.39
6.23 -2.55 2.39
6.27 -2.42 2.39
6.32 -2.30 2.39
6.36 -2.17 2.39
16.84 -5.36 6.29
2.62 -0.78 0.98
2.63 -0.72 0.97
2.68 -0.68 0.99
20.80 -4.83 7.61
22.11 -4.67 8.06
23.46 -4.46 8.52
15.98 -2.71 5.79
15.39 -2.29 5.56
15.27 -1.96 5.50
15.19 -1.64 5.46
6.35 -0.56 2.28
6.35 -0.43 2.28
6.34 -0.30 2.27
6.34 -0.17 2.27
6.34 -0.05 2.27
6.34 0.08 2.27
6.34 0.21 2.28
6.34 0.34 2.28
36.62 2.68 13.17
36.51 3.41 13.16
36.39 4.14 13.15
36.27 4.86 13.14
36.07 5.57 13.11
35.81 6.27 13.07
35.57 6.97 13.03
35.20 7.64 12.96
34.88 8.30 12.90
6.33 1.64 2.36
34.34 9.65 12.85
6.35 1.92 2.39
6.31 2.05 2.39
6.27 2.18 2.39
6.22 2.30 2.39
6.17 2.42 2.39
6.12 2.55 2.39
6.06 2.67 2.39
6.01 2.79 2.39
5.95 2.91 2.39
5.88 3.03 2.39
5.82 3.14 2.39
5.75 3.26 2.39
5.69 3.37 2.39
5.62 3.48 2.39
5.54 3.59 2.39
5.47 3.70 2.39
5.39 3.81 2.39
5.31 3.92 2.39
5.23 4.02 2.39
5.15 4.13 2.39
5.06 4.23 2.39
4.97 4.33 2.39
4.88 4.43 2.39
4.79 4.52 2.39
4.70 4.62 2.39
4.60 4.71 2.39
4.51 4.80 2.39
4.41 4.89 2.39
4.31 4.97 2.39
4.21 5.06 2.39
4.10 5.14 2.39
4.00 5.22 2.39
3.89 5.30 2.39
3.78 5.37 2.39
3.67 5.45 2.39
3.38 5.24 2.27
3.29 5.33 2.28
3.28 5.56 2.35
3.17 5.63 2.35
3.05 5.69 2.35
2.84 5.55 2.27
2.72 5.60 2.27
2.70 5.86 2.35
2.63 6.01 2.39
2.51 6.06 2.39
2.38 6.11 2.39
2.35 6.39 2.48
2.23 6.47 2.49
2.10 6.51 2.49
1.97 6.55 2.49
1.83 6.59 2.49
1.70 6.63 2.49
1.57 6.66 2.49
1.43 6.69 2.49
1.30 6.71 2.49
1.16 6.74 2.49
1.03 6.76 2.49
0.89 6.78 2.49
0.75 6.80 2.49
0.62 6.81 2.49
0.48 6.82 2.49
0.34 6.83 2.49
0.20 6.84 2.49
0.07 6.84 2.49
-0.07 6.84 2.49
-0.21 6.84 2.49
-0.35 6.83 2.49
-0.48 6.82 2.49
-0.62 6.81 2.49
-0.76 6.80 2.49
-0.89 6.78 2.49
-1.03 6.76 2.49
-1.17 6.74 2.49
-1.30 6.72 2.49
-1.44 6.69 2.49
-1.57 6.66 2.49
-1.71 6.63 2.49
-1.84 6.60 2.49
-1.97 6.56 2.49
-2.10 6.52 2.49
-2.23 6.48 2.49
-2.36 6.43 2.49
-2.49 6.38 2.49
-2.62 6.33 2.49
-2.75 6.28 2.49
-2.88 6.22 2.49
-3.00 6.17 2.49
-3.12 6.11 2.49
-3.25 6.04 2.49
-3.37 5.98 2.49
-3.49 5.91 2.49
-3.61 5.84 2.49
-3.73 5.77 2.49
-3.84 5.69 2.49
-3.96 5.62 2.49
-4.07 5.54 2.49
-4.18 5.46 2.49
-4.29 5.37 2.49
-4.40 5.29 2.49
-4.51 5.20 2.49
-4.61 5.11 2.49
-4.72 5.02 2.49
-4.82 4.92 2.49
-4.92 4.83 2.49
-5.01 4.73 2.49
-5.11 4.63 2.49
-5.20 4.52 2.49
-5.29 4.42 2.49
-5.38 4.31 2.49
-5.47 4.21 2.49
-5.56 4.10 2.49
-5.64 3.99 2.49
-5.69 3.86 2.48
-5.69 3.69 2.45
-5.70 3.53 2.42
-5.71 3.38 2.39
-5.77 3.27 2.39
-5.84 3.15 2.39
-5.91 3.03 2.39
-5.97 2.92 2.39
-6.03 2.80 2.39
-6.08 2.68 2.39
-6.14 2.55 2.39
-6.19 2.43 2.39
-6.24 2.31 2.39
-6.29 2.18 2.39
-6.33 2.06 2.39
-6.38 1.93 2.39
-6.41 1.80 2.39
-6.45 1.67 2.39
-6.49 1.54 2.39
-6.52 1.41 2.39
-6.55 1.28 2.39
-6.58 1.15 2.39
-6.60 1.02 2.39
-6.62 0.89 2.39
-6.64 0.75 2.39
-6.66 0.62 2.39
-6.67 0.49 2.39
-6.68 0.35 2.39
-6.69 0.22 2.39
-6.70 0.09 2.39
-6.70 -0.05 2.39
-6.70 -0.18 2.39
-6.70 -0.32 2.39
-6.69 -0.45 2.39
-6.69 -0.59 2.39
-6.68 -0.72 2.39
-6.66 -0.86 2.39
-6.65 -0.99 2.39
-6.63 -1.12 2.39
-6.61 -1.26 2.39
-6.58 -1.39 2.39
-6.56 -1.52 2.39
-6.53 -1.65 2.39
-6.49 -1.78 2.39
-6.46 -1.91 2.39
-6.42 -2.04 2.39
-6.38 -2.17 2.39
-6.34 -2.30 2.39
-6.29 -2.43 2.39
-6.25 -2.56 2.39
-6.20 -2.68 2.39
-6.14 -2.81 2.39
-6.09 -2.93 2.39
-6.03 -3.05 2.39
-5.97 -3.17 2.39
-5.91 -3.29 2.39
-5.84 -3.41 2.39
-5.77 -3.53 2.39
-5.70 -3.65 2.39
-5.69 -3.80 2.42
-5.68 -3.96 2.44
-5.68 -4.13 2.48
-5.63 -4.27 2.49
-5.55 -4.39 2.49
-5.46 -4.50 2.49
-5.37 -4.61 2.49
-5.28 -4.72 2.49
-5.19 -4.82 2.49
-5.09 -4.93 2.49
-4.99 -5.03 2.49
-4.89 -5.13 2.49
-4.79 -5.23 2.49
-4.68 -5.33 2.49
-4.58 -5.42 2.49
-4.47 -5.51 2.49
-4.36 -5.60 2.49
-4.25 -5.69 2.49
-4.13 -5.77 2.49
-4.02 -5.86 2.49
-3.90 -5.94 2.49
-3.78 -6.01 2.49
-3.66 -6.09 2.49
-3.54 -6.16 2.49
-3.41 -6.23 2.49
-3.29 -6.30 2.49
-3.16 -6.37 2.49
-3.03 -6.43 2.49
-2.91 -6.49 2.49
-2.77 -6.55 2.49
-2.64 -6.60 2.49
-2.51 -6.66 2.49
-2.38 -6.71 2.49
-2.24 -6.75 2.49
-2.11 -6.80 2.49
-1.97 -6.84 2.49
-1.83 -6.88 2.49
-1.70 -6.91 2.49
-1.56 -6.95 2.49
-1.42 -6.98 2.49
-1.28 -7.00 2.49
-1.14 -7.03 2.49
-1.00 -7.05 2.49
-0.85 -7.07 2.49
-0.71 -7.08 2.49
-0.57 -7.10 2.49
-0.43 -7.11 2.49
-0.29 -7.11 2.49
-0.14 -7.12 2.49
-0.00 -6.64 2.49
0.13 -6.63 2.49
0.26 -6.63 2.49
0.40 -6.62 2.49
0.53 -6.61 2.49
0.66 -6.60 2.49
