ply
format ascii 1.0
element vertex 2940
property float32 x
property float32 y
property float32 z
end_header
-9.57 -2.20 1.60
-9.56 -2.40 1.60
-9.55 -2.60 1.61
-13.98 -4.11 2.37
-14.44 -4.56 2.46
-14.39 -4.87 2.47
-14.34 -5.17 2.48
-14.28 -5.47 2.49
-14.21 -5.78 2.50
-10.93 -4.70 1.94
-9.63 -4.38 1.72
-9.44 -4.52 1.70
-9.43 -4.75 1.72
-9.42 -4.98 1.74
-9.41 -5.22 1.75
-9.40 -5.47 1.77
-9.39 -5.72 1.79
-9.38 -5.97 1.81
-9.37 -6.23 1.84
-9.36 -6.50 1.86
-9.35 -6.78 1.88
-9.34 -7.06 1.91
-9.33 -7.35 1.94
-9.32 -7.65 1.97
-9.30 -7.95 2.00
-9.29 -8.27 2.03
-9.28 -8.60 2.07
-9.27 -8.94 2.11
-9.25 -9.29 2.14
-9.24 -9.66 2.19
-9.22 -10.04 2.23
-9.21 -10.43 2.28
-9.19 -10.85 2.33
-9.21 -11.32 2.39
-8.98 -11.50 2.39
-8.75 -11.68 2.39
-8.51 -11.85 2.39
-8.26 -12.01 2.39
-8.02 -12.17 2.39
-7.77 -12.33 2.39
-7.52 -12.48 2.39
-7.27 -12.62 2.39
-7.01 -12.76 2.39
-6.75 -12.90 2.39
-6.49 -13.03 2.39
-6.22 -13.15 2.39
-5.96 -13.27 2.39
-5.69 -13.38 2.39
-5.43 -13.53 2.40
-5.22 -13.79 2.43
-5.08 -14.28 2.49
-4.79 -14.37 2.49
-4.50 -14.46 2.49
-4.20 -14.54 2.49
-3.91 -14.62 2.49
-3.62 -14.69 2.49
-3.32 -14.76 2.49
-3.02 -14.82 2.49
-2.72 -14.87 2.49
-2.42 -14.92 2.49
-2.12 -14.96 2.49
-1.82 -14.99 2.49
-1.52 -15.02 2.49
-1.22 -15.05 2.49
-0.91 -15.06 2.49
-0.61 -15.07 2.49
-0.31 -15.08 2.49
-0.01 -13.22 2.49
0.26 -13.21 2.49
0.52 -13.20 2.49
0.79 -13.19 2.49
1.05 -13.17 2.49
1.32 -13.14 2.49
1.58 -13.11 2.49
1.84 -13.07 2.49
2.10 -13.03 2.49
2.36 -12.98 2.49
2.62 -12.92 2.49
2.79 -12.47 2.42
3.01 -12.27 2.39
3.11 -11.68 2.29
3.44 -11.94 2.35
2.89 -9.31 1.85
3.78 -11.37 2.27
4.22 -11.90 2.39
4.46 -11.81 2.39
4.69 -11.71 2.39
4.93 -11.61 2.39
5.16 -11.51 2.39
5.39 -11.40 2.39
5.61 -11.29 2.39
5.84 -11.17 2.39
6.06 -11.05 2.39
6.28 -10.92 2.39
6.50 -10.79 2.39
6.71 -10.66 2.39
12.33 -18.74 4.26
13.02 -18.95 4.37
13.72 -19.13 4.47
14.46 -19.33 4.59
15.33 -19.67 4.74
16.25 -20.00 4.90
17.35 -20.50 5.10
18.65 -21.17 5.36
20.83 -22.70 5.86
30.37 -31.79 8.36
31.66 -31.83 8.54
6.53 -6.31 1.73
34.37 -31.89 8.92
35.75 -31.85 9.11
37.11 -31.75 9.29
6.48 -5.11 1.57
6.47 -4.90 1.54
46.82 12.26 9.20
43.33 12.29 8.56
39.18 11.96 7.79
25.70 8.41 5.14
23.26 8.14 4.68
21.21 7.90 4.30
18.97 7.50 3.87
17.76 7.44 3.66
16.71 7.40 3.47
15.76 7.36 3.30
14.90 7.33 3.15
14.12 7.30 3.02
13.39 7.27 2.89
12.73 7.24 2.78
12.11 7.22 2.67
11.54 7.19 2.58
11.01 7.17 2.49
10.51 7.15 2.41
10.05 7.14 2.34
9.61 7.12 2.27
9.19 7.10 2.20
8.80 7.09 2.14
8.43 7.07 2.08
8.08 7.06 2.03
6.06 5.51 1.55
6.05 5.73 1.58
7.12 7.02 1.89
6.83 7.01 1.85
6.55 7.00 1.81
6.02 6.70 1.70
6.02 6.98 1.74
7.61 9.18 2.25
7.43 9.34 2.25
7.24 9.49 2.25
7.05 9.63 2.25
6.86 9.77 2.25
6.66 9.91 2.25
6.46 10.05 2.25
6.26 10.18 2.25
6.06 10.30 2.25
5.92 10.55 2.28
5.90 11.03 2.36
5.76 11.30 2.39
5.53 11.42 2.39
5.30 11.53 2.39
5.07 11.64 2.39
4.84 11.74 2.39
4.60 11.84 2.39
4.37 11.93 2.39
4.13 12.02 2.39
3.89 12.10 2.39
3.64 12.18 2.39
3.40 12.26 2.39
3.15 12.33 2.39
2.91 12.39 2.39
2.66 12.45 2.39
2.41 12.50 2.39
2.16 12.55 2.39
1.91 12.60 2.39
1.72 13.18 2.49
1.46 13.22 2.49
1.19 13.25 2.49
0.93 13.27 2.49
0.66 13.29 2.49
0.39 13.31 2.49
0.13 13.31 2.49
-0.14 13.32 2.49
-0.41 13.31 2.49
-0.67 13.31 2.49
-0.94 13.29 2.49
-1.21 13.28 2.49
-1.47 13.25 2.49
-1.74 13.22 2.49
-2.01 13.19 2.49
-2.27 13.15 2.49
-2.54 13.10 2.49
-2.80 13.05 2.49
-3.06 13.00 2.49
-3.32 12.94 2.49
-3.58 12.87 2.49
-3.84 12.80 2.49
-4.10 12.72 2.49
-4.35 12.64 2.49
-4.61 12.55 2.49
-4.86 12.46 2.49
-5.11 12.36 2.49
-5.36 12.26 2.49
-5.60 12.15 2.49
-5.85 12.04 2.49
-6.09 11.92 2.49
-6.21 11.59 2.45
-6.29 11.19 2.39
-6.52 11.07 2.39
-6.74 10.93 2.39
-6.96 10.80 2.39
-7.17 10.66 2.39
-7.39 10.51 2.39
-7.60 10.37 2.39
-6.50 8.50 1.99
-8.01 10.06 2.39
-8.21 9.89 2.39
-8.41 9.73 2.39
-8.61 9.56 2.39
-8.80 9.39 2.39
-8.99 9.21 2.39
-9.17 9.03 2.39
-9.35 8.84 2.39
-9.53 8.66 2.39
-9.70 8.46 2.39
-9.87 8.27 2.39
-9.93 7.99 2.37
-9.92 7.65 2.33
-9.92 7.34 2.29
-9.91 7.03 2.26
-9.90 6.73 2.22
-9.90 6.44 2.19
-9.89 6.16 2.16
-9.88 5.88 2.13
-9.87 5.61 2.11
-9.86 5.35 2.08
-9.85 5.09 2.06
-9.84 4.84 2.03
-9.83 4.59 2.01
-9.82 4.35 1.99
-9.81 4.11 1.97
-9.81 3.87 1.96
-9.80 3.65 1.94
-9.79 3.42 1.92
-9.78 3.20 1.91
-9.77 2.98 1.89
-9.76 2.76 1.88
-9.75 2.55 1.87
-9.74 2.34 1.86
-9.74 2.13 1.85
-9.73 1.93 1.84
-9.72 1.73 1.83
-9.71 1.52 1.82
-9.70 1.32 1.82
-9.70 1.12 1.81
-9.69 0.93 1.81
-9.68 0.73 1.80
-9.67 0.54 1.80
-9.67 0.34 1.79
-9.66 0.15 1.79
-9.65 -0.05 1.79
-9.64 -0.24 1.79
-9.64 -0.43 1.79
-9.63 -0.63 1.79
-9.62 -0.82 1.79
-9.61 -1.02 1.79
-8.88 -1.12 1.66
-8.87 -1.30 1.66
-8.88 -1.48 1.67
-9.58 -1.80 1.81
-9.57 -2.00 1.82
-9.57 -2.20 1.82
-9.56 -2.40 1.83
-9.55 -2.60 1.84
-11.83 -3.48 2.29
-11.75 -3.71 2.29
-11.68 -3.95 2.29
-11.61 -4.18 2.29
-11.53 -4.42 2.30
-12.03 -4.89 2.41
-10.92 -4.70 2.21
-9.63 -4.38 1.97
-9.44 -4.52 1.95
-9.43 -4.75 1.97
-9.42 -4.98 1.98
-9.41 -5.22 2.00
-9.40 -5.47 2.03
-9.39 -5.72 2.05
-9.38 -5.97 2.07
-9.37 -6.23 2.10
-9.36 -6.50 2.12
-9.35 -6.77 2.15
-9.34 -7.06 2.18
-9.33 -7.35 2.21
-9.32 -7.65 2.25
-9.30 -7.95 2.28
-9.29 -8.27 2.32
-9.28 -8.60 2.36
-9.22 -8.89 2.39
-9.03 -9.07 2.39
-8.85 -9.25 2.39
-8.66 -9.42 2.39
-8.46 -9.59 2.39
-8.27 -9.76 2.39
-8.07 -9.92 2.39
-7.87 -10.08 2.39
-7.66 -10.23 2.39
-7.45 -10.38 2.39
-7.24 -10.52 2.39
-7.03 -10.66 2.39
-6.81 -10.80 2.39
-6.59 -10.93 2.39
-6.37 -11.06 2.39
-6.14 -11.18 2.39
-5.91 -11.30 2.39
-5.68 -11.41 2.39
-5.45 -11.52 2.39
-5.30 -11.79 2.43
-5.20 -12.23 2.49
-4.95 -12.33 2.49
-4.70 -12.42 2.49
-4.45 -12.51 2.49
-4.20 -12.60 2.49
-3.94 -12.67 2.49
-3.69 -12.75 2.49
-3.43 -12.81 2.49
-3.17 -12.88 2.49
-2.91 -12.94 2.49
-2.65 -12.99 2.49
-2.39 -13.03 2.49
-2.12 -13.08 2.49
-1.86 -13.11 2.49
-1.60 -13.14 2.49
-1.33 -13.17 2.49
-1.07 -13.19 2.49
-0.80 -13.21 2.49
-0.54 -13.22 2.49
-0.27 -13.22 2.49
-0.01 -11.76 2.49
0.23 -11.76 2.49
0.47 -11.75 2.49
0.70 -11.73 2.49
0.94 -11.71 2.49
1.17 -11.69 2.49
1.41 -11.66 2.49
1.64 -11.63 2.49
1.87 -11.59 2.49
2.10 -11.55 2.49
2.33 -11.50 2.49
2.56 -11.45 2.49
2.74 -11.16 2.44
2.92 -10.94 2.41
3.11 -10.80 2.39
2.89 -9.31 2.07
3.09 -9.31 2.09
3.76 -10.59 2.39
3.97 -10.51 2.39
4.18 -10.42 2.39
4.38 -10.34 2.39
4.59 -10.24 2.39
4.79 -10.15 2.39
4.99 -10.05 2.39
5.19 -9.94 2.39
5.39 -9.84 2.39
5.59 -9.72 2.39
5.78 -9.61 2.39
5.97 -9.49 2.39
6.16 -9.37 2.39
6.35 -9.24 2.39
6.53 -9.11 2.39
12.92 -17.28 4.60
13.58 -17.43 4.72
14.27 -17.57 4.83
15.06 -17.79 4.98
15.89 -18.03 5.13
16.85 -18.37 5.32
17.93 -18.77 5.54
19.13 -19.24 5.79
20.64 -19.94 6.13
22.50 -20.88 6.56
24.90 -22.19 7.13
6.51 -5.57 1.83
23.55 -19.35 6.51
23.90 -18.85 6.50
23.58 -17.84 6.32
6.49 -4.71 1.71
24.86 -17.28 6.47
6.42 -3.57 1.57
6.41 -3.40 1.55
6.42 -3.24 1.54
48.70 -1.22 10.42
46.82 12.26 10.34
43.33 12.29 9.62
39.18 11.96 8.75
39.12 12.81 8.79
34.17 11.96 7.73
22.09 8.23 5.03
20.22 8.00 4.64
18.62 7.80 4.31
16.80 7.44 3.92
15.76 7.36 3.71
14.90 7.33 3.54
14.11 7.30 3.39
13.39 7.27 3.25
12.73 7.24 3.12
12.11 7.22 3.00
6.13 3.82 1.54
6.12 3.99 1.56
6.12 4.16 1.58
10.04 7.14 2.62
9.61 7.12 2.55
9.19 7.10 2.47
6.09 4.91 1.67
8.43 7.07 2.34
8.08 7.06 2.28
7.74 7.05 2.23
7.43 7.03 2.18
7.12 7.02 2.13
6.83 7.01 2.08
6.55 7.00 2.04
6.28 6.99 2.00
6.02 6.98 1.96
6.77 8.17 2.25
6.61 8.31 2.25
6.44 8.44 2.25
6.27 8.57 2.25
6.10 8.69 2.25
5.98 8.90 2.28
5.97 9.28 2.34
5.91 9.60 2.39
5.71 9.72 2.39
5.52 9.84 2.39
5.32 9.95 2.39
5.12 10.05 2.39
4.92 10.16 2.39
4.72 10.26 2.39
4.51 10.35 2.39
4.30 10.44 2.39
4.09 10.53 2.39
3.88 10.61 2.39
3.67 10.69 2.39
3.46 10.76 2.39
3.24 10.83 2.39
3.02 10.90 2.39
2.80 10.96 2.39
2.58 11.02 2.39
2.36 11.07 2.39
2.14 11.12 2.39
1.92 11.16 2.39
1.77 11.68 2.49
1.53 11.72 2.49
1.30 11.75 2.49
1.06 11.78 2.49
0.82 11.80 2.49
0.59 11.81 2.49
0.35 11.83 2.49
0.11 11.83 2.49
-0.12 11.84 2.49
-0.36 11.83 2.49
-0.60 11.83 2.49
-0.84 11.82 2.49
-1.07 11.80 2.49
-1.31 11.78 2.49
-1.55 11.75 2.49
-1.78 11.72 2.49
-2.02 11.69 2.49
-2.25 11.65 2.49
-2.49 11.60 2.49
-2.72 11.55 2.49
-2.95 11.50 2.49
-3.18 11.44 2.49
-3.41 11.37 2.49
-3.64 11.30 2.49
-3.87 11.23 2.49
-4.09 11.15 2.49
-4.32 11.07 2.49
-4.54 10.98 2.49
-4.76 10.89 2.49
-4.98 10.80 2.49
-5.19 10.70 2.49
-5.41 10.59 2.49
-5.62 10.48 2.49
-5.83 10.37 2.49
-6.04 10.25 2.49
-6.15 9.97 2.46
-6.18 9.59 2.39
-6.37 9.47 2.39
-6.56 9.34 2.39
-6.75 9.21 2.39
-6.50 8.50 2.24
-7.12 8.93 2.39
-7.30 8.79 2.39
-7.47 8.64 2.39
-7.64 8.49 2.39
-7.81 8.34 2.39
-7.98 8.18 2.39
-8.14 8.02 2.39
-8.30 7.85 2.39
-8.46 7.69 2.39
-8.61 7.52 2.39
-8.76 7.34 2.39
-8.91 7.17 2.39
-9.05 6.99 2.39
-9.19 6.80 2.39
-9.33 6.62 2.39
-9.46 6.43 2.39
-9.59 6.24 2.39
-9.71 6.05 2.39
-9.83 5.85 2.39
-9.87 5.61 2.37
-9.86 5.35 2.34
-9.85 5.09 2.32
-9.84 4.84 2.29
-9.83 4.59 2.27
-9.82 4.35 2.24
-9.81 4.11 2.22
-9.81 3.87 2.20
-9.80 3.65 2.18
-9.79 3.42 2.17
-9.78 3.20 2.15
-9.77 2.98 2.13
-9.76 2.76 2.12
-9.75 2.55 2.11
-9.74 2.34 2.09
-9.74 2.13 2.08
-9.73 1.93 2.07
-9.72 1.73 2.06
-9.71 1.52 2.05
-9.70 1.32 2.05
-9.70 1.13 2.04
-9.69 0.93 2.03
-9.68 0.73 2.03
-9.67 0.54 2.02
-9.67 0.34 2.02
-9.66 0.15 2.02
-9.65 -0.05 2.02
-9.64 -0.24 2.02
-9.64 -0.43 2.02
-9.63 -0.63 2.02
-9.62 -0.82 2.02
-9.61 -1.02 2.02
-8.90 -1.12 1.87
-8.88 -1.30 1.88
-8.89 -1.48 1.88
-9.58 -1.80 2.04
-9.57 -2.00 2.05
-9.57 -2.20 2.05
-9.56 -2.40 2.06
-8.79 -2.39 1.91
-8.78 -2.58 1.91
-10.63 -3.36 2.33
-10.57 -3.57 2.34
-10.51 -3.79 2.34
-10.45 -4.00 2.34
-10.38 -4.22 2.35
-10.31 -4.43 2.35
-9.63 -4.38 2.22
-9.44 -4.52 2.19
-9.43 -4.75 2.21
-8.31 -4.39 1.97
-8.21 -4.56 1.97
-8.20 -4.77 1.99
-9.39 -5.72 2.31
-9.38 -5.97 2.33
-9.37 -6.23 2.36
-9.36 -6.50 2.39
-9.23 -6.68 2.39
-9.09 -6.87 2.39
-8.95 -7.05 2.39
-8.80 -7.22 2.39
-8.65 -7.40 2.39
-8.50 -7.57 2.39
-8.35 -7.73 2.39
-8.19 -7.90 2.39
-8.03 -8.06 2.39
-7.86 -8.22 2.39
-7.69 -8.37 2.39
-7.52 -8.52 2.39
-7.35 -8.67 2.39
-7.17 -8.81 2.39
-6.99 -8.95 2.39
-6.81 -9.09 2.39
-6.62 -9.22 2.39
-6.44 -9.35 2.39
-6.25 -9.48 2.39
-6.05 -9.60 2.39
-5.86 -9.72 2.39
-5.66 -9.83 2.39
-5.46 -9.94 2.39
-5.35 -10.23 2.43
-5.27 -10.58 2.49
-5.06 -10.68 2.49
-4.84 -10.78 2.49
-4.62 -10.87 2.49
-4.40 -10.96 2.49
-4.18 -11.05 2.49
-3.96 -11.12 2.49
-3.73 -11.20 2.49
-3.51 -11.27 2.49
-3.28 -11.33 2.49
-3.05 -11.40 2.49
-2.82 -11.45 2.49
-2.59 -11.50 2.49
-2.36 -11.55 2.49
-2.12 -11.59 2.49
-1.89 -11.63 2.49
-1.66 -11.66 2.49
-1.42 -11.69 2.49
-1.19 -11.71 2.49
-0.95 -11.73 2.49
-0.71 -11.75 2.49
-0.48 -11.76 2.49
-0.24 -11.76 2.49
-0.01 -10.58 2.49
0.21 -10.58 2.49
0.42 -10.57 2.49
0.63 -10.55 2.49
0.84 -10.54 2.49
1.05 -10.52 2.49
1.26 -10.49 2.49
1.47 -10.46 2.49
1.68 -10.43 2.49
1.89 -10.39 2.49
2.10 -10.35 2.49
2.31 -10.30 2.49
2.51 -10.25 2.49
2.69 -10.11 2.47
2.80 -9.72 2.39
2.89 -9.31 2.30
3.09 -9.30 2.32
3.38 -9.53 2.39
3.57 -9.46 2.39
3.76 -9.38 2.39
3.94 -9.30 2.39
4.13 -9.22 2.39
4.31 -9.13 2.39
4.50 -9.04 2.39
4.68 -8.95 2.39
4.85 -8.85 2.39
5.03 -8.75 2.39
5.20 -8.65 2.39
5.37 -8.54 2.39
5.54 -8.43 2.39
5.71 -8.32 2.39
5.88 -8.20 2.39
6.04 -8.08 2.39
6.20 -7.95 2.39
6.36 -7.83 2.39
6.51 -7.70 2.39
14.04 -15.94 5.04
14.77 -16.10 5.18
6.56 -6.87 2.25
6.55 -6.58 2.20
17.38 -16.79 5.73
18.46 -17.13 5.98
19.66 -17.52 6.25
21.01 -17.98 6.56
22.52 -18.50 6.92
23.40 -18.45 7.07
23.55 -17.82 7.01
6.49 -4.71 1.90
25.01 -17.39 7.23
30.27 -20.15 8.63
32.63 -20.79 9.19
6.41 -3.23 1.71
6.39 -2.75 1.65
6.35 -1.87 1.57
6.35 -1.73 1.56
6.34 -1.59 1.55
6.34 -1.46 1.54
6.34 -1.32 1.54
44.83 -7.49 10.80
44.73 -6.55 10.74
47.54 -3.10 11.32
47.28 -2.13 11.24
47.45 -1.18 11.27
48.38 -0.24 11.49
48.25 0.73 11.46
48.18 1.70 11.45
48.05 2.66 11.43
47.86 3.62 11.40
47.74 4.58 11.39
47.68 5.54 11.39
47.59 6.50 11.40
47.53 7.47 11.42
47.35 8.42 11.41
46.95 9.32 11.36
46.65 10.24 11.33
46.33 11.15 11.30
46.09 12.08 11.30
6.24 1.77 1.54
6.20 1.89 1.54
6.20 2.03 1.55
6.19 2.17 1.56
6.19 2.31 1.57
6.18 2.45 1.58
19.31 8.09 4.96
17.83 7.90 4.62
16.55 7.73 4.33
6.17 3.03 1.63
6.15 3.18 1.64
13.39 7.27 3.61
12.73 7.24 3.47
6.14 3.66 1.69
11.54 7.19 3.22
11.01 7.17 3.11
9.25 6.30 2.65
8.51 6.04 2.47
6.11 4.53 1.80
8.26 6.38 2.47
8.13 6.55 2.47
8.00 6.71 2.47
7.97 6.97 2.50
7.74 7.05 2.47
7.42 7.03 2.42
7.12 7.02 2.36
6.83 7.01 2.31
6.55 7.00 2.26
6.28 6.99 2.22
6.02 6.98 2.18
6.09 7.35 2.25
6.04 7.59 2.29
6.02 7.89 2.34
5.99 8.18 2.39
5.82 8.30 2.39
5.65 8.42 2.39
5.49 8.53 2.39
5.31 8.64 2.39
5.14 8.75 2.39
4.97 8.85 2.39
4.79 8.95 2.39
4.61 9.04 2.39
4.43 9.14 2.39
4.24 9.23 2.39
4.06 9.31 2.39
3.87 9.39 2.39
3.68 9.47 2.39
3.49 9.55 2.39
3.30 9.62 2.39
3.11 9.68 2.39
2.91 9.74 2.39
2.72 9.80 2.39
2.52 9.86 2.39
2.32 9.91 2.39
2.12 9.96 2.39
1.92 10.00 2.39
1.80 10.47 2.49
1.59 10.51 2.49
1.38 10.54 2.49
1.17 10.57 2.49
0.95 10.59 2.49
0.74 10.61 2.49
0.53 10.62 2.49
0.31 10.63 2.49
0.10 10.64 2.49
-0.11 10.64 2.49
-0.33 10.64 2.49
-0.54 10.63 2.49
-0.75 10.62 2.49
-0.97 10.61 2.49
-1.18 10.59 2.49
-1.39 10.57 2.49
-1.60 10.54 2.49
-1.82 10.51 2.49
-2.03 10.47 2.49
-2.24 10.43 2.49
-2.45 10.38 2.49
-2.65 10.33 2.49
-2.86 10.28 2.49
-3.07 10.22 2.49
-3.27 10.16 2.49
-3.48 10.09 2.49
-3.68 10.02 2.49
-3.88 9.95 2.49
-4.08 9.87 2.49
-4.28 9.79 2.49
-4.47 9.70 2.49
-4.67 9.61 2.49
-4.86 9.52 2.49
-5.05 9.42 2.49
-5.24 9.32 2.49
-5.43 9.21 2.49
-5.61 9.11 2.49
-5.80 8.99 2.49
-5.98 8.88 2.49
-6.10 8.68 2.47
-6.09 8.31 2.40
-6.23 8.15 2.39
-6.40 8.03 2.39
-6.56 7.90 2.39
-6.71 7.76 2.39
-6.87 7.63 2.39
-7.02 7.49 2.39
-7.17 7.35 2.39
-7.32 7.20 2.39
-7.46 7.06 2.39
-7.60 6.91 2.39
-7.74 6.75 2.39
-7.87 6.60 2.39
-8.01 6.44 2.39
-8.13 6.28 2.39
-8.26 6.11 2.39
-8.38 5.95 2.39
-8.50 5.78 2.39
-8.61 5.61 2.39
-8.73 5.43 2.39
-8.83 5.26 2.39
-8.94 5.08 2.39
-9.04 4.90 2.39
-9.13 4.72 2.39
-9.23 4.53 2.39
-9.32 4.35 2.39
-9.40 4.16 2.39
-9.48 3.97 2.39
-9.56 3.78 2.39
-9.64 3.59 2.39
-9.71 3.39 2.39
-9.77 3.20 2.39
-9.77 2.98 2.37
-9.76 2.76 2.36
-9.75 2.55 2.34
-9.74 2.34 2.33
-9.74 2.13 2.32
-9.73 1.93 2.31
-9.72 1.73 2.30
-9.71 1.52 2.29
-9.70 1.32 2.28
-9.70 1.13 2.27
-9.69 0.93 2.26
-9.68 0.73 2.26
-9.67 0.54 2.25
-9.67 0.34 2.25
-6.23 0.09 1.45
-6.33 -0.03 1.47
-6.31 -0.16 1.47
-9.64 -0.43 2.24
-9.63 -0.63 2.24
-9.62 -0.82 2.25
-9.61 -1.01 2.25
-8.93 -1.12 2.09
-8.89 -1.30 2.09
-8.89 -1.48 2.10
-9.58 -1.80 2.27
-9.57 -2.00 2.28
-9.57 -2.20 2.28
-8.54 -2.14 2.05
-8.30 -2.26 2.00
-8.30 -2.44 2.01
-8.29 -2.62 2.02
-9.72 -3.29 2.39
-9.66 -3.48 2.39
-9.58 -3.67 2.39
-9.50 -3.86 2.39
-9.42 -4.05 2.39
-9.34 -4.24 2.39
-9.25 -4.43 2.39
-9.16 -4.61 2.39
-8.31 -4.39 2.19
-8.21 -4.56 2.19
-8.20 -4.77 2.21
-8.75 -5.33 2.39
-8.64 -5.50 2.39
-8.53 -5.67 2.39
-8.41 -5.84 2.39
-8.29 -6.01 2.39
-8.17 -6.17 2.39
-8.04 -6.33 2.39
-7.91 -6.49 2.39
-7.78 -6.65 2.39
-7.64 -6.80 2.39
-7.50 -6.95 2.39
-7.36 -7.10 2.39
-7.22 -7.25 2.39
-7.07 -7.39 2.39
-6.92 -7.53 2.39
-6.76 -7.66 2.39
-6.61 -7.79 2.39
-6.45 -7.92 2.39
-6.29 -8.05 2.39
-6.12 -8.17 2.39
-5.96 -8.29 2.39
-5.79 -8.41 2.39
-5.63 -8.54 2.40
-5.44 -8.63 2.39
-5.40 -8.96 2.45
-5.31 -9.22 2.49
-5.12 -9.32 2.49
-4.93 -9.42 2.49
-4.74 -9.52 2.49
-4.55 -9.61 2.49
-4.35 -9.70 2.49
-4.16 -9.78 2.49
-3.96 -9.86 2.49
-3.76 -9.93 2.49
-3.56 -10.00 2.49
-3.36 -10.07 2.49
-3.15 -10.13 2.49
-2.95 -10.19 2.49
-2.74 -10.25 2.49
-2.54 -10.30 2.49
-2.33 -10.35 2.49
-2.12 -10.39 2.49
-1.91 -10.43 2.49
-1.70 -10.46 2.49
-1.49 -10.49 2.49
-1.28 -10.52 2.49
-1.07 -10.54 2.49
-0.86 -10.55 2.49
-0.64 -10.57 2.49
-0.43 -10.58 2.49
-0.22 -10.58 2.49
-0.01 -9.61 2.49
0.19 -9.60 2.49
0.38 -9.59 2.49
0.57 -9.58 2.49
0.76 -9.57 2.49
0.96 -9.55 2.49
1.15 -9.53 2.49
1.34 -9.50 2.49
1.53 -9.47 2.49
1.72 -9.43 2.49
1.91 -9.40 2.49
2.09 -9.36 2.49
2.28 -9.31 2.49
2.47 -9.26 2.49
2.65 -9.21 2.49
2.72 -8.77 2.39
2.89 -8.71 2.39
3.07 -8.65 2.39
3.24 -8.59 2.39
3.41 -8.52 2.39
3.58 -8.45 2.39
3.75 -8.37 2.39
3.92 -8.30 2.39
4.08 -8.21 2.39
4.25 -8.13 2.39
4.41 -8.04 2.39
4.57 -7.95 2.39
4.73 -7.86 2.39
4.88 -7.76 2.39
5.04 -7.66 2.39
5.19 -7.55 2.39
5.34 -7.45 2.39
5.49 -7.34 2.39
5.63 -7.23 2.39
5.77 -7.11 2.39
5.92 -6.99 2.39
6.05 -6.87 2.39
6.19 -6.75 2.39
6.32 -6.62 2.39
6.46 -6.49 2.39
15.18 -14.67 5.51
15.93 -14.78 5.68
6.51 -5.81 2.28
17.78 -15.21 6.11
18.85 -15.49 6.38
20.03 -15.79 6.66
21.38 -16.17 7.00
6.49 -4.71 2.09
24.20 -16.82 7.70
25.65 -17.08 8.05
27.22 -17.34 8.44
6.44 -3.92 1.97
24.34 -14.17 7.36
6.39 -2.75 1.82
6.37 -2.16 1.76
6.33 -1.19 1.68
44.08 -7.37 11.69
44.43 -6.51 11.74
6.31 -0.80 1.66
43.12 -4.56 11.34
45.86 -3.92 12.03
40.74 -2.66 10.67
44.76 -2.02 11.71
46.19 -1.15 12.08
42.18 -0.20 11.03
42.70 0.65 11.16
46.20 1.63 12.08
43.62 2.42 11.42
43.10 3.26 11.29
42.97 4.12 11.28
38.23 4.44 10.06
41.48 5.67 10.94
40.74 6.40 10.77
38.86 6.91 10.31
6.23 1.24 1.66
44.36 9.74 11.86
44.08 10.61 11.84
6.22 1.63 1.68
43.16 12.24 11.71
39.07 11.93 10.66
39.00 12.77 10.71
34.17 11.96 9.45
34.14 12.72 9.51
29.21 11.56 8.20
29.08 12.19 8.23
19.08 8.45 5.44
17.11 7.99 4.92
15.90 7.82 4.62
6.15 3.18 1.81
13.56 7.36 4.02
12.73 7.24 3.82
12.11 7.22 3.68
9.24 5.76 2.84
8.40 5.47 2.61
7.83 5.33 2.47
6.12 4.35 1.95
7.62 5.64 2.47
7.50 5.80 2.47
7.38 5.95 2.47
7.27 6.10 2.47
7.17 6.26 2.48
6.07 5.52 2.14
7.01 6.64 2.51
7.12 7.02 2.60
6.04 6.20 2.25
6.55 7.00 2.49
6.28 6.99 2.44
6.01 6.96 2.39
5.87 7.08 2.39
5.73 7.20 2.39
5.58 7.31 2.39
5.43 7.43 2.39
5.29 7.53 2.39
5.13 7.64 2.39
4.98 7.74 2.39
4.82 7.84 2.39
4.67 7.94 2.39
4.51 8.03 2.39
4.35 8.12 2.39
4.18 8.21 2.39
4.02 8.30 2.39
3.85 8.38 2.39
3.68 8.45 2.39
3.51 8.53 2.39
3.34 8.60 2.39
3.17 8.67 2.39
3.00 8.73 2.39
2.82 8.79 2.39
2.64 8.85 2.39
2.47 8.90 2.39
2.29 8.95 2.39
2.11 8.99 2.39
1.94 9.12 2.41
1.82 9.47 2.49
1.63 9.50 2.49
1.44 9.54 2.49
1.25 9.56 2.49
1.06 9.59 2.49
0.86 9.61 2.49
0.67 9.63 2.49
0.48 9.64 2.49
0.28 9.65 2.49
0.09 9.66 2.49
-0.10 9.66 2.49
-0.30 9.66 2.49
-0.49 9.65 2.49
-0.68 9.64 2.49
-0.88 9.63 2.49
-1.07 9.61 2.49
-1.26 9.59 2.49
-1.46 9.56 2.49
-1.65 9.53 2.49
-1.84 9.50 2.49
-2.03 9.46 2.49
-2.22 9.42 2.49
-2.41 9.38 2.49
-2.60 9.33 2.49
-2.78 9.27 2.49
-2.97 9.22 2.49
-3.15 9.16 2.49
-3.34 9.09 2.49
-3.52 9.03 2.49
-3.70 8.96 2.49
-3.88 8.88 2.49
-4.06 8.80 2.49
-4.24 8.72 2.49
-4.41 8.64 2.49
-4.58 8.55 2.49
-4.76 8.45 2.49
-4.92 8.36 2.49
-5.09 8.26 2.49
-5.26 8.16 2.49
-5.42 8.05 2.49
-5.58 7.94 2.49
-5.74 7.83 2.49
-5.90 7.71 2.49
-6.05 7.59 2.49
-6.04 7.28 2.43
-6.09 7.04 2.39
-6.24 6.93 2.39
-6.37 6.79 2.39
-6.50 6.67 2.39
-6.64 6.53 2.39
-6.77 6.40 2.39
-6.90 6.26 2.39
-7.02 6.12 2.39
-7.14 5.98 2.39
-7.26 5.84 2.39
-7.38 5.69 2.39
-7.49 5.54 2.39
-7.60 5.39 2.39
-7.71 5.24 2.39
-7.81 5.08 2.39
-7.91 4.93 2.39
-8.01 4.77 2.39
-8.11 4.61 2.39
-8.20 4.44 2.39
-8.28 4.28 2.39
-8.37 4.11 2.39
-8.45 3.94 2.39
-8.53 3.77 2.39
-8.60 3.60 2.39
-8.67 3.43 2.39
-8.74 3.25 2.39
-8.80 3.08 2.39
-8.86 2.90 2.39
-8.92 2.72 2.39
-8.97 2.54 2.39
-9.02 2.36 2.39
-9.07 2.18 2.39
-9.11 2.00 2.39
-9.15 1.81 2.39
-9.18 1.63 2.39
-9.21 1.45 2.39
-9.24 1.26 2.39
-9.26 1.07 2.39
-9.28 0.89 2.39
-9.30 0.70 2.39
-9.31 0.52 2.39
-9.32 0.33 2.39
-6.06 0.09 1.55
-5.98 -0.03 1.53
-6.00 -0.15 1.54
-9.31 -0.42 2.39
-9.30 -0.61 2.39
-9.29 -0.79 2.39
-9.27 -0.98 2.39
-9.06 -1.14 2.34
-8.90 -1.30 2.31
-8.90 -1.49 2.32
-9.16 -1.72 2.39
-9.12 -1.90 2.39
-9.08 -2.08 2.39
-8.65 -2.17 2.29
-8.30 -2.26 2.21
-8.30 -2.44 2.22
-8.29 -2.62 2.23
-8.82 -2.98 2.39
-8.76 -3.16 2.39
-8.69 -3.33 2.39
-8.62 -3.50 2.39
-8.55 -3.68 2.39
-8.47 -3.85 2.39
-8.39 -4.01 2.39
-8.31 -4.18 2.39
-8.22 -4.35 2.39
-8.13 -4.51 2.39
-8.04 -4.67 2.39
-7.94 -4.83 2.39
-7.84 -4.99 2.39
-7.74 -5.14 2.39
-7.63 -5.30 2.39
-7.52 -5.45 2.39
-7.41 -5.60 2.39
-7.30 -5.75 2.39
-7.18 -5.89 2.39
-7.06 -6.03 2.39
-6.93 -6.17 2.39
-6.81 -6.31 2.39
-6.68 -6.44 2.39
-6.55 -6.57 2.39
-6.41 -6.70 2.39
-6.28 -6.83 2.39
-6.14 -6.95 2.39
-6.00 -7.07 2.39
-5.85 -7.19 2.39
-5.70 -7.30 2.39
-5.56 -7.42 2.39
-5.46 -7.60 2.42
-5.44 -7.91 2.48
-5.32 -8.07 2.49
-5.15 -8.17 2.49
-4.99 -8.27 2.49
-4.82 -8.37 2.49
-4.65 -8.46 2.49
-4.48 -8.55 2.49
-4.30 -8.64 2.49
-4.13 -8.72 2.49
-3.95 -8.80 2.49
-3.77 -8.87 2.49
-3.59 -8.95 2.49
-3.41 -9.02 2.49
-3.23 -9.08 2.49
-3.05 -9.14 2.49
-2.86 -9.20 2.49
-2.68 -9.25 2.49
-2.49 -9.30 2.49
-2.30 -9.35 2.49
-2.11 -9.39 2.49
-1.93 -9.43 2.49
-1.73 -9.47 2.49
-1.54 -9.50 2.49
-1.35 -9.52 2.49
-1.16 -9.55 2.49
-0.97 -9.57 2.49
-0.78 -9.58 2.49
-0.58 -9.59 2.49
-0.39 -9.60 2.49
-0.20 -9.61 2.49
-0.01 -8.79 2.49
0.17 -8.78 2.49
0.35 -8.78 2.49
0.52 -8.77 2.49
0.70 -8.75 2.49
0.87 -8.74 2.49
1.05 -8.72 2.49
1.22 -8.69 2.49
1.40 -8.66 2.49
1.57 -8.63 2.49
1.74 -8.60 2.49
1.92 -8.56 2.49
2.09 -8.52 2.49
2.26 -8.47 2.49
2.43 -8.42 2.49
2.59 -8.37 2.49
2.65 -7.97 2.39
2.81 -7.92 2.39
2.97 -7.86 2.39
3.12 -7.80 2.39
3.28 -7.73 2.39
3.43 -7.66 2.39
3.58 -7.59 2.39
3.74 -7.52 2.39
3.88 -7.44 2.39
4.03 -7.36 2.39
4.18 -7.28 2.39
4.32 -7.19 2.39
4.47 -7.10 2.39
4.61 -7.01 2.39
4.75 -6.91 2.39
4.88 -6.82 2.39
5.02 -6.72 2.39
5.15 -6.61 2.39
5.28 -6.51 2.39
5.41 -6.40 2.39
5.54 -6.29 2.39
5.67 -6.17 2.39
5.79 -6.06 2.39
5.91 -5.94 2.39
6.02 -5.82 2.39
6.14 -5.70 2.39
6.25 -5.57 2.39
6.36 -5.45 2.39
6.47 -5.32 2.39
17.10 -13.49 6.22
18.04 -13.64 6.46
6.49 -4.71 2.29
6.48 -4.50 2.25
21.58 -14.37 7.40
15.86 -10.10 5.37
16.03 -9.76 5.36
16.95 -9.86 5.60
27.36 -15.20 8.94
29.12 -15.42 9.41
31.23 -15.74 9.99
42.69 -20.45 13.52
6.39 -2.75 1.99
31.13 -11.95 9.52
31.27 -11.28 9.50
6.36 -1.87 1.89
45.93 -10.55 13.46
45.11 -9.41 13.17
39.00 -7.32 11.34
44.12 -7.37 12.78
44.00 -6.45 12.70
6.31 -0.80 1.82
39.76 -4.20 11.42
40.07 -3.42 11.49
40.45 -2.64 11.58
44.21 -1.99 12.64
38.96 -0.97 11.13
6.30 -0.03 1.80
44.09 0.67 12.59
43.99 1.56 12.57
43.84 2.43 12.54
38.13 2.88 10.92
37.88 3.63 10.87
37.08 4.31 10.66
36.95 5.05 10.65
38.00 5.97 10.98
38.46 6.84 11.15
6.23 1.24 1.81
40.28 8.84 11.77
37.13 8.94 10.90
35.73 9.36 10.54
40.33 11.44 11.96
36.65 11.20 10.93
35.66 11.68 10.70
34.17 11.96 10.33
6.20 2.31 1.89
29.20 11.56 8.96
29.08 12.19 8.99
29.05 12.87 9.06
24.33 11.37 7.65
16.65 8.19 5.29
6.15 3.18 1.97
14.31 7.77 4.64
9.17 5.22 3.01
8.38 4.99 2.78
6.14 3.83 2.06
7.27 4.74 2.47
7.20 4.90 2.48
7.12 5.06 2.49
7.03 5.21 2.49
6.95 5.37 2.50
6.86 5.53 2.51
6.09 5.11 2.26
6.68 5.84 2.52
6.58 5.99 2.53
6.55 6.20 2.56
5.99 5.90 2.39
5.87 6.02 2.39
5.75 6.14 2.39
5.62 6.26 2.39
5.50 6.37 2.39
5.37 6.48 2.39
5.24 6.59 2.39
5.11 6.69 2.39
4.97 6.79 2.39
4.83 6.89 2.39
4.70 6.99 2.39
4.56 7.08 2.39
4.41 7.18 2.39
4.27 7.26 2.39
4.12 7.35 2.39
3.98 7.43 2.39
3.83 7.51 2.39
3.68 7.59 2.39
3.52 7.66 2.39
3.37 7.73 2.39
3.21 7.80 2.39
3.06 7.86 2.39
2.90 7.93 2.39
2.74 7.98 2.39
2.58 8.04 2.39
2.42 8.09 2.39
2.26 8.14 2.39
2.09 8.18 2.39
1.97 8.39 2.44
1.84 8.62 2.49
1.67 8.66 2.49
1.49 8.69 2.49
1.32 8.72 2.49
1.14 8.75 2.49
0.97 8.77 2.49
0.79 8.79 2.49
0.61 8.80 2.49
0.44 8.82 2.49
0.26 8.83 2.49
0.08 8.83 2.49
-0.09 8.83 2.49
-0.27 8.83 2.49
-0.45 8.82 2.49
-0.63 8.81 2.49
-0.80 8.80 2.49
-0.98 8.79 2.49
-1.16 8.77 2.49
-1.33 8.74 2.49
-1.51 8.72 2.49
-1.68 8.68 2.49
-1.86 8.65 2.49
-2.03 8.61 2.49
-2.20 8.57 2.49
-2.37 8.53 2.49
-2.55 8.48 2.49
-2.72 8.43 2.49
-2.88 8.37 2.49
-3.05 8.31 2.49
-3.22 8.25 2.49
-3.38 8.19 2.49
-3.55 8.12 2.49
-3.71 8.05 2.49
-3.87 7.97 2.49
-4.03 7.89 2.49
-4.19 7.81 2.49
-4.35 7.73 2.49
-4.50 7.64 2.49
-4.65 7.55 2.49
-4.81 7.46 2.49
-4.96 7.36 2.49
-5.10 7.26 2.49
-5.25 7.16 2.49
-5.39 7.05 2.49
-5.53 6.94 2.49
-5.67 6.83 2.49
-5.81 6.71 2.49
-5.94 6.60 2.49
-6.01 6.41 2.47
-6.00 6.15 2.41
-6.07 5.97 2.39
-6.20 5.86 2.40
-6.30 5.73 2.39
-6.42 5.60 2.39
-6.53 5.47 2.39
-6.64 5.34 2.39
-6.74 5.20 2.39
-6.85 5.07 2.39
-6.95 4.93 2.39
-7.05 4.79 2.39
-7.14 4.65 2.39
-7.23 4.50 2.39
-7.32 4.36 2.39
-7.41 4.21 2.39
-7.49 4.06 2.39
-7.57 3.91 2.39
-7.65 3.76 2.39
-7.72 3.60 2.39
-7.79 3.45 2.39
-7.86 3.29 2.39
-7.93 3.13 2.39
-7.99 2.97 2.39
-8.05 2.81 2.39
-8.10 2.65 2.39
-8.15 2.49 2.39
-8.20 2.32 2.39
-8.25 2.16 2.39
-8.29 1.99 2.39
-8.32 1.83 2.39
-8.36 1.66 2.39
-8.39 1.49 2.39
-8.42 1.32 2.39
-8.44 1.15 2.39
-8.47 0.98 2.39
-8.48 0.81 2.39
-8.50 0.64 2.39
-8.51 0.47 2.39
-8.52 0.30 2.39
-6.04 0.09 1.69
-5.96 -0.03 1.67
-5.97 -0.15 1.68
-6.12 -0.28 1.72
-8.50 -0.55 2.39
-8.49 -0.72 2.39
-8.47 -0.89 2.39
-8.45 -1.06 2.39
-8.43 -1.23 2.39
-8.40 -1.40 2.39
-8.37 -1.57 2.39
-8.33 -1.74 2.39
-8.30 -1.90 2.39
-8.26 -2.07 2.39
-8.21 -2.23 2.39
-8.17 -2.40 2.39
-8.12 -2.56 2.39
-8.06 -2.72 2.39
-8.00 -2.88 2.39
-7.94 -3.04 2.39
-7.88 -3.20 2.39
-7.81 -3.36 2.39
-7.74 -3.52 2.39
-7.67 -3.67 2.39
-7.59 -3.82 2.39
-7.52 -3.97 2.39
-7.43 -4.12 2.39
-7.35 -4.27 2.39
-7.26 -4.42 2.39
-7.17 -4.56 2.39
-7.07 -4.70 2.39
-6.98 -4.84 2.39
-6.88 -4.98 2.39
-6.78 -5.12 2.39
-6.67 -5.25 2.39
-6.56 -5.38 2.39
-6.45 -5.51 2.39
-6.34 -5.64 2.39
-6.22 -5.77 2.39
-6.11 -5.89 2.39
-5.99 -6.01 2.39
-5.86 -6.13 2.39
-5.74 -6.24 2.39
-5.61 -6.36 2.39
-5.51 -6.50 2.40
-5.49 -6.75 2.45
-5.44 -6.97 2.49
-5.30 -7.07 2.49
-5.16 -7.18 2.49
-5.01 -7.28 2.49
-4.86 -7.38 2.49
-4.71 -7.47 2.49
-4.56 -7.56 2.49
-4.41 -7.65 2.49
-4.25 -7.74 2.49
-4.09 -7.82 2.49
-3.94 -7.90 2.49
-3.78 -7.97 2.49
-3.61 -8.05 2.49
-3.45 -8.12 2.49
-3.29 -8.18 2.49
-3.12 -8.24 2.49
-2.96 -8.30 2.49
-2.79 -8.36 2.49
-2.62 -8.41 2.49
-2.45 -8.46 2.49
-2.28 -8.51 2.49
-2.11 -8.55 2.49
-1.93 -8.59 2.49
-1.76 -8.63 2.49
-1.59 -8.66 2.49
-1.41 -8.69 2.49
-1.24 -8.71 2.49
-1.06 -8.73 2.49
-0.89 -8.75 2.49
-0.71 -8.76 2.49
-0.54 -8.78 2.49
-0.36 -8.78 2.49
-0.18 -8.79 2.49
-0.01 -8.09 2.49
0.16 -8.09 2.49
0.32 -8.08 2.49
0.48 -8.07 2.49
0.64 -8.06 2.49
0.80 -8.04 2.49
0.97 -8.02 2.49
1.13 -8.00 2.49
1.29 -7.98 2.49
1.45 -7.95 2.49
1.61 -7.92 2.49
1.76 -7.88 2.49
1.92 -7.84 2.49
2.08 -7.80 2.49
2.23 -7.76 2.49
2.39 -7.71 2.49
2.54 -7.66 2.49
2.59 -7.32 2.40
2.73 -7.24 2.39
2.87 -7.18 2.39
2.93 -6.90 2.32
3.00 -6.70 2.27
3.22 -6.81 2.33
3.38 -6.80 2.35
3.51 -6.71 2.34
3.52 -6.43 2.27
3.85 -6.70 2.39
3.98 -6.62 2.39
4.11 -6.54 2.39
4.24 -6.45 2.39
4.37 -6.37 2.39
4.50 -6.28 2.39
4.62 -6.18 2.39
4.75 -6.09 2.39
4.87 -5.99 2.39
4.98 -5.89 2.39
5.10 -5.79 2.39
5.22 -5.69 2.39
5.33 -5.58 2.39
5.44 -5.47 2.39
5.55 -5.36 2.39
5.65 -5.25 2.39
5.76 -5.13 2.39
5.86 -5.02 2.39
5.96 -4.90 2.39
6.06 -4.78 2.39
6.15 -4.65 2.39
6.24 -4.53 2.39
6.33 -4.40 2.39
6.42 -4.27 2.39
15.42 -9.83 5.67
15.33 -9.34 5.57
15.62 -9.09 5.61
6.43 -3.57 2.28
6.42 -3.40 2.25
25.76 -12.99 8.95
24.94 -11.95 8.58
24.60 -11.18 8.38
6.39 -2.75 2.16
30.63 -12.46 10.26
30.93 -11.87 10.28
6.38 -2.30 2.10
30.77 -9.73 10.01
31.04 -9.13 10.04
45.10 -11.32 14.43
6.34 -1.46 2.02
43.18 -9.01 13.68
42.68 -8.01 13.47
42.43 -7.09 13.34
42.05 -6.16 13.18
6.31 -0.80 1.97
42.03 -4.44 13.11
42.00 -3.59 13.07
35.49 -2.31 11.03
41.93 -1.89 13.02
41.88 -1.04 12.99
38.85 -0.19 12.05
6.28 0.10 1.95
41.41 1.46 12.85
6.27 0.35 1.95
37.65 2.85 11.71
36.58 3.51 11.39
36.26 4.21 11.32
33.82 4.62 10.58
36.43 5.72 11.43
33.98 6.04 10.70
6.23 1.24 1.97
38.19 8.39 12.12
36.41 8.76 11.60
35.13 9.21 11.25
35.61 10.10 11.47
6.21 1.90 2.01
34.30 11.24 11.18
33.93 11.88 11.13
33.90 12.63 11.20
29.20 11.56 9.72
7.37 3.09 2.48
6.18 2.74 2.09
7.24 3.38 2.47
7.17 3.53 2.47
6.15 3.18 2.14
7.02 3.81 2.47
6.94 3.95 2.47
6.86 4.09 2.47
6.80 4.24 2.48
6.13 4.00 2.26
6.72 4.58 2.52
6.67 4.74 2.53
6.59 4.88 2.54
6.12 4.73 2.39
6.02 4.85 2.39
5.93 4.97 2.39
5.83 5.09 2.39
5.72 5.21 2.39
5.62 5.32 2.39
5.51 5.44 2.39
5.40 5.55 2.39
5.29 5.65 2.39
5.18 5.76 2.39
5.06 5.86 2.39
4.94 5.96 2.39
4.82 6.06 2.39
4.70 6.16 2.39
4.58 6.25 2.39
4.45 6.35 2.39
4.32 6.44 2.39
4.19 6.52 2.39
4.06 6.61 2.39
3.93 6.69 2.39
3.79 6.77 2.39
3.66 6.84 2.39
3.52 6.91 2.39
3.38 6.99 2.39
3.24 7.05 2.39
3.10 7.12 2.39
2.96 7.18 2.39
2.81 7.24 2.39
2.67 7.30 2.39
2.52 7.35 2.39
2.37 7.40 2.39
2.22 7.45 2.39
2.08 7.49 2.39
1.99 7.79 2.47
1.85 7.90 2.49
1.69 7.93 2.49
1.53 7.97 2.49
1.37 8.00 2.49
1.21 8.03 2.49
1.05 8.05 2.49
0.89 8.07 2.49
0.73 8.09 2.49
0.56 8.10 2.49
0.40 8.11 2.49
0.24 8.12 2.49
0.08 8.13 2.49
-0.09 8.13 2.49
-0.25 8.13 2.49
-0.41 8.12 2.49
-0.58 8.11 2.49
-0.74 8.10 2.49
-0.90 8.08 2.49
-1.06 8.07 2.49
-1.23 8.04 2.49
-1.39 8.02 2.49
-1.55 7.99 2.49
-1.71 7.96 2.49
-1.87 7.92 2.49
-2.03 7.89 2.49
-2.19 7.85 2.49
-2.34 7.80 2.49
-2.50 7.75 2.49
-2.65 7.70 2.49
-2.81 7.65 2.49
-2.96 7.59 2.49
-3.11 7.53 2.49
-3.27 7.47 2.49
-3.41 7.40 2.49
-3.56 7.33 2.49
-3.71 7.26 2.49
-3.86 7.19 2.49
-4.00 7.11 2.49
-4.14 7.03 2.49
-4.28 6.95 2.49
-4.42 6.86 2.49
-4.56 6.77 2.49
-4.69 6.68 2.49
-4.83 6.58 2.49
-4.96 6.49 2.49
-5.09 6.38 2.49
-5.22 6.28 2.49
-5.34 6.18 2.49
-5.47 6.07 2.49
-5.59 5.96 2.49
-5.71 5.85 2.49
-5.82 5.73 2.49
-5.94 5.61 2.49
-5.97 5.42 2.46
-5.97 5.20 2.42
-6.01 5.03 2.39
-6.11 4.91 2.39
-6.20 4.79 2.39
-6.30 4.66 2.39
-6.39 4.53 2.39
-6.48 4.40 2.39
-6.57 4.27 2.39
-6.65 4.14 2.39
-6.73 4.01 2.39
-6.81 3.87 2.39
-6.89 3.73 2.39
-6.96 3.60 2.39
-7.04 3.46 2.39
-7.10 3.31 2.39
-7.17 3.17 2.39
-7.23 3.03 2.39
-7.29 2.88 2.39
-7.35 2.73 2.39
-7.40 2.59 2.39
-7.45 2.44 2.39
-7.50 2.29 2.39
-7.54 2.14 2.39
-7.58 1.98 2.39
-7.62 1.83 2.39
-7.66 1.68 2.39
-7.69 1.53 2.39
-7.72 1.37 2.39
-7.74 1.22 2.39
-7.77 1.06 2.39
-7.79 0.90 2.39
-7.80 0.75 2.39
-7.82 0.59 2.39
-7.83 0.43 2.39
-7.83 0.28 2.39
-6.01 0.09 1.83
-5.94 -0.03 1.81
-5.95 -0.15 1.82
-6.12 -0.28 1.87
-7.82 -0.51 2.39
-7.81 -0.67 2.39
-7.79 -0.82 2.39
-7.77 -0.98 2.39
-7.75 -1.13 2.39
-7.73 -1.29 2.39
-7.70 -1.44 2.39
-7.67 -1.60 2.39
-7.63 -1.75 2.39
-7.60 -1.90 2.39
-7.56 -2.06 2.39
-7.51 -2.21 2.39
-7.47 -2.36 2.39
-7.42 -2.51 2.39
-7.36 -2.65 2.39
-7.31 -2.80 2.39
-7.25 -2.95 2.39
-7.19 -3.09 2.39
-7.12 -3.23 2.39
-7.06 -3.38 2.39
-6.99 -3.52 2.39
-6.91 -3.66 2.39
-6.84 -3.79 2.39
-6.76 -3.93 2.39
-6.68 -4.06 2.39
-6.60 -4.20 2.39
-6.51 -4.33 2.39
-6.42 -4.46 2.39
-6.33 -4.58 2.39
-6.23 -4.71 2.39
-6.14 -4.83 2.39
-6.04 -4.95 2.39
-5.94 -5.07 2.39
-5.83 -5.19 2.39
-5.73 -5.31 2.39
-5.62 -5.42 2.39
-5.55 -5.57 2.41
-5.53 -5.78 2.45
-5.51 -5.99 2.49
-5.39 -6.10 2.49
-5.26 -6.21 2.49
-5.14 -6.31 2.49
-5.01 -6.41 2.49
-4.88 -6.51 2.49
-4.74 -6.60 2.49
-4.61 -6.70 2.49
-4.47 -6.79 2.49
-4.34 -6.87 2.49
-4.20 -6.96 2.49
-4.06 -7.04 2.49
-3.91 -7.12 2.49
-3.77 -7.20 2.49
-3.62 -7.27 2.49
-3.48 -7.34 2.49
-3.33 -7.41 2.49
-3.18 -7.47 2.49
-3.03 -7.53 2.49
-2.87 -7.59 2.49
-2.72 -7.64 2.49
-2.57 -7.69 2.49
-2.41 -7.74 2.49
-2.25 -7.79 2.49
-2.10 -7.83 2.49
-1.94 -7.87 2.49
-1.78 -7.91 2.49
-1.62 -7.94 2.49
-1.46 -7.97 2.49
-1.30 -8.00 2.49
-1.14 -8.02 2.49
-0.98 -8.04 2.49
-0.82 -8.05 2.49
-0.66 -8.07 2.49
-0.49 -8.08 2.49
-0.33 -8.09 2.49
-0.17 -8.09 2.49
-0.01 -7.49 2.49
0.14 -7.48 2.49
0.29 -7.48 2.49
0.44 -7.47 2.49
0.59 -7.46 2.49
0.74 -7.44 2.49
0.89 -7.43 2.49
1.04 -7.41 2.49
1.19 -7.38 2.49
1.34 -7.36 2.49
1.49 -7.33 2.49
1.63 -7.29 2.49
1.78 -7.26 2.49
1.92 -7.22 2.49
2.07 -7.18 2.49
2.21 -7.14 2.49
2.35 -7.09 2.49
2.49 -7.04 2.49
2.57 -6.81 2.43
2.66 -6.64 2.39
2.79 -6.59 2.39
2.91 -6.50 2.38
2.90 -6.15 2.27
3.02 -6.08 2.27
3.26 -6.24 2.35
3.38 -6.17 2.35
3.48 -6.06 2.34
3.50 -5.82 2.27
3.81 -6.05 2.39
3.93 -5.97 2.39
4.05 -5.89 2.39
4.16 -5.81 2.39
4.28 -5.72 2.39
4.39 -5.64 2.39
4.50 -5.55 2.39
4.61 -5.45 2.39
4.72 -5.36 2.39
4.83 -5.26 2.39
4.93 -5.17 2.39
5.04 -5.07 2.39
5.14 -4.96 2.39
5.23 -4.86 2.39
5.33 -4.75 2.39
5.42 -4.64 2.39
5.52 -4.53 2.39
5.61 -4.42 2.39
5.69 -4.31 2.39
5.78 -4.19 2.39
5.86 -4.07 2.39
5.94 -3.96 2.39
6.02 -3.84 2.39
6.09 -3.71 2.39
6.17 -3.59 2.39
6.24 -3.47 2.39
6.31 -3.34 2.39
6.37 -3.21 2.39
6.44 -3.08 2.39
23.92 -10.88 8.80
6.39 -2.75 2.33
26.74 -10.88 9.67
20.74 -7.96 7.44
6.38 -2.30 2.27
6.37 -2.16 2.25
30.36 -9.60 10.67
30.37 -8.93 10.61
30.98 -8.44 10.76
39.08 -9.81 13.50
39.20 -9.00 13.48
39.38 -8.22 13.48
39.23 -7.37 13.37
6.33 -1.06 2.15
39.39 -5.77 13.34
6.31 -0.80 2.13
39.37 -4.16 13.26
39.31 -3.36 13.22
6.31 -0.41 2.12
39.20 -1.76 13.15
39.10 -0.97 13.10
38.95 -0.19 13.05
38.68 0.59 12.96
38.39 1.36 12.87
38.09 2.11 12.78
37.81 2.86 12.70
33.42 3.21 11.24
33.25 3.87 11.21
6.27 0.86 2.12
36.72 5.77 12.44
33.69 5.99 11.46
6.23 1.24 2.13
35.84 7.87 12.28
6.24 1.50 2.15
7.36 1.93 2.55
7.25 2.06 2.52
7.13 2.18 2.50
7.03 2.30 2.48
6.98 2.44 2.48
6.93 2.58 2.48
6.88 2.72 2.47
6.82 2.86 2.47
6.18 2.74 2.26
6.17 2.88 2.28
6.63 3.26 2.47
6.15 3.18 2.32
6.49 3.53 2.47
6.42 3.65 2.47
6.14 3.66 2.39
6.07 3.79 2.39
5.99 3.91 2.39
5.91 4.03 2.39
5.83 4.15 2.39
5.75 4.26 2.39
5.66 4.38 2.39
5.57 4.49 2.39
5.48 4.60 2.39
5.39 4.71 2.39
5.30 4.82 2.39
5.20 4.93 2.39
5.10 5.03 2.39
5.00 5.13 2.39
4.90 5.23 2.39
4.79 5.33 2.39
4.68 5.43 2.39
4.57 5.52 2.39
4.46 5.61 2.39
4.35 5.70 2.39
4.23 5.79 2.39
4.12 5.87 2.39
4.00 5.96 2.39
3.88 6.04 2.39
3.76 6.11 2.39
3.64 6.19 2.39
3.51 6.26 2.39
3.39 6.33 2.39
3.26 6.40 2.39
3.13 6.46 2.39
3.00 6.53 2.39
2.87 6.59 2.39
2.74 6.64 2.39
2.60 6.70 2.39
2.47 6.75 2.39
2.33 6.80 2.39
2.20 6.85 2.39
2.06 6.89 2.39
2.00 7.23 2.49
1.86 7.27 2.49
1.71 7.31 2.49
1.56 7.34 2.49
1.42 7.37 2.49
1.27 7.40 2.49
1.12 7.43 2.49
0.97 7.45 2.49
0.82 7.47 2.49
0.67 7.48 2.49
0.52 7.50 2.49
0.37 7.51 2.49
0.22 7.51 2.49
0.07 7.52 2.49
-0.08 7.52 2.49
-0.23 7.52 2.49
-0.38 7.51 2.49
-0.53 7.50 2.49
-0.68 7.49 2.49
-0.83 7.48 2.49
-0.98 7.46 2.49
-1.13 7.44 2.49
-1.28 7.42 2.49
-1.43 7.39 2.49
-1.58 7.36 2.49
-1.73 7.33 2.49
-1.88 7.30 2.49
-2.02 7.26 2.49
-2.17 7.22 2.49
-2.31 7.17 2.49
-2.46 7.13 2.49
-2.60 7.08 2.49
-2.74 7.02 2.49
-2.88 6.97 2.49
-3.02 6.91 2.49
-3.16 6.85 2.49
-3.30 6.78 2.49
-3.43 6.72 2.49
-3.57 6.65 2.49
-3.70 6.58 2.49
-3.83 6.50 2.49
-3.96 6.42 2.49
-4.09 6.34 2.49
-4.22 6.26 2.49
-4.34 6.18 2.49
-4.47 6.09 2.49
-4.59 6.00 2.49
-4.71 5.91 2.49
-4.82 5.81 2.49
-4.94 5.71 2.49
-5.06 5.61 2.49
-5.17 5.51 2.49
-5.28 5.41 2.49
-5.38 5.30 2.49
-5.49 5.19 2.49
-5.59 5.08 2.49
-5.70 4.97 2.49
-5.79 4.85 2.49
-5.89 4.74 2.49
-5.94 4.58 2.47
-5.93 4.39 2.43
-5.93 4.21 2.40
-5.99 4.07 2.39
-6.07 3.95 2.39
-6.15 3.83 2.39
-6.23 3.71 2.39
-6.30 3.58 2.39
-6.37 3.45 2.39
-6.44 3.33 2.39
-6.51 3.20 2.39
-6.57 3.06 2.39
-6.63 2.93 2.39
-6.69 2.80 2.39
-6.74 2.66 2.39
-6.79 2.53 2.39
-6.84 2.39 2.39
-6.89 2.25 2.39
-6.93 2.12 2.39
-6.98 1.98 2.39
-7.01 1.84 2.39
-7.05 1.69 2.39
-7.08 1.55 2.39
-7.11 1.41 2.39
-7.14 1.27 2.39
-7.16 1.12 2.39
-7.18 0.98 2.39
-7.20 0.84 2.39
-7.22 0.69 2.39
-7.23 0.55 2.39
-7.24 0.40 2.39
-7.24 0.26 2.39
-5.99 0.09 1.98
-5.91 -0.03 1.95
-5.93 -0.15 1.96
-6.12 -0.28 2.02
-7.23 -0.47 2.39
-7.22 -0.62 2.39
-7.21 -0.76 2.39
-7.19 -0.90 2.39
-7.17 -1.05 2.39
-7.15 -1.19 2.39
-7.12 -1.33 2.39
-7.09 -1.48 2.39
-7.06 -1.62 2.39
-7.03 -1.76 2.39
-6.99 -1.90 2.39
-6.95 -2.04 2.39
-6.90 -2.18 2.39
-6.86 -2.32 2.39
-6.81 -2.45 2.39
-6.76 -2.59 2.39
-6.71 -2.72 2.39
-6.65 -2.86 2.39
-6.59 -2.99 2.39
-6.53 -3.12 2.39
-6.46 -3.25 2.39
-6.40 -3.38 2.39
-6.33 -3.51 2.39
-6.25 -3.63 2.39
-6.18 -3.76 2.39
-6.10 -3.88 2.39
-6.02 -4.00 2.39
-5.94 -4.12 2.39
-5.85 -4.24 2.39
-5.77 -4.35 2.39
-5.68 -4.47 2.39
-5.59 -4.58 2.39
-5.57 -4.76 2.43
-5.56 -4.95 2.46
-5.53 -5.12 2.49
-5.42 -5.23 2.49
-5.32 -5.34 2.49
-5.21 -5.44 2.49
-5.10 -5.54 2.49
-4.98 -5.64 2.49
-4.87 -5.74 2.49
-4.75 -5.84 2.49
-4.63 -5.93 2.49
-4.51 -6.02 2.49
-4.39 -6.11 2.49
-4.27 -6.20 2.49
-4.14 -6.28 2.49
-4.01 -6.36 2.49
-3.88 -6.44 2.49
-3.75 -6.51 2.49
-3.62 -6.59 2.49
-3.49 -6.66 2.49
-3.35 -6.72 2.49
-3.22 -6.79 2.49
-3.08 -6.85 2.49
-2.94 -6.91 2.49
-2.80 -6.97 2.49
-2.66 -7.02 2.49
-2.52 -7.07 2.49
-2.38 -7.12 2.49
-2.23 -7.16 2.49
-2.09 -7.21 2.49
-1.94 -7.25 2.49
-1.80 -7.28 2.49
-1.65 -7.32 2.49
-1.50 -7.35 2.49
-1.35 -7.37 2.49
-1.20 -7.40 2.49
-1.06 -7.42 2.49
-0.91 -7.44 2.49
-0.76 -7.45 2.49
-0.61 -7.47 2.49
-0.46 -7.48 2.49
-0.31 -7.48 2.49
-0.16 -7.49 2.49
-0.01 -6.96 2.49
0.13 -6.96 2.49
0.27 -6.95 2.49
0.41 -6.94 2.49
0.55 -6.93 2.49
0.69 -6.92 2.49
0.83 -6.90 2.49
0.97 -6.88 2.49
1.11 -6.86 2.49
1.24 -6.84 2.49
1.38 -6.81 2.49
1.52 -6.78 2.49
1.65 -6.75 2.49
1.79 -6.71 2.49
1.92 -6.67 2.49
2.05 -6.63 2.49
2.19 -6.59 2.49
2.32 -6.54 2.49
2.45 -6.50 2.49
2.55 -6.36 2.46
2.60 -6.13 2.39
2.73 -6.09 2.40
2.84 -6.02 2.39
2.88 -5.80 2.33
2.92 -5.60 2.27
3.14 -5.74 2.35
3.26 -5.67 2.35
3.37 -5.60 2.35
3.46 -5.50 2.34
3.47 -5.27 2.27
3.57 -5.20 2.27
3.87 -5.40 2.39
3.98 -5.32 2.39
4.08 -5.24 2.39
4.19 -5.16 2.39
4.29 -5.07 2.39
4.39 -4.98 2.39
4.49 -4.90 2.39
4.59 -4.80 2.39
4.68 -4.71 2.39
4.78 -4.61 2.39
4.87 -4.52 2.39
4.96 -4.42 2.39
5.04 -4.32 2.39
5.13 -4.22 2.39
5.21 -4.11 2.39
5.29 -4.01 2.39
5.37 -3.90 2.39
5.45 -3.79 2.39
5.52 -3.68 2.39
5.60 -3.57 2.39
5.67 -3.45 2.39
5.74 -3.34 2.39
5.80 -3.22 2.39
5.86 -3.11 2.39
5.93 -2.99 2.39
5.98 -2.87 2.39
6.04 -2.75 2.39
6.09 -2.62 2.39
6.15 -2.50 2.39
6.19 -2.38 2.39
6.24 -2.25 2.39
6.29 -2.13 2.39
6.33 -2.00 2.39
6.37 -1.87 2.39
29.97 -8.16 11.19
31.20 -7.83 11.59
32.75 -7.52 12.11
33.76 -7.04 12.43
34.68 -6.51 12.71
35.24 -5.89 12.87
35.72 -5.23 13.01
6.31 -0.80 2.29
36.28 -3.83 13.14
6.31 -0.54 2.28
6.30 -0.41 2.28
6.30 -0.28 2.27
6.29 -0.16 2.27
6.29 -0.03 2.26
6.28 0.10 2.26
6.28 0.22 2.26
6.27 0.35 2.26
6.27 0.47 2.26
6.26 0.60 2.27
6.26 0.73 2.27
6.25 0.85 2.27
6.25 0.98 2.28
7.05 1.25 2.58
6.23 1.24 2.29
6.88 1.51 2.53
6.78 1.63 2.51
6.69 1.75 2.49
6.61 1.88 2.47
6.57 2.01 2.47
6.53 2.14 2.47
6.49 2.27 2.47
6.23 2.32 2.39
6.18 2.45 2.39
6.13 2.57 2.39
6.08 2.69 2.39
6.02 2.81 2.39
5.96 2.94 2.39
5.91 3.05 2.39
5.84 3.17 2.39
5.78 3.29 2.39
5.71 3.41 2.39
5.64 3.52 2.39
5.57 3.63 2.39
5.50 3.74 2.39
5.42 3.85 2.39
5.35 3.96 2.39
5.27 4.07 2.39
5.18 4.18 2.39
5.10 4.28 2.39
5.01 4.38 2.39
4.92 4.48 2.39
4.83 4.58 2.39
4.74 4.68 2.39
4.65 4.77 2.39
4.55 4.87 2.39
4.45 4.96 2.39
4.35 5.05 2.39
4.25 5.13 2.39
4.15 5.22 2.39
4.04 5.30 2.39
3.94 5.38 2.39
3.83 5.46 2.39
3.72 5.54 2.39
3.61 5.61 2.39
3.49 5.68 2.39
3.38 5.75 2.39
3.26 5.82 2.39
3.15 5.89 2.39
3.03 5.95 2.39
2.91 6.01 2.39
2.79 6.07 2.39
2.67 6.12 2.39
2.54 6.18 2.39
2.42 6.23 2.39
2.29 6.28 2.39
2.17 6.32 2.39
2.05 6.40 2.41
2.00 6.68 2.49
1.86 6.72 2.49
1.73 6.76 2.49
1.59 6.79 2.49
1.45 6.82 2.49
1.32 6.85 2.49
1.18 6.88 2.49
1.04 6.90 2.49
0.90 6.92 2.49
0.76 6.94 2.49
0.62 6.96 2.49
0.48 6.97 2.49
0.34 6.98 2.49
0.20 6.98 2.49
0.06 6.99 2.49
-0.08 6.99 2.49
-0.22 6.99 2.49
-0.36 6.98 2.49
-0.50 6.97 2.49
-0.64 6.96 2.49
-0.78 6.95 2.49
-0.92 6.93 2.49
-1.05 6.92 2.49
-1.19 6.89 2.49
-1.33 6.87 2.49
-1.47 6.84 2.49
-1.61 6.81 2.49
-1.74 6.78 2.49
-1.88 6.74 2.49
-2.01 6.71 2.49
-2.15 6.67 2.49
-2.28 6.62 2.49
-2.42 6.58 2.49
-2.55 6.53 2.49
-2.68 6.47 2.49
-2.81 6.42 2.49
-2.94 6.36 2.49
-3.06 6.30 2.49
-3.19 6.24 2.49
-3.31 6.18 2.49
-3.44 6.11 2.49
-3.56 6.04 2.49
-3.68 5.97 2.49
-3.80 5.89 2.49
-3.92 5.82 2.49
-4.03 5.74 2.49
-4.15 5.66 2.49
-4.26 5.57 2.49
-4.37 5.49 2.49
-4.48 5.40 2.49
-4.59 5.31 2.49
-4.70 5.22 2.49
-4.80 5.12 2.49
-4.90 5.02 2.49
-5.00 4.92 2.49
-5.10 4.82 2.49
-5.20 4.72 2.49
-5.29 4.62 2.49
-5.38 4.51 2.49
-5.47 4.40 2.49
-5.56 4.29 2.49
-5.65 4.18 2.49
-5.73 4.06 2.49
-5.81 3.95 2.49
-5.89 3.83 2.49
-5.90 3.67 2.47
-5.89 3.51 2.44
-5.90 3.35 2.41
-5.92 3.21 2.39
-5.98 3.09 2.39
-6.05 2.97 2.39
-6.10 2.85 2.39
-6.16 2.72 2.39
-6.21 2.60 2.39
-6.26 2.48 2.39
-6.31 2.35 2.39
-6.36 2.22 2.39
-6.40 2.09 2.39
-6.44 1.97 2.39
-6.48 1.84 2.39
-6.52 1.71 2.39
-6.55 1.57 2.39
-6.58 1.44 2.39
-6.61 1.31 2.39
-6.63 1.18 2.39
-6.65 1.04 2.39
-6.67 0.91 2.39
-6.69 0.78 2.39
-6.70 0.64 2.39
-6.72 0.51 2.39
-6.72 0.37 2.39
-6.73 0.24 2.39
-6.13 0.09 2.18
-6.13 -0.03 2.18
-6.13 -0.15 2.18
-6.12 -0.27 2.17
-6.72 -0.44 2.39
-6.71 -0.57 2.39
-6.70 -0.71 2.39
-6.68 -0.84 2.39
-6.66 -0.97 2.39
-6.64 -1.11 2.39
-6.62 -1.24 2.39
-6.59 -1.37 2.39
-6.56 -1.50 2.39
-6.53 -1.64 2.39
-6.49 -1.77 2.39
-6.46 -1.90 2.39
-6.42 -2.02 2.39
-6.37 -2.15 2.39
-6.33 -2.28 2.39
-6.28 -2.41 2.39
-6.23 -2.53 2.39
-6.18 -2.66 2.39
-6.12 -2.78 2.39
-6.07 -2.90 2.39
-6.01 -3.02 2.39
-5.94 -3.14 2.39
-5.88 -3.26 2.39
-5.83 -3.39 2.40
-5.74 -3.49 2.39
-5.67 -3.61 2.39
-5.62 -3.73 2.40
-5.61 -3.89 2.43
-5.60 -4.05 2.46
-5.59 -4.22 2.49
-5.50 -4.33 2.49
-5.42 -4.44 2.49
-5.33 -4.55 2.49
-5.23 -4.65 2.49
-5.14 -4.76 2.49
-5.04 -4.86 2.49
-4.94 -4.96 2.49
-4.84 -5.06 2.49
-4.74 -5.15 2.49
-4.63 -5.24 2.49
-4.52 -5.34 2.49
-4.42 -5.42 2.49
-4.31 -5.51 2.49
-4.19 -5.60 2.49
-4.08 -5.68 2.49
-3.96 -5.76 2.49
-3.85 -5.84 2.49
-3.73 -5.91 2.49
-3.61 -5.98 2.49
-3.49 -6.05 2.49
-3.37 -6.12 2.49
-3.24 -6.19 2.49
-3.12 -6.25 2.49
-2.99 -6.31 2.49
-2.86 -6.37 2.49
-2.73 -6.42 2.49
-2.60 -6.48 2.49
-2.47 -6.53 2.49
-2.34 -6.57 2.49
-2.21 -6.62 2.49
-2.07 -6.66 2.49
-1.94 -6.70 2.49
-1.80 -6.74 2.49
-1.67 -6.77 2.49
-1.53 -6.80 2.49
-1.40 -6.83 2.49
-1.26 -6.85 2.49
-1.12 -6.88 2.49
-0.98 -6.90 2.49
-0.84 -6.91 2.49
-0.70 -6.93 2.49
-0.56 -6.94 2.49
-0.42 -6.95 2.49
-0.29 -6.96 2.49
-0.15 -6.96 2.49
-0.01 -6.50 2.49
0.12 -6.49 2.49
0.25 -6.49 2.49
0.39 -6.48 2.49
0.52 -6.47 2.49
0.64 -6.46 2.49
0.77 -6.44 2.49
0.90 -6.43 2.49
1.03 -6.41 2.49
1.16 -6.38 2.49
1.29 -6.36 2.49
1.42 -6.33 2.49
1.54 -6.30 2.49
1.67 -6.27 2.49
1.79 -6.23 2.49
1.92 -6.19 2.49
2.04 -6.15 2.49
2.16 -6.11 2.49
2.29 -6.06 2.49
2.41 -6.02 2.49
2.53 -5.97 2.49
2.54 -5.67 2.39
2.65 -5.62 2.39
2.76 -5.56 2.39
2.87 -5.50 2.39
2.86 -5.22 2.29
2.93 -5.11 2.27
3.15 -5.23 2.35
3.25 -5.17 2.35
3.35 -5.10 2.35
3.44 -5.01 2.34
3.44 -4.80 2.27
3.52 -4.72 2.27
3.81 -4.89 2.39
3.91 -4.81 2.39
4.01 -4.73 2.39
4.10 -4.65 2.39
4.19 -4.57 2.39
4.28 -4.48 2.39
4.37 -4.40 2.39
4.46 -4.31 2.39
4.54 -4.22 2.39
4.63 -4.12 2.39
4.71 -4.03 2.39
4.79 -3.94 2.39
4.87 -3.84 2.39
4.94 -3.74 2.39
5.02 -3.64 2.39
5.09 -3.54 2.39
5.16 -3.43 2.39
5.23 -3.33 2.39
5.29 -3.22 2.39
5.35 -3.12 2.39
5.42 -3.01 2.39
5.47 -2.90 2.39
5.53 -2.79 2.39
5.59 -2.68 2.39
5.64 -2.56 2.39
5.69 -2.45 2.39
5.74 -2.34 2.39
5.78 -2.22 2.39
5.83 -2.10 2.39
5.87 -1.99 2.39
5.91 -1.87 2.39
5.94 -1.75 2.39
5.98 -1.63 2.39
6.01 -1.51 2.39
6.04 -1.39 2.39
6.06 -1.27 2.39
6.09 -1.14 2.39
6.11 -1.02 2.39
6.13 -0.90 2.39
6.15 -0.77 2.39
6.16 -0.65 2.39
6.17 -0.53 2.39
6.18 -0.40 2.39
6.19 -0.28 2.39
6.19 -0.15 2.39
6.20 -0.03 2.39
6.20 0.09 2.39
6.19 0.22 2.39
6.19 0.34 2.39
6.18 0.47 2.39
6.17 0.59 2.39
6.16 0.72 2.39
6.14 0.84 2.39
6.12 0.96 2.39
6.10 1.09 2.39
6.08 1.21 2.39
6.05 1.33 2.39
6.03 1.45 2.39
6.00 1.57 2.39
5.97 1.69 2.39
5.93 1.81 2.39
5.89 1.93 2.39
5.85 2.05 2.39
5.81 2.17 2.39
5.77 2.28 2.39
5.72 2.40 2.39
5.67 2.51 2.39
5.62 2.63 2.39
5.57 2.74 2.39
5.51 2.85 2.39
5.45 2.96 2.39
5.39 3.07 2.39
5.33 3.18 2.39
5.27 3.29 2.39
5.20 3.39 2.39
5.13 3.50 2.39
5.06 3.60 2.39
4.99 3.70 2.39
4.91 3.80 2.39
4.84 3.90 2.39
4.76 3.99 2.39
4.68 4.09 2.39
4.60 4.18 2.39
4.51 4.28 2.39
4.43 4.37 2.39
4.34 4.45 2.39
4.25 4.54 2.39
4.16 4.63 2.39
4.06 4.71 2.39
3.97 4.79 2.39
3.87 4.87 2.39
3.77 4.95 2.39
3.67 5.02 2.39
3.57 5.10 2.39
3.47 5.17 2.39
3.37 5.24 2.39
3.26 5.30 2.39
3.15 5.37 2.39
3.05 5.43 2.39
2.94 5.49 2.39
2.83 5.55 2.39
2.71 5.61 2.39
2.60 5.66 2.39
2.49 5.71 2.39
2.37 5.76 2.39
2.26 5.82 2.39
2.14 5.86 2.39
2.06 6.01 2.44
1.99 6.20 2.49
1.86 6.23 2.49
1.74 6.27 2.49
1.61 6.31 2.49
1.48 6.34 2.49
1.36 6.37 2.49
1.23 6.39 2.49
1.10 6.42 2.49
0.97 6.44 2.49
0.84 6.46 2.49
0.71 6.48 2.49
0.58 6.49 2.49
0.45 6.50 2.49
0.32 6.51 2.49
0.19 6.52 2.49
0.06 6.52 2.49
-0.07 6.52 2.49
-0.20 6.52 2.49
-0.33 6.51 2.49
-0.46 6.51 2.49
-0.59 6.50 2.49
-0.72 6.49 2.49
-0.85 6.47 2.49
-0.98 6.45 2.49
-1.11 6.43 2.49
-1.24 6.41 2.49
-1.37 6.38 2.49
-1.50 6.36 2.49
-1.63 6.33 2.49
-1.75 6.29 2.49
-1.88 6.26 2.49
-2.01 6.22 2.49
-2.13 6.18 2.49
-2.25 6.13 2.49
-2.38 6.09 2.49
-2.50 6.04 2.49
-2.62 5.99 2.49
-2.74 5.94 2.49
-2.86 5.88 2.49
-2.98 5.82 2.49
-3.09 5.76 2.49
-3.21 5.70 2.49
-3.32 5.64 2.49
-3.43 5.57 2.49
-3.55 5.50 2.49
-3.66 5.43 2.49
-3.76 5.35 2.49
-3.87 5.28 2.49
-3.98 5.20 2.49
-4.08 5.12 2.49
-4.18 5.04 2.49
-4.28 4.95 2.49
-4.38 4.87 2.49
-4.48 4.78 2.49
-4.57 4.69 2.49
-4.67 4.59 2.49
-4.76 4.50 2.49
-4.85 4.40 2.49
-4.94 4.31 2.49
-5.02 4.21 2.49
-5.11 4.10 2.49
-5.19 4.00 2.49
-5.27 3.90 2.49
-5.34 3.79 2.49
-5.42 3.68 2.49
-5.49 3.57 2.49
-5.56 3.46 2.49
-5.63 3.35 2.49
-5.70 3.24 2.49
-5.76 3.12 2.49
-5.82 3.01 2.49
-5.87 2.88 2.49
-5.86 2.73 2.46
-5.86 2.59 2.44
-5.86 2.45 2.42
-5.86 2.31 2.40
-5.89 2.19 2.39
-5.93 2.07 2.39
-5.97 1.95 2.39
-6.01 1.83 2.39
-6.05 1.71 2.39
-6.08 1.59 2.39
-6.11 1.47 2.39
-6.14 1.35 2.39
-6.16 1.22 2.39
-6.19 1.10 2.39
-6.21 0.97 2.39
-6.23 0.85 2.39
-6.24 0.72 2.39
-6.25 0.60 2.39
-6.26 0.47 2.39
-6.27 0.35 2.39
-6.28 0.22 2.39
-6.28 0.10 2.39
-6.28 -0.03 2.39
-6.28 -0.16 2.39
-6.12 -0.27 2.33
-6.27 -0.41 2.39
-6.26 -0.53 2.39
-6.25 -0.66 2.39
-6.23 -0.78 2.39
-6.21 -0.91 2.39
-6.19 -1.03 2.39
-6.17 -1.16 2.39
-6.15 -1.28 2.39
-6.12 -1.40 2.39
-6.09 -1.53 2.39
-6.06 -1.65 2.39
-6.02 -1.77 2.39
-5.99 -1.89 2.39
-5.95 -2.01 2.39
-5.90 -2.13 2.39
-5.88 -2.25 2.40
-5.81 -2.36 2.39
-5.76 -2.48 2.39
-5.71 -2.59 2.39
-5.66 -2.71 2.39
-5.65 -2.84 2.41
-5.64 -2.98 2.43
-5.63 -3.12 2.46
-5.63 -3.27 2.48
-5.59 -3.40 2.49
-5.52 -3.51 2.49
-5.45 -3.62 2.49
-5.37 -3.73 2.49
-5.30 -3.83 2.49
-5.22 -3.94 2.49
-5.14 -4.04 2.49
-5.05 -4.14 2.49
-4.97 -4.24 2.49
-4.88 -4.34 2.49
-4.79 -4.44 2.49
-4.70 -4.53 2.49
-4.61 -4.63 2.49
-4.52 -4.72 2.49
-4.42 -4.81 2.49
-4.32 -4.89 2.49
-4.22 -4.98 2.49
-4.12 -5.06 2.49
-4.02 -5.14 2.49
-3.91 -5.22 2.49
-3.81 -5.30 2.49
-3.70 -5.37 2.49
-3.59 -5.44 2.49
-3.48 -5.51 2.49
-3.37 -5.58 2.49
-3.26 -5.65 2.49
-3.14 -5.71 2.49
-3.03 -5.77 2.49
-2.91 -5.83 2.49
-2.79 -5.89 2.49
-2.67 -5.94 2.49
-2.55 -5.99 2.49
-2.43 -6.04 2.49
-2.31 -6.09 2.49
-2.18 -6.13 2.49
-2.06 -6.18 2.49
-1.94 -6.21 2.49
-1.81 -6.25 2.49
-1.68 -6.29 2.49
-1.56 -6.32 2.49
-1.43 -6.35 2.49
-1.30 -6.37 2.49
-1.17 -6.40 2.49
-1.05 -6.42 2.49
-0.92 -6.44 2.49
-0.79 -6.45 2.49
-0.66 -6.47 2.49
-0.53 -6.48 2.49
-0.40 -6.49 2.49
-0.27 -6.49 2.49
-0.14 -6.49 2.49
-0.01 -6.08 2.49
0.12 -6.08 2.49
0.24 -6.08 2.49
0.36 -6.07 2.49
0.48 -6.06 2.49
0.60 -6.05 2.49
0.72 -6.03 2.49
0.85 -6.02 2.49
0.97 -6.00 2.49
1.09 -5.98 2.49
1.21 -5.95 2.49
1.33 -5.93 2.49
1.44 -5.90 2.49
1.56 -5.87 2.49
1.68 -5.83 2.49
1.80 -5.80 2.49
1.91 -5.76 2.49
2.03 -5.72 2.49
2.14 -5.68 2.49
2.25 -5.63 2.49
2.37 -5.59 2.49
2.48 -5.54 2.49
2.51 -5.32 2.42
2.59 -5.21 2.39
2.69 -5.16 2.39
2.79 -5.10 2.39
2.85 -4.96 2.35
2.85 -4.74 2.27
2.94 -4.67 2.27
3.14 -4.78 2.35
3.23 -4.71 2.35
3.33 -4.65 2.35
3.41 -4.57 2.35
3.41 -4.38 2.29
3.48 -4.28 2.27
3.75 -4.43 2.39
3.84 -4.36 2.39
3.93 -4.28 2.39
4.01 -4.20 2.39
4.09 -4.12 2.39
4.18 -4.03 2.39
4.26 -3.95 2.39
4.33 -3.86 2.39
4.41 -3.78 2.39
4.48 -3.69 2.39
4.56 -3.59 2.39
4.63 -3.50 2.39
4.70 -3.41 2.39
4.77 -3.31 2.39
4.83 -3.22 2.39
4.89 -3.12 2.39
4.96 -3.02 2.39
5.01 -2.92 2.39
5.07 -2.82 2.39
5.13 -2.72 2.39
5.18 -2.61 2.39
5.23 -2.51 2.39
5.28 -2.40 2.39
5.33 -2.29 2.39
5.37 -2.19 2.39
5.42 -2.08 2.39
5.46 -1.97 2.39
5.50 -1.86 2.39
5.53 -1.75 2.39
5.57 -1.64 2.39
5.60 -1.52 2.39
5.63 -1.41 2.39
5.65 -1.30 2.39
5.68 -1.18 2.39
5.70 -1.07 2.39
5.72 -0.96 2.39
5.74 -0.84 2.39
5.76 -0.73 2.39
5.77 -0.61 2.39
5.78 -0.49 2.39
5.79 -0.38 2.39
5.80 -0.26 2.39
5.80 -0.14 2.39
5.80 -0.03 2.39
5.80 0.09 2.39
5.80 0.21 2.39
5.79 0.32 2.39
5.79 0.44 2.39
5.78 0.55 2.39
5.77 0.67 2.39
5.75 0.79 2.39
5.73 0.90 2.39
5.72 1.02 2.39
5.69 1.13 2.39
5.67 1.25 2.39
5.65 1.36 2.39
5.62 1.47 2.39
5.59 1.59 2.39
5.55 1.70 2.39
5.52 1.81 2.39
5.48 1.92 2.39
5.44 2.03 2.39
5.40 2.14 2.39
5.36 2.25 2.39
5.31 2.35 2.39
5.26 2.46 2.39
5.21 2.57 2.39
5.16 2.67 2.39
5.11 2.77 2.39
5.05 2.88 2.39
4.99 2.98 2.39
4.93 3.08 2.39
4.87 3.18 2.39
4.81 3.27 2.39
4.74 3.37 2.39
4.67 3.47 2.39
4.60 3.56 2.39
4.53 3.65 2.39
4.46 3.74 2.39
4.38 3.83 2.39
4.30 3.92 2.39
4.22 4.00 2.39
4.14 4.09 2.39
4.06 4.17 2.39
3.98 4.25 2.39
3.89 4.33 2.39
3.80 4.41 2.39
3.72 4.49 2.39
3.63 4.56 2.39
3.53 4.63 2.39
3.44 4.70 2.39
3.17 4.53 2.27
3.08 4.59 2.27
3.05 4.75 2.32
2.94 4.79 2.30
2.81 4.79 2.28
2.71 4.83 2.27
2.61 4.88 2.27
2.51 4.93 2.27
2.54 5.25 2.39
2.44 5.30 2.39
2.33 5.35 2.39
2.22 5.40 2.39
2.11 5.44 2.39
2.07 5.67 2.47
1.98 5.76 2.49
1.86 5.80 2.49
1.74 5.84 2.49
1.63 5.87 2.49
1.51 5.91 2.49
1.39 5.93 2.49
1.27 5.96 2.49
1.15 5.99 2.49
1.03 6.01 2.49
0.91 6.03 2.49
0.79 6.05 2.49
0.67 6.06 2.49
0.54 6.08 2.49
0.42 6.09 2.49
0.30 6.10 2.49
0.18 6.10 2.49
0.06 6.10 2.49
-0.07 6.10 2.49
-0.19 6.10 2.49
-0.31 6.10 2.49
-0.43 6.09 2.49
-0.56 6.08 2.49
-0.68 6.07 2.49
-0.80 6.06 2.49
-0.92 6.04 2.49
-1.04 6.02 2.49
-1.16 6.00 2.49
-1.28 5.98 2.49
-1.40 5.95 2.49
-1.52 5.92 2.49
-1.64 5.89 2.49
-1.76 5.86 2.49
-1.88 5.82 2.49
-1.99 5.78 2.49
-2.11 5.74 2.49
-2.22 5.70 2.49
