ply
format ascii 1.0
element vertex 2915
property float32 x
property float32 y
property float32 z
end_header
10.37 -19.87 3.22
10.89 -19.88 3.26
11.45 -19.93 3.30
12.02 -19.98 3.35
5.78 -9.19 1.56
13.32 -20.25 3.49
14.23 -20.73 3.62
15.46 -21.58 3.83
6.17 8.80 1.56
6.20 10.08 1.71
6.23 11.10 1.84
20.94 43.23 6.93
19.89 43.25 6.86
6.30 14.47 2.27
6.33 15.36 2.39
6.02 15.49 2.39
5.71 15.62 2.39
5.40 15.74 2.39
5.09 15.86 2.39
4.77 15.97 2.39
4.45 16.07 2.39
4.13 16.17 2.39
3.81 16.26 2.39
3.31 15.51 2.27
3.05 15.85 2.31
2.70 15.74 2.28
2.50 16.55 2.39
2.26 17.33 2.49
1.92 17.38 2.49
1.57 17.43 2.49
1.22 17.47 2.49
0.87 17.50 2.49
0.52 17.53 2.49
0.16 17.54 2.49
-0.19 17.56 2.49
-0.54 17.56 2.49
-0.89 17.56 2.49
-1.25 17.55 2.49
-1.60 17.53 2.49
-1.95 17.51 2.49
-2.31 17.48 2.49
-2.66 17.44 2.49
-3.01 17.40 2.49
-3.36 17.34 2.49
-3.71 17.28 2.49
-4.06 17.22 2.49
-4.41 17.15 2.49
-4.75 17.07 2.49
-5.10 16.98 2.49
-5.44 16.88 2.49
-5.69 16.50 2.45
-5.87 15.98 2.39
-6.19 15.87 2.39
-6.52 15.76 2.39
-6.83 15.63 2.39
-7.15 15.50 2.39
-7.47 15.37 2.39
-7.78 15.22 2.39
-8.09 15.07 2.39
-8.39 14.92 2.39
-8.70 14.76 2.39
-9.00 14.59 2.39
-9.29 14.41 2.39
-9.59 14.23 2.39
-9.94 14.14 2.41
-10.23 13.95 2.41
-10.51 13.75 2.41
-10.79 13.54 2.41
-10.67 12.85 2.32
-10.88 12.57 2.31
-11.08 12.30 2.30
-6.14 6.55 1.24
-11.46 11.74 2.27
-11.65 11.46 2.26
-11.83 11.18 2.25
-10.65 9.67 1.99
-10.66 9.30 1.96
-10.69 8.95 1.93
-12.73 10.23 2.26
-12.88 9.93 2.25
-13.06 9.66 2.24
-13.26 9.40 2.24
-13.45 9.14 2.24
-13.64 8.87 2.24
-13.83 8.60 2.24
-14.02 8.34 2.25
-14.21 8.07 2.25
-9.93 5.38 1.55
-9.95 5.14 1.54
-9.98 4.90 1.53
-10.02 4.67 1.52
-10.02 4.43 1.51
-10.03 4.19 1.49
-10.00 3.95 1.48
-10.00 3.72 1.46
-10.04 3.51 1.46
-10.05 3.28 1.45
-10.02 3.05 1.44
-10.02 2.84 1.43
-10.06 2.63 1.43
-10.06 2.42 1.42
-10.07 2.21 1.41
-10.04 1.99 1.40
-10.04 1.78 1.40
-10.08 1.58 1.40
-10.09 1.37 1.39
-10.09 1.17 1.39
-10.06 0.96 1.38
-10.07 0.76 1.38
-10.11 0.56 1.39
-10.11 0.35 1.38
-10.11 0.15 1.38
-10.08 -0.05 1.38
-10.09 -0.25 1.38
-10.13 -0.46 1.39
-10.13 -0.66 1.39
-10.14 -0.87 1.39
-10.11 -1.07 1.39
-10.11 -1.28 1.39
-10.15 -1.49 1.40
-10.15 -1.70 1.41
-10.16 -1.91 1.41
-10.13 -2.11 1.42
-10.13 -2.33 1.42
-10.17 -2.55 1.44
-10.18 -2.77 1.44
-10.15 -2.98 1.45
-10.15 -3.21 1.46
-10.19 -3.45 1.47
-10.20 -3.68 1.48
-9.32 -3.57 1.37
-9.32 -3.79 1.38
-9.29 -4.00 1.39
-14.98 -6.80 2.26
-14.88 -7.12 2.26
-14.77 -7.44 2.27
-14.65 -7.75 2.27
-14.51 -8.05 2.28
-14.23 -8.27 2.26
-13.68 -8.32 2.20
-13.54 -8.62 2.21
-13.41 -8.92 2.21
-13.27 -9.21 2.22
-13.12 -9.51 2.23
-12.97 -9.80 2.24
-12.81 -10.09 2.24
-12.65 -10.38 2.25
-12.87 -11.00 2.33
-12.71 -11.31 2.34
-12.54 -11.62 2.36
-12.36 -11.92 2.37
-12.15 -12.20 2.38
-11.94 -12.48 2.38
-11.73 -12.76 2.39
-11.50 -13.03 2.40
-11.26 -13.28 2.41
-10.98 -13.50 2.41
-10.70 -13.71 2.41
-10.35 -13.82 2.39
-10.07 -14.02 2.39
-9.78 -14.21 2.39
-9.49 -14.40 2.39
-9.19 -14.58 2.39
-8.89 -14.75 2.39
-8.59 -14.91 2.39
-8.28 -15.08 2.39
-7.97 -15.23 2.39
-7.66 -15.38 2.39
-7.35 -15.52 2.39
-7.03 -15.65 2.39
-6.71 -15.78 2.39
-6.41 -15.95 2.40
-6.33 -16.71 2.49
-5.99 -16.82 2.49
-5.64 -16.93 2.49
-5.30 -17.03 2.49
-4.95 -17.12 2.49
-4.61 -17.20 2.49
-4.26 -17.28 2.49
-3.91 -17.35 2.49
-3.56 -17.42 2.49
-3.20 -17.47 2.49
-2.85 -17.52 2.49
-2.50 -17.56 2.49
-2.14 -17.60 2.49
-1.79 -17.62 2.49
-1.43 -17.64 2.49
-1.08 -17.66 2.49
-0.72 -17.66 2.49
-0.37 -17.66 2.49
-0.01 -15.18 2.49
0.29 -15.17 2.49
0.60 -15.15 2.49
0.90 -15.12 2.49
1.20 -15.09 2.49
1.50 -15.06 2.49
1.73 -14.39 2.39
2.02 -14.35 2.39
2.19 -13.57 2.27
2.55 -14.00 2.35
2.73 -13.45 2.27
3.15 -14.11 2.39
2.12 -8.67 1.48
3.71 -13.95 2.39
3.99 -13.87 2.39
4.27 -13.78 2.39
4.54 -13.68 2.39
4.81 -13.58 2.39
5.08 -13.47 2.39
5.35 -13.36 2.39
5.61 -13.24 2.39
6.63 -14.81 2.70
6.99 -14.81 2.73
5.74 -11.55 2.15
8.47 -16.24 3.05
9.14 -16.69 3.17
9.58 -16.69 3.21
10.03 -16.68 3.25
10.48 -16.66 3.29
10.94 -16.64 3.33
11.44 -16.67 3.38
11.94 -16.67 3.43
5.84 -7.81 1.63
12.97 -16.65 3.53
5.82 -7.17 1.55
14.81 -17.51 3.84
6.13 6.82 1.54
6.16 7.75 1.66
6.16 8.07 1.71
6.18 8.81 1.81
6.19 9.21 1.86
6.20 10.08 1.98
7.29 14.31 2.69
4.90 10.12 1.88
5.97 13.00 2.39
5.71 13.12 2.39
5.45 13.24 2.39
5.19 13.35 2.39
4.92 13.46 2.39
4.65 13.56 2.39
4.38 13.66 2.39
4.11 13.76 2.39
3.83 13.84 2.39
3.56 13.92 2.39
3.23 13.77 2.35
2.95 13.84 2.35
2.66 13.83 2.34
2.44 14.20 2.39
2.24 14.87 2.49
1.95 14.92 2.49
1.65 14.96 2.49
1.35 15.00 2.49
1.05 15.03 2.49
0.74 15.06 2.49
0.44 15.08 2.49
0.14 15.10 2.49
-0.16 15.10 2.49
-0.47 15.11 2.49
-0.77 15.10 2.49
-1.07 15.09 2.49
-1.38 15.08 2.49
-1.68 15.06 2.49
-1.98 15.03 2.49
-2.29 15.00 2.49
-2.59 14.96 2.49
-2.89 14.91 2.49
-3.19 14.86 2.49
-3.49 14.80 2.49
-3.79 14.73 2.49
-4.09 14.66 2.49
-4.38 14.59 2.49
-4.68 14.51 2.49
-4.97 14.42 2.49
-5.26 14.32 2.49
-5.55 14.22 2.49
-5.74 13.89 2.45
-5.87 13.43 2.39
-6.14 13.31 2.39
-6.41 13.19 2.39
-6.68 13.07 2.39
-6.94 12.94 2.39
-7.21 12.81 2.39
-7.47 12.67 2.39
-7.72 12.52 2.39
-7.98 12.37 2.39
-8.23 12.21 2.39
-8.48 12.05 2.39
-8.72 11.89 2.39
-8.96 11.71 2.39
-9.20 11.54 2.39
-9.43 11.36 2.39
-9.64 11.15 2.39
-9.83 10.91 2.38
-6.10 6.50 1.44
-10.40 10.66 2.41
-10.62 10.45 2.41
-10.83 10.24 2.41
-10.67 9.69 2.33
-10.66 9.30 2.28
-10.67 8.93 2.24
-11.46 9.21 2.37
-11.62 8.96 2.36
-11.78 8.71 2.36
-11.94 8.46 2.36
-12.07 8.20 2.35
-10.71 6.97 2.06
-10.72 6.67 2.03
-10.72 6.38 2.01
-10.85 6.16 2.00
-9.93 5.38 1.81
-9.95 5.14 1.80
-9.98 4.90 1.78
-10.02 4.67 1.77
-10.02 4.43 1.76
-10.03 4.19 1.74
-10.00 3.95 1.72
-10.00 3.72 1.71
-10.04 3.51 1.70
-10.05 3.28 1.69
-10.02 3.05 1.68
-10.02 2.84 1.67
-10.06 2.63 1.66
-10.06 2.42 1.66
-10.07 2.20 1.65
-10.04 1.99 1.64
-10.04 1.78 1.63
-10.08 1.58 1.63
-10.09 1.37 1.63
-10.09 1.17 1.62
-10.06 0.96 1.62
-10.07 0.76 1.61
-10.11 0.56 1.62
-10.11 0.35 1.62
-10.11 0.15 1.62
-10.08 -0.05 1.61
-10.09 -0.25 1.61
-10.13 -0.46 1.62
-10.13 -0.66 1.62
-10.14 -0.87 1.63
-10.11 -1.07 1.62
-10.11 -1.27 1.63
-10.15 -1.49 1.64
-10.15 -1.70 1.65
-10.16 -1.91 1.65
-10.13 -2.11 1.65
-10.13 -2.33 1.66
-10.17 -2.55 1.68
-10.18 -2.77 1.69
-10.15 -2.98 1.69
-10.15 -3.21 1.70
-10.19 -3.45 1.72
-10.20 -3.68 1.73
-9.31 -3.57 1.60
-9.29 -3.78 1.61
-9.31 -4.00 1.62
-13.28 -6.03 2.34
-13.18 -6.31 2.34
-13.07 -6.58 2.34
-12.94 -6.85 2.35
-12.80 -7.10 2.35
-12.65 -7.35 2.35
-12.49 -7.60 2.34
-12.34 -7.85 2.35
-12.21 -8.12 2.35
-12.02 -8.35 2.35
-11.62 -8.42 2.30
-11.49 -8.68 2.31
-11.35 -8.94 2.32
-11.20 -9.19 2.33
-11.05 -9.45 2.34
-10.90 -9.70 2.35
-10.74 -9.95 2.36
-10.58 -10.20 2.37
-10.41 -10.45 2.38
-10.26 -10.73 2.39
-10.04 -10.92 2.39
-9.82 -11.12 2.39
-9.59 -11.31 2.39
-9.35 -11.49 2.39
-9.12 -11.67 2.39
-8.88 -11.85 2.39
-8.63 -12.02 2.39
-8.39 -12.18 2.39
-8.14 -12.34 2.39
-7.88 -12.50 2.39
-7.63 -12.65 2.39
-7.37 -12.79 2.39
-7.11 -12.93 2.39
-6.84 -13.07 2.39
-6.58 -13.19 2.39
-6.35 -13.41 2.41
-6.30 -14.01 2.49
-6.01 -14.13 2.49
-5.72 -14.24 2.49
-5.43 -14.34 2.49
-5.14 -14.44 2.49
-4.85 -14.53 2.49
-4.55 -14.62 2.49
-4.25 -14.70 2.49
-3.96 -14.77 2.49
-3.66 -14.84 2.49
-3.36 -14.90 2.49
-3.06 -14.96 2.49
-2.75 -15.01 2.49
-2.45 -15.05 2.49
-2.15 -15.09 2.49
-1.84 -15.12 2.49
-1.54 -15.15 2.49
-1.23 -15.16 2.49
-0.93 -15.18 2.49
-0.62 -15.18 2.49
-0.32 -15.18 2.49
-0.01 -13.30 2.49
0.25 -13.29 2.49
0.52 -13.27 2.49
0.79 -13.25 2.49
1.05 -13.23 2.49
1.32 -13.20 2.49
1.58 -13.16 2.49
1.77 -12.58 2.39
2.02 -12.53 2.39
2.15 -11.85 2.27
2.48 -12.23 2.35
2.68 -12.00 2.32
2.12 -8.67 1.69
3.26 -12.24 2.39
3.50 -12.16 2.39
3.74 -12.08 2.39
3.98 -12.00 2.39
4.22 -11.91 2.39
4.45 -11.82 2.39
4.69 -11.72 2.39
4.92 -11.62 2.39
5.15 -11.51 2.39
5.38 -11.40 2.39
5.60 -11.28 2.39
7.02 -13.46 2.88
5.76 -10.51 2.28
5.77 -10.05 2.20
8.59 -14.29 3.17
9.10 -14.47 3.25
9.44 -14.36 3.27
9.77 -14.24 3.29
10.11 -14.12 3.31
5.84 -7.81 1.86
10.87 -13.95 3.37
11.29 -13.91 3.42
11.73 -13.88 3.47
12.18 -13.83 3.52
12.63 -13.78 3.57
13.14 -13.77 3.64
5.85 -5.89 1.59
5.86 -5.66 1.56
5.89 -5.47 1.54
6.10 5.33 1.55
6.13 6.05 1.65
6.14 6.56 1.72
6.16 8.07 1.94
6.20 10.09 2.26
7.23 12.31 2.72
4.86 8.66 1.89
4.65 8.70 1.88
4.56 8.95 1.91
4.57 9.43 2.00
5.24 11.41 2.39
5.02 11.52 2.39
4.79 11.62 2.39
4.55 11.72 2.39
4.32 11.82 2.39
4.08 11.91 2.39
3.85 11.99 2.39
3.61 12.07 2.39
3.20 11.56 2.28
3.07 12.02 2.35
2.73 11.66 2.27
2.63 12.35 2.39
2.38 12.40 2.39
2.23 12.99 2.49
1.97 13.04 2.49
1.71 13.08 2.49
1.44 13.12 2.49
1.18 13.16 2.49
0.92 13.18 2.49
0.65 13.21 2.49
0.39 13.22 2.49
0.12 13.24 2.49
-0.14 13.24 2.49
-0.41 13.24 2.49
-0.68 13.24 2.49
-0.94 13.23 2.49
-1.21 13.22 2.49
-1.47 13.20 2.49
-1.74 13.17 2.49
-2.01 13.14 2.49
-2.27 13.10 2.49
-2.53 13.06 2.49
-2.80 13.02 2.49
-3.06 12.96 2.49
-3.32 12.91 2.49
-3.58 12.84 2.49
-3.84 12.78 2.49
-4.10 12.70 2.49
-4.35 12.63 2.49
-4.61 12.54 2.49
-4.86 12.45 2.49
-5.11 12.36 2.49
-5.36 12.26 2.49
-5.61 12.16 2.49
-5.79 11.90 2.46
-5.85 11.44 2.39
-6.08 11.33 2.39
-6.31 11.21 2.39
-6.53 11.08 2.39
-6.76 10.95 2.39
-6.98 10.82 2.39
-7.20 10.68 2.39
-7.42 10.54 2.39
-7.63 10.40 2.39
-7.84 10.25 2.39
-8.05 10.09 2.39
-8.25 9.93 2.39
-8.45 9.77 2.39
-8.65 9.60 2.39
-6.10 6.50 1.65
-9.04 9.25 2.39
-9.23 9.08 2.39
-9.41 8.89 2.39
-9.59 8.71 2.39
-9.77 8.51 2.39
-10.01 8.38 2.41
-10.18 8.18 2.41
-10.34 7.97 2.41
-10.50 7.77 2.41
-10.66 7.56 2.41
-10.81 7.34 2.41
-10.73 6.98 2.36
-10.74 6.68 2.33
-10.75 6.39 2.30
-10.89 6.18 2.30
-9.93 5.38 2.08
-9.95 5.14 2.06
-9.98 4.90 2.04
-10.02 4.67 2.03
-10.02 4.43 2.01
-10.03 4.19 1.99
-10.00 3.95 1.97
-10.00 3.72 1.96
-10.04 3.51 1.95
-10.05 3.28 1.94
-10.02 3.05 1.92
-10.02 2.84 1.91
-10.06 2.63 1.91
-10.06 2.42 1.90
-10.07 2.20 1.89
-10.04 1.99 1.88
-10.04 1.78 1.87
-10.08 1.58 1.87
-10.09 1.37 1.86
-10.09 1.17 1.86
-10.06 0.96 1.85
-10.07 0.76 1.85
-10.11 0.56 1.85
-10.11 0.35 1.85
-10.11 0.15 1.85
-10.08 -0.05 1.85
-10.09 -0.25 1.85
-10.13 -0.46 1.86
-10.13 -0.66 1.86
-10.14 -0.87 1.86
-10.11 -1.07 1.86
-10.11 -1.27 1.87
-10.15 -1.49 1.88
-10.15 -1.70 1.88
-10.16 -1.91 1.89
-10.13 -2.11 1.89
-10.13 -2.33 1.90
-10.17 -2.55 1.92
-10.18 -2.77 1.93
-10.15 -2.98 1.94
-10.15 -3.21 1.95
-10.19 -3.45 1.97
-10.20 -3.68 1.99
-9.34 -3.58 1.83
-9.30 -3.78 1.84
-9.32 -4.01 1.86
-11.85 -5.38 2.38
-11.75 -5.62 2.39
-11.65 -5.87 2.39
-11.55 -6.11 2.40
-11.44 -6.35 2.40
-11.33 -6.58 2.40
-11.20 -6.82 2.41
-11.06 -7.04 2.41
-10.92 -7.26 2.41
-10.76 -7.47 2.41
-10.61 -7.68 2.41
-10.45 -7.89 2.41
-10.22 -8.05 2.39
-10.05 -8.25 2.39
-9.88 -8.44 2.39
-9.71 -8.64 2.39
-9.53 -8.83 2.39
-9.35 -9.01 2.39
-9.16 -9.20 2.39
-8.97 -9.37 2.39
-8.78 -9.55 2.39
-8.58 -9.72 2.39
-8.38 -9.89 2.39
-8.18 -10.05 2.39
-7.97 -10.21 2.39
-7.76 -10.36 2.39
-7.55 -10.51 2.39
-7.34 -10.65 2.39
-7.12 -10.80 2.39
-6.90 -10.93 2.39
-6.67 -11.06 2.39
-6.45 -11.19 2.39
-6.30 -11.47 2.42
-6.25 -11.92 2.49
-6.00 -12.04 2.49
-5.76 -12.15 2.49
-5.51 -12.26 2.49
-5.26 -12.36 2.49
-5.01 -12.46 2.49
-4.75 -12.55 2.49
-4.50 -12.64 2.49
-4.24 -12.72 2.49
-3.99 -12.80 2.49
-3.73 -12.87 2.49
-3.47 -12.93 2.49
-3.20 -12.99 2.49
-2.94 -13.05 2.49
-2.68 -13.10 2.49
-2.41 -13.14 2.49
-2.15 -13.18 2.49
-1.88 -13.21 2.49
-1.61 -13.24 2.49
-1.35 -13.27 2.49
-1.08 -13.28 2.49
-0.81 -13.29 2.49
-0.55 -13.30 2.49
-0.28 -13.30 2.49
-0.01 -11.82 2.49
0.23 -11.81 2.49
0.46 -11.80 2.49
0.70 -11.79 2.49
0.93 -11.76 2.49
1.17 -11.74 2.49
1.40 -11.70 2.49
1.64 -11.67 2.49
1.79 -11.15 2.39
2.02 -11.10 2.39
2.13 -10.53 2.28
2.34 -10.48 2.28
2.12 -8.67 1.89
2.79 -10.49 2.30
3.11 -10.82 2.39
3.33 -10.75 2.39
3.54 -10.68 2.39
3.75 -10.60 2.39
3.96 -10.52 2.39
4.17 -10.43 2.39
4.38 -10.34 2.39
4.58 -10.25 2.39
4.79 -10.15 2.39
4.99 -10.04 2.39
5.18 -9.94 2.39
5.38 -9.83 2.39
5.57 -9.71 2.39
5.77 -9.60 2.39
7.24 -11.52 2.91
5.79 -8.82 2.26
8.59 -12.52 3.25
9.07 -12.67 3.33
5.83 -7.81 2.09
9.62 -12.36 3.35
9.90 -12.20 3.36
10.17 -12.03 3.37
10.43 -11.85 3.38
10.70 -11.67 3.39
10.96 -11.48 3.40
5.85 -5.89 1.78
11.67 -11.29 3.49
12.05 -11.19 3.53
12.43 -11.09 3.58
12.81 -10.97 3.62
13.49 -11.09 3.75
14.37 -11.34 3.94
5.89 -4.27 1.57
5.89 -4.10 1.54
40.59 -25.88 10.37
41.10 -25.07 10.37
47.25 -11.88 10.53
43.31 -1.96 9.38
42.56 -1.07 9.21
42.38 -0.22 9.17
42.67 0.64 9.23
43.36 1.52 9.39
43.36 3.27 9.41
44.51 4.26 9.68
6.06 3.78 1.54
6.07 3.95 1.56
6.07 4.13 1.58
6.08 4.32 1.61
6.13 6.05 1.85
6.16 7.74 2.13
6.16 8.07 2.18
7.23 9.88 2.63
6.98 9.96 2.61
6.21 9.25 2.39
6.03 9.38 2.39
5.84 9.50 2.39
5.65 9.62 2.39
5.46 9.74 2.39
4.75 8.89 2.16
5.07 9.96 2.39
4.78 9.87 2.35
4.67 10.16 2.39
4.46 10.26 2.39
4.26 10.35 2.39
4.05 10.44 2.39
3.84 10.52 2.39
3.63 10.60 2.39
3.42 10.67 2.39
3.21 10.75 2.39
2.99 10.81 2.39
2.78 10.87 2.39
2.56 10.93 2.39
2.34 10.99 2.39
2.21 11.51 2.49
1.98 11.56 2.49
1.75 11.60 2.49
1.52 11.64 2.49
1.28 11.67 2.49
1.05 11.70 2.49
0.81 11.73 2.49
0.58 11.75 2.49
0.34 11.76 2.49
0.11 11.77 2.49
-0.13 11.78 2.49
-0.37 11.78 2.49
-0.60 11.77 2.49
-0.84 11.76 2.49
-1.08 11.75 2.49
-1.31 11.73 2.49
-1.55 11.71 2.49
-1.78 11.68 2.49
-2.02 11.65 2.49
-2.25 11.61 2.49
-2.49 11.57 2.49
-2.72 11.52 2.49
-2.95 11.47 2.49
-3.18 11.42 2.49
-3.41 11.35 2.49
-3.64 11.29 2.49
-3.87 11.22 2.49
-4.10 11.14 2.49
-4.32 11.06 2.49
-4.54 10.98 2.49
-4.77 10.89 2.49
-4.99 10.80 2.49
-5.20 10.70 2.49
-5.42 10.60 2.49
-5.63 10.49 2.49
-5.82 10.34 2.48
-5.84 9.90 2.41
-6.00 9.73 2.39
-6.20 9.61 2.39
-6.39 9.49 2.39
-6.59 9.36 2.39
-6.78 9.23 2.39
-6.96 9.10 2.39
-7.15 8.96 2.39
-7.33 8.82 2.39
-7.51 8.67 2.39
-7.68 8.52 2.39
-6.10 6.50 1.86
-8.02 8.21 2.39
-8.19 8.05 2.39
-8.35 7.89 2.39
-8.51 7.73 2.39
-8.67 7.56 2.39
-8.82 7.38 2.39
-8.97 7.21 2.39
-9.12 7.03 2.39
-9.26 6.85 2.39
-9.40 6.66 2.39
-9.53 6.47 2.39
-9.66 6.28 2.39
-9.79 6.09 2.39
-9.91 5.89 2.39
-10.10 5.73 2.41
-9.93 5.38 2.34
-9.96 5.14 2.32
-9.98 4.90 2.30
-10.02 4.67 2.29
-10.02 4.43 2.27
-10.03 4.19 2.25
-10.00 3.95 2.22
-10.00 3.72 2.21
-10.04 3.50 2.20
-10.05 3.28 2.19
-10.02 3.05 2.16
-10.02 2.83 2.15
-10.06 2.63 2.15
-10.06 2.42 2.14
-10.07 2.20 2.13
-10.04 1.99 2.11
-10.04 1.78 2.11
-10.08 1.58 2.11
-10.09 1.37 2.10
-10.09 1.17 2.10
-10.06 0.96 2.09
-10.07 0.76 2.08
-10.11 0.56 2.09
-10.11 0.35 2.09
-10.11 0.15 2.09
-10.08 -0.05 2.08
-10.09 -0.25 2.08
-10.13 -0.46 2.09
-10.13 -0.66 2.10
-10.14 -0.87 2.10
-10.11 -1.07 2.10
-10.11 -1.27 2.10
-10.15 -1.49 2.12
-10.15 -1.70 2.12
-10.16 -1.91 2.13
-10.13 -2.11 2.14
-10.13 -2.33 2.15
-10.17 -2.55 2.17
-10.18 -2.77 2.18
-10.15 -2.98 2.18
-10.15 -3.21 2.20
-10.19 -3.45 2.22
-10.20 -3.68 2.24
-9.37 -3.59 2.07
-9.32 -3.79 2.08
-10.21 -4.39 2.30
-10.60 -4.81 2.41
-10.50 -5.03 2.41
-10.40 -5.23 2.41
-10.29 -5.44 2.41
-10.11 -5.61 2.39
-9.99 -5.81 2.39
-9.87 -6.01 2.39
-9.75 -6.20 2.39
-9.62 -6.39 2.39
-9.49 -6.58 2.39
-9.35 -6.77 2.39
-9.21 -6.96 2.39
-9.07 -7.14 2.39
-8.92 -7.32 2.39
-8.77 -7.49 2.39
-8.61 -7.66 2.39
-8.46 -7.83 2.39
-8.29 -8.00 2.39
-8.13 -8.16 2.39
-7.96 -8.32 2.39
-7.79 -8.47 2.39
-7.62 -8.63 2.39
-7.44 -8.77 2.39
-7.26 -8.92 2.39
-7.08 -9.06 2.39
-6.89 -9.20 2.39
-6.70 -9.33 2.39
-6.51 -9.46 2.39
-6.32 -9.58 2.39
-6.26 -9.93 2.45
-6.18 -10.24 2.49
-5.97 -10.36 2.49
-5.76 -10.48 2.49
-5.55 -10.59 2.49
-5.33 -10.69 2.49
-5.11 -10.79 2.49
-4.89 -10.89 2.49
-4.67 -10.98 2.49
-4.45 -11.06 2.49
-4.22 -11.15 2.49
-4.00 -11.22 2.49
-3.77 -11.30 2.49
-3.54 -11.37 2.49
-3.31 -11.43 2.49
-3.08 -11.49 2.49
-2.85 -11.54 2.49
-2.61 -11.59 2.49
-2.38 -11.64 2.49
-2.14 -11.68 2.49
-1.91 -11.71 2.49
-1.67 -11.74 2.49
-1.44 -11.77 2.49
-1.20 -11.79 2.49
-0.96 -11.81 2.49
-0.72 -11.82 2.49
-0.49 -11.82 2.49
-0.25 -11.83 2.49
-0.01 -10.63 2.49
0.20 -10.62 2.49
0.41 -10.61 2.49
0.63 -10.60 2.49
0.84 -10.58 2.49
1.05 -10.56 2.49
1.26 -10.53 2.49
1.47 -10.50 2.49
1.68 -10.46 2.49
1.81 -9.99 2.39
2.01 -9.95 2.39
2.21 -9.90 2.39
2.12 -8.67 2.11
2.60 -9.79 2.39
2.80 -9.74 2.39
2.99 -9.67 2.39
3.19 -9.61 2.39
3.38 -9.54 2.39
3.57 -9.46 2.39
3.75 -9.39 2.39
3.94 -9.31 2.39
4.12 -9.22 2.39
4.31 -9.13 2.39
4.49 -9.04 2.39
4.67 -8.95 2.39
4.84 -8.85 2.39
5.02 -8.74 2.39
5.19 -8.64 2.39
5.36 -8.53 2.39
5.53 -8.42 2.39
5.69 -8.30 2.39
6.79 -9.49 2.77
5.83 -7.81 2.32
5.82 -7.48 2.25
8.44 -10.41 3.19
9.03 -10.68 3.33
9.26 -10.52 3.34
5.86 -6.39 2.06
9.71 -10.18 3.35
5.85 -5.89 1.98
10.15 -9.82 3.37
10.37 -9.63 3.37
10.58 -9.44 3.38
5.88 -5.04 1.85
10.99 -9.04 3.40
11.27 -8.89 3.43
5.89 -4.46 1.76
11.90 -8.64 3.51
12.21 -8.50 3.56
5.90 -3.93 1.69
12.84 -8.19 3.64
5.91 -3.60 1.66
14.88 -8.67 4.12
29.94 -16.65 8.20
31.39 -16.64 8.50
42.42 -21.40 11.37
5.92 -2.84 1.57
5.92 -2.70 1.56
5.93 -2.55 1.55
5.95 -2.42 1.54
43.18 -16.59 11.08
43.52 -15.73 11.09
33.73 -11.43 8.54
32.68 -10.34 8.22
32.58 -9.60 8.14
32.44 -8.85 8.06
32.45 -8.16 8.02
32.54 -7.49 8.01
32.74 -6.84 8.02
32.93 -6.20 8.04
33.22 -5.56 8.08
33.73 -4.95 8.18
34.25 -4.33 8.28
34.81 -3.69 8.40
36.11 -3.10 8.70
38.11 -2.50 9.17
38.84 -1.76 9.33
39.32 -0.99 9.44
39.76 -0.20 9.54
40.13 0.60 9.63
40.72 1.43 9.78
41.36 2.28 9.94
42.78 3.23 10.30
42.92 4.11 10.35
6.05 2.12 1.54
6.03 2.25 1.54
6.03 2.39 1.56
6.04 2.53 1.57
24.22 11.91 6.47
23.83 12.32 6.43
23.30 12.65 6.35
23.15 13.18 6.38
22.85 13.62 6.37
40.34 26.30 11.53
6.07 4.13 1.76
36.97 28.58 11.18
35.70 28.76 10.97
6.13 6.05 2.06
33.85 34.76 11.59
7.37 8.20 2.63
7.28 8.44 2.66
7.19 8.68 2.69
4.91 6.18 1.88
4.79 6.27 1.88
4.66 6.37 1.88
4.53 6.47 1.88
4.51 6.71 1.93
5.43 8.45 2.39
5.26 8.56 2.39
5.09 8.66 2.39
4.92 8.77 2.39
4.74 8.87 2.39
4.56 8.96 2.39
4.38 9.06 2.39
4.20 9.15 2.39
4.02 9.23 2.39
3.83 9.32 2.39
3.65 9.39 2.39
3.46 9.47 2.39
3.27 9.54 2.39
3.08 9.61 2.39
2.89 9.67 2.39
2.69 9.73 2.39
2.50 9.79 2.39
2.30 9.84 2.39
2.20 10.31 2.49
1.99 10.36 2.49
1.78 10.40 2.49
1.57 10.44 2.49
1.36 10.48 2.49
1.15 10.50 2.49
0.94 10.53 2.49
0.73 10.55 2.49
0.52 10.57 2.49
0.31 10.58 2.49
0.09 10.59 2.49
-0.12 10.59 2.49
-0.33 10.59 2.49
-0.54 10.59 2.49
-0.76 10.58 2.49
-0.97 10.57 2.49
-1.18 10.55 2.49
-1.39 10.53 2.49
-1.61 10.50 2.49
-1.82 10.48 2.49
-2.03 10.44 2.49
-2.24 10.40 2.49
-2.45 10.36 2.49
-2.66 10.31 2.49
-2.86 10.26 2.49
-3.07 10.21 2.49
-3.28 10.15 2.49
-3.48 10.08 2.49
-3.68 10.02 2.49
-3.89 9.94 2.49
-4.09 9.87 2.49
-4.28 9.79 2.49
-4.48 9.70 2.49
-4.68 9.62 2.49
-4.87 9.52 2.49
-5.06 9.43 2.49
-5.25 9.33 2.49
-5.44 9.23 2.49
-5.63 9.12 2.49
-5.81 9.01 2.49
-5.86 8.69 2.44
-5.92 8.41 2.39
-6.09 8.29 2.39
-6.26 8.17 2.39
-6.42 8.05 2.39
-6.58 7.92 2.39
-6.74 7.79 2.39
-6.90 7.66 2.39
-6.10 6.50 2.07
-7.21 7.38 2.39
-7.36 7.23 2.39
-7.50 7.09 2.39
-7.64 6.94 2.39
-7.78 6.78 2.39
-7.92 6.63 2.39
-8.06 6.47 2.39
-8.19 6.31 2.39
-8.31 6.15 2.39
-8.44 5.98 2.39
-8.56 5.81 2.39
-8.68 5.64 2.39
-8.79 5.47 2.39
-8.90 5.29 2.39
-9.01 5.11 2.39
-9.11 4.93 2.39
-9.21 4.75 2.39
-9.30 4.56 2.39
-9.40 4.38 2.39
-9.48 4.19 2.39
-9.57 4.00 2.39
-9.65 3.81 2.39
-9.72 3.61 2.39
-9.80 3.42 2.39
-9.86 3.22 2.39
-9.93 3.02 2.39
-9.99 2.83 2.39
-10.06 2.63 2.39
-10.06 2.42 2.38
-10.07 2.20 2.37
-10.04 1.99 2.36
-10.04 1.78 2.35
-10.08 1.58 2.35
-10.09 1.37 2.34
-10.09 1.17 2.34
-10.06 0.96 2.33
-10.07 0.76 2.32
-10.11 0.56 2.33
-10.11 0.35 2.33
-10.11 0.15 2.33
-10.08 -0.05 2.32
-10.09 -0.25 2.32
-10.13 -0.46 2.33
-10.13 -0.66 2.34
-10.14 -0.87 2.34
-10.11 -1.07 2.34
-10.11 -1.27 2.34
-10.15 -1.49 2.36
-10.15 -1.70 2.37
-10.16 -1.91 2.38
-10.13 -2.11 2.38
-10.13 -2.33 2.39
-10.08 -2.53 2.39
-10.03 -2.73 2.39
-9.97 -2.93 2.39
-9.91 -3.13 2.39
-9.84 -3.33 2.39
-9.77 -3.52 2.39
-9.40 -3.60 2.32
-9.33 -3.79 2.32
-9.54 -4.10 2.39
-9.45 -4.29 2.39
-9.36 -4.48 2.39
-9.27 -4.67 2.39
-9.17 -4.85 2.39
-9.07 -5.03 2.39
-8.97 -5.21 2.39
-8.86 -5.39 2.39
-8.75 -5.57 2.39
-8.63 -5.74 2.39
-8.52 -5.91 2.39
-8.39 -6.08 2.39
-8.27 -6.24 2.39
-8.14 -6.41 2.39
-8.01 -6.57 2.39
-7.87 -6.72 2.39
-7.73 -6.88 2.39
-7.59 -7.03 2.39
-7.45 -7.18 2.39
-7.30 -7.33 2.39
-7.15 -7.47 2.39
-7.00 -7.61 2.39
-6.84 -7.74 2.39
-6.68 -7.88 2.39
-6.52 -8.01 2.39
-6.36 -8.13 2.39
-6.24 -8.32 2.41
-6.24 -8.68 2.48
-6.10 -8.86 2.49
-5.92 -8.98 2.49
-5.74 -9.09 2.49
-5.55 -9.20 2.49
-5.36 -9.31 2.49
-5.17 -9.41 2.49
-4.98 -9.51 2.49
-4.79 -9.60 2.49
-4.59 -9.69 2.49
-4.40 -9.78 2.49
-4.20 -9.86 2.49
-4.00 -9.94 2.49
-3.80 -10.02 2.49
-3.59 -10.09 2.49
-3.39 -10.15 2.49
-3.18 -10.21 2.49
-2.98 -10.27 2.49
-2.77 -10.32 2.49
-2.56 -10.37 2.49
-2.35 -10.42 2.49
-2.14 -10.46 2.49
-1.93 -10.50 2.49
-1.72 -10.53 2.49
-1.50 -10.56 2.49
-1.29 -10.58 2.49
-1.08 -10.60 2.49
-0.87 -10.61 2.49
-0.65 -10.62 2.49
-0.44 -10.63 2.49
-0.23 -10.63 2.49
-0.01 -9.65 2.49
0.18 -9.64 2.49
0.38 -9.63 2.49
0.57 -9.62 2.49
0.76 -9.60 2.49
0.95 -9.58 2.49
1.14 -9.56 2.49
1.34 -9.53 2.49
1.53 -9.50 2.49
1.72 -9.46 2.49
1.83 -9.03 2.39
2.01 -8.99 2.39
2.12 -8.67 2.32
2.36 -8.89 2.39
2.54 -8.84 2.39
2.72 -8.79 2.39
2.89 -8.73 2.39
3.06 -8.66 2.39
3.24 -8.60 2.39
3.41 -8.53 2.39
3.58 -8.45 2.39
3.74 -8.38 2.39
3.91 -8.30 2.39
4.07 -8.21 2.39
4.24 -8.13 2.39
4.40 -8.04 2.39
4.56 -7.94 2.39
4.71 -7.85 2.39
4.87 -7.75 2.39
5.02 -7.65 2.39
5.17 -7.54 2.39
5.32 -7.43 2.39
5.47 -7.32 2.39
5.61 -7.21 2.39
5.75 -7.09 2.39
6.75 -7.99 2.74
6.83 -7.76 2.71
5.85 -6.38 2.27
6.98 -7.31 2.65
5.85 -5.89 2.18
9.07 -8.77 3.31
5.87 -5.45 2.10
9.45 -8.44 3.33
9.64 -8.26 3.33
9.82 -8.08 3.34
5.89 -4.65 1.97
10.17 -7.70 3.35
10.33 -7.50 3.36
10.49 -7.30 3.36
5.90 -3.93 1.86
10.83 -6.91 3.38
10.99 -6.70 3.39
11.16 -6.51 3.40
11.40 -6.34 3.43
11.64 -6.17 3.47
11.86 -5.99 3.50
12.09 -5.80 3.53
12.30 -5.60 3.56
12.51 -5.39 3.59
12.73 -5.19 3.62
5.94 -2.28 1.68
13.17 -4.76 3.69
26.91 -9.12 7.49
5.94 -1.88 1.64
27.53 -8.11 7.57
5.95 -1.62 1.63
28.07 -7.06 7.63
28.36 -6.53 7.68
28.66 -5.99 7.72
29.00 -5.46 7.78
29.45 -4.93 7.88
29.88 -4.39 7.97
30.31 -3.83 8.06
30.88 -3.27 8.20
31.55 -2.71 8.36
32.45 -2.13 8.59
5.98 -0.27 1.58
5.98 -0.15 1.58
5.98 -0.03 1.58
5.98 0.09 1.58
5.99 0.21 1.58
39.10 2.16 10.34
40.36 3.04 10.69
40.57 3.88 10.76
42.73 4.96 11.36
14.87 4.54 4.10
14.06 4.60 3.90
6.03 2.11 1.68
13.18 4.91 3.71
13.06 5.17 3.70
12.92 5.42 3.70
6.05 2.68 1.74
12.62 5.90 3.67
12.44 6.12 3.66
12.25 6.33 3.64
12.05 6.54 3.61
11.83 6.73 3.59
11.61 6.92 3.56
11.42 7.12 3.55
11.30 7.37 3.55
6.07 4.13 1.93
11.05 7.85 3.57
10.91 8.09 3.58
6.11 4.72 2.03
10.47 8.44 3.54
10.18 8.55 3.50
9.89 8.65 3.46
9.60 8.74 3.41
7.29 6.91 2.64
6.12 6.04 2.26
7.14 7.33 2.69
4.90 5.24 1.88
4.79 5.33 1.88
4.68 5.43 1.88
4.57 5.52 1.88
4.49 5.65 1.89
4.49 5.89 1.94
4.49 6.15 2.00
4.51 6.43 2.06
5.08 7.57 2.39
4.93 7.68 2.39
4.78 7.78 2.39
4.62 7.87 2.39
4.47 7.97 2.39
4.31 8.06 2.39
4.14 8.15 2.39
3.98 8.23 2.39
3.82 8.31 2.39
3.65 8.39 2.39
3.48 8.46 2.39
3.31 8.53 2.39
3.14 8.60 2.39
2.97 8.67 2.39
2.80 8.73 2.39
2.62 8.79 2.39
2.44 8.84 2.39
2.27 8.89 2.39
2.18 9.32 2.49
1.99 9.37 2.49
1.80 9.41 2.49
1.62 9.45 2.49
1.43 9.48 2.49
1.24 9.51 2.49
1.05 9.54 2.49
0.85 9.56 2.49
0.66 9.58 2.49
0.47 9.60 2.49
0.28 9.61 2.49
0.08 9.61 2.49
-0.11 9.62 2.49
-0.30 9.62 2.49
-0.49 9.61 2.49
-0.69 9.61 2.49
-0.88 9.59 2.49
-1.07 9.58 2.49
-1.27 9.56 2.49
-1.46 9.53 2.49
-1.65 9.51 2.49
-1.84 9.48 2.49
-2.03 9.44 2.49
-2.22 9.40 2.49
-2.41 9.36 2.49
-2.60 9.31 2.49
-2.79 9.26 2.49
-2.97 9.21 2.49
-3.16 9.15 2.49
-3.34 9.09 2.49
-3.53 9.02 2.49
-3.71 8.95 2.49
-3.89 8.88 2.49
-4.07 8.80 2.49
-4.24 8.72 2.49
-4.42 8.64 2.49
-4.59 8.55 2.49
-4.77 8.46 2.49
-4.94 8.37 2.49
-5.11 8.27 2.49
-5.27 8.17 2.49
-5.44 8.06 2.49
-5.60 7.96 2.49
-5.76 7.84 2.49
-5.88 7.68 2.48
-5.89 7.38 2.42
-5.97 7.18 2.39
-6.11 7.06 2.39
-6.26 6.94 2.39
-6.10 6.50 2.28
-6.53 6.69 2.39
-6.67 6.56 2.39
-6.80 6.42 2.39
-6.93 6.29 2.39
-7.06 6.15 2.39
-7.18 6.01 2.39
-7.30 5.87 2.39
-7.42 5.72 2.39
-7.54 5.57 2.39
-7.65 5.42 2.39
-7.76 5.27 2.39
-7.86 5.11 2.39
-7.97 4.95 2.39
-8.07 4.79 2.39
-8.16 4.63 2.39
-8.26 4.47 2.39
-8.35 4.30 2.39
-8.43 4.14 2.39
-8.52 3.97 2.39
-8.59 3.80 2.39
-8.67 3.62 2.39
-8.74 3.45 2.39
-8.81 3.27 2.39
-8.88 3.10 2.39
-8.94 2.92 2.39
-9.00 2.74 2.39
-9.05 2.56 2.39
-9.10 2.38 2.39
-9.15 2.20 2.39
-9.19 2.01 2.39
-9.23 1.83 2.39
-9.27 1.64 2.39
-9.30 1.46 2.39
-9.33 1.27 2.39
-9.35 1.08 2.39
-9.37 0.89 2.39
-9.39 0.71 2.39
-9.40 0.52 2.39
-9.41 0.33 2.39
-9.42 0.14 2.39
-9.42 -0.05 2.39
-9.42 -0.24 2.39
-9.41 -0.43 2.39
-9.40 -0.61 2.39
-9.38 -0.80 2.39
-9.37 -0.99 2.39
-9.34 -1.18 2.39
-9.32 -1.37 2.39
-9.29 -1.55 2.39
-9.26 -1.74 2.39
-9.22 -1.92 2.39
-9.18 -2.11 2.39
-9.13 -2.29 2.39
-9.09 -2.47 2.39
-9.03 -2.65 2.39
-8.98 -2.83 2.39
-8.92 -3.01 2.39
-8.85 -3.19 2.39
-8.79 -3.37 2.39
-8.72 -3.54 2.39
-8.64 -3.72 2.39
-8.57 -3.89 2.39
-8.49 -4.06 2.39
-8.40 -4.23 2.39
-8.31 -4.40 2.39
-8.22 -4.56 2.39
-8.13 -4.72 2.39
-8.03 -4.88 2.39
-7.93 -5.04 2.39
-7.83 -5.20 2.39
-7.72 -5.36 2.39
-7.61 -5.51 2.39
-7.49 -5.66 2.39
-7.38 -5.81 2.39
-7.26 -5.95 2.39
-7.14 -6.09 2.39
-7.01 -6.23 2.39
-6.88 -6.37 2.39
-6.75 -6.51 2.39
-6.62 -6.64 2.39
-6.48 -6.77 2.39
-6.34 -6.90 2.39
-6.21 -7.03 2.40
-6.21 -7.32 2.45
-6.17 -7.57 2.49
-6.01 -7.69 2.49
-5.85 -7.81 2.49
-5.70 -7.92 2.49
-5.53 -8.03 2.49
-5.37 -8.14 2.49
-5.20 -8.24 2.49
-5.04 -8.34 2.49
-4.87 -8.44 2.49
-4.69 -8.53 2.49
-4.52 -8.62 2.49
-4.34 -8.71 2.49
-4.17 -8.79 2.49
-3.99 -8.87 2.49
-3.81 -8.94 2.49
-3.63 -9.02 2.49
-3.44 -9.08 2.49
-3.26 -9.15 2.49
-3.08 -9.21 2.49
-2.89 -9.26 2.49
-2.70 -9.32 2.49
-2.51 -9.37 2.49
-2.32 -9.41 2.49
-2.13 -9.45 2.49
-1.94 -9.49 2.49
-1.75 -9.52 2.49
-1.56 -9.55 2.49
-1.37 -9.58 2.49
-1.17 -9.60 2.49
-0.98 -9.62 2.49
-0.79 -9.63 2.49
-0.59 -9.64 2.49
-0.40 -9.65 2.49
-0.21 -9.65 2.49
-0.01 -8.82 2.49
0.17 -8.82 2.49
0.34 -8.81 2.49
0.52 -8.80 2.49
0.69 -8.78 2.49
0.87 -8.76 2.49
1.05 -8.74 2.49
1.22 -8.72 2.49
1.40 -8.69 2.49
1.57 -8.65 2.49
1.74 -8.62 2.49
1.83 -8.22 2.39
2.01 -8.23 2.41
2.16 -8.14 2.39
2.32 -8.09 2.39
2.48 -8.04 2.39
2.64 -7.98 2.39
2.80 -7.93 2.39
2.96 -7.87 2.39
3.12 -7.80 2.39
3.27 -7.73 2.39
3.43 -7.66 2.39
3.58 -7.59 2.39
3.73 -7.52 2.39
3.88 -7.44 2.39
4.02 -7.36 2.39
4.17 -7.27 2.39
4.31 -7.18 2.39
4.46 -7.09 2.39
4.60 -7.00 2.39
4.73 -6.90 2.39
4.87 -6.80 2.39
5.00 -6.70 2.39
5.14 -6.60 2.39
5.27 -6.49 2.39
5.39 -6.38 2.39
5.52 -6.27 2.39
5.64 -6.16 2.39
5.76 -6.04 2.39
5.85 -5.89 2.38
6.79 -6.57 2.71
6.86 -6.38 2.68
5.87 -5.24 2.26
7.00 -6.00 2.64
7.06 -5.81 2.62
7.69 -6.08 2.81
8.81 -6.67 3.17
9.21 -6.69 3.27
9.36 -6.52 3.28
5.90 -3.93 2.03
9.66 -6.16 3.29
9.80 -5.98 3.30
9.94 -5.79 3.30
10.07 -5.60 3.31
10.19 -5.41 3.32
5.92 -2.99 1.91
10.45 -5.02 3.33
10.58 -4.82 3.34
10.71 -4.62 3.36
10.83 -4.42 3.37
10.95 -4.21 3.38
11.06 -4.00 3.38
11.17 -3.78 3.39
5.94 -1.88 1.79
11.46 -3.38 3.44
11.60 -3.17 3.46
11.73 -2.95 3.48
11.86 -2.73 3.51
5.98 -1.25 1.76
12.09 -2.28 3.55
12.19 -2.04 3.56
12.28 -1.80 3.58
12.36 -1.56 3.59
12.43 -1.32 3.60
12.48 -1.07 3.61
5.98 -0.39 1.73
12.54 -0.57 3.62
12.55 -0.32 3.62
12.55 -0.06 3.62
5.98 0.09 1.72
12.52 0.44 3.61
12.49 0.69 3.61
12.44 0.94 3.60
12.38 1.18 3.59
6.00 0.70 1.74
12.23 1.67 3.56
12.15 1.91 3.55
12.07 2.14 3.53
11.98 2.38 3.52
11.88 2.61 3.51
6.02 1.45 1.78
11.66 3.05 3.47
11.53 3.27 3.45
11.40 3.48 3.43
11.28 3.69 3.42
6.03 2.11 1.84
11.05 4.12 3.40
10.93 4.33 3.39
10.84 4.54 3.38
10.77 4.77 3.39
10.70 5.00 3.40
6.05 2.98 1.94
6.07 3.14 1.97
10.44 5.67 3.42
10.34 5.89 3.43
10.21 6.08 3.42
10.06 6.27 3.41
9.90 6.46 3.40
6.07 4.13 2.11
9.58 6.81 3.38
9.42 6.98 3.37
7.28 5.63 2.65
6.11 4.92 2.25
7.15 6.00 2.68
7.08 6.19 2.70
7.00 6.38 2.72
6.04 5.73 2.39
5.93 5.85 2.39
5.81 5.97 2.39
4.87 5.21 2.05
4.68 5.21 2.01
4.50 5.22 1.98
4.48 5.41 2.01
5.19 6.53 2.39
4.90 6.43 2.32
4.70 6.43 2.28
4.79 6.84 2.39
4.65 6.93 2.39
4.51 7.03 2.39
4.37 7.12 2.39
4.23 7.21 2.39
4.09 7.29 2.39
3.94 7.38 2.39
3.79 7.46 2.39
3.64 7.53 2.39
3.49 7.61 2.39
3.34 7.68 2.39
3.19 7.75 2.39
3.03 7.81 2.39
2.87 7.87 2.39
2.72 7.93 2.39
2.56 7.99 2.39
2.40 8.04 2.39
2.24 8.09 2.39
2.16 8.49 2.49
1.99 8.53 2.49
1.82 8.57 2.49
1.65 8.61 2.49
1.48 8.64 2.49
1.30 8.68 2.49
1.13 8.70 2.49
0.96 8.73 2.49
0.78 8.75 2.49
0.61 8.76 2.49
0.43 8.78 2.49
0.25 8.79 2.49
0.08 8.79 2.49
-0.10 8.80 2.49
-0.28 8.80 2.49
-0.45 8.79 2.49
-0.63 8.79 2.49
-0.81 8.77 2.49
-0.98 8.76 2.49
-1.16 8.74 2.49
-1.33 8.72 2.49
-1.51 8.69 2.49
-1.68 8.66 2.49
-1.86 8.63 2.49
-2.03 8.60 2.49
-2.21 8.56 2.49
-2.38 8.51 2.49
-2.55 8.47 2.49
-2.72 8.42 2.49
-2.89 8.36 2.49
-3.06 8.31 2.49
-3.22 8.25 2.49
-3.39 8.18 2.49
-3.56 8.12 2.49
-3.72 8.05 2.49
-3.88 7.97 2.49
-4.04 7.90 2.49
-4.20 7.82 2.49
-4.36 7.73 2.49
-4.51 7.65 2.49
-4.67 7.56 2.49
-4.82 7.47 2.49
-4.97 7.37 2.49
-5.12 7.27 2.49
-5.27 7.17 2.49
-5.41 7.06 2.49
-5.55 6.96 2.49
-5.69 6.85 2.49
-5.83 6.73 2.49
-5.90 6.55 2.47
-5.92 6.30 2.42
-5.97 6.11 2.39
-6.09 5.99 2.39
-6.22 5.87 2.39
-6.33 5.75 2.39
-6.45 5.62 2.39
-6.56 5.49 2.39
-6.67 5.36 2.39
-6.78 5.22 2.39
-6.89 5.09 2.39
-6.99 4.95 2.39
-7.09 4.81 2.39
-7.18 4.67 2.39
-7.28 4.53 2.39
-7.37 4.38 2.39
-7.46 4.23 2.39
-7.54 4.08 2.39
-7.62 3.93 2.39
-7.70 3.78 2.39
-7.78 3.62 2.39
-7.85 3.47 2.39
-7.92 3.31 2.39
-7.99 3.15 2.39
-8.05 2.99 2.39
-8.11 2.83 2.39
-8.16 2.67 2.39
-8.22 2.50 2.39
-8.27 2.34 2.39
-8.31 2.17 2.39
-8.36 2.00 2.39
-8.40 1.84 2.39
-8.43 1.67 2.39
-8.46 1.50 2.39
-8.49 1.33 2.39
-8.52 1.16 2.39
-8.54 0.99 2.39
-8.56 0.82 2.39
-8.58 0.64 2.39
-8.59 0.47 2.39
-8.60 0.30 2.39
-8.60 0.13 2.39
-8.60 -0.04 2.39
-8.60 -0.22 2.39
-8.59 -0.39 2.39
-8.58 -0.56 2.39
-8.57 -0.73 2.39
-8.55 -0.90 2.39
-8.53 -1.08 2.39
-8.51 -1.25 2.39
-8.48 -1.42 2.39
-8.45 -1.59 2.39
-8.42 -1.76 2.39
-8.38 -1.92 2.39
-8.34 -2.09 2.39
-8.30 -2.26 2.39
-8.25 -2.42 2.39
-8.20 -2.59 2.39
-8.14 -2.75 2.39
-8.09 -2.91 2.39
-8.03 -3.08 2.39
-7.96 -3.24 2.39
-7.89 -3.39 2.39
-7.82 -3.55 2.39
-7.75 -3.71 2.39
-7.67 -3.86 2.39
-7.59 -4.01 2.39
-7.51 -4.16 2.39
-7.42 -4.31 2.39
-7.34 -4.46 2.39
-7.24 -4.61 2.39
-7.15 -4.75 2.39
-7.05 -4.89 2.39
-6.95 -5.03 2.39
-6.85 -5.17 2.39
-6.74 -5.30 2.39
-6.63 -5.44 2.39
-6.52 -5.57 2.39
-6.40 -5.70 2.39
-6.29 -5.82 2.39
-6.19 -5.96 2.40
-6.18 -6.20 2.44
-6.18 -6.45 2.49
-6.05 -6.57 2.49
-5.91 -6.69 2.49
-5.77 -6.81 2.49
-5.63 -6.92 2.49
-5.49 -7.03 2.49
-5.35 -7.14 2.49
-5.20 -7.24 2.49
-5.06 -7.34 2.49
-4.91 -7.44 2.49
-4.76 -7.53 2.49
-4.60 -7.62 2.49
-4.45 -7.71 2.49
-4.29 -7.80 2.49
-4.13 -7.88 2.49
-3.97 -7.96 2.49
-3.81 -8.03 2.49
-3.65 -8.11 2.49
-3.48 -8.18 2.49
-3.32 -8.24 2.49
-3.15 -8.30 2.49
-2.98 -8.36 2.49
-2.81 -8.42 2.49
-2.64 -8.47 2.49
-2.47 -8.52 2.49
-2.30 -8.56 2.49
-2.13 -8.60 2.49
-1.95 -8.64 2.49
-1.78 -8.68 2.49
-1.60 -8.71 2.49
-1.43 -8.73 2.49
-1.25 -8.76 2.49
-1.07 -8.78 2.49
-0.90 -8.79 2.49
-0.72 -8.81 2.49
-0.54 -8.82 2.49
-0.37 -8.82 2.49
-0.19 -8.82 2.49
-0.01 -8.12 2.49
0.15 -8.12 2.49
0.31 -8.11 2.49
0.48 -8.10 2.49
0.64 -8.08 2.49
0.80 -8.07 2.49
0.96 -8.05 2.49
1.12 -8.02 2.49
1.28 -8.00 2.49
1.44 -7.97 2.49
1.60 -7.93 2.49
1.76 -7.90 2.49
1.84 -7.56 2.40
1.99 -7.49 2.39
2.14 -7.45 2.39
2.29 -7.40 2.39
2.43 -7.35 2.39
2.58 -7.30 2.39
2.73 -7.24 2.39
2.87 -7.18 2.39
3.01 -7.12 2.39
3.15 -7.06 2.39
3.29 -6.99 2.39
3.43 -6.92 2.39
3.57 -6.85 2.39
3.70 -6.77 2.39
3.84 -6.70 2.39
3.97 -6.61 2.39
4.10 -6.53 2.39
4.23 -6.45 2.39
4.36 -6.36 2.39
4.48 -6.27 2.39
4.61 -6.17 2.39
4.73 -6.08 2.39
4.85 -5.98 2.39
4.97 -5.88 2.39
5.08 -5.78 2.39
5.20 -5.67 2.39
5.31 -5.57 2.39
5.42 -5.46 2.39
5.52 -5.35 2.39
5.63 -5.23 2.39
5.73 -5.12 2.39
5.83 -5.00 2.39
6.75 -5.56 2.72
6.81 -5.38 2.70
6.86 -5.20 2.68
5.89 -4.28 2.27
6.97 -4.86 2.65
5.90 -3.93 2.21
7.08 -4.52 2.62
5.91 -3.61 2.16
7.68 -4.48 2.77
8.33 -4.64 2.97
9.13 -4.84 3.22
9.24 -4.66 3.23
9.34 -4.48 3.23
9.44 -4.30 3.24
5.93 -2.56 2.02
9.63 -3.92 3.25
9.71 -3.73 3.25
9.79 -3.54 3.25
9.85 -3.34 3.25
5.94 -1.88 1.95
10.02 -2.95 3.27
10.12 -2.76 3.28
10.20 -2.57 3.29
10.28 -2.37 3.30
10.36 -2.17 3.31
10.43 -1.96 3.32
10.49 -1.76 3.33
10.55 -1.55 3.33
10.60 -1.34 3.34
10.64 -1.13 3.35
10.67 -0.91 3.35
10.69 -0.70 3.35
10.70 -0.49 3.35
10.71 -0.27 3.35
10.71 -0.06 3.35
5.98 0.09 1.87
10.70 0.38 3.35
10.70 0.59 3.35
10.69 0.81 3.35
10.66 1.02 3.35
10.63 1.23 3.35
10.59 1.44 3.34
10.55 1.66 3.34
10.50 1.86 3.33
6.03 1.20 1.92
10.39 2.28 3.33
10.33 2.48 3.32
10.26 2.69 3.32
10.19 2.89 3.31
10.11 3.09 3.31
10.02 3.28 3.30
6.03 2.11 2.00
9.87 3.68 3.29
9.82 3.89 3.30
9.76 4.09 3.31
6.05 2.68 2.07
9.63 4.50 3.32
9.55 4.70 3.33
9.48 4.90 3.33
9.38 5.09 3.33
7.93 4.52 2.85
7.26 4.33 2.64
7.22 4.50 2.66
6.07 3.96 2.26
6.07 4.14 2.29
7.07 5.02 2.71
7.01 5.20 2.72
6.06 4.69 2.39
5.97 4.81 2.39
5.87 4.93 2.39
5.77 5.05 2.39
5.67 5.16 2.39
5.57 5.28 2.39
5.46 5.39 2.39
5.35 5.50 2.39
5.24 5.61 2.39
4.90 5.46 2.29
4.70 5.45 2.24
4.57 5.51 2.23
4.78 6.02 2.39
4.66 6.11 2.39
4.54 6.21 2.39
4.41 6.30 2.39
4.29 6.39 2.39
4.16 6.47 2.39
4.03 6.56 2.39
3.90 6.64 2.39
3.76 6.72 2.39
3.63 6.79 2.39
3.49 6.87 2.39
3.35 6.94 2.39
3.22 7.01 2.39
3.08 7.07 2.39
2.93 7.13 2.39
2.79 7.19 2.39
2.65 7.25 2.39
2.50 7.30 2.39
2.35 7.36 2.39
2.21 7.40 2.39
2.15 7.77 2.49
1.99 7.81 2.49
1.83 7.85 2.49
1.68 7.89 2.49
1.52 7.93 2.49
1.36 7.96 2.49
1.20 7.99 2.49
1.04 8.01 2.49
0.88 8.03 2.49
0.72 8.05 2.49
0.56 8.07 2.49
0.39 8.08 2.49
0.23 8.09 2.49
0.07 8.10 2.49
-0.09 8.10 2.49
-0.26 8.10 2.49
-0.42 8.09 2.49
-0.58 8.09 2.49
-0.74 8.08 2.49
-0.91 8.06 2.49
-1.07 8.04 2.49
-1.23 8.02 2.49
-1.39 8.00 2.49
-1.55 7.97 2.49
-1.71 7.94 2.49
-1.87 7.91 2.49
-2.03 7.87 2.49
-2.19 7.83 2.49
-2.35 7.79 2.49
-2.50 7.75 2.49
-2.66 7.70 2.49
-2.81 7.64 2.49
-2.97 7.59 2.49
-3.12 7.53 2.49
-3.27 7.47 2.49
-3.42 7.40 2.49
-3.57 7.34 2.49
-3.72 7.26 2.49
-3.86 7.19 2.49
-4.01 7.11 2.49
-4.15 7.03 2.49
-4.29 6.95 2.49
-4.43 6.87 2.49
-4.57 6.78 2.49
-4.71 6.69 2.49
-4.84 6.59 2.49
-4.98 6.50 2.49
-5.11 6.40 2.49
-5.24 6.30 2.49
-5.36 6.19 2.49
-5.49 6.08 2.49
-5.61 5.97 2.49
-5.73 5.86 2.49
-5.85 5.75 2.49
-5.93 5.59 2.48
-5.93 5.38 2.43
-5.95 5.18 2.40
-6.04 5.05 2.39
-6.15 4.94 2.40
-6.24 4.80 2.39
-6.33 4.68 2.39
-6.43 4.55 2.39
-6.52 4.42 2.39
-6.61 4.29 2.39
-6.69 4.16 2.39
-6.78 4.03 2.39
-6.86 3.89 2.39
-6.93 3.75 2.39
-7.01 3.61 2.39
-7.08 3.47 2.39
-7.15 3.33 2.39
-7.22 3.19 2.39
-7.28 3.04 2.39
-7.34 2.90 2.39
-7.40 2.75 2.39
-7.45 2.60 2.39
-7.51 2.45 2.39
-7.56 2.30 2.39
-7.60 2.15 2.39
-7.64 2.00 2.39
-7.68 1.84 2.39
-7.72 1.69 2.39
-7.75 1.53 2.39
-7.78 1.38 2.39
-7.81 1.22 2.39
-7.83 1.07 2.39
-7.85 0.91 2.39
-7.87 0.75 2.39
-7.88 0.59 2.39
-7.89 0.43 2.39
-7.90 0.28 2.39
-7.91 0.12 2.39
-7.91 -0.04 2.39
-7.90 -0.20 2.39
-7.90 -0.36 2.39
-7.89 -0.52 2.39
-7.88 -0.67 2.39
-7.86 -0.83 2.39
-7.85 -0.99 2.39
-7.82 -1.15 2.39
-7.80 -1.30 2.39
-7.77 -1.46 2.39
-7.74 -1.61 2.39
-7.71 -1.77 2.39
-7.67 -1.92 2.39
-7.63 -2.08 2.39
-7.58 -2.23 2.39
-7.54 -2.38 2.39
-7.49 -2.53 2.39
-7.43 -2.68 2.39
-7.38 -2.83 2.39
-7.32 -2.97 2.39
-7.26 -3.12 2.39
-7.19 -3.26 2.39
-7.13 -3.41 2.39
-7.05 -3.55 2.39
-6.98 -3.69 2.39
-6.90 -3.83 2.39
-6.83 -3.97 2.39
-6.74 -4.10 2.39
-6.66 -4.23 2.39
-6.57 -4.37 2.39
-6.48 -4.50 2.39
-6.39 -4.63 2.39
-6.29 -4.75 2.39
-6.20 -4.88 2.39
-6.16 -5.05 2.42
-6.16 -5.26 2.46
-6.14 -5.46 2.49
-6.03 -5.58 2.49
-5.92 -5.70 2.49
-5.80 -5.82 2.49
-5.68 -5.93 2.49
-5.56 -6.04 2.49
-5.44 -6.15 2.49
-5.31 -6.26 2.49
-5.18 -6.36 2.49
-5.05 -6.46 2.49
-4.92 -6.56 2.49
-4.79 -6.66 2.49
-4.65 -6.75 2.49
-4.51 -6.84 2.49
-4.37 -6.93 2.49
-4.23 -7.01 2.49
-4.09 -7.09 2.49
-3.95 -7.17 2.49
-3.80 -7.25 2.49
-3.65 -7.32 2.49
-3.50 -7.39 2.49
-3.36 -7.46 2.49
-3.20 -7.52 2.49
-3.05 -7.58 2.49
-2.90 -7.64 2.49
-2.74 -7.69 2.49
-2.59 -7.74 2.49
-2.43 -7.79 2.49
-2.27 -7.84 2.49
-2.12 -7.88 2.49
-1.96 -7.91 2.49
-1.80 -7.95 2.49
-1.64 -7.98 2.49
-1.47 -8.01 2.49
-1.31 -8.04 2.49
-1.15 -8.06 2.49
-0.99 -8.08 2.49
-0.83 -8.09 2.49
-0.66 -8.10 2.49
-0.50 -8.11 2.49
-0.34 -8.12 2.49
-0.17 -8.12 2.49
-0.01 -7.51 2.49
0.14 -7.51 2.49
0.29 -7.50 2.49
0.44 -7.49 2.49
0.59 -7.48 2.49
0.74 -7.46 2.49
0.89 -7.45 2.49
1.04 -7.42 2.49
1.19 -7.40 2.49
1.33 -7.37 2.49
1.48 -7.34 2.49
1.63 -7.31 2.49
1.77 -7.27 2.49
1.85 -6.99 2.41
1.98 -6.89 2.39
2.12 -6.85 2.39
2.25 -6.80 2.39
2.39 -6.75 2.39
2.52 -6.70 2.39
2.65 -6.65 2.39
2.79 -6.59 2.39
2.92 -6.53 2.39
3.05 -6.47 2.39
3.18 -6.41 2.39
3.30 -6.34 2.39
3.43 -6.27 2.39
3.55 -6.20 2.39
3.68 -6.12 2.39
3.80 -6.05 2.39
3.92 -5.97 2.39
4.03 -5.89 2.39
4.15 -5.80 2.39
4.27 -5.72 2.39
4.38 -5.63 2.39
4.49 -5.54 2.39
4.60 -5.44 2.39
4.71 -5.35 2.39
4.81 -5.25 2.39
4.91 -5.15 2.39
5.02 -5.05 2.39
5.11 -4.95 2.39
5.21 -4.85 2.39
5.31 -4.74 2.39
5.40 -4.63 2.39
5.49 -4.52 2.39
5.58 -4.41 2.39
5.67 -4.29 2.39
5.75 -4.18 2.39
5.83 -4.06 2.39
5.90 -3.93 2.38
6.77 -4.32 2.70
6.82 -4.16 2.69
6.86 -4.00 2.68
5.92 -3.29 2.28
5.92 -3.14 2.26
6.99 -3.53 2.64
7.02 -3.37 2.63
7.06 -3.22 2.61
7.10 -3.06 2.61
7.13 -2.91 2.60
7.36 -2.83 2.66
7.62 -2.76 2.73
7.87 -2.67 2.80
5.94 -1.88 2.10
8.37 -2.47 2.94
8.61 -2.35 3.01
8.84 -2.22 3.08
5.97 -1.37 2.07
9.21 -1.93 3.18
9.27 -1.75 3.18
9.33 -1.56 3.19
9.37 -1.38 3.20
9.42 -1.19 3.20
9.45 -1.00 3.21
5.98 -0.51 2.03
9.50 -0.62 3.22
9.53 -0.43 3.22
9.54 -0.24 3.22
9.55 -0.05 3.23
5.98 0.09 2.02
9.56 0.34 3.23
9.56 0.53 3.23
9.55 0.72 3.23
9.53 0.91 3.23
6.01 0.70 2.04
9.47 1.29 3.23
9.44 1.48 3.23
9.41 1.67 3.23
9.36 1.86 3.22
9.32 2.04 3.22
9.22 2.22 3.20
8.97 2.35 3.13
6.03 1.71 2.11
8.33 2.54 2.94
7.99 2.62 2.84
6.03 2.11 2.16
7.32 2.73 2.64
7.23 2.86 2.62
7.20 3.02 2.64
7.17 3.18 2.65
6.05 2.83 2.25
6.05 2.98 2.28
7.07 3.66 2.68
7.03 3.82 2.70
4.85 2.76 1.88
4.79 2.86 1.88
4.73 2.95 1.88
4.67 3.05 1.88
4.61 3.14 1.88
4.55 3.24 1.88
4.48 3.33 1.88
5.61 4.34 2.39
5.53 4.45 2.39
5.44 4.57 2.39
5.35 4.67 2.39
5.25 4.78 2.39
5.16 4.89 2.39
5.06 4.99 2.39
4.96 5.09 2.39
4.85 5.19 2.39
4.75 5.29 2.39
4.64 5.39 2.39
4.54 5.48 2.39
4.43 5.57 2.39
4.31 5.66 2.39
4.20 5.75 2.39
4.08 5.83 2.39
3.97 5.91 2.39
3.85 5.99 2.39
3.73 6.07 2.39
3.61 6.15 2.39
3.48 6.22 2.39
3.36 6.29 2.39
3.23 6.36 2.39
3.11 6.42 2.39
2.98 6.49 2.39
2.85 6.55 2.39
2.71 6.60 2.39
2.58 6.66 2.39
2.45 6.71 2.39
2.31 6.76 2.39
2.18 6.81 2.39
2.13 7.15 2.49
1.99 7.19 2.49
1.84 7.23 2.49
1.70 7.27 2.49
1.55 7.31 2.49
1.40 7.34 2.49
1.26 7.37 2.49
1.11 7.39 2.49
0.96 7.42 2.49
0.81 7.44 2.49
0.66 7.45 2.49
0.51 7.47 2.49
0.36 7.48 2.49
0.21 7.49 2.49
0.06 7.49 2.49
-0.09 7.49 2.49
-0.24 7.49 2.49
-0.39 7.49 2.49
-0.54 7.48 2.49
-0.69 7.47 2.49
-0.84 7.46 2.49
-0.99 7.44 2.49
-1.14 7.42 2.49
-1.29 7.40 2.49
-1.44 7.38 2.49
-1.58 7.35 2.49
-1.73 7.32 2.49
-1.88 7.28 2.49
-2.03 7.25 2.49
-2.17 7.21 2.49
-2.32 7.16 2.49
-2.46 7.12 2.49
-2.60 7.07 2.49
-2.75 7.02 2.49
-2.89 6.96 2.49
-3.03 6.91 2.49
-3.17 6.85 2.49
-3.30 6.78 2.49
-3.44 6.72 2.49
-3.58 6.65 2.49
-3.71 6.58 2.49
-3.84 6.51 2.49
-3.97 6.43 2.49
-4.10 6.35 2.49
-4.23 6.27 2.49
-4.36 6.18 2.49
-4.48 6.10 2.49
-4.60 6.01 2.49
-4.72 5.92 2.49
-4.84 5.82 2.49
-4.96 5.72 2.49
-5.07 5.63 2.49
-5.19 5.52 2.49
-5.30 5.42 2.49
-5.41 5.31 2.49
-5.51 5.21 2.49
-5.62 5.10 2.49
-5.72 4.98 2.49
-5.82 4.87 2.49
-5.92 4.75 2.49
-5.95 4.58 2.47
-5.95 4.40 2.43
-5.97 4.23 2.40
-6.03 4.09 2.39
-6.11 3.97 2.39
-6.19 3.85 2.39
-6.26 3.72 2.39
-6.34 3.60 2.39
-6.41 3.47 2.39
-6.48 3.34 2.39
-6.55 3.21 2.39
-6.61 3.08 2.39
-6.67 2.95 2.39
-6.73 2.81 2.39
-6.79 2.68 2.39
-6.84 2.54 2.39
-6.89 2.40 2.39
-6.94 2.27 2.39
-6.98 2.13 2.39
-7.03 1.99 2.39
-7.07 1.84 2.39
-7.10 1.70 2.39
-7.13 1.56 2.39
-7.17 1.42 2.39
-7.19 1.27 2.39
-7.22 1.13 2.39
-7.24 0.98 2.39
-7.26 0.84 2.39
-7.27 0.69 2.39
-7.29 0.55 2.39
-7.30 0.40 2.39
-7.30 0.26 2.39
-7.31 0.11 2.39
-7.31 -0.04 2.39
-7.31 -0.18 2.39
-7.30 -0.33 2.39
-7.29 -0.48 2.39
-7.28 -0.62 2.39
-7.27 -0.77 2.39
-7.25 -0.91 2.39
-7.23 -1.06 2.39
-7.21 -1.20 2.39
-7.18 -1.35 2.39
-7.15 -1.49 2.39
-7.12 -1.63 2.39
-7.09 -1.78 2.39
-7.05 -1.92 2.39
-7.01 -2.06 2.39
-6.97 -2.20 2.39
-6.92 -2.34 2.39
-6.87 -2.48 2.39
-6.82 -2.61 2.39
-6.77 -2.75 2.39
-6.71 -2.88 2.39
-6.65 -3.02 2.39
-6.59 -3.15 2.39
-6.52 -3.28 2.39
-6.45 -3.41 2.39
-6.38 -3.54 2.39
-6.31 -3.67 2.39
-6.23 -3.79 2.39
-6.16 -3.91 2.39
-6.14 -4.08 2.42
-6.14 -4.26 2.45
-6.14 -4.45 2.49
-6.07 -4.58 2.49
-5.98 -4.70 2.49
-5.88 -4.82 2.49
-5.78 -4.94 2.49
-5.68 -5.05 2.49
-5.58 -5.16 2.49
-5.47 -5.27 2.49
-5.36 -5.38 2.49
-5.25 -5.48 2.49
-5.14 -5.59 2.49
-5.03 -5.69 2.49
-4.91 -5.79 2.49
-4.79 -5.88 2.49
-4.67 -5.98 2.49
-4.55 -6.07 2.49
-4.43 -6.16 2.49
-4.30 -6.24 2.49
-4.17 -6.32 2.49
-4.05 -6.41 2.49
-3.92 -6.48 2.49
-3.78 -6.56 2.49
-3.65 -6.63 2.49
-3.52 -6.70 2.49
-3.38 -6.77 2.49
-3.24 -6.83 2.49
-3.10 -6.90 2.49
-2.96 -6.95 2.49
-2.82 -7.01 2.49
-2.68 -7.06 2.49
-2.54 -7.11 2.49
-2.39 -7.16 2.49
-2.25 -7.21 2.49
-2.10 -7.25 2.49
-1.96 -7.29 2.49
-1.81 -7.32 2.49
-1.66 -7.35 2.49
-1.51 -7.38 2.49
-1.37 -7.41 2.49
-1.22 -7.43 2.49
-1.07 -7.45 2.49
-0.92 -7.47 2.49
-0.77 -7.49 2.49
-0.62 -7.50 2.49
-0.46 -7.51 2.49
-0.31 -7.51 2.49
-0.16 -7.51 2.49
-0.01 -6.98 2.49
0.13 -6.98 2.49
0.27 -6.97 2.49
0.41 -6.96 2.49
0.55 -6.95 2.49
0.69 -6.94 2.49
0.83 -6.92 2.49
0.96 -6.90 2.49
1.10 -6.88 2.49
1.24 -6.85 2.49
1.38 -6.82 2.49
1.51 -6.79 2.49
1.65 -6.76 2.49
1.78 -6.72 2.49
1.86 -6.49 2.42
1.97 -6.37 2.39
2.09 -6.33 2.39
2.22 -6.28 2.39
2.34 -6.23 2.39
2.47 -6.18 2.39
2.59 -6.13 2.39
2.71 -6.07 2.39
2.83 -6.02 2.39
2.95 -5.96 2.39
3.07 -5.90 2.39
3.19 -5.83 2.39
3.30 -5.76 2.39
3.42 -5.70 2.39
3.53 -5.62 2.39
3.64 -5.55 2.39
3.75 -5.47 2.39
3.86 -5.40 2.39
3.97 -5.32 2.39
4.07 -5.23 2.39
4.17 -5.15 2.39
4.28 -5.06 2.39
4.38 -4.98 2.39
4.47 -4.89 2.39
4.57 -4.79 2.39
4.66 -4.70 2.39
4.76 -4.60 2.39
4.85 -4.51 2.39
4.94 -4.41 2.39
5.02 -4.31 2.39
5.11 -4.20 2.39
5.19 -4.10 2.39
5.27 -3.99 2.39
5.35 -3.89 2.39
5.42 -3.78 2.39
5.50 -3.67 2.39
5.57 -3.55 2.39
5.64 -3.44 2.39
5.71 -3.33 2.39
5.77 -3.21 2.39
5.83 -3.09 2.39
5.89 -2.98 2.39
5.95 -2.86 2.39
6.79 -3.09 2.70
6.82 -2.94 2.69
6.86 -2.80 2.68
6.89 -2.65 2.67
6.92 -2.50 2.67
5.94 -2.02 2.28
5.94 -1.88 2.26
5.96 -1.76 2.25
7.02 -1.92 2.64
7.04 -1.77 2.63
7.06 -1.63 2.63
7.08 -1.48 2.62
7.09 -1.34 2.62
7.11 -1.19 2.61
7.12 -1.05 2.61
7.13 -0.90 2.61
7.15 -0.76 2.61
7.16 -0.61 2.61
7.17 -0.47 2.61
7.18 -0.33 2.61
5.98 -0.15 2.17
7.19 -0.04 2.61
5.98 0.09 2.17
7.19 0.25 2.61
6.00 0.33 2.18
7.19 0.54 2.62
7.19 0.69 2.62
7.18 0.83 2.63
7.17 0.98 2.63
7.16 1.12 2.63
7.14 1.27 2.63
7.12 1.41 2.64
7.10 1.56 2.64
6.04 1.45 2.25
6.02 1.58 2.26
6.03 1.71 2.27
7.01 2.14 2.66
6.98 2.29 2.66
6.03 2.11 2.32
4.88 1.82 1.89
4.82 1.91 1.88
4.78 2.01 1.88
4.74 2.10 1.88
4.70 2.20 1.88
4.65 2.29 1.88
4.61 2.38 1.88
4.56 2.48 1.88
4.51 2.57 1.88
4.46 2.66 1.88
4.43 2.76 1.89
4.42 2.88 1.91
4.43 3.02 1.94
4.43 3.15 1.97
4.43 3.29 2.00
5.22 4.04 2.39
5.14 4.14 2.39
5.06 4.25 2.39
4.97 4.35 2.39
4.88 4.45 2.39
4.79 4.55 2.39
4.70 4.64 2.39
4.61 4.74 2.39
4.51 4.83 2.39
4.42 4.92 2.39
4.32 5.01 2.39
4.22 5.10 2.39
4.12 5.18 2.39
4.01 5.26 2.39
3.91 5.35 2.39
3.80 5.42 2.39
3.69 5.50 2.39
3.58 5.57 2.39
3.47 5.65 2.39
3.35 5.72 2.39
3.24 5.78 2.39
3.12 5.85 2.39
3.01 5.91 2.39
2.89 5.97 2.39
2.77 6.03 2.39
2.65 6.09 2.39
2.52 6.14 2.39
2.40 6.19 2.39
2.28 6.24 2.39
2.15 6.29 2.39
2.11 6.60 2.49
1.98 6.65 2.49
1.85 6.69 2.49
1.71 6.73 2.49
1.58 6.76 2.49
1.44 6.79 2.49
1.31 6.82 2.49
1.17 6.85 2.49
1.03 6.87 2.49
0.89 6.89 2.49
0.75 6.91 2.49
0.62 6.93 2.49
0.48 6.94 2.49
0.34 6.95 2.49
0.20 6.96 2.49
0.06 6.96 2.49
-0.08 6.97 2.49
-0.22 6.96 2.49
-0.36 6.96 2.49
-0.50 6.95 2.49
-0.64 6.95 2.49
-0.78 6.93 2.49
-0.92 6.92 2.49
-1.06 6.90 2.49
-1.20 6.88 2.49
-1.34 6.86 2.49
-1.47 6.83 2.49
-1.61 6.80 2.49
-1.75 6.77 2.49
-1.88 6.74 2.49
-2.02 6.70 2.49
-2.15 6.66 2.49
-2.29 6.62 2.49
-2.42 6.57 2.49
-2.55 6.52 2.49
-2.68 6.47 2.49
-2.81 6.42 2.49
-2.94 6.36 2.49
-3.07 6.30 2.49
-3.20 6.24 2.49
-3.32 6.18 2.49
-3.45 6.11 2.49
-3.57 6.04 2.49
-3.69 5.97 2.49
-3.81 5.90 2.49
-3.93 5.82 2.49
-4.05 5.75 2.49
-4.16 5.66 2.49
-4.28 5.58 2.49
-4.39 5.50 2.49
-4.50 5.41 2.49
-4.61 5.32 2.49
-4.71 5.23 2.49
-4.82 5.13 2.49
-4.92 5.03 2.49
-5.02 4.94 2.49
-5.12 4.84 2.49
-5.22 4.73 2.49
-5.32 4.63 2.49
-5.41 4.52 2.49
-5.50 4.41 2.49
-5.59 4.30 2.49
-5.67 4.19 2.49
-5.76 4.08 2.49
-5.84 3.96 2.49
-5.92 3.84 2.49
-5.97 3.71 2.48
-5.97 3.55 2.45
-5.98 3.39 2.43
-5.99 3.24 2.40
-6.02 3.10 2.39
-6.08 2.98 2.39
-6.14 2.86 2.39
-6.20 2.74 2.39
-6.25 2.61 2.39
-6.30 2.49 2.39
-6.35 2.36 2.39
-6.40 2.23 2.39
-6.44 2.10 2.39
-6.49 1.97 2.39
-6.53 1.84 2.39
-6.56 1.71 2.39
-6.60 1.58 2.39
-6.63 1.45 2.39
-6.65 1.32 2.39
-6.68 1.18 2.39
-6.70 1.05 2.39
-6.72 0.91 2.39
-6.74 0.78 2.39
-6.76 0.64 2.39
-6.77 0.51 2.39
-6.78 0.37 2.39
-6.78 0.24 2.39
-6.79 0.10 2.39
-6.79 -0.03 2.39
-6.79 -0.17 2.39
-6.78 -0.31 2.39
-6.77 -0.44 2.39
-6.76 -0.58 2.39
-6.75 -0.71 2.39
-6.73 -0.85 2.39
-6.72 -0.98 2.39
-6.69 -1.12 2.39
-6.67 -1.25 2.39
-6.64 -1.39 2.39
-6.61 -1.52 2.39
-6.58 -1.65 2.39
-6.55 -1.78 2.39
-6.51 -1.91 2.39
-6.47 -2.04 2.39
-6.43 -2.17 2.39
-6.38 -2.30 2.39
-6.33 -2.43 2.39
-6.28 -2.55 2.39
-6.23 -2.68 2.39
-6.18 -2.80 2.39
-6.12 -2.93 2.39
-6.12 -3.08 2.42
-6.12 -3.23 2.44
-6.12 -3.39 2.47
-6.11 -3.55 2.49
-6.04 -3.67 2.49
-5.97 -3.79 2.49
-5.89 -3.91 2.49
-5.81 -4.03 2.49
-5.72 -4.14 2.49
-5.64 -4.26 2.49
-5.55 -4.37 2.49
-5.46 -4.48 2.49
-5.37 -4.58 2.49
-5.28 -4.69 2.49
-5.18 -4.79 2.49
-5.08 -4.90 2.49
-4.98 -5.00 2.49
-4.88 -5.09 2.49
-4.78 -5.19 2.49
-4.67 -5.28 2.49
-4.56 -5.37 2.49
-4.45 -5.46 2.49
-4.34 -5.55 2.49
-4.23 -5.64 2.49
-4.11 -5.72 2.49
-4.00 -5.80 2.49
-3.88 -5.88 2.49
-3.76 -5.95 2.49
-3.64 -6.02 2.49
-3.52 -6.09 2.49
-3.39 -6.16 2.49
-3.27 -6.23 2.49
-3.14 -6.29 2.49
-3.01 -6.35 2.49
-2.88 -6.41 2.49
-2.75 -6.46 2.49
-2.62 -6.51 2.49
-2.49 -6.56 2.49
-2.36 -6.61 2.49
-2.23 -6.65 2.49
-2.09 -6.70 2.49
-1.96 -6.73 2.49
-1.82 -6.77 2.49
-1.68 -6.80 2.49
-1.55 -6.83 2.49
-1.41 -6.86 2.49
-1.27 -6.89 2.49
-1.13 -6.91 2.49
-0.99 -6.93 2.49
-0.85 -6.94 2.49
-0.71 -6.96 2.49
-0.57 -6.97 2.49
-0.43 -6.98 2.49
-0.29 -6.98 2.49
-0.15 -6.98 2.49
-0.01 -6.52 2.49
0.12 -6.51 2.49
0.25 -6.51 2.49
0.38 -6.50 2.49
0.51 -6.49 2.49
0.64 -6.48 2.49
0.77 -6.46 2.49
0.90 -6.44 2.49
1.03 -6.42 2.49
1.16 -6.40 2.49
1.28 -6.37 2.49
1.41 -6.34 2.49
1.54 -6.31 2.49
1.66 -6.28 2.49
1.79 -6.24 2.49
1.87 -6.06 2.44
1.95 -5.90 2.39
2.07 -5.86 2.39
2.19 -5.82 2.39
2.30 -5.77 2.39
2.42 -5.72 2.39
2.40 -5.38 2.27
2.51 -5.33 2.27
2.62 -5.28 2.27
2.72 -5.22 2.27
2.83 -5.18 2.27
2.93 -5.11 2.27
3.19 -5.32 2.39
3.29 -5.25 2.39
3.40 -5.18 2.39
3.50 -5.11 2.39
3.60 -5.04 2.39
3.70 -4.96 2.39
3.80 -4.89 2.39
3.90 -4.81 2.39
3.99 -4.73 2.39
4.08 -4.65 2.39
4.18 -4.56 2.39
4.27 -4.48 2.39
4.35 -4.39 2.39
4.44 -4.30 2.39
4.53 -4.21 2.39
4.61 -4.12 2.39
4.69 -4.02 2.39
4.77 -3.93 2.39
4.84 -3.83 2.39
4.92 -3.73 2.39
4.99 -3.63 2.39
5.06 -3.53 2.39
5.13 -3.42 2.39
5.20 -3.32 2.39
5.26 -3.21 2.39
5.33 -3.11 2.39
5.39 -3.00 2.39
5.45 -2.89 2.39
5.50 -2.78 2.39
5.56 -2.67 2.39
5.61 -2.55 2.39
5.66 -2.44 2.39
5.70 -2.33 2.39
5.75 -2.21 2.39
5.79 -2.09 2.39
5.83 -1.98 2.39
5.87 -1.86 2.39
5.91 -1.74 2.39
5.94 -1.62 2.39
5.97 -1.50 2.39
6.80 -1.57 2.71
6.82 -1.43 2.71
6.83 -1.29 2.70
6.84 -1.15 2.69
6.85 -1.01 2.69
6.87 -0.87 2.69
6.88 -0.73 2.69
6.89 -0.59 2.69
6.90 -0.45 2.69
6.91 -0.31 2.69
6.91 -0.17 2.69
6.92 -0.04 2.69
5.98 0.09 2.33
6.92 0.24 2.69
6.92 0.38 2.70
6.92 0.52 2.70
6.92 0.66 2.70
6.88 0.80 2.69
6.84 0.93 2.68
6.83 1.07 2.69
6.81 1.21 2.69
6.03 1.20 2.39
6.01 1.32 2.39
5.98 1.44 2.39
5.95 1.56 2.39
5.92 1.68 2.39
5.88 1.80 2.39
5.85 1.92 2.39
5.81 2.03 2.39
4.85 1.81 2.01
4.59 1.82 1.92
4.47 1.87 1.88
4.43 1.96 1.88
4.41 2.06 1.89
4.41 2.17 1.91
4.41 2.28 1.93
4.41 2.40 1.95
4.41 2.51 1.97
4.42 2.63 2.00
4.42 2.76 2.02
4.43 2.89 2.05
4.51 3.07 2.12
5.02 3.57 2.39
4.95 3.67 2.39
4.88 3.77 2.39
4.80 3.87 2.39
4.72 3.97 2.39
4.64 4.06 2.39
4.56 4.15 2.39
4.48 4.25 2.39
4.39 4.34 2.39
4.30 4.42 2.39
4.21 4.51 2.39
4.12 4.60 2.39
4.03 4.68 2.39
3.94 4.76 2.39
3.84 4.84 2.39
3.74 4.92 2.39
3.65 4.99 2.39
3.55 5.06 2.39
3.44 5.14 2.39
3.34 5.20 2.39
3.24 5.27 2.39
3.13 5.34 2.39
3.02 5.40 2.39
2.92 5.46 2.39
2.81 5.52 2.39
2.69 5.58 2.39
2.58 5.63 2.39
2.47 5.68 2.39
2.36 5.73 2.39
2.24 5.78 2.39
2.14 5.86 2.41
2.09 6.12 2.49
1.97 6.16 2.49
1.85 6.20 2.49
1.72 6.24 2.49
1.60 6.28 2.49
1.47 6.31 2.49
1.34 6.34 2.49
1.22 6.37 2.49
1.09 6.39 2.49
0.96 6.41 2.49
0.83 6.43 2.49
0.70 6.45 2.49
0.57 6.47 2.49
0.44 6.48 2.49
0.31 6.49 2.49
0.18 6.49 2.49
0.05 6.50 2.49
-0.08 6.50 2.49
-0.21 6.50 2.49
-0.34 6.50 2.49
-0.47 6.49 2.49
-0.60 6.48 2.49
-0.73 6.47 2.49
-0.86 6.46 2.49
-0.99 6.44 2.49
-1.12 6.42 2.49
-1.25 6.40 2.49
-1.38 6.37 2.49
-1.50 6.35 2.49
-1.63 6.32 2.49
-1.76 6.28 2.49
