ply
format ascii 1.0
element vertex 2983
property float32 x
property float32 y
property float32 z
end_header
4.88 -8.17 2.39
5.04 -8.06 2.39
5.19 -7.95 2.39
5.34 -7.83 2.39
5.49 -7.72 2.39
5.64 -7.60 2.39
5.78 -7.47 2.39
5.93 -7.35 2.39
6.06 -7.22 2.39
6.20 -7.09 2.39
6.32 -6.93 2.39
30.13 -30.51 10.94
29.74 -28.93 10.59
29.77 -27.82 10.42
6.28 -5.64 2.16
6.27 -5.41 2.12
34.61 -28.65 11.53
6.27 -4.98 2.06
35.76 -27.26 11.57
36.96 -27.02 11.79
37.29 -26.13 11.74
37.62 -25.25 11.70
35.44 -22.77 10.89
6.28 -3.86 1.91
39.13 -22.98 11.76
39.75 -22.28 11.83
40.30 -21.54 11.87
40.73 -20.73 11.89
41.12 -19.89 11.90
6.24 -2.87 1.79
41.86 -18.22 11.92
42.15 -17.34 11.92
6.23 -2.42 1.75
41.28 -15.08 11.52
42.35 -14.51 11.75
6.23 -2.00 1.72
42.32 -12.62 11.62
42.27 -11.69 11.55
42.26 -10.78 11.50
42.29 -9.89 11.47
42.37 -9.01 11.45
42.43 -8.14 11.43
42.61 -7.29 11.45
42.80 -6.43 11.48
6.23 -0.81 1.67
16.60 -1.82 4.44
15.89 -1.42 4.25
15.13 -1.04 4.04
14.52 -0.71 3.88
14.03 -0.40 3.75
13.64 -0.12 3.65
13.26 0.15 3.55
12.86 0.41 3.45
12.59 0.65 3.38
12.40 0.89 3.34
12.22 1.13 3.30
6.19 0.70 1.68
11.91 1.59 3.23
6.20 0.95 1.69
11.68 2.04 3.20
11.56 2.26 3.18
11.45 2.47 3.16
11.28 2.68 3.13
11.08 2.87 3.10
6.20 1.74 1.74
10.81 3.27 3.06
10.69 3.47 3.05
6.17 2.14 1.77
10.44 3.86 3.02
10.32 4.05 3.01
10.21 4.24 3.01
10.13 4.46 3.01
6.18 2.86 1.85
6.17 3.01 1.87
9.88 5.08 3.03
9.79 5.28 3.04
9.67 5.47 3.04
6.17 3.66 1.96
9.41 5.84 3.03
9.21 5.97 3.00
6.16 4.17 2.03
8.59 6.07 2.88
8.28 6.11 2.82
7.98 6.14 2.76
7.69 6.17 2.70
7.40 6.19 2.65
7.20 6.27 2.62
6.14 5.56 2.27
6.89 6.50 2.60
6.73 6.61 2.59
6.09 6.23 2.39
5.96 6.35 2.39
5.83 6.47 2.39
5.69 6.58 2.39
5.56 6.69 2.39
5.42 6.80 2.39
5.28 6.91 2.39
5.14 7.01 2.39
5.00 7.12 2.39
4.86 7.21 2.39
4.71 7.31 2.39
4.56 7.40 2.39
4.41 7.49 2.39
4.26 7.58 2.39
4.11 7.67 2.39
3.95 7.75 2.39
3.79 7.83 2.39
3.64 7.90 2.39
3.48 7.98 2.39
3.15 7.64 2.27
3.02 7.76 2.29
2.94 8.04 2.35
2.78 8.10 2.35
2.52 7.87 2.27
2.43 8.12 2.33
2.32 8.40 2.39
2.16 8.45 2.39
2.06 8.81 2.48
1.89 8.90 2.50
1.71 8.94 2.50
1.53 8.98 2.50
1.35 9.01 2.50
1.17 9.04 2.50
0.99 9.07 2.50
0.81 9.09 2.50
0.62 9.11 2.50
0.44 9.13 2.50
0.26 9.14 2.50
0.07 9.15 2.50
-0.11 9.15 2.50
-0.30 9.15 2.50
-0.48 9.15 2.50
-0.66 9.15 2.50
-0.85 9.14 2.50
-1.03 9.13 2.50
-1.22 9.11 2.50
-1.40 9.09 2.50
-1.59 9.07 2.50
-1.77 9.04 2.50
-1.95 9.01 2.50
-2.14 8.98 2.50
-2.32 8.94 2.50
-2.50 8.90 2.50
-2.68 8.85 2.50
-2.86 8.81 2.50
-3.04 8.76 2.50
-3.22 8.70 2.50
-3.40 8.64 2.50
-3.57 8.58 2.50
-3.75 8.52 2.50
-3.92 8.45 2.50
-4.10 8.38 2.50
-4.27 8.30 2.50
-4.44 8.22 2.50
-4.61 8.14 2.50
-4.78 8.05 2.50
-4.94 7.96 2.50
-5.11 7.87 2.50
-5.27 7.78 2.50
-5.43 7.68 2.50
-5.59 7.57 2.50
-5.75 7.47 2.50
-5.91 7.36 2.50
-5.97 7.14 2.46
-5.97 6.86 2.40
-6.10 6.73 2.39
-6.24 6.61 2.39
-6.38 6.49 2.39
-6.51 6.37 2.39
-6.65 6.24 2.39
-6.78 6.12 2.39
-6.91 5.99 2.39
-7.04 5.85 2.39
-7.16 5.72 2.39
-7.29 5.58 2.39
-7.41 5.44 2.39
-7.52 5.30 2.39
-7.64 5.15 2.39
-7.75 5.00 2.39
-7.86 4.85 2.39
-7.96 4.70 2.39
-8.07 4.54 2.39
-8.17 4.39 2.39
-8.26 4.23 2.39
-8.36 4.07 2.39
-8.45 3.90 2.39
-8.53 3.74 2.39
-8.62 3.57 2.39
-8.70 3.40 2.39
-8.78 3.23 2.39
-8.85 3.06 2.39
-8.92 2.88 2.39
-8.99 2.71 2.39
-9.05 2.53 2.39
-9.11 2.35 2.39
-9.17 2.17 2.39
-9.22 1.99 2.39
-9.27 1.80 2.39
-6.03 1.05 1.55
-9.36 1.43 2.39
-9.39 1.25 2.39
-9.43 1.06 2.39
-9.46 0.87 2.39
-9.49 0.68 2.39
-9.51 0.49 2.39
-9.53 0.30 2.39
-9.54 0.11 2.39
-9.55 -0.08 2.39
-9.56 -0.27 2.39
-9.56 -0.46 2.39
-9.56 -0.65 2.39
-9.56 -0.85 2.39
-9.55 -1.04 2.39
-9.53 -1.23 2.39
-9.52 -1.42 2.39
-9.50 -1.62 2.39
-9.47 -1.81 2.39
-9.44 -2.00 2.39
-9.41 -2.19 2.39
-9.37 -2.38 2.39
-9.33 -2.57 2.39
-9.29 -2.76 2.39
-9.24 -2.94 2.39
-9.18 -3.13 2.39
-9.13 -3.32 2.39
-9.07 -3.50 2.39
-9.00 -3.69 2.39
-8.93 -3.87 2.39
-8.86 -4.05 2.39
-8.78 -4.23 2.39
-8.70 -4.41 2.39
-8.62 -4.58 2.39
-8.53 -4.76 2.39
-8.44 -4.93 2.39
-8.34 -5.10 2.39
-8.25 -5.27 2.39
-8.14 -5.44 2.39
-8.04 -5.60 2.39
-7.93 -5.77 2.39
-7.81 -5.93 2.39
-7.70 -6.08 2.39
-7.58 -6.24 2.39
-7.46 -6.39 2.39
-7.33 -6.54 2.39
-7.20 -6.69 2.39
-7.07 -6.84 2.39
-6.93 -6.98 2.39
-6.79 -7.12 2.39
-6.65 -7.25 2.39
-6.51 -7.39 2.39
-6.36 -7.52 2.39
-6.21 -7.64 2.39
-6.05 -7.77 2.39
-5.90 -7.89 2.39
-5.78 -8.06 2.41
-5.77 -8.40 2.47
-5.65 -8.58 2.50
-5.48 -8.70 2.50
-5.30 -8.80 2.50
-5.13 -8.91 2.50
-4.95 -9.01 2.50
-4.76 -9.11 2.50
-4.58 -9.20 2.50
-4.40 -9.29 2.50
-4.21 -9.37 2.50
-4.02 -9.45 2.50
-3.83 -9.53 2.50
-3.64 -9.60 2.50
-3.44 -9.67 2.50
-3.25 -9.73 2.50
-3.05 -9.79 2.50
-2.85 -9.85 2.50
-2.66 -9.90 2.50
-2.46 -9.95 2.50
-2.26 -9.99 2.50
-2.05 -10.03 2.50
-1.85 -10.06 2.50
-1.65 -10.09 2.50
-1.45 -10.12 2.50
-1.24 -10.14 2.50
-1.04 -10.16 2.50
-0.84 -10.17 2.50
-0.63 -10.18 2.50
-0.43 -10.18 2.50
-0.22 -10.18 2.50
-0.02 -9.27 2.50
0.16 -9.26 2.50
0.35 -9.25 2.50
0.53 -9.24 2.50
0.72 -9.22 2.50
0.90 -9.20 2.50
1.09 -9.17 2.50
1.27 -9.14 2.50
1.45 -9.10 2.50
1.63 -9.07 2.50
1.81 -9.03 2.50
1.99 -8.98 2.50
2.17 -8.93 2.50
2.28 -8.66 2.43
2.41 -8.46 2.39
2.58 -8.40 2.39
2.63 -7.99 2.29
2.76 -7.85 2.27
3.02 -8.07 2.35
3.18 -8.00 2.35
3.22 -7.66 2.27
3.55 -7.98 2.39
3.70 -7.90 2.39
3.86 -7.82 2.39
4.01 -7.73 2.39
4.16 -7.64 2.39
4.31 -7.55 2.39
4.45 -7.46 2.39
4.60 -7.36 2.39
4.74 -7.26 2.39
4.88 -7.15 2.39
5.01 -7.05 2.39
5.15 -6.94 2.39
5.28 -6.82 2.39
5.41 -6.71 2.39
5.54 -6.59 2.39
5.66 -6.47 2.39
5.78 -6.35 2.39
5.90 -6.23 2.39
6.02 -6.10 2.39
6.13 -5.97 2.39
6.24 -5.84 2.39
30.42 -27.33 11.45
6.27 -5.41 2.32
30.20 -25.02 11.01
6.28 -4.99 2.26
34.42 -26.26 12.18
34.74 -25.42 12.13
35.05 -24.58 12.08
6.26 -4.21 2.13
35.50 -22.83 11.93
6.27 -3.86 2.08
36.20 -21.27 11.90
36.57 -20.52 11.90
6.25 -3.34 2.01
37.24 -18.97 11.89
6.25 -3.02 1.98
38.03 -17.48 11.93
38.58 -16.81 12.01
39.25 -16.17 12.13
6.23 -2.42 1.91
40.35 -14.75 12.30
40.52 -13.90 12.28
40.75 -13.07 12.28
40.88 -12.21 12.26
6.23 -1.73 1.86
6.23 -1.59 1.85
6.23 -1.46 1.84
17.80 -3.79 5.25
16.93 -3.25 4.98
16.28 -2.79 4.78
15.60 -2.35 4.57
6.21 -0.81 1.82
14.12 -1.55 4.12
13.59 -1.22 3.96
13.02 -0.90 3.79
6.21 -0.30 1.81
12.31 -0.36 3.59
12.01 -0.11 3.50
6.21 0.07 1.81
11.70 0.37 3.42
11.54 0.60 3.38
11.34 0.81 3.33
11.06 1.02 3.25
6.19 0.70 1.83
10.74 1.43 3.18
10.59 1.62 3.15
10.44 1.82 3.11
10.28 2.00 3.08
6.19 1.34 1.86
6.19 1.47 1.87
9.96 2.57 3.03
9.86 2.76 3.02
9.75 2.94 3.01
9.63 3.12 2.99
6.17 2.14 1.93
9.44 3.48 2.98
9.38 3.68 2.98
9.25 3.84 2.97
6.18 2.71 2.00
8.88 4.12 2.90
8.68 4.24 2.87
8.48 4.35 2.83
6.17 3.33 2.08
8.09 4.57 2.76
6.17 3.66 2.14
7.68 4.76 2.69
7.47 4.85 2.65
7.29 4.93 2.62
7.18 5.08 2.62
6.15 4.54 2.28
6.95 5.35 2.62
6.82 5.47 2.61
6.68 5.58 2.60
6.04 5.26 2.39
5.93 5.38 2.39
5.82 5.49 2.39
5.71 5.61 2.39
5.59 5.72 2.39
5.47 5.83 2.39
5.35 5.94 2.39
5.23 6.04 2.39
5.11 6.15 2.39
4.98 6.25 2.39
4.85 6.35 2.39
4.72 6.44 2.39
4.59 6.54 2.39
4.46 6.63 2.39
4.33 6.72 2.39
4.19 6.80 2.39
4.05 6.88 2.39
3.91 6.96 2.39
3.77 7.04 2.39
3.63 7.12 2.39
3.48 7.19 2.39
3.34 7.26 2.39
3.03 6.95 2.27
2.89 7.01 2.27
2.75 7.07 2.27
2.70 7.39 2.35
2.46 7.18 2.27
2.43 7.59 2.38
2.29 7.67 2.39
2.13 7.71 2.39
2.06 8.09 2.50
1.90 8.14 2.50
1.74 8.18 2.50
1.57 8.21 2.50
1.41 8.24 2.50
1.24 8.28 2.50
1.07 8.30 2.50
0.91 8.33 2.50
0.74 8.35 2.50
0.57 8.36 2.50
0.40 8.38 2.50
0.23 8.39 2.50
0.07 8.40 2.50
-0.10 8.40 2.50
-0.27 8.40 2.50
-0.44 8.40 2.50
-0.61 8.40 2.50
-0.78 8.39 2.50
-0.95 8.38 2.50
-1.12 8.36 2.50
-1.29 8.34 2.50
-1.46 8.32 2.50
-1.63 8.30 2.50
-1.79 8.27 2.50
-1.96 8.24 2.50
-2.13 8.20 2.50
-2.30 8.16 2.50
-2.46 8.12 2.50
-2.63 8.08 2.50
-2.79 8.03 2.50
-2.95 7.98 2.50
-3.12 7.93 2.50
-3.28 7.87 2.50
-3.44 7.81 2.50
-3.60 7.74 2.50
-3.76 7.68 2.50
-3.92 7.61 2.50
-4.07 7.53 2.50
-4.23 7.46 2.50
-4.38 7.38 2.50
-4.53 7.30 2.50
-4.68 7.21 2.50
-4.83 7.12 2.50
-4.98 7.03 2.50
-5.13 6.94 2.50
-5.27 6.84 2.50
-5.41 6.74 2.50
-5.55 6.64 2.50
-5.69 6.53 2.50
-5.83 6.42 2.50
-5.96 6.31 2.49
-5.95 6.05 2.44
-5.97 5.83 2.39
-6.09 5.71 2.39
-6.21 5.60 2.39
-6.33 5.48 2.39
-6.44 5.36 2.39
-6.56 5.23 2.39
-6.67 5.10 2.39
-6.78 4.97 2.39
-6.88 4.84 2.39
-6.99 4.71 2.39
-7.09 4.57 2.39
-7.19 4.44 2.39
-7.28 4.30 2.39
-7.38 4.15 2.39
-7.47 4.01 2.39
-7.56 3.86 2.39
-7.64 3.71 2.39
-7.72 3.56 2.39
-7.80 3.41 2.39
-7.88 3.26 2.39
-7.95 3.10 2.39
-8.02 2.95 2.39
-8.09 2.79 2.39
-8.15 2.63 2.39
-8.21 2.47 2.39
-8.27 2.31 2.39
-8.32 2.14 2.39
-8.37 1.98 2.39
-8.42 1.81 2.39
-8.46 1.64 2.39
-6.02 1.04 1.69
-8.54 1.31 2.39
-8.58 1.14 2.39
-8.61 0.96 2.39
-8.63 0.79 2.39
-8.66 0.62 2.39
-8.68 0.45 2.39
-8.69 0.27 2.39
-8.71 0.10 2.39
-8.71 -0.07 2.39
-8.72 -0.25 2.39
-8.72 -0.42 2.39
-8.72 -0.60 2.39
-8.72 -0.77 2.39
-8.71 -0.95 2.39
-8.69 -1.13 2.39
-8.68 -1.30 2.39
-8.66 -1.47 2.39
-8.63 -1.65 2.39
-8.61 -1.82 2.39
-8.58 -2.00 2.39
-8.54 -2.17 2.39
-8.50 -2.34 2.39
-8.46 -2.51 2.39
-8.42 -2.69 2.39
-8.37 -2.86 2.39
-8.32 -3.02 2.39
-8.26 -3.19 2.39
-8.20 -3.36 2.39
-8.14 -3.53 2.39
-8.07 -3.69 2.39
-8.00 -3.85 2.39
-7.93 -4.02 2.39
-7.85 -4.18 2.39
-7.77 -4.33 2.39
-7.69 -4.49 2.39
-7.60 -4.65 2.39
-7.51 -4.80 2.39
-7.41 -4.95 2.39
-7.32 -5.10 2.39
-7.22 -5.25 2.39
-7.11 -5.40 2.39
-7.01 -5.54 2.39
-6.90 -5.68 2.39
-6.79 -5.82 2.39
-6.67 -5.96 2.39
-6.55 -6.09 2.39
-6.43 -6.22 2.39
-6.31 -6.35 2.39
-6.18 -6.48 2.39
-6.05 -6.60 2.39
-5.92 -6.72 2.39
-5.80 -6.86 2.40
-5.79 -7.12 2.45
-5.75 -7.37 2.50
-5.60 -7.49 2.50
-5.45 -7.60 2.50
-5.30 -7.71 2.50
-5.14 -7.81 2.50
-4.98 -7.91 2.50
-4.83 -8.01 2.50
-4.66 -8.11 2.50
-4.50 -8.20 2.50
-4.34 -8.29 2.50
-4.17 -8.37 2.50
-4.00 -8.45 2.50
-3.83 -8.53 2.50
-3.66 -8.60 2.50
-3.49 -8.67 2.50
-3.31 -8.74 2.50
-3.13 -8.80 2.50
-2.96 -8.86 2.50
-2.78 -8.91 2.50
-2.60 -8.96 2.50
-2.42 -9.01 2.50
-2.24 -9.06 2.50
-2.05 -9.09 2.50
-1.87 -9.13 2.50
-1.69 -9.16 2.50
-1.50 -9.19 2.50
-1.32 -9.21 2.50
-1.13 -9.23 2.50
-0.95 -9.25 2.50
-0.76 -9.26 2.50
-0.58 -9.27 2.50
-0.39 -9.27 2.50
-0.21 -9.28 2.50
-0.02 -8.50 2.50
0.15 -8.50 2.50
0.32 -8.49 2.50
0.49 -8.47 2.50
0.66 -8.46 2.50
0.83 -8.44 2.50
0.99 -8.41 2.50
1.16 -8.39 2.50
1.33 -8.35 2.50
1.49 -8.32 2.50
1.66 -8.28 2.50
1.82 -8.24 2.50
1.99 -8.20 2.50
2.15 -8.15 2.50
2.27 -7.97 2.46
2.37 -7.71 2.39
2.52 -7.66 2.39
2.62 -7.47 2.35
2.67 -7.15 2.27
2.92 -7.35 2.35
3.06 -7.28 2.35
3.20 -7.20 2.35
3.23 -6.89 2.27
3.54 -7.18 2.39
3.68 -7.11 2.39
3.82 -7.02 2.39
3.95 -6.94 2.39
4.09 -6.85 2.39
4.22 -6.76 2.39
4.35 -6.67 2.39
4.48 -6.57 2.39
4.60 -6.48 2.39
4.73 -6.38 2.39
4.85 -6.27 2.39
4.97 -6.17 2.39
5.09 -6.06 2.39
5.20 -5.95 2.39
5.31 -5.84 2.39
5.43 -5.73 2.39
5.53 -5.61 2.39
5.64 -5.49 2.39
5.74 -5.37 2.39
5.84 -5.25 2.39
5.94 -5.13 2.39
6.03 -5.00 2.39
6.13 -4.88 2.39
6.22 -4.75 2.39
7.38 -5.40 2.80
7.42 -5.21 2.78
28.50 -19.16 10.54
29.37 -18.90 10.73
6.26 -3.85 2.26
34.44 -20.26 12.30
34.65 -19.45 12.25
34.86 -18.66 12.20
35.11 -17.90 12.17
35.31 -17.11 12.13
35.52 -16.35 12.10
6.24 -2.72 2.11
36.09 -14.88 12.11
6.23 -2.42 2.08
37.44 -13.71 12.39
18.91 -6.50 6.22
17.72 -5.69 5.80
6.23 -1.86 2.03
16.85 -4.67 5.46
16.21 -4.15 5.23
15.64 -3.67 5.03
14.74 -3.15 4.72
14.27 -2.75 4.56
13.64 -2.34 4.34
12.96 -1.96 4.12
6.21 -0.81 1.97
12.06 -1.33 3.82
11.74 -1.06 3.71
11.42 -0.80 3.61
11.15 -0.55 3.52
10.88 -0.32 3.44
10.61 -0.10 3.35
10.35 0.11 3.27
10.21 0.32 3.24
10.08 0.52 3.20
9.95 0.71 3.17
9.82 0.90 3.13
6.19 0.69 1.98
9.55 1.27 3.06
9.46 1.45 3.04
9.38 1.63 3.03
6.19 1.20 2.01
8.96 1.93 2.92
8.74 2.07 2.87
8.52 2.20 2.81
6.19 1.73 2.05
8.20 2.47 2.74
8.06 2.61 2.71
6.17 2.14 2.09
7.76 2.86 2.65
7.61 2.98 2.62
7.45 3.09 2.59
7.32 3.21 2.57
7.24 3.35 2.56
7.17 3.50 2.57
7.10 3.64 2.57
6.17 3.32 2.26
6.16 3.48 2.28
6.18 3.66 2.31
6.78 4.20 2.57
6.69 4.34 2.57
6.60 4.47 2.57
6.05 4.28 2.39
5.96 4.40 2.39
5.87 4.51 2.39
5.77 4.63 2.39
5.68 4.74 2.39
5.58 4.86 2.39
5.48 4.97 2.39
5.38 5.07 2.39
5.27 5.18 2.39
5.16 5.28 2.39
5.06 5.39 2.39
4.95 5.49 2.39
4.83 5.58 2.39
4.72 5.68 2.39
4.60 5.77 2.39
4.48 5.86 2.39
4.36 5.95 2.39
4.24 6.04 2.39
4.12 6.12 2.39
4.00 6.20 2.39
3.87 6.28 2.39
3.74 6.36 2.39
3.61 6.43 2.39
3.48 6.51 2.39
3.35 6.57 2.39
3.22 6.64 2.39
3.08 6.71 2.39
2.95 6.77 2.39
2.81 6.83 2.39
2.67 6.88 2.39
2.52 6.89 2.38
2.40 6.99 2.39
2.27 7.09 2.41
2.11 7.08 2.39
2.06 7.43 2.50
1.91 7.48 2.50
1.75 7.51 2.50
1.60 7.55 2.50
1.45 7.58 2.50
1.30 7.61 2.50
1.15 7.64 2.50
0.99 7.67 2.50
0.84 7.69 2.50
0.68 7.71 2.50
0.53 7.72 2.50
0.37 7.74 2.50
0.22 7.75 2.50
0.06 7.75 2.50
-0.10 7.76 2.50
-0.25 7.76 2.50
-0.41 7.76 2.50
-0.57 7.75 2.50
-0.72 7.74 2.50
-0.88 7.73 2.50
-1.04 7.72 2.50
-1.19 7.70 2.50
-1.35 7.68 2.50
-1.50 7.66 2.50
-1.66 7.63 2.50
-1.81 7.60 2.50
-1.97 7.57 2.50
-2.12 7.53 2.50
-2.27 7.49 2.50
-2.43 7.45 2.50
-2.58 7.41 2.50
-2.73 7.36 2.50
-2.88 7.31 2.50
-3.03 7.26 2.50
-3.18 7.20 2.50
-3.32 7.14 2.50
-3.47 7.08 2.50
-3.61 7.01 2.50
-3.76 6.95 2.50
-3.90 6.88 2.50
-4.04 6.80 2.50
-4.18 6.73 2.50
-4.32 6.65 2.50
-4.46 6.57 2.50
-4.59 6.48 2.50
-4.73 6.39 2.50
-4.86 6.30 2.50
-4.99 6.21 2.50
-5.12 6.11 2.50
-5.25 6.02 2.50
-5.37 5.92 2.50
-5.49 5.81 2.50
-5.62 5.71 2.50
-5.74 5.60 2.50
-5.85 5.49 2.50
-5.94 5.35 2.49
-5.94 5.14 2.44
-5.95 4.94 2.40
-6.04 4.81 2.39
-6.15 4.70 2.39
-6.24 4.58 2.39
-6.34 4.46 2.39
-6.44 4.33 2.39
-6.53 4.21 2.39
-6.62 4.08 2.39
-6.71 3.95 2.39
-6.79 3.82 2.39
-6.87 3.69 2.39
-6.95 3.55 2.39
-7.03 3.41 2.39
-7.11 3.28 2.39
-7.18 3.14 2.39
-7.25 3.00 2.39
-7.31 2.85 2.39
-7.38 2.71 2.39
-7.44 2.56 2.39
-7.50 2.42 2.39
-7.55 2.27 2.39
-7.60 2.12 2.39
-7.65 1.97 2.39
-7.70 1.81 2.39
-7.74 1.66 2.39
-7.78 1.51 2.39
-6.02 1.04 1.84
-7.85 1.20 2.39
-7.88 1.04 2.39
-7.91 0.88 2.39
-7.93 0.73 2.39
-7.95 0.57 2.39
-7.97 0.41 2.39
-7.99 0.25 2.39
-8.00 0.09 2.39
-8.00 -0.07 2.39
-8.01 -0.23 2.39
-8.01 -0.39 2.39
-8.01 -0.55 2.39
-8.00 -0.71 2.39
-7.99 -0.87 2.39
-7.98 -1.04 2.39
-7.97 -1.20 2.39
-7.95 -1.36 2.39
-7.92 -1.52 2.39
-7.90 -1.68 2.39
-7.87 -1.83 2.39
-7.84 -1.99 2.39
-7.80 -2.15 2.39
-7.76 -2.31 2.39
-7.72 -2.47 2.39
-7.68 -2.62 2.39
-7.63 -2.78 2.39
-7.58 -2.93 2.39
-7.52 -3.08 2.39
-7.46 -3.24 2.39
-7.40 -3.39 2.39
-7.34 -3.54 2.39
-7.27 -3.68 2.39
-7.20 -3.83 2.39
-7.12 -3.98 2.39
-7.05 -4.12 2.39
-6.97 -4.26 2.39
-6.88 -4.40 2.39
-6.80 -4.54 2.39
-6.71 -4.68 2.39
-6.62 -4.81 2.39
-6.52 -4.95 2.39
-6.42 -5.08 2.39
-6.32 -5.21 2.39
-6.22 -5.34 2.39
-6.12 -5.46 2.39
-6.02 -5.59 2.40
-5.90 -5.70 2.39
-5.81 -5.85 2.40
-5.80 -6.08 2.45
-5.79 -6.31 2.50
-5.66 -6.43 2.50
-5.53 -6.54 2.50
-5.40 -6.65 2.50
-5.27 -6.76 2.50
-5.13 -6.87 2.50
-4.99 -6.97 2.50
-4.86 -7.07 2.50
-4.71 -7.16 2.50
-4.57 -7.25 2.50
-4.42 -7.34 2.50
-4.28 -7.43 2.50
-4.13 -7.52 2.50
-3.97 -7.60 2.50
-3.82 -7.67 2.50
-3.67 -7.75 2.50
-3.51 -7.82 2.50
-3.35 -7.88 2.50
-3.20 -7.95 2.50
-3.04 -8.01 2.50
-2.87 -8.07 2.50
-2.71 -8.12 2.50
-2.55 -8.17 2.50
-2.38 -8.22 2.50
-2.22 -8.26 2.50
-2.05 -8.30 2.50
-1.88 -8.34 2.50
-1.72 -8.37 2.50
-1.55 -8.40 2.50
-1.38 -8.43 2.50
-1.21 -8.45 2.50
-1.04 -8.47 2.50
-0.87 -8.48 2.50
-0.70 -8.49 2.50
-0.53 -8.50 2.50
-0.36 -8.51 2.50
-0.19 -8.51 2.50
-0.02 -7.85 2.50
0.14 -7.84 2.50
0.29 -7.83 2.50
0.45 -7.82 2.50
0.60 -7.80 2.50
0.76 -7.79 2.50
0.92 -7.76 2.50
1.07 -7.74 2.50
1.22 -7.71 2.50
1.38 -7.68 2.50
1.53 -7.64 2.50
1.68 -7.61 2.50
1.83 -7.57 2.50
1.98 -7.52 2.50
2.13 -7.48 2.50
2.26 -7.39 2.48
2.32 -7.07 2.39
2.46 -7.02 2.39
2.60 -6.96 2.39
2.61 -6.59 2.28
2.72 -6.49 2.27
2.95 -6.66 2.35
3.08 -6.60 2.35
3.20 -6.50 2.34
3.22 -6.23 2.27
3.52 -6.49 2.39
3.65 -6.41 2.39
3.77 -6.33 2.39
3.90 -6.25 2.39
4.02 -6.16 2.39
4.14 -6.08 2.39
4.25 -5.99 2.39
4.37 -5.89 2.39
4.48 -5.80 2.39
4.59 -5.70 2.39
4.70 -5.61 2.39
4.81 -5.50 2.39
4.91 -5.40 2.39
5.01 -5.30 2.39
5.11 -5.19 2.39
5.21 -5.08 2.39
5.31 -4.97 2.39
5.40 -4.86 2.39
5.49 -4.74 2.39
5.58 -4.63 2.39
5.67 -4.51 2.39
5.75 -4.39 2.39
5.83 -4.27 2.39
5.91 -4.15 2.39
5.98 -4.03 2.39
6.06 -3.90 2.39
6.13 -3.78 2.39
6.20 -3.65 2.39
7.27 -4.09 2.78
7.30 -3.91 2.76
7.33 -3.74 2.74
7.35 -3.57 2.73
7.37 -3.40 2.71
6.24 -2.72 2.28
6.24 -2.58 2.26
6.23 -2.43 2.24
6.24 -2.29 2.23
15.34 -5.27 5.45
14.99 -4.82 5.30
13.91 -4.17 4.89
13.56 -3.77 4.74
13.03 -3.34 4.54
12.65 -2.97 4.39
12.16 -2.60 4.20
11.72 -2.26 4.04
11.40 -1.96 3.92
10.42 -1.58 3.57
6.21 -0.81 2.13
10.02 -1.11 3.42
6.22 -0.56 2.12
9.62 -0.67 3.28
9.51 -0.47 3.24
9.42 -0.28 3.21
8.11 -0.08 2.77
8.07 0.09 2.75
8.02 0.25 2.74
7.96 0.41 2.72
7.89 0.56 2.71
7.81 0.71 2.69
6.19 0.69 2.14
7.63 1.01 2.64
7.53 1.15 2.61
7.41 1.29 2.58
7.35 1.43 2.57
7.32 1.58 2.58
7.30 1.73 2.58
7.28 1.88 2.59
7.25 2.03 2.59
7.22 2.18 2.60
7.19 2.32 2.61
6.17 2.13 2.26
6.18 2.28 2.28
7.09 2.78 2.63
7.05 2.93 2.64
6.89 3.03 2.61
6.73 3.12 2.57
6.56 3.20 2.53
6.14 3.15 2.39
6.07 3.27 2.39
6.00 3.39 2.39
5.93 3.51 2.39
5.85 3.63 2.39
5.78 3.74 2.39
5.70 3.86 2.39
5.62 3.97 2.39
5.53 4.08 2.39
5.45 4.19 2.39
5.36 4.30 2.39
5.27 4.40 2.39
5.18 4.51 2.39
5.09 4.61 2.39
4.99 4.71 2.39
4.89 4.81 2.39
4.79 4.90 2.39
4.69 5.00 2.39
4.59 5.09 2.39
4.49 5.18 2.39
4.38 5.27 2.39
4.27 5.36 2.39
4.16 5.44 2.39
4.05 5.52 2.39
3.94 5.60 2.39
3.82 5.68 2.39
3.71 5.76 2.39
3.59 5.83 2.39
3.47 5.90 2.39
3.35 5.97 2.39
3.23 6.04 2.39
3.11 6.10 2.39
2.99 6.16 2.39
2.86 6.22 2.39
2.74 6.28 2.39
2.61 6.34 2.39
2.48 6.39 2.39
2.35 6.44 2.39
2.22 6.49 2.39
2.10 6.55 2.40
2.04 6.86 2.50
1.91 6.90 2.50
1.77 6.94 2.50
1.63 6.97 2.50
1.49 7.01 2.50
1.35 7.04 2.50
1.20 7.07 2.50
1.06 7.09 2.50
0.92 7.12 2.50
0.78 7.14 2.50
0.63 7.15 2.50
0.49 7.17 2.50
0.34 7.18 2.50
0.20 7.19 2.50
0.05 7.19 2.50
-0.09 7.20 2.50
-0.24 7.20 2.50
-0.38 7.20 2.50
-0.53 7.19 2.50
-0.67 7.18 2.50
-0.82 7.17 2.50
-0.96 7.16 2.50
-1.11 7.14 2.50
-1.25 7.12 2.50
-1.40 7.10 2.50
-1.54 7.08 2.50
-1.68 7.05 2.50
-1.83 7.02 2.50
-1.97 6.98 2.50
-2.11 6.95 2.50
-2.25 6.91 2.50
-2.39 6.87 2.50
-2.53 6.82 2.50
-2.67 6.78 2.50
-2.81 6.73 2.50
-2.95 6.67 2.50
-3.08 6.62 2.50
-3.22 6.56 2.50
-3.35 6.50 2.50
-3.48 6.44 2.50
-3.62 6.37 2.50
-3.75 6.30 2.50
-3.88 6.23 2.50
-4.01 6.16 2.50
-4.13 6.08 2.50
-4.26 6.00 2.50
-4.38 5.92 2.50
-4.50 5.84 2.50
-4.62 5.75 2.50
-4.74 5.66 2.50
-4.86 5.57 2.50
-4.98 5.48 2.50
-5.09 5.38 2.50
-5.20 5.28 2.50
-5.31 5.18 2.50
-5.42 5.08 2.50
-5.53 4.98 2.50
-5.63 4.87 2.50
-5.73 4.76 2.50
-5.84 4.65 2.50
-5.93 4.53 2.50
-5.93 4.35 2.45
-5.93 4.17 2.42
-5.96 4.01 2.39
-6.04 3.89 2.39
-6.14 3.78 2.40
-6.21 3.65 2.39
-6.28 3.53 2.39
-6.36 3.41 2.39
-6.43 3.28 2.39
-6.51 3.16 2.39
-6.57 3.03 2.39
-6.64 2.90 2.39
-6.70 2.77 2.39
-6.77 2.64 2.39
-6.82 2.50 2.39
-6.88 2.37 2.39
-6.93 2.23 2.39
-6.98 2.09 2.39
-7.03 1.96 2.39
-7.07 1.82 2.39
-7.12 1.68 2.39
-7.16 1.53 2.39
-7.19 1.39 2.39
-6.02 1.04 1.99
-7.26 1.10 2.39
-7.28 0.96 2.39
-7.31 0.81 2.39
-7.33 0.67 2.39
-7.35 0.52 2.39
-7.36 0.37 2.39
-7.38 0.23 2.39
-7.39 0.08 2.39
-7.39 -0.07 2.39
-7.40 -0.22 2.39
-7.40 -0.36 2.39
-7.39 -0.51 2.39
-7.39 -0.66 2.39
-7.38 -0.81 2.39
-7.37 -0.96 2.39
-7.35 -1.11 2.39
-7.34 -1.25 2.39
-7.32 -1.40 2.39
-7.29 -1.55 2.39
-7.26 -1.70 2.39
-7.23 -1.84 2.39
-7.20 -1.99 2.39
-7.17 -2.13 2.39
-7.13 -2.28 2.39
-7.08 -2.42 2.39
-7.04 -2.56 2.39
-6.99 -2.71 2.39
-6.94 -2.85 2.39
-6.89 -2.99 2.39
-6.83 -3.13 2.39
-6.77 -3.26 2.39
-6.71 -3.40 2.39
-6.64 -3.54 2.39
-6.57 -3.67 2.39
-6.50 -3.80 2.39
-6.43 -3.93 2.39
-6.35 -4.06 2.39
-6.27 -4.19 2.39
-6.19 -4.32 2.39
-6.10 -4.44 2.39
-6.03 -4.58 2.40
-5.92 -4.69 2.39
-5.83 -4.80 2.39
-5.82 -4.99 2.43
-5.81 -5.19 2.46
-5.78 -5.37 2.50
-5.67 -5.49 2.50
-5.56 -5.60 2.50
-5.45 -5.71 2.50
-5.34 -5.82 2.50
-5.22 -5.93 2.50
-5.10 -6.03 2.50
-4.98 -6.13 2.50
-4.86 -6.23 2.50
-4.73 -6.33 2.50
-4.61 -6.42 2.50
-4.48 -6.52 2.50
-4.35 -6.60 2.50
-4.21 -6.69 2.50
-4.08 -6.77 2.50
-3.94 -6.85 2.50
-3.80 -6.93 2.50
-3.67 -7.00 2.50
-3.52 -7.07 2.50
-3.38 -7.14 2.50
-3.24 -7.21 2.50
-3.09 -7.27 2.50
-2.95 -7.33 2.50
-2.80 -7.39 2.50
-2.65 -7.44 2.50
-2.50 -7.49 2.50
-2.35 -7.54 2.50
-2.20 -7.58 2.50
-2.05 -7.62 2.50
-1.89 -7.66 2.50
-1.74 -7.69 2.50
-1.58 -7.72 2.50
-1.43 -7.75 2.50
-1.27 -7.77 2.50
-1.12 -7.79 2.50
-0.96 -7.81 2.50
-0.81 -7.82 2.50
-0.65 -7.83 2.50
-0.49 -7.84 2.50
-0.33 -7.85 2.50
-0.18 -7.85 2.50
-0.02 -7.27 2.50
0.12 -7.27 2.50
0.27 -7.26 2.50
0.41 -7.25 2.50
0.56 -7.24 2.50
0.70 -7.22 2.50
0.85 -7.20 2.50
0.99 -7.18 2.50
1.13 -7.15 2.50
1.27 -7.12 2.50
1.42 -7.09 2.50
1.56 -7.06 2.50
1.70 -7.02 2.50
1.83 -6.98 2.50
1.97 -6.94 2.50
2.11 -6.89 2.50
2.25 -6.84 2.50
2.28 -6.51 2.39
2.41 -6.46 2.39
2.54 -6.40 2.39
2.61 -6.22 2.34
2.64 -5.97 2.27
2.86 -6.12 2.35
2.98 -6.06 2.35
3.10 -5.99 2.35
3.19 -5.88 2.33
3.21 -5.65 2.27
3.50 -5.88 2.39
3.62 -5.80 2.39
3.73 -5.72 2.39
3.84 -5.64 2.39
3.95 -5.56 2.39
4.05 -5.47 2.39
4.16 -5.39 2.39
4.26 -5.30 2.39
4.36 -5.21 2.39
4.46 -5.11 2.39
4.56 -5.02 2.39
4.66 -4.92 2.39
4.75 -4.82 2.39
4.84 -4.72 2.39
4.93 -4.62 2.39
5.02 -4.52 2.39
5.10 -4.41 2.39
5.18 -4.30 2.39
5.26 -4.19 2.39
5.34 -4.08 2.39
5.42 -3.97 2.39
5.49 -3.86 2.39
5.56 -3.74 2.39
5.63 -3.63 2.39
5.70 -3.51 2.39
5.76 -3.39 2.39
5.82 -3.27 2.39
5.88 -3.15 2.39
5.94 -3.03 2.39
5.99 -2.91 2.39
6.04 -2.79 2.39
6.09 -2.66 2.39
6.14 -2.54 2.39
6.18 -2.41 2.39
7.12 -2.61 2.74
7.14 -2.46 2.73
7.15 -2.30 2.72
7.17 -2.15 2.71
7.18 -2.00 2.70
7.19 -1.84 2.69
7.19 -1.69 2.68
7.20 -1.54 2.68
7.20 -1.39 2.67
7.21 -1.24 2.66
7.21 -1.09 2.66
6.21 -0.82 2.28
6.22 -0.69 2.28
6.21 -0.56 2.28
6.21 -0.44 2.28
6.21 -0.31 2.28
6.21 -0.19 2.27
6.21 -0.06 2.27
6.21 0.06 2.28
6.21 0.19 2.28
6.20 0.31 2.28
7.16 0.51 2.64
7.15 0.65 2.64
6.19 0.69 2.29
7.12 0.94 2.64
7.10 1.08 2.65
7.07 1.22 2.65
7.05 1.37 2.65
7.03 1.51 2.66
7.01 1.66 2.66
6.98 1.80 2.67
6.96 1.94 2.67
6.93 2.09 2.68
6.14 1.98 2.39
6.10 2.11 2.39
6.05 2.23 2.39
6.00 2.35 2.39
5.95 2.47 2.39
5.89 2.59 2.39
5.84 2.70 2.39
5.78 2.82 2.39
5.72 2.93 2.39
5.66 3.05 2.39
5.59 3.16 2.39
5.52 3.27 2.39
5.45 3.38 2.39
5.38 3.49 2.39
5.31 3.59 2.39
5.23 3.70 2.39
5.16 3.80 2.39
5.08 3.90 2.39
5.00 4.00 2.39
4.91 4.10 2.39
4.83 4.20 2.39
4.74 4.29 2.39
4.65 4.39 2.39
4.56 4.48 2.39
4.47 4.57 2.39
4.37 4.66 2.39
4.28 4.74 2.39
4.18 4.83 2.39
4.08 4.91 2.39
3.98 4.99 2.39
3.88 5.07 2.39
3.78 5.15 2.39
3.67 5.22 2.39
3.56 5.30 2.39
3.46 5.37 2.39
3.35 5.44 2.39
3.24 5.50 2.39
3.13 5.57 2.39
3.01 5.63 2.39
2.90 5.69 2.39
2.78 5.75 2.39
2.67 5.80 2.39
2.55 5.85 2.39
2.43 5.91 2.39
2.31 5.95 2.39
2.19 6.00 2.39
2.10 6.12 2.42
2.03 6.35 2.50
1.91 6.39 2.50
1.78 6.43 2.50
1.65 6.47 2.50
1.52 6.50 2.50
1.39 6.53 2.50
1.25 6.56 2.50
1.12 6.59 2.50
0.99 6.61 2.50
0.86 6.63 2.50
0.72 6.65 2.50
0.59 6.66 2.50
0.45 6.68 2.50
0.32 6.69 2.50
0.18 6.70 2.50
0.05 6.70 2.50
-0.09 6.71 2.50
-0.22 6.71 2.50
-0.36 6.70 2.50
-0.49 6.70 2.50
-0.63 6.69 2.50
-0.76 6.68 2.50
-0.90 6.67 2.50
-1.03 6.65 2.50
-1.17 6.63 2.50
-1.30 6.61 2.50
-1.44 6.59 2.50
-1.57 6.56 2.50
-1.70 6.53 2.50
-1.83 6.50 2.50
-1.97 6.47 2.50
-2.10 6.43 2.50
-2.23 6.39 2.50
-2.36 6.35 2.50
-2.49 6.31 2.50
-2.62 6.26 2.50
-2.74 6.21 2.50
-2.87 6.16 2.50
-3.00 6.11 2.50
-3.12 6.05 2.50
-3.25 5.99 2.50
-3.37 5.93 2.50
-3.49 5.87 2.50
-3.61 5.80 2.50
-3.73 5.73 2.50
-3.85 5.66 2.50
-3.96 5.58 2.50
-4.08 5.51 2.50
-4.19 5.43 2.50
-4.30 5.35 2.50
-4.42 5.27 2.50
-4.52 5.18 2.50
-4.63 5.09 2.50
-4.74 5.00 2.50
-4.84 4.91 2.50
-4.94 4.82 2.50
-5.04 4.72 2.50
-5.14 4.63 2.50
-5.24 4.53 2.50
-5.33 4.42 2.50
-5.43 4.32 2.50
-5.52 4.21 2.50
-5.61 4.11 2.50
-5.69 4.00 2.50
-5.78 3.88 2.50
-5.86 3.77 2.50
-5.92 3.64 2.49
-5.92 3.48 2.45
-5.92 3.32 2.42
-5.93 3.17 2.40
-5.98 3.05 2.39
-6.05 2.93 2.39
-6.12 2.82 2.40
-6.17 2.69 2.39
-6.23 2.57 2.39
-6.29 2.45 2.39
-6.34 2.32 2.39
-6.39 2.20 2.39
-6.44 2.07 2.39
-6.49 1.94 2.39
-6.53 1.81 2.39
-6.57 1.68 2.39
-6.61 1.55 2.39
-6.65 1.42 2.39
-6.68 1.29 2.39
-6.02 1.04 2.15
-6.74 1.02 2.39
-6.76 0.89 2.39
-6.79 0.75 2.39
-6.80 0.62 2.39
-6.82 0.48 2.39
-6.84 0.35 2.39
-6.85 0.21 2.39
-6.86 0.07 2.39
-6.86 -0.07 2.39
-6.86 -0.20 2.39
-6.86 -0.34 2.39
-6.86 -0.48 2.39
-6.86 -0.62 2.39
-6.85 -0.75 2.39
-6.84 -0.89 2.39
-6.82 -1.03 2.39
-6.81 -1.17 2.39
-6.79 -1.30 2.39
-6.76 -1.44 2.39
-6.74 -1.57 2.39
-6.71 -1.71 2.39
-6.68 -1.85 2.39
-6.65 -1.98 2.39
-6.61 -2.11 2.39
-6.57 -2.25 2.39
-6.53 -2.38 2.39
-6.48 -2.51 2.39
-6.44 -2.64 2.39
-6.38 -2.77 2.39
-6.33 -2.90 2.39
-6.28 -3.03 2.39
-6.22 -3.15 2.39
-6.16 -3.28 2.39
-6.09 -3.40 2.39
-6.04 -3.54 2.40
-5.96 -3.65 2.39
-5.89 -3.77 2.39
-5.84 -3.90 2.40
-5.83 -4.07 2.43
-5.82 -4.24 2.46
-5.82 -4.41 2.50
-5.73 -4.53 2.50
-5.64 -4.65 2.50
-5.55 -4.76 2.50
-5.45 -4.87 2.50
-5.36 -4.98 2.50
-5.26 -5.09 2.50
-5.15 -5.19 2.50
-5.05 -5.30 2.50
-4.95 -5.40 2.50
-4.84 -5.50 2.50
-4.73 -5.59 2.50
-4.62 -5.69 2.50
-4.50 -5.78 2.50
-4.39 -5.87 2.50
-4.27 -5.95 2.50
-4.15 -6.04 2.50
-4.03 -6.12 2.50
-3.90 -6.20 2.50
-3.78 -6.28 2.50
-3.65 -6.35 2.50
-3.53 -6.42 2.50
-3.40 -6.49 2.50
-3.27 -6.56 2.50
-3.13 -6.62 2.50
-3.00 -6.68 2.50
-2.87 -6.74 2.50
-2.73 -6.79 2.50
-2.60 -6.85 2.50
-2.46 -6.89 2.50
-2.32 -6.94 2.50
-2.18 -6.98 2.50
-2.04 -7.02 2.50
-1.90 -7.06 2.50
-1.76 -7.10 2.50
-1.61 -7.13 2.50
-1.47 -7.16 2.50
-1.33 -7.18 2.50
-1.18 -7.20 2.50
-1.04 -7.22 2.50
-0.89 -7.24 2.50
-0.75 -7.25 2.50
-0.60 -7.26 2.50
-0.46 -7.27 2.50
-0.31 -7.27 2.50
-0.17 -7.28 2.50
-0.02 -6.77 2.50
0.11 -6.77 2.50
0.25 -6.76 2.50
0.38 -6.75 2.50
0.52 -6.74 2.50
0.65 -6.72 2.50
0.79 -6.71 2.50
0.92 -6.68 2.50
1.05 -6.66 2.50
1.19 -6.63 2.50
1.32 -6.61 2.50
1.45 -6.57 2.50
1.58 -6.54 2.50
1.71 -6.50 2.50
1.84 -6.46 2.50
1.96 -6.42 2.50
2.09 -6.37 2.50
2.22 -6.33 2.50
2.26 -6.05 2.41
2.36 -5.97 2.39
2.48 -5.91 2.39
2.59 -5.86 2.39
2.60 -5.57 2.30
2.68 -5.45 2.27
2.89 -5.59 2.35
2.99 -5.52 2.35
3.10 -5.46 2.35
3.18 -5.35 2.33
3.20 -5.13 2.27
3.30 -5.06 2.27
3.58 -5.26 2.39
3.68 -5.18 2.39
3.78 -5.11 2.39
3.88 -5.02 2.39
3.97 -4.94 2.39
4.07 -4.86 2.39
4.16 -4.77 2.39
4.25 -4.68 2.39
4.34 -4.59 2.39
4.43 -4.50 2.39
4.51 -4.41 2.39
4.60 -4.31 2.39
4.68 -4.21 2.39
4.76 -4.12 2.39
4.83 -4.02 2.39
4.91 -3.91 2.39
4.98 -3.81 2.39
5.05 -3.71 2.39
5.12 -3.60 2.39
5.19 -3.50 2.39
5.25 -3.39 2.39
5.31 -3.28 2.39
5.37 -3.17 2.39
5.43 -3.06 2.39
5.49 -2.95 2.39
5.54 -2.83 2.39
5.59 -2.72 2.39
5.64 -2.60 2.39
5.68 -2.49 2.39
5.73 -2.37 2.39
5.77 -2.25 2.39
5.81 -2.13 2.39
5.84 -2.01 2.39
5.88 -1.90 2.39
5.91 -1.78 2.39
5.94 -1.65 2.39
5.97 -1.53 2.39
5.99 -1.41 2.39
6.01 -1.29 2.39
6.03 -1.17 2.39
6.05 -1.05 2.39
6.07 -0.92 2.39
6.08 -0.80 2.39
6.09 -0.68 2.39
6.09 -0.55 2.39
6.10 -0.43 2.39
6.10 -0.31 2.39
6.10 -0.18 2.39
6.10 -0.06 2.39
6.10 0.06 2.39
6.09 0.18 2.39
6.08 0.31 2.39
6.07 0.43 2.39
6.05 0.55 2.39
6.04 0.67 2.39
6.02 0.79 2.39
6.00 0.91 2.39
5.97 1.03 2.39
5.95 1.15 2.39
5.92 1.27 2.39
5.89 1.39 2.39
5.85 1.51 2.39
5.82 1.62 2.39
5.78 1.74 2.39
5.74 1.85 2.39
5.70 1.97 2.39
5.66 2.08 2.39
5.61 2.19 2.39
5.56 2.31 2.39
5.51 2.42 2.39
5.46 2.53 2.39
5.40 2.63 2.39
5.35 2.74 2.39
5.29 2.85 2.39
5.23 2.95 2.39
5.17 3.06 2.39
5.10 3.16 2.39
5.03 3.26 2.39
4.97 3.36 2.39
4.89 3.46 2.39
4.82 3.55 2.39
4.75 3.65 2.39
4.67 3.74 2.39
4.59 3.84 2.39
4.51 3.93 2.39
4.43 4.02 2.39
4.35 4.10 2.39
4.27 4.19 2.39
4.18 4.27 2.39
4.09 4.36 2.39
4.00 4.44 2.39
3.91 4.52 2.39
3.82 4.59 2.39
3.72 4.67 2.39
3.63 4.74 2.39
3.53 4.82 2.39
3.43 4.89 2.39
3.33 4.95 2.39
3.23 5.02 2.39
3.13 5.08 2.39
3.03 5.15 2.39
2.92 5.21 2.39
2.82 5.26 2.39
2.71 5.32 2.39
2.60 5.37 2.39
2.49 5.43 2.39
2.39 5.48 2.39
2.29 5.56 2.41
2.16 5.57 2.39
2.10 5.74 2.45
2.02 5.90 2.50
1.90 5.94 2.50
1.78 5.98 2.50
1.66 6.01 2.50
1.54 6.05 2.50
1.42 6.08 2.50
1.29 6.11 2.50
1.17 6.13 2.50
1.05 6.16 2.50
0.92 6.18 2.50
0.80 6.20 2.50
0.67 6.22 2.50
0.55 6.23 2.50
0.42 6.24 2.50
0.30 6.25 2.50
0.17 6.26 2.50
0.04 6.27 2.50
-0.08 6.27 2.50
-0.21 6.27 2.50
-0.34 6.27 2.50
-0.46 6.26 2.50
-0.59 6.25 2.50
-0.71 6.25 2.50
-0.84 6.23 2.50
-0.97 6.22 2.50
-1.09 6.20 2.50
-1.22 6.18 2.50
-1.34 6.16 2.50
-1.47 6.13 2.50
-1.59 6.11 2.50
-1.72 6.08 2.50
-1.84 6.05 2.50
-1.96 6.01 2.50
-2.09 5.98 2.50
-2.21 5.94 2.50
-2.33 5.89 2.50
-2.45 5.85 2.50
-2.57 5.80 2.50
-2.68 5.76 2.50
-2.80 5.71 2.50
-2.92 5.65 2.50
-3.03 5.60 2.50
-3.15 5.54 2.50
-3.26 5.48 2.50
-3.37 5.42 2.50
-3.49 5.35 2.50
-3.60 5.28 2.50
-3.70 5.22 2.50
-3.81 5.14 2.50
-3.92 5.07 2.50
-4.02 4.99 2.50
-4.13 4.92 2.50
-4.23 4.84 2.50
-4.33 4.76 2.50
-4.43 4.67 2.50
-4.52 4.59 2.50
-4.62 4.50 2.50
-4.71 4.41 2.50
-4.80 4.32 2.50
-4.89 4.22 2.50
-4.98 4.13 2.50
-5.07 4.03 2.50
-5.15 3.93 2.50
-5.24 3.83 2.50
-5.32 3.73 2.50
-5.39 3.62 2.50
-5.47 3.52 2.50
-5.55 3.41 2.50
-5.62 3.30 2.50
-5.69 3.19 2.50
-5.76 3.08 2.50
-5.82 2.97 2.50
-5.89 2.85 2.50
-5.91 2.72 2.48
-5.91 2.57 2.45
-5.91 2.43 2.43
-5.91 2.30 2.41
-5.92 2.16 2.39
-5.96 2.05 2.39
-6.01 1.93 2.39
-6.05 1.81 2.39
-6.11 1.69 2.40
-6.13 1.57 2.39
-6.16 1.45 2.39
-6.20 1.32 2.39
-6.23 1.20 2.39
-6.02 1.04 2.30
-6.28 0.95 2.39
-6.30 0.83 2.39
-6.33 0.70 2.39
-6.34 0.57 2.39
-6.36 0.45 2.39
-6.37 0.32 2.39
-6.38 0.19 2.39
-6.39 0.06 2.39
-6.39 -0.06 2.39
-6.40 -0.19 2.39
-6.40 -0.32 2.39
-6.39 -0.45 2.39
-6.39 -0.58 2.39
-6.38 -0.70 2.39
-6.37 -0.83 2.39
-6.36 -0.96 2.39
-6.34 -1.09 2.39
-6.32 -1.22 2.39
-6.30 -1.34 2.39
-6.28 -1.47 2.39
-6.25 -1.60 2.39
-6.22 -1.72 2.39
-6.19 -1.85 2.39
-6.16 -1.97 2.39
-6.12 -2.09 2.39
-6.08 -2.22 2.39
-6.06 -2.35 2.40
-5.99 -2.46 2.39
-5.95 -2.58 2.39
-5.90 -2.70 2.39
-5.85 -2.82 2.40
-5.84 -2.97 2.42
-5.84 -3.11 2.44
-5.83 -3.26 2.46
-5.83 -3.41 2.49
-5.79 -3.54 2.50
-5.72 -3.66 2.50
-5.64 -3.77 2.50
-5.57 -3.89 2.50
-5.49 -4.00 2.50
-5.41 -4.11 2.50
-5.33 -4.22 2.50
-5.25 -4.33 2.50
-5.16 -4.43 2.50
-5.07 -4.53 2.50
-4.98 -4.64 2.50
-4.89 -4.74 2.50
-4.80 -4.83 2.50
-4.70 -4.93 2.50
-4.60 -5.02 2.50
-4.50 -5.12 2.50
-4.40 -5.21 2.50
-4.30 -5.29 2.50
-4.19 -5.38 2.50
-4.08 -5.46 2.50
-3.97 -5.54 2.50
-3.86 -5.62 2.50
-3.75 -5.70 2.50
-3.63 -5.77 2.50
-3.52 -5.84 2.50
-3.40 -5.91 2.50
-3.28 -5.98 2.50
-3.16 -6.04 2.50
-3.04 -6.10 2.50
-2.92 -6.16 2.50
-2.79 -6.22 2.50
-2.67 -6.27 2.50
-2.54 -6.32 2.50
-2.42 -6.37 2.50
-2.29 -6.42 2.50
-2.16 -6.46 2.50
-2.03 -6.50 2.50
-1.90 -6.54 2.50
-1.77 -6.57 2.50
-1.64 -6.61 2.50
-1.50 -6.63 2.50
-1.37 -6.66 2.50
-1.24 -6.69 2.50
-1.10 -6.71 2.50
-0.97 -6.72 2.50
-0.83 -6.74 2.50
-0.70 -6.75 2.50
-0.56 -6.76 2.50
-0.43 -6.77 2.50
-0.29 -6.77 2.50
-0.16 -6.77 2.50
-0.02 -6.33 2.50
0.11 -6.33 2.50
0.23 -6.32 2.50
0.36 -6.31 2.50
0.48 -6.30 2.50
0.61 -6.28 2.50
0.73 -6.27 2.50
0.86 -6.25 2.50
0.98 -6.23 2.50
1.11 -6.20 2.50
1.23 -6.18 2.50
1.35 -6.15 2.50
1.47 -6.11 2.50
1.59 -6.08 2.50
1.71 -6.04 2.50
1.83 -6.00 2.50
1.95 -5.96 2.50
2.07 -5.92 2.50
2.19 -5.87 2.50
2.24 -5.68 2.43
2.32 -5.53 2.39
2.43 -5.50 2.40
2.53 -5.43 2.39
2.59 -5.28 2.35
2.60 -5.04 2.27
2.70 -4.99 2.27
2.90 -5.11 2.35
3.00 -5.04 2.35
3.10 -4.98 2.35
3.18 -4.89 2.34
3.18 -4.68 2.28
3.26 -4.60 2.27
3.53 -4.78 2.39
3.62 -4.70 2.39
3.71 -4.62 2.39
3.80 -4.55 2.39
3.89 -4.46 2.39
3.98 -4.38 2.39
4.06 -4.30 2.39
4.14 -4.21 2.39
4.22 -4.13 2.39
4.30 -4.04 2.39
4.38 -3.95 2.39
4.45 -3.85 2.39
4.52 -3.76 2.39
4.59 -3.67 2.39
4.66 -3.57 2.39
4.73 -3.47 2.39
4.79 -3.37 2.39
4.86 -3.27 2.39
4.92 -3.17 2.39
4.97 -3.07 2.39
5.03 -2.97 2.39
5.08 -2.87 2.39
5.14 -2.76 2.39
5.19 -2.65 2.39
5.23 -2.55 2.39
5.28 -2.44 2.39
5.32 -2.33 2.39
5.36 -2.22 2.39
5.40 -2.11 2.39
5.44 -2.00 2.39
5.47 -1.89 2.39
5.51 -1.78 2.39
5.54 -1.67 2.39
5.56 -1.55 2.39
5.59 -1.44 2.39
5.61 -1.33 2.39
5.63 -1.21 2.39
5.65 -1.10 2.39
5.67 -0.98 2.39
5.68 -0.87 2.39
5.70 -0.75 2.39
5.70 -0.64 2.39
5.71 -0.52 2.39
5.72 -0.41 2.39
5.72 -0.29 2.39
5.72 -0.17 2.39
5.72 -0.06 2.39
5.71 0.06 2.39
5.71 0.17 2.39
5.70 0.29 2.39
5.69 0.40 2.39
5.67 0.51 2.39
5.66 0.63 2.39
5.64 0.74 2.39
5.62 0.85 2.39
5.60 0.97 2.39
5.58 1.08 2.39
5.55 1.19 2.39
5.52 1.30 2.39
5.49 1.41 2.39
5.46 1.52 2.39
5.42 1.63 2.39
5.39 1.74 2.39
5.35 1.84 2.39
5.31 1.95 2.39
5.26 2.06 2.39
5.22 2.16 2.39
5.17 2.26 2.39
5.12 2.37 2.39
5.07 2.47 2.39
5.02 2.57 2.39
4.96 2.67 2.39
4.90 2.77 2.39
4.85 2.87 2.39
4.79 2.96 2.39
4.72 3.06 2.39
4.66 3.15 2.39
4.59 3.24 2.39
4.52 3.33 2.39
4.45 3.42 2.39
4.38 3.51 2.39
4.31 3.60 2.39
4.24 3.68 2.39
4.16 3.77 2.39
4.08 3.85 2.39
4.00 3.93 2.39
3.92 4.01 2.39
3.84 4.09 2.39
3.75 4.16 2.39
3.67 4.24 2.39
3.58 4.31 2.39
3.49 4.38 2.39
3.41 4.45 2.39
3.31 4.52 2.39
3.22 4.58 2.39
3.13 4.65 2.39
3.03 4.71 2.39
2.94 4.77 2.39
2.84 4.83 2.39
2.74 4.88 2.39
2.64 4.94 2.39
2.54 4.99 2.39
2.44 5.04 2.39
2.34 5.09 2.39
2.24 5.14 2.39
2.13 5.18 2.39
2.10 5.42 2.48
2.01 5.49 2.50
1.89 5.53 2.50
1.78 5.57 2.50
1.67 5.61 2.50
1.56 5.64 2.50
1.44 5.67 2.50
1.33 5.70 2.50
1.21 5.73 2.50
1.10 5.76 2.50
0.98 5.78 2.50
0.87 5.80 2.50
0.75 5.82 2.50
0.63 5.83 2.50
0.51 5.85 2.50
0.40 5.86 2.50
0.28 5.87 2.50
0.16 5.87 2.50
0.04 5.88 2.50
-0.08 5.88 2.50
-0.20 5.88 2.50
-0.32 5.88 2.50
-0.43 5.87 2.50
-0.55 5.87 2.50
-0.67 5.86 2.50
-0.79 5.85 2.50
-0.91 5.83 2.50
-1.03 5.81 2.50
-1.14 5.80 2.50
-1.26 5.78 2.50
-1.38 5.75 2.50
-1.50 5.73 2.50
-1.61 5.70 2.50
-1.73 5.67 2.50
-1.84 5.64 2.50
-1.96 5.60 2.50
-2.07 5.57 2.50
-2.18 5.53 2.50
-2.30 5.48 2.50
-2.41 5.44 2.50
-2.52 5.40 2.50
-2.63 5.35 2.50
-2.74 5.30 2.50
-2.85 5.24 2.50
-2.95 5.19 2.50
-3.06 5.13 2.50
-3.16 5.07 2.50
-3.27 5.01 2.50
-3.37 4.95 2.50
-3.47 4.89 2.50
-3.57 4.82 2.50
-3.67 4.75 2.50
-3.77 4.68 2.50
-3.87 4.61 2.50
-3.96 4.53 2.50
-4.06 4.45 2.50
-4.15 4.37 2.50
-4.24 4.29 2.50
-4.33 4.21 2.50
-4.41 4.13 2.50
-4.50 4.04 2.50
-4.58 3.95 2.50
-4.67 3.86 2.50
-4.75 3.77 2.50
-4.83 3.68 2.50
-4.90 3.58 2.50
-4.98 3.49 2.50
-5.05 3.39 2.50
-5.12 3.29 2.50
-5.19 3.19 2.50
-5.26 3.09 2.50
-5.33 2.99 2.50
-5.39 2.88 2.50
-5.45 2.77 2.50
-5.51 2.67 2.50
-5.57 2.56 2.50
-5.62 2.45 2.50
-5.68 2.34 2.50
-5.73 2.22 2.50
-5.78 2.11 2.50
-5.82 2.00 2.50
-5.87 1.88 2.50
-5.90 1.76 2.49
-5.90 1.63 2.47
-5.89 1.51 2.46
-5.89 1.38 2.44
-5.89 1.26 2.43
-5.90 1.13 2.42
-5.90 1.01 2.41
-5.90 0.89 2.40
-5.90 0.77 2.39
-5.92 0.65 2.39
-5.93 0.53 2.39
-5.95 0.42 2.39
-5.96 0.30 2.39
-5.97 0.18 2.39
-5.98 0.06 2.39
-5.98 -0.06 2.39
-5.98 -0.18 2.39
-5.98 -0.30 2.39
-5.98 -0.42 2.39
-5.97 -0.54 2.39
-5.97 -0.66 2.39
-5.96 -0.78 2.39
-5.94 -0.90 2.39
-5.93 -1.02 2.39
-5.91 -1.14 2.39
-5.89 -1.26 2.39
-5.87 -1.38 2.39
-5.87 -1.50 2.40
-5.86 -1.62 2.41
-5.86 -1.75 2.42
-5.85 -1.88 2.43
-5.85 -2.00 2.45
-5.85 -2.14 2.46
-5.85 -2.27 2.48
-5.84 -2.40 2.50
-5.80 -2.52 2.50
-5.75 -2.64 2.50
-5.70 -2.75 2.50
-5.64 -2.87 2.50
-5.59 -2.98 2.50
-5.53 -3.09 2.50
-5.47 -3.20 2.50
-5.41 -3.31 2.50
-5.34 -3.42 2.50
-5.27 -3.53 2.50
-5.20 -3.63 2.50
-5.13 -3.74 2.50
-5.06 -3.84 2.50
-4.98 -3.94 2.50
-4.90 -4.04 2.50
-4.82 -4.14 2.50
-4.74 -4.24 2.50
-4.66 -4.33 2.50
-4.57 -4.43 2.50
-4.48 -4.52 2.50
-4.39 -4.61 2.50
-4.30 -4.69 2.50
-4.21 -4.78 2.50
-4.11 -4.86 2.50
-4.01 -4.95 2.50
-3.91 -5.02 2.50
-3.81 -5.10 2.50
-3.71 -5.18 2.50
-3.61 -5.25 2.50
-3.50 -5.32 2.50
-3.40 -5.39 2.50
-3.29 -5.46 2.50
-3.18 -5.52 2.50
-3.07 -5.58 2.50
-2.95 -5.64 2.50
-2.84 -5.70 2.50
-2.73 -5.76 2.50
-2.61 -5.81 2.50
-2.49 -5.86 2.50
-2.38 -5.91 2.50
-2.26 -5.95 2.50
-2.14 -6.00 2.50
-2.02 -6.04 2.50
-1.90 -6.07 2.50
-1.77 -6.11 2.50
-1.65 -6.14 2.50
-1.53 -6.17 2.50
-1.40 -6.20 2.50
-1.28 -6.22 2.50
-1.16 -6.25 2.50
-1.03 -6.27 2.50
-0.90 -6.28 2.50
-0.78 -6.30 2.50
-0.65 -6.31 2.50
-0.53 -6.32 2.50
-0.40 -6.33 2.50
-0.27 -6.33 2.50
-0.15 -6.33 2.50
-0.02 -5.93 2.50
0.10 -5.93 2.50
0.22 -5.93 2.50
0.33 -5.92 2.50
0.45 -5.91 2.50
0.57 -5.89 2.50
0.69 -5.88 2.50
0.80 -5.86 2.50
0.92 -5.84 2.50
1.04 -5.82 2.50
1.15 -5.79 2.50
1.27 -5.76 2.50
1.38 -5.73 2.50
1.49 -5.70 2.50
1.61 -5.67 2.50
1.72 -5.63 2.50
1.83 -5.59 2.50
1.94 -5.55 2.50
2.05 -5.51 2.50
2.16 -5.46 2.50
2.24 -5.35 2.47
2.27 -5.14 2.39
2.37 -5.09 2.39
2.47 -5.04 2.39
2.57 -4.99 2.39
2.59 -4.78 2.32
2.62 -4.62 2.27
2.71 -4.57 2.27
2.90 -4.67 2.35
2.99 -4.61 2.35
2.98 -4.39 2.27
3.06 -4.32 2.27
3.14 -4.26 2.27
3.23 -4.19 2.27
3.48 -4.34 2.39
3.57 -4.27 2.39
3.65 -4.19 2.39
3.73 -4.11 2.39
3.81 -4.04 2.39
3.89 -3.96 2.39
3.96 -3.87 2.39
4.03 -3.79 2.39
4.11 -3.71 2.39
4.18 -3.62 2.39
4.24 -3.53 2.39
4.31 -3.44 2.39
4.38 -3.35 2.39
4.44 -3.26 2.39
4.50 -3.17 2.39
4.56 -3.08 2.39
4.62 -2.98 2.39
4.67 -2.89 2.39
4.72 -2.79 2.39
4.77 -2.69 2.39
4.82 -2.59 2.39
4.87 -2.49 2.39
4.92 -2.39 2.39
4.96 -2.29 2.39
5.00 -2.19 2.39
5.04 -2.09 2.39
5.08 -1.99 2.39
5.11 -1.88 2.39
5.14 -1.78 2.39
5.17 -1.67 2.39
5.20 -1.57 2.39
5.23 -1.46 2.39
5.25 -1.35 2.39
5.27 -1.25 2.39
5.29 -1.14 2.39
5.31 -1.03 2.39
5.33 -0.92 2.39
5.34 -0.82 2.39
5.35 -0.71 2.39
5.36 -0.60 2.39
5.37 -0.49 2.39
5.37 -0.38 2.39
5.38 -0.27 2.39
5.38 -0.17 2.39
5.37 -0.06 2.39
5.37 0.05 2.39
5.37 0.16 2.39
5.36 0.27 2.39
5.35 0.37 2.39
5.34 0.48 2.39
5.32 0.59 2.39
5.30 0.69 2.39
5.29 0.80 2.39
5.27 0.91 2.39
5.24 1.01 2.39
5.22 1.12 2.39
5.19 1.22 2.39
5.16 1.33 2.39
5.13 1.43 2.39
5.10 1.53 2.39
5.07 1.63 2.39
5.03 1.73 2.39
4.99 1.83 2.39
4.95 1.93 2.39
4.91 2.03 2.39
4.86 2.13 2.39
4.82 2.23 2.39
4.77 2.32 2.39
4.72 2.42 2.39
4.67 2.51 2.39
4.61 2.60 2.39
4.56 2.69 2.39
4.50 2.78 2.39
4.44 2.87 2.39
4.38 2.96 2.39
4.32 3.05 2.39
4.26 3.13 2.39
4.19 3.22 2.39
4.12 3.30 2.39
4.06 3.38 2.39
3.99 3.46 2.39
3.91 3.54 2.39
3.84 3.62 2.39
3.77 3.70 2.39
3.69 3.77 2.39
3.61 3.84 2.39
3.53 3.92 2.39
3.45 3.99 2.39
3.37 4.05 2.39
3.29 4.12 2.39
3.20 4.19 2.39
3.12 4.25 2.39
3.03 4.31 2.39
2.94 4.37 2.39
2.85 4.43 2.39
2.76 4.49 2.39
2.67 4.54 2.39
2.58 4.60 2.39
2.49 4.65 2.39
2.39 4.70 2.39
2.30 4.75 2.40
2.20 4.79 2.39
2.12 4.86 2.41
2.09 5.09 2.50
1.99 5.13 2.50
1.89 5.17 2.50
1.78 5.21 2.50
1.68 5.24 2.50
1.57 5.28 2.50
1.46 5.31 2.50
1.36 5.34 2.50
1.25 5.36 2.50
1.14 5.39 2.50
1.03 5.41 2.50
0.92 5.44 2.50
0.81 5.45 2.50
0.70 5.47 2.50
0.59 5.49 2.50
0.48 5.50 2.50
0.37 5.51 2.50
0.26 5.52 2.50
0.15 5.52 2.50
0.04 5.53 2.50
-0.07 5.53 2.50
-0.19 5.53 2.50
-0.30 5.53 2.50
-0.41 5.52 2.50
-0.52 5.52 2.50
-0.63 5.51 2.50
-0.74 5.50 2.50
-0.86 5.48 2.50
-0.97 5.47 2.50
-1.08 5.45 2.50
-1.19 5.43 2.50
-1.30 5.41 2.50
-1.41 5.38 2.50
-1.52 5.36 2.50
-1.63 5.33 2.50
-1.73 5.30 2.50
-1.84 5.27 2.50
-1.95 5.23 2.50
-2.05 5.19 2.50
-2.16 5.16 2.50
-2.27 5.11 2.50
-2.37 5.07 2.50
-2.47 5.03 2.50
-2.58 4.98 2.50
-2.68 4.93 2.50
-2.78 4.88 2.50
-2.88 4.82 2.50
-2.98 4.77 2.50
-3.07 4.71 2.50
-3.17 4.65 2.50
-3.27 4.59 2.50
-3.36 4.53 2.50
-3.45 4.46 2.50
-3.54 4.40 2.50
-3.64 4.33 2.50
-3.72 4.26 2.50
-3.81 4.18 2.50
-3.90 4.11 2.50
-3.98 4.03 2.50
-4.07 3.96 2.50
-4.15 3.88 2.50
-4.23 3.79 2.50
-4.31 3.71 2.50
-4.39 3.63 2.50
-4.46 3.54 2.50
-4.54 3.45 2.50
-4.61 3.37 2.50
-4.68 3.27 2.50
-4.75 3.18 2.50
-4.81 3.09 2.50
-4.88 2.99 2.50
-4.94 2.90 2.50
-5.00 2.80 2.50
-5.06 2.70 2.50
-5.12 2.60 2.50
-5.18 2.50 2.50
-5.23 2.40 2.50
-5.28 2.30 2.50
-5.33 2.19 2.50
-5.38 2.09 2.50
-5.42 1.98 2.50
-5.47 1.87 2.50
-5.51 1.76 2.50
-5.55 1.65 2.50
-5.58 1.54 2.50
-5.62 1.43 2.50
-5.65 1.32 2.50
-5.68 1.21 2.50
-5.71 1.10 2.50
-5.73 0.98 2.50
-5.75 0.87 2.50
-5.77 0.75 2.50
-5.79 0.64 2.50
-5.81 0.52 2.50
-5.82 0.41 2.50
-5.83 0.29 2.50
-5.84 0.17 2.50
-5.85 0.06 2.50
-5.85 -0.06 2.50
-5.85 -0.18 2.50
-5.85 -0.30 2.50
-5.85 -0.41 2.50
-5.85 -0.53 2.50
-5.84 -0.65 2.50
-5.83 -0.76 2.50
-5.81 -0.88 2.50
-5.80 -1.00 2.50
-5.78 -1.11 2.50
-5.76 -1.23 2.50
-5.74 -1.35 2.50
-5.72 -1.46 2.50
-5.69 -1.58 2.50
-5.66 -1.69 2.50
-5.63 -1.80 2.50
-5.59 -1.92 2.50
-5.56 -2.03 2.50
-5.52 -2.14 2.50
-5.48 -2.25 2.50
-5.43 -2.36 2.50
-5.39 -2.47 2.50
-5.34 -2.58 2.50
-5.29 -2.69 2.50
-5.24 -2.79 2.50
-5.18 -2.90 2.50
-5.13 -3.00 2.50
-5.07 -3.11 2.50
-5.01 -3.21 2.50
-4.94 -3.31 2.50
-4.88 -3.41 2.50
-4.81 -3.51 2.50
-4.74 -3.60 2.50
-4.67 -3.70 2.50
-4.60 -3.79 2.50
-4.52 -3.88 2.50
-4.44 -3.97 2.50
-4.36 -4.06 2.50
-4.28 -4.15 2.50
-4.20 -4.23 2.50
-4.12 -4.32 2.50
-4.03 -4.40 2.50
-3.94 -4.48 2.50
-3.85 -4.56 2.50
-3.76 -4.64 2.50
-3.67 -4.71 2.50
-3.57 -4.78 2.50
-3.48 -4.85 2.50
-3.38 -4.92 2.50
-3.28 -4.99 2.50
-3.18 -5.05 2.50
-3.08 -5.12 2.50
-2.98 -5.18 2.50
-2.87 -5.23 2.50
-2.77 -5.29 2.50
-2.66 -5.34 2.50
-2.56 -5.40 2.50
-2.45 -5.44 2.50
-2.34 -5.49 2.50
-2.23 -5.54 2.50
-2.12 -5.58 2.50
-2.00 -5.62 2.50
-1.89 -5.66 2.50
-1.78 -5.69 2.50
-1.66 -5.73 2.50
-1.55 -5.76 2.50
-1.43 -5.78 2.50
-1.32 -5.81 2.50
-1.20 -5.83 2.50
-1.08 -5.86 2.50
-0.97 -5.87 2.50
-0.85 -5.89 2.50
-0.73 -5.90 2.50
-0.61 -5.92 2.50
-0.49 -5.92 2.50
-0.38 -5.93 2.50
-0.26 -5.93 2.50
-0.14 -5.94 2.50
-0.02 -5.58 2.50
0.09 -5.58 2.50
0.20 -5.57 2.50
0.31 -5.56 2.50
0.42 -5.55 2.50
0.53 -5.54 2.50
0.64 -5.53 2.50
0.75 -5.51 2.50
0.86 -5.49 2.50
0.97 -5.47 2.50
1.08 -5.45 2.50
1.19 -5.42 2.50
1.30 -5.39 2.50
1.40 -5.36 2.50
1.51 -5.33 2.50
1.61 -5.30 2.50
1.72 -5.26 2.50
1.82 -5.22 2.50
1.93 -5.18 2.50
2.03 -5.14 2.50
2.13 -5.09 2.50
2.23 -5.05 2.50
2.24 -4.81 2.40
2.32 -4.74 2.39
2.42 -4.70 2.40
2.51 -4.64 2.39
2.59 -4.56 2.38
2.58 -4.35 2.30
2.64 -4.24 2.27
2.72 -4.19 2.27
2.83 -4.18 2.30
2.96 -4.18 2.33
3.08 -4.18 2.37
3.20 -4.15 2.39
3.28 -4.09 2.39
3.36 -4.02 2.39
3.43 -3.95 2.39
3.51 -3.87 2.39
3.58 -3.80 2.39
3.66 -3.72 2.39
3.73 -3.65 2.39
3.80 -3.57 2.39
3.86 -3.49 2.39
3.93 -3.41 2.39
3.99 -3.33 2.39
4.06 -3.24 2.39
4.12 -3.16 2.39
4.18 -3.07 2.39
4.23 -2.99 2.39
4.29 -2.90 2.39
4.34 -2.81 2.39
4.40 -2.72 2.39
4.45 -2.63 2.39
4.49 -2.54 2.39
4.54 -2.44 2.39
4.59 -2.35 2.39
4.63 -2.26 2.39
4.67 -2.16 2.39
4.71 -2.07 2.39
4.74 -1.97 2.39
4.78 -1.87 2.39
4.81 -1.77 2.39
4.84 -1.68 2.39
4.87 -1.58 2.39
4.90 -1.48 2.39
4.92 -1.38 2.39
4.95 -1.28 2.39
4.97 -1.18 2.39
4.99 -1.08 2.39
5.00 -0.97 2.39
5.02 -0.87 2.39
5.03 -0.77 2.39
5.04 -0.67 2.39
5.05 -0.57 2.39
5.06 -0.47 2.39
5.06 -0.36 2.39
5.07 -0.26 2.39
5.07 -0.16 2.39
5.06 -0.06 2.39
5.06 0.05 2.39
5.06 0.15 2.39
5.05 0.25 2.39
5.04 0.35 2.39
5.03 0.45 2.39
5.01 0.55 2.39
5.00 0.65 2.39
4.98 0.75 2.39
4.96 0.85 2.39
4.94 0.95 2.39
4.92 1.05 2.39
4.89 1.15 2.39
4.87 1.25 2.39
4.84 1.34 2.39
4.81 1.44 2.39
4.78 1.54 2.39
4.74 1.63 2.39
4.70 1.73 2.39
4.67 1.82 2.39
4.63 1.91 2.39
4.58 2.01 2.39
4.54 2.10 2.39
4.50 2.19 2.39
4.45 2.28 2.39
4.40 2.37 2.39
4.35 2.45 2.39
4.30 2.54 2.39
4.24 2.62 2.39
4.19 2.71 2.39
4.13 2.79 2.39
4.07 2.87 2.39
4.01 2.95 2.39
3.95 3.03 2.39
3.89 3.11 2.39
3.82 3.19 2.39
3.76 3.27 2.39
3.69 3.34 2.39
3.62 3.41 2.39
3.55 3.49 2.39
3.48 3.56 2.39
3.41 3.62 2.39
3.16 3.50 2.27
3.09 3.57 2.27
3.02 3.63 2.27
2.94 3.69 2.27
2.87 3.75 2.27
2.79 3.80 2.27
2.86 4.07 2.39
2.78 4.12 2.39
2.69 4.18 2.39
2.61 4.23 2.39
2.52 4.28 2.39
2.43 4.33 2.39
2.35 4.38 2.39
2.26 4.43 2.39
2.17 4.47 2.39
2.11 4.60 2.44
2.07 4.75 2.50
1.97 4.80 2.50
1.88 4.84 2.50
1.78 4.87 2.50
1.68 4.91 2.50
1.58 4.94 2.50
1.48 4.97 2.50
1.38 5.00 2.50
1.28 5.03 2.50
1.18 5.06 2.50
1.08 5.08 2.50
0.97 5.10 2.50
0.87 5.12 2.50
0.77 5.14 2.50
0.66 5.16 2.50
0.56 5.17 2.50
0.45 5.18 2.50
0.35 5.19 2.50
0.24 5.20 2.50
0.14 5.21 2.50
0.03 5.21 2.50
-0.07 5.21 2.50
-0.18 5.21 2.50
-0.28 5.21 2.50
-0.39 5.21 2.50
-0.49 5.20 2.50
-0.60 5.19 2.50
-0.70 5.18 2.50
-0.81 5.17 2.50
-0.91 5.15 2.50
-1.02 5.14 2.50
-1.12 5.12 2.50
-1.22 5.10 2.50
-1.33 5.07 2.50
-1.43 5.05 2.50
-1.53 5.02 2.50
-1.64 4.99 2.50
-1.74 4.96 2.50
-1.84 4.93 2.50
-1.94 4.89 2.50
-2.04 4.86 2.50
-2.14 4.82 2.50
-2.23 4.78 2.50
-2.33 4.73 2.50
-2.43 4.69 2.50
-2.52 4.64 2.50
-2.62 4.59 2.50
-2.71 4.54 2.50
-2.81 4.49 2.50
-2.90 4.44 2.50
-2.99 4.38 2.50
-3.08 4.32 2.50
-3.17 4.26 2.50
-3.25 4.20 2.50
-3.34 4.14 2.50
-3.43 4.07 2.50
-3.51 4.01 2.50
-3.59 3.94 2.50
-3.67 3.87 2.50
-3.75 3.80 2.50
-3.83 3.72 2.50
-3.91 3.65 2.50
-3.98 3.57 2.50
-4.06 3.49 2.50
-4.13 3.41 2.50
-4.20 3.33 2.50
-4.27 3.25 2.50
-4.34 3.17 2.50
-4.41 3.08 2.50
-4.47 3.00 2.50
-4.53 2.91 2.50
-4.59 2.82 2.50
-4.65 2.73 2.50
-4.71 2.64 2.50
-4.77 2.54 2.50
-4.82 2.45 2.50
-4.87 2.35 2.50
-4.92 2.26 2.50
-4.97 2.16 2.50
-5.02 2.06 2.50
-5.06 1.96 2.50
-5.10 1.86 2.50
-5.14 1.76 2.50
-5.18 1.66 2.50
-5.22 1.55 2.50
-5.25 1.45 2.50
-5.29 1.35 2.50
-5.32 1.24 2.50
-5.34 1.13 2.50
-5.37 1.03 2.50
-5.39 0.92 2.50
-5.41 0.81 2.50
-5.43 0.71 2.50
-5.45 0.60 2.50
-5.47 0.49 2.50
-5.48 0.38 2.50
-5.49 0.27 2.50
-5.50 0.16 2.50
-5.50 0.05 2.50
-5.51 -0.06 2.50
-5.51 -0.17 2.50
-5.51 -0.28 2.50
-5.50 -0.39 2.50
-5.50 -0.50 2.50
-5.49 -0.61 2.50
-5.48 -0.72 2.50
-5.47 -0.83 2.50
-5.45 -0.94 2.50
-5.44 -1.05 2.50
-5.42 -1.16 2.50
-5.40 -1.27 2.50
-5.37 -1.38 2.50
-5.35 -1.48 2.50
-5.32 -1.59 2.50
-5.29 -1.70 2.50
-5.26 -1.80 2.50
-5.22 -1.91 2.50
-5.19 -2.02 2.50
-5.15 -2.12 2.50
-5.11 -2.22 2.50
-5.07 -2.33 2.50
-5.02 -2.43 2.50
-4.97 -2.53 2.50
-4.92 -2.63 2.50
-4.87 -2.73 2.50
-4.82 -2.82 2.50
-4.76 -2.92 2.50
-4.71 -3.02 2.50
-4.65 -3.11 2.50
-4.58 -3.20 2.50
-4.52 -3.30 2.50
-4.46 -3.39 2.50
-4.39 -3.48 2.50
-4.32 -3.56 2.50
-4.25 -3.65 2.50
-4.18 -3.73 2.50
-4.10 -3.82 2.50
-4.03 -3.90 2.50
-3.95 -3.98 2.50
-3.87 -4.06 2.50
-3.79 -4.14 2.50
-3.71 -4.21 2.50
-3.62 -4.29 2.50
-3.54 -4.36 2.50
-3.45 -4.43 2.50
-3.36 -4.50 2.50
-3.27 -4.56 2.50
-3.18 -4.63 2.50
-3.09 -4.69 2.50
-2.99 -4.75 2.50
-2.90 -4.81 2.50
-2.80 -4.86 2.50
-2.70 -4.92 2.50
-2.60 -4.97 2.50
-2.50 -5.02 2.50
-2.40 -5.07 2.50
-2.30 -5.12 2.50
-2.20 -5.16 2.50
-2.09 -5.20 2.50
-1.99 -5.24 2.50
-1.88 -5.28 2.50
-1.78 -5.32 2.50
-1.67 -5.35 2.50
-1.56 -5.38 2.50
-1.46 -5.41 2.50
-1.35 -5.44 2.50
-1.24 -5.46 2.50
-1.13 -5.48 2.50
-1.02 -5.50 2.50
-0.91 -5.52 2.50
-0.80 -5.54 2.50
-0.69 -5.55 2.50
-0.58 -5.56 2.50
-0.47 -5.57 2.50
-0.35 -5.58 2.50
-0.24 -5.58 2.50
-0.13 -5.58 2.50
-0.02 -5.26 2.50
0.08 -5.26 2.50
0.19 -5.25 2.50
0.29 -5.24 2.50
0.40 -5.23 2.50
0.50 -5.22 2.50
0.61 -5.21 2.50
0.71 -5.19 2.50
0.81 -5.18 2.50
0.92 -5.16 2.50
1.02 -5.13 2.50
1.12 -5.11 2.50
1.22 -5.08 2.50
1.32 -5.06 2.50
1.42 -5.03 2.50
1.52 -4.99 2.50
1.62 -4.96 2.50
1.72 -4.92 2.50
1.81 -4.88 2.50
1.91 -4.84 2.50
2.00 -4.80 2.50
2.10 -4.76 2.50
2.19 -4.71 2.50
2.23 -4.55 2.44
2.28 -4.42 2.39
2.36 -4.37 2.39
2.45 -4.32 2.39
2.53 -4.27 2.39
2.60 -4.18 2.37
2.70 -4.16 2.39
2.78 -4.10 2.39
2.86 -4.04 2.39
2.94 -3.98 2.39
3.01 -3.92 2.39
3.09 -3.86 2.39
3.16 -3.79 2.39
3.24 -3.72 2.39
3.31 -3.66 2.39
3.38 -3.59 2.39
3.45 -3.51 2.39
3.51 -3.44 2.39
3.58 -3.37 2.39
3.64 -3.29 2.39
3.71 -3.22 2.39
3.77 -3.14 2.39
3.83 -3.06 2.39
3.88 -2.98 2.39
3.94 -2.90 2.39
3.99 -2.82 2.39
4.05 -2.74 2.39
4.10 -2.65 2.39
4.15 -2.57 2.39
4.19 -2.48 2.39
4.24 -2.40 2.39
4.28 -2.31 2.39
4.33 -2.22 2.39
4.37 -2.13 2.39
4.41 -2.04 2.39
4.44 -1.95 2.39
4.48 -1.86 2.39
4.51 -1.77 2.39
4.54 -1.68 2.39
4.57 -1.58 2.39
4.60 -1.49 2.39
4.62 -1.40 2.39
4.65 -1.30 2.39
4.67 -1.21 2.39
4.69 -1.11 2.39
4.71 -1.02 2.39
4.72 -0.92 2.39
4.74 -0.83 2.39
4.75 -0.73 2.39
4.76 -0.63 2.39
4.77 -0.54 2.39
4.78 -0.44 2.39
4.78 -0.34 2.39
4.78 -0.25 2.39
4.78 -0.15 2.39
4.78 -0.06 2.39
4.78 0.04 2.39
4.77 0.14 2.39
4.77 0.23 2.39
4.76 0.33 2.39
4.75 0.43 2.39
4.74 0.52 2.39
4.72 0.62 2.39
4.71 0.71 2.39
4.69 0.80 2.39
4.67 0.90 2.39
4.65 0.99 2.39
4.62 1.08 2.39
4.60 1.18 2.39
4.57 1.27 2.39
4.54 1.36 2.39
4.51 1.45 2.39
4.48 1.54 2.39
4.44 1.63 2.39
4.41 1.72 2.39
4.37 1.81 2.39
4.33 1.89 2.39
4.29 1.98 2.39
4.25 2.07 2.39
4.20 2.15 2.39
4.16 2.23 2.39
4.11 2.32 2.39
4.06 2.40 2.39
4.01 2.48 2.39
3.96 2.56 2.39
3.90 2.64 2.39
3.85 2.71 2.39
3.79 2.79 2.39
3.73 2.87 2.39
3.67 2.94 2.39
3.61 3.01 2.39
3.55 3.09 2.39
3.49 3.16 2.39
3.42 3.23 2.39
3.18 3.13 2.27
3.12 3.19 2.27
3.07 3.27 2.28
3.07 3.40 2.33
3.03 3.49 2.35
2.95 3.55 2.35
2.88 3.60 2.35
2.76 3.61 2.32
2.65 3.61 2.28
2.56 3.65 2.27
2.49 3.70 2.27
2.54 3.95 2.39
2.46 4.00 2.39
2.38 4.05 2.39
2.31 4.11 2.40
2.22 4.14 2.39
2.13 4.18 2.39
2.12 4.37 2.47
2.05 4.45 2.50
1.96 4.49 2.50
1.86 4.53 2.50
1.77 4.57 2.50
1.68 4.61 2.50
1.59 4.64 2.50
1.49 4.67 2.50
1.40 4.70 2.50
1.30 4.73 2.50
1.21 4.76 2.50
1.11 4.78 2.50
1.02 4.80 2.50
0.92 4.82 2.50
0.82 4.84 2.50
0.72 4.86 2.50
0.62 4.87 2.50
0.53 4.89 2.50
0.43 4.90 2.50
0.33 4.91 2.50
0.23 4.92 2.50
0.13 4.92 2.50
0.03 4.92 2.50
-0.07 4.93 2.50
-0.17 4.93 2.50
-0.27 4.92 2.50
-0.37 4.92 2.50
-0.47 4.91 2.50
-0.57 4.90 2.50
-0.67 4.89 2.50
-0.76 4.88 2.50
-0.86 4.87 2.50
-0.96 4.85 2.50
-1.06 4.83 2.50
-1.16 4.81 2.50
-1.26 4.79 2.50
-1.35 4.77 2.50
-1.45 4.74 2.50
-1.55 4.72 2.50
-1.64 4.69 2.50
-1.74 4.66 2.50
-1.83 4.62 2.50
-1.93 4.59 2.50
-2.02 4.55 2.50
-2.11 4.51 2.50
-2.20 4.47 2.50
-2.29 4.43 2.50
-2.39 4.38 2.50
-2.47 4.34 2.50
-2.56 4.29 2.50
-2.65 4.24 2.50
-2.74 4.19 2.50
-2.82 4.14 2.50
-2.91 4.08 2.50
-2.99 4.02 2.50
-3.07 3.97 2.50
-3.16 3.91 2.50
-3.24 3.85 2.50
-3.32 3.78 2.50
-3.39 3.72 2.50
