ply
format ascii 1.0
element vertex 2992
property float32 x
property float32 y
property float32 z
end_header
5.60 -4.42 2.39
5.69 -4.31 2.39
5.78 -4.19 2.39
5.86 -4.08 2.39
5.94 -3.96 2.39
6.02 -3.84 2.39
6.09 -3.72 2.39
6.97 -4.06 2.70
7.09 -3.94 2.72
7.13 -3.78 2.71
7.18 -3.62 2.70
6.10 -2.93 2.27
6.11 -2.78 2.25
7.30 -3.15 2.67
10.04 -4.09 3.64
10.26 -3.94 3.69
10.52 -3.80 3.75
10.78 -3.65 3.82
11.05 -3.50 3.89
11.31 -3.33 3.96
11.59 -3.16 4.03
11.88 -2.99 4.11
6.11 -1.41 2.11
12.46 -2.61 4.27
12.75 -2.40 4.36
13.04 -2.18 4.44
6.10 -0.90 2.07
13.74 -1.74 4.65
14.20 -1.51 4.80
14.68 -1.26 4.95
6.11 -0.40 2.06
15.84 -0.72 5.33
16.78 -0.42 5.64
17.81 -0.09 5.98
19.24 0.29 6.47
21.90 0.77 7.36
24.45 1.35 8.23
6.11 0.46 2.06
23.19 2.22 7.83
22.95 2.66 7.76
23.36 3.18 7.92
30.35 4.76 10.32
6.11 1.08 2.08
31.53 6.25 10.80
24.34 5.34 8.37
6.11 1.47 2.11
24.12 6.31 8.38
30.65 8.69 10.71
37.85 11.55 13.30
37.50 12.27 13.26
37.09 12.97 13.20
36.73 13.68 13.17
36.39 14.39 13.15
15.83 6.63 5.76
6.13 2.72 2.25
6.12 2.86 2.27
6.11 3.00 2.29
14.86 7.68 5.62
14.71 7.98 5.62
7.26 4.13 2.80
6.12 3.64 2.39
6.04 3.77 2.39
5.97 3.89 2.39
5.89 4.01 2.39
5.81 4.13 2.39
5.72 4.24 2.39
5.64 4.36 2.39
5.55 4.47 2.39
5.46 4.58 2.39
5.37 4.69 2.39
5.27 4.80 2.39
5.17 4.90 2.39
5.08 5.01 2.39
4.97 5.11 2.39
4.87 5.21 2.39
4.77 5.30 2.39
4.66 5.40 2.39
4.55 5.49 2.39
4.44 5.58 2.39
4.33 5.67 2.39
4.21 5.76 2.39
4.10 5.84 2.39
3.98 5.93 2.39
3.86 6.01 2.39
3.74 6.08 2.39
3.62 6.16 2.39
3.49 6.23 2.39
3.20 5.98 2.27
3.08 6.06 2.27
3.06 6.33 2.35
2.94 6.39 2.35
2.81 6.45 2.35
2.58 6.28 2.27
2.49 6.42 2.30
2.46 6.72 2.39
2.33 6.79 2.40
2.18 6.81 2.39
2.14 7.15 2.49
1.99 7.20 2.49
1.85 7.24 2.49
1.70 7.27 2.49
1.56 7.31 2.49
1.41 7.34 2.49
1.26 7.37 2.49
1.11 7.39 2.49
0.97 7.42 2.49
0.82 7.44 2.49
0.67 7.45 2.49
0.52 7.47 2.49
0.37 7.48 2.49
0.22 7.48 2.49
0.07 7.49 2.49
-0.08 7.49 2.49
-0.23 7.49 2.49
-0.38 7.48 2.49
-0.53 7.48 2.49
-0.68 7.46 2.49
-0.83 7.45 2.49
-0.98 7.43 2.49
-1.13 7.42 2.49
-1.28 7.39 2.49
-1.43 7.37 2.49
-1.58 7.34 2.49
-1.73 7.31 2.49
-1.87 7.27 2.49
-2.02 7.23 2.49
-2.16 7.19 2.49
-2.31 7.15 2.49
-2.45 7.10 2.49
-2.59 7.06 2.49
-2.74 7.00 2.49
-2.88 6.95 2.49
-3.02 6.89 2.49
-3.15 6.83 2.49
-3.29 6.77 2.49
-3.43 6.70 2.49
-3.56 6.63 2.49
-3.70 6.56 2.49
-3.83 6.49 2.49
-3.96 6.41 2.49
-4.09 6.33 2.49
-4.21 6.25 2.49
-4.34 6.16 2.49
-4.46 6.08 2.49
-4.58 5.99 2.49
-4.70 5.90 2.49
-4.82 5.80 2.49
-4.94 5.70 2.49
-5.05 5.61 2.49
-5.17 5.50 2.49
-5.28 5.40 2.49
-5.38 5.29 2.49
-5.49 5.19 2.49
-5.59 5.08 2.49
-5.70 4.96 2.49
-5.80 4.85 2.49
-5.89 4.73 2.49
-5.91 4.56 2.46
-5.92 4.37 2.43
-5.93 4.20 2.40
-6.00 4.07 2.39
-6.08 3.95 2.39
-6.16 3.83 2.39
-6.23 3.71 2.39
-6.31 3.58 2.39
-6.38 3.45 2.39
-6.45 3.33 2.39
-6.52 3.20 2.39
-6.58 3.07 2.39
-6.64 2.93 2.39
-6.70 2.80 2.39
-6.75 2.66 2.39
-6.81 2.53 2.39
-6.86 2.39 2.39
-6.90 2.25 2.39
-6.95 2.12 2.39
-6.99 1.98 2.39
-7.03 1.84 2.39
-7.07 1.69 2.39
-7.10 1.55 2.39
-7.13 1.41 2.39
-7.16 1.27 2.39
-7.18 1.12 2.39
-7.20 0.98 2.39
-7.22 0.83 2.39
-7.24 0.69 2.39
-7.25 0.54 2.39
-7.26 0.40 2.39
-7.27 0.25 2.39
-7.27 0.11 2.39
-7.27 -0.04 2.39
-7.27 -0.18 2.39
-7.26 -0.33 2.39
-7.26 -0.47 2.39
-7.25 -0.62 2.39
-7.23 -0.77 2.39
-7.22 -0.91 2.39
-7.20 -1.05 2.39
-7.17 -1.20 2.39
-7.15 -1.34 2.39
-7.12 -1.49 2.39
-7.09 -1.63 2.39
-7.05 -1.77 2.39
-7.02 -1.91 2.39
-6.98 -2.05 2.39
-6.93 -2.19 2.39
-6.89 -2.33 2.39
-6.84 -2.47 2.39
-6.79 -2.60 2.39
-6.74 -2.74 2.39
-6.68 -2.87 2.39
-6.62 -3.01 2.39
-6.56 -3.14 2.39
-6.49 -3.27 2.39
-6.43 -3.40 2.39
-6.36 -3.53 2.39
-6.28 -3.65 2.39
-6.21 -3.78 2.39
-6.14 -3.91 2.39
-6.05 -4.02 2.39
-5.97 -4.14 2.39
-5.93 -4.30 2.41
-5.93 -4.48 2.44
-5.93 -4.67 2.48
-5.86 -4.80 2.49
-5.76 -4.92 2.49
-5.66 -5.03 2.49
-5.56 -5.15 2.49
-5.45 -5.26 2.49
-5.34 -5.36 2.49
-5.23 -5.47 2.49
-5.12 -5.57 2.49
-5.01 -5.67 2.49
-4.89 -5.77 2.49
-4.78 -5.87 2.49
-4.66 -5.96 2.49
-4.54 -6.05 2.49
-4.41 -6.14 2.49
-4.29 -6.23 2.49
-4.16 -6.31 2.49
-4.03 -6.39 2.49
-3.90 -6.47 2.49
-3.77 -6.55 2.49
-3.64 -6.62 2.49
-3.51 -6.69 2.49
-3.37 -6.76 2.49
-3.23 -6.82 2.49
-3.10 -6.89 2.49
-2.96 -6.95 2.49
-2.82 -7.00 2.49
-2.67 -7.06 2.49
-2.53 -7.11 2.49
-2.39 -7.15 2.49
-2.24 -7.20 2.49
-2.10 -7.24 2.49
-1.95 -7.28 2.49
-1.81 -7.32 2.49
-1.66 -7.35 2.49
-1.51 -7.38 2.49
-1.36 -7.41 2.49
-1.21 -7.43 2.49
-1.06 -7.45 2.49
-0.91 -7.47 2.49
-0.76 -7.49 2.49
-0.61 -7.50 2.49
-0.46 -7.51 2.49
-0.31 -7.51 2.49
-0.16 -7.52 2.49
-0.01 -6.99 2.49
0.13 -6.98 2.49
0.27 -6.98 2.49
0.41 -6.97 2.49
0.55 -6.96 2.49
0.69 -6.95 2.49
0.83 -6.93 2.49
0.97 -6.91 2.49
1.11 -6.89 2.49
1.25 -6.86 2.49
1.38 -6.83 2.49
1.52 -6.80 2.49
1.65 -6.77 2.49
1.79 -6.73 2.49
1.92 -6.70 2.49
2.06 -6.65 2.49
2.12 -6.40 2.42
2.23 -6.29 2.39
2.35 -6.24 2.39
2.48 -6.20 2.39
2.60 -6.14 2.39
2.72 -6.09 2.39
2.84 -6.03 2.39
2.96 -5.97 2.39
3.08 -5.91 2.39
3.20 -5.85 2.39
3.32 -5.78 2.39
3.43 -5.71 2.39
3.54 -5.64 2.39
3.65 -5.57 2.39
3.77 -5.49 2.39
3.87 -5.41 2.39
3.98 -5.33 2.39
4.09 -5.25 2.39
4.19 -5.17 2.39
4.29 -5.08 2.39
4.39 -4.99 2.39
4.49 -4.90 2.39
4.59 -4.81 2.39
4.68 -4.72 2.39
4.78 -4.62 2.39
4.87 -4.52 2.39
4.96 -4.42 2.39
5.04 -4.32 2.39
5.13 -4.22 2.39
5.21 -4.11 2.39
5.29 -4.01 2.39
5.37 -3.90 2.39
5.45 -3.79 2.39
5.52 -3.68 2.39
5.59 -3.57 2.39
5.66 -3.46 2.39
5.73 -3.34 2.39
5.80 -3.22 2.39
5.86 -3.11 2.39
5.92 -2.99 2.39
5.98 -2.87 2.39
6.03 -2.75 2.39
6.09 -2.62 2.39
6.14 -2.50 2.39
7.06 -2.71 2.73
7.09 -2.56 2.72
7.12 -2.41 2.71
7.15 -2.27 2.71
7.18 -2.12 2.70
7.11 -1.94 2.66
6.11 -1.54 2.27
6.11 -1.41 2.26
6.11 -1.28 2.25
7.30 -1.37 2.68
6.11 -1.02 2.24
6.10 -0.90 2.23
11.76 -1.49 4.28
12.02 -1.28 4.37
12.28 -1.05 4.45
12.54 -0.82 4.54
12.80 -0.58 4.63
13.06 -0.33 4.72
13.32 -0.07 4.81
13.62 0.20 4.92
13.97 0.49 5.05
14.31 0.79 5.18
14.66 1.10 5.31
15.00 1.43 5.44
15.34 1.78 5.58
15.87 2.16 5.79
6.11 0.96 2.24
6.11 1.08 2.24
6.12 1.21 2.25
6.11 1.34 2.26
6.11 1.47 2.27
24.12 6.31 9.01
29.64 8.40 11.13
32.28 9.85 12.19
32.32 10.58 12.29
32.08 11.22 12.28
7.25 2.70 2.80
7.16 2.83 2.78
6.10 2.56 2.39
6.05 2.68 2.39
6.00 2.80 2.39
5.94 2.92 2.39
5.88 3.04 2.39
5.82 3.16 2.39
5.75 3.27 2.39
5.69 3.39 2.39
5.62 3.50 2.39
5.55 3.62 2.39
5.47 3.73 2.39
5.40 3.84 2.39
5.32 3.94 2.39
5.24 4.05 2.39
5.16 4.16 2.39
5.08 4.26 2.39
4.99 4.36 2.39
4.90 4.46 2.39
4.81 4.56 2.39
4.72 4.66 2.39
4.63 4.75 2.39
4.53 4.84 2.39
4.43 4.93 2.39
4.33 5.02 2.39
4.23 5.11 2.39
4.13 5.19 2.39
4.02 5.28 2.39
3.92 5.36 2.39
3.81 5.43 2.39
3.70 5.51 2.39
3.59 5.59 2.39
3.48 5.66 2.39
3.19 5.44 2.27
3.09 5.51 2.27
3.07 5.75 2.35
2.96 5.82 2.35
2.85 5.88 2.35
2.73 5.94 2.35
2.52 5.79 2.27
2.49 6.05 2.35
2.41 6.20 2.39
2.28 6.25 2.39
2.16 6.29 2.39
2.12 6.61 2.49
1.99 6.65 2.49
1.85 6.69 2.49
1.72 6.73 2.49
1.58 6.76 2.49
1.45 6.79 2.49
1.31 6.82 2.49
1.17 6.85 2.49
1.03 6.87 2.49
0.90 6.89 2.49
0.76 6.91 2.49
0.62 6.93 2.49
0.48 6.94 2.49
0.34 6.95 2.49
0.20 6.96 2.49
0.06 6.96 2.49
-0.08 6.96 2.49
-0.22 6.96 2.49
-0.36 6.96 2.49
-0.50 6.95 2.49
-0.64 6.94 2.49
-0.78 6.93 2.49
-0.92 6.91 2.49
-1.05 6.89 2.49
-1.19 6.87 2.49
-1.33 6.85 2.49
-1.47 6.82 2.49
-1.60 6.79 2.49
-1.74 6.76 2.49
-1.88 6.72 2.49
-2.01 6.69 2.49
-2.15 6.65 2.49
-2.28 6.60 2.49
-2.41 6.56 2.49
-2.54 6.51 2.49
-2.67 6.46 2.49
-2.80 6.40 2.49
-2.93 6.35 2.49
-3.06 6.29 2.49
-3.19 6.23 2.49
-3.31 6.16 2.49
-3.43 6.10 2.49
-3.56 6.03 2.49
-3.68 5.96 2.49
-3.80 5.88 2.49
-3.92 5.81 2.49
-4.03 5.73 2.49
-4.15 5.65 2.49
-4.26 5.56 2.49
-4.37 5.48 2.49
-4.48 5.39 2.49
-4.59 5.30 2.49
-4.70 5.21 2.49
-4.80 5.11 2.49
-4.90 5.02 2.49
-5.00 4.92 2.49
-5.10 4.82 2.49
-5.20 4.72 2.49
-5.29 4.61 2.49
-5.39 4.51 2.49
-5.48 4.40 2.49
-5.56 4.29 2.49
-5.65 4.18 2.49
-5.73 4.06 2.49
-5.81 3.95 2.49
-5.89 3.83 2.49
-5.91 3.68 2.47
-5.91 3.52 2.44
-5.92 3.36 2.42
-5.93 3.21 2.39
-5.99 3.09 2.39
-6.05 2.97 2.39
-6.13 2.85 2.40
-6.17 2.72 2.39
-6.22 2.60 2.39
-6.27 2.48 2.39
-6.32 2.35 2.39
-6.37 2.22 2.39
-6.41 2.09 2.39
-6.46 1.97 2.39
-6.49 1.84 2.39
-6.53 1.71 2.39
-6.56 1.57 2.39
-6.59 1.44 2.39
-6.62 1.31 2.39
-6.65 1.18 2.39
-6.67 1.04 2.39
-6.69 0.91 2.39
-6.71 0.78 2.39
-6.72 0.64 2.39
-6.73 0.51 2.39
-6.74 0.37 2.39
-6.75 0.24 2.39
-6.75 0.10 2.39
-6.75 -0.04 2.39
-6.75 -0.17 2.39
-6.75 -0.31 2.39
-6.74 -0.44 2.39
-6.73 -0.58 2.39
-6.72 -0.71 2.39
-6.70 -0.85 2.39
-6.68 -0.98 2.39
-6.66 -1.11 2.39
-6.64 -1.25 2.39
-6.61 -1.38 2.39
-6.58 -1.51 2.39
-6.55 -1.64 2.39
-6.52 -1.78 2.39
-6.48 -1.91 2.39
-6.44 -2.03 2.39
-6.40 -2.16 2.39
-6.35 -2.29 2.39
-6.31 -2.42 2.39
-6.26 -2.54 2.39
-6.20 -2.67 2.39
-6.15 -2.79 2.39
-6.09 -2.92 2.39
-6.03 -3.04 2.39
-5.97 -3.16 2.39
-5.93 -3.29 2.40
-5.93 -3.45 2.43
-5.92 -3.60 2.46
-5.93 -3.77 2.49
-5.86 -3.90 2.49
-5.78 -4.01 2.49
-5.70 -4.13 2.49
-5.62 -4.24 2.49
-5.53 -4.35 2.49
-5.44 -4.46 2.49
-5.35 -4.57 2.49
-5.26 -4.68 2.49
-5.16 -4.78 2.49
-5.06 -4.88 2.49
-4.96 -4.98 2.49
-4.86 -5.08 2.49
-4.76 -5.18 2.49
-4.65 -5.27 2.49
-4.55 -5.36 2.49
-4.44 -5.45 2.49
-4.33 -5.54 2.49
-4.21 -5.62 2.49
-4.10 -5.71 2.49
-3.98 -5.79 2.49
-3.87 -5.86 2.49
-3.75 -5.94 2.49
-3.63 -6.01 2.49
-3.51 -6.08 2.49
-3.38 -6.15 2.49
-3.26 -6.22 2.49
-3.13 -6.28 2.49
-3.01 -6.34 2.49
-2.88 -6.40 2.49
-2.75 -6.45 2.49
-2.62 -6.51 2.49
-2.49 -6.56 2.49
-2.35 -6.60 2.49
-2.22 -6.65 2.49
-2.09 -6.69 2.49
-1.95 -6.73 2.49
-1.81 -6.77 2.49
-1.68 -6.80 2.49
-1.54 -6.83 2.49
-1.40 -6.86 2.49
-1.27 -6.88 2.49
-1.13 -6.91 2.49
-0.99 -6.93 2.49
-0.85 -6.94 2.49
-0.71 -6.96 2.49
-0.57 -6.97 2.49
-0.43 -6.98 2.49
-0.29 -6.98 2.49
-0.15 -6.99 2.49
-0.01 -6.52 2.49
0.12 -6.52 2.49
0.25 -6.51 2.49
0.38 -6.50 2.49
0.51 -6.49 2.49
0.64 -6.48 2.49
0.77 -6.47 2.49
0.90 -6.45 2.49
1.03 -6.43 2.49
1.16 -6.40 2.49
1.29 -6.38 2.49
1.42 -6.35 2.49
1.54 -6.32 2.49
1.67 -6.28 2.49
1.80 -6.25 2.49
1.92 -6.21 2.49
2.04 -6.17 2.49
2.12 -5.99 2.44
2.19 -5.83 2.39
2.31 -5.78 2.39
2.43 -5.73 2.39
2.54 -5.68 2.39
2.65 -5.63 2.39
2.76 -5.57 2.39
2.88 -5.52 2.39
2.99 -5.46 2.39
3.09 -5.39 2.39
3.20 -5.33 2.39
3.31 -5.26 2.39
3.41 -5.20 2.39
3.51 -5.12 2.39
3.62 -5.05 2.39
3.72 -4.98 2.39
3.81 -4.90 2.39
3.91 -4.82 2.39
4.01 -4.74 2.39
4.10 -4.66 2.39
4.19 -4.58 2.39
4.28 -4.49 2.39
4.37 -4.40 2.39
4.46 -4.31 2.39
4.54 -4.22 2.39
4.63 -4.13 2.39
4.71 -4.03 2.39
4.79 -3.94 2.39
4.86 -3.84 2.39
4.94 -3.74 2.39
5.01 -3.64 2.39
5.08 -3.54 2.39
5.15 -3.44 2.39
5.22 -3.33 2.39
5.29 -3.23 2.39
5.35 -3.12 2.39
5.41 -3.01 2.39
5.47 -2.90 2.39
5.53 -2.79 2.39
5.58 -2.68 2.39
5.63 -2.56 2.39
5.68 -2.45 2.39
5.73 -2.34 2.39
5.77 -2.22 2.39
5.82 -2.10 2.39
5.86 -1.99 2.39
5.90 -1.87 2.39
5.93 -1.75 2.39
5.97 -1.63 2.39
6.00 -1.51 2.39
6.03 -1.39 2.39
6.05 -1.27 2.39
6.08 -1.14 2.39
6.10 -1.02 2.39
6.10 -0.90 2.39
6.13 -0.78 2.39
6.86 -0.73 2.67
6.89 -0.59 2.68
6.92 -0.45 2.68
6.94 -0.32 2.69
6.99 -0.18 2.70
7.05 -0.04 2.73
7.11 0.11 2.75
7.13 0.25 2.76
7.13 0.39 2.76
7.14 0.54 2.77
7.14 0.68 2.77
6.14 0.71 2.39
6.12 0.83 2.39
6.10 0.96 2.39
6.08 1.08 2.39
6.06 1.20 2.39
6.03 1.32 2.39
6.01 1.44 2.39
5.98 1.56 2.39
5.94 1.68 2.39
5.91 1.80 2.39
5.87 1.92 2.39
5.83 2.04 2.39
5.79 2.16 2.39
5.75 2.27 2.39
5.70 2.39 2.39
5.65 2.50 2.39
5.60 2.62 2.39
5.55 2.73 2.39
5.49 2.84 2.39
5.43 2.95 2.39
5.37 3.06 2.39
5.31 3.16 2.39
5.25 3.27 2.39
5.18 3.38 2.39
5.11 3.48 2.39
5.04 3.58 2.39
4.97 3.68 2.39
4.89 3.78 2.39
4.82 3.88 2.39
4.74 3.98 2.39
4.66 4.07 2.39
4.58 4.16 2.39
4.49 4.26 2.39
4.41 4.35 2.39
4.32 4.43 2.39
4.23 4.52 2.39
4.14 4.61 2.39
4.04 4.69 2.39
3.95 4.77 2.39
3.85 4.85 2.39
3.76 4.93 2.39
3.66 5.00 2.39
3.56 5.07 2.39
3.45 5.14 2.39
3.18 4.95 2.27
3.09 5.02 2.27
3.08 5.24 2.34
2.98 5.32 2.35
2.87 5.38 2.35
2.77 5.44 2.35
2.56 5.30 2.27
2.49 5.42 2.30
2.48 5.69 2.39
2.36 5.74 2.39
2.25 5.79 2.39
2.14 5.87 2.41
2.10 6.13 2.49
1.98 6.17 2.49
1.85 6.21 2.49
1.73 6.25 2.49
1.60 6.28 2.49
1.48 6.31 2.49
1.35 6.34 2.49
1.22 6.37 2.49
1.09 6.39 2.49
0.97 6.42 2.49
0.84 6.43 2.49
0.71 6.45 2.49
0.58 6.47 2.49
0.45 6.48 2.49
0.32 6.49 2.49
0.19 6.49 2.49
0.06 6.50 2.49
-0.07 6.50 2.49
-0.20 6.50 2.49
-0.33 6.49 2.49
-0.46 6.48 2.49
-0.59 6.48 2.49
-0.72 6.46 2.49
-0.85 6.45 2.49
-0.98 6.43 2.49
-1.11 6.41 2.49
-1.24 6.39 2.49
-1.37 6.36 2.49
-1.50 6.34 2.49
-1.63 6.31 2.49
-1.75 6.27 2.49
-1.88 6.24 2.49
-2.00 6.20 2.49
-2.13 6.16 2.49
-2.25 6.12 2.49
-2.37 6.07 2.49
-2.50 6.03 2.49
-2.62 5.98 2.49
-2.74 5.92 2.49
-2.86 5.87 2.49
-2.97 5.81 2.49
-3.09 5.75 2.49
-3.21 5.69 2.49
-3.32 5.62 2.49
-3.43 5.56 2.49
-3.54 5.49 2.49
-3.65 5.42 2.49
-3.76 5.34 2.49
-3.87 5.27 2.49
-3.97 5.19 2.49
-4.08 5.11 2.49
-4.18 5.03 2.49
-4.28 4.94 2.49
-4.38 4.86 2.49
-4.48 4.77 2.49
-4.57 4.68 2.49
-4.67 4.59 2.49
-4.76 4.49 2.49
-4.85 4.40 2.49
-4.94 4.30 2.49
-5.02 4.20 2.49
-5.11 4.10 2.49
-5.19 4.00 2.49
-5.27 3.89 2.49
-5.35 3.79 2.49
-5.42 3.68 2.49
-5.50 3.57 2.49
-5.57 3.46 2.49
-5.64 3.35 2.49
-5.70 3.24 2.49
-5.77 3.12 2.49
-5.83 3.01 2.49
-5.89 2.89 2.49
-5.92 2.76 2.48
-5.92 2.61 2.46
-5.92 2.47 2.44
-5.92 2.34 2.42
-5.93 2.20 2.40
-5.94 2.07 2.39
-5.98 1.95 2.39
-6.02 1.83 2.39
-6.06 1.71 2.39
-6.09 1.59 2.39
-6.13 1.47 2.39
-6.15 1.35 2.39
-6.18 1.22 2.39
-6.20 1.10 2.39
-6.22 0.97 2.39
-6.24 0.85 2.39
-6.26 0.72 2.39
-6.27 0.60 2.39
-6.28 0.47 2.39
-6.29 0.35 2.39
-6.30 0.22 2.39
-6.30 0.09 2.39
-6.30 -0.03 2.39
-6.30 -0.16 2.39
-6.29 -0.29 2.39
-6.29 -0.41 2.39
-6.28 -0.54 2.39
-6.27 -0.66 2.39
-6.25 -0.79 2.39
-6.23 -0.91 2.39
-6.21 -1.04 2.39
-6.19 -1.16 2.39
-6.17 -1.29 2.39
-6.14 -1.41 2.39
-6.13 -1.54 2.40
-6.08 -1.66 2.39
-6.04 -1.78 2.39
-6.01 -1.90 2.39
-5.97 -2.02 2.39
-5.93 -2.14 2.39
-5.93 -2.27 2.41
-5.93 -2.41 2.43
-5.92 -2.55 2.45
-5.92 -2.69 2.47
-5.92 -2.83 2.49
-5.87 -2.95 2.49
-5.81 -3.07 2.49
-5.74 -3.19 2.49
-5.68 -3.30 2.49
-5.61 -3.41 2.49
-5.54 -3.53 2.49
-5.47 -3.64 2.49
-5.39 -3.74 2.49
-5.32 -3.85 2.49
-5.24 -3.96 2.49
-5.16 -4.06 2.49
-5.08 -4.16 2.49
-4.99 -4.26 2.49
-4.90 -4.36 2.49
-4.81 -4.46 2.49
-4.72 -4.55 2.49
-4.63 -4.65 2.49
-4.54 -4.74 2.49
-4.44 -4.83 2.49
-4.34 -4.92 2.49
-4.24 -5.00 2.49
-4.14 -5.08 2.49
-4.04 -5.17 2.49
-3.93 -5.25 2.49
-3.83 -5.32 2.49
-3.72 -5.40 2.49
-3.61 -5.47 2.49
-3.50 -5.54 2.49
-3.38 -5.61 2.49
-3.27 -5.67 2.49
-3.16 -5.74 2.49
-3.04 -5.80 2.49
-2.92 -5.86 2.49
-2.80 -5.91 2.49
-2.68 -5.97 2.49
-2.56 -6.02 2.49
-2.44 -6.07 2.49
-2.32 -6.12 2.49
-2.20 -6.16 2.49
-2.07 -6.20 2.49
-1.95 -6.24 2.49
-1.82 -6.28 2.49
-1.69 -6.31 2.49
-1.57 -6.34 2.49
-1.44 -6.37 2.49
-1.31 -6.40 2.49
-1.18 -6.42 2.49
-1.05 -6.44 2.49
-0.92 -6.46 2.49
-0.79 -6.48 2.49
-0.66 -6.49 2.49
-0.53 -6.50 2.49
-0.40 -6.51 2.49
-0.27 -6.52 2.49
-0.14 -6.52 2.49
-0.01 -6.10 2.49
0.11 -6.10 2.49
0.24 -6.10 2.49
0.36 -6.09 2.49
0.48 -6.08 2.49
0.60 -6.07 2.49
0.72 -6.05 2.49
0.85 -6.04 2.49
0.97 -6.02 2.49
1.09 -6.00 2.49
1.21 -5.97 2.49
1.33 -5.95 2.49
1.44 -5.92 2.49
1.56 -5.88 2.49
1.68 -5.85 2.49
1.80 -5.82 2.49
1.91 -5.78 2.49
2.03 -5.74 2.49
2.12 -5.63 2.47
2.16 -5.41 2.39
2.27 -5.37 2.39
2.38 -5.32 2.39
2.48 -5.27 2.39
2.59 -5.22 2.39
2.69 -5.17 2.39
2.80 -5.11 2.39
2.90 -5.05 2.39
3.00 -4.99 2.39
3.10 -4.93 2.39
3.19 -4.87 2.39
3.29 -4.80 2.39
3.39 -4.73 2.39
3.48 -4.66 2.39
3.57 -4.59 2.39
3.66 -4.52 2.39
3.75 -4.44 2.39
3.84 -4.36 2.39
3.93 -4.29 2.39
4.01 -4.21 2.39
4.09 -4.12 2.39
4.18 -4.04 2.39
4.25 -3.95 2.39
4.33 -3.87 2.39
4.41 -3.78 2.39
4.48 -3.69 2.39
4.56 -3.60 2.39
4.63 -3.51 2.39
4.70 -3.41 2.39
4.76 -3.32 2.39
4.83 -3.22 2.39
4.89 -3.12 2.39
4.95 -3.02 2.39
5.01 -2.92 2.39
5.07 -2.82 2.39
5.12 -2.72 2.39
5.18 -2.61 2.39
5.23 -2.51 2.39
5.28 -2.40 2.39
5.32 -2.30 2.39
5.37 -2.19 2.39
5.41 -2.08 2.39
5.45 -1.97 2.39
5.49 -1.86 2.39
5.52 -1.75 2.39
5.56 -1.64 2.39
5.59 -1.53 2.39
5.62 -1.41 2.39
5.64 -1.30 2.39
5.67 -1.19 2.39
5.69 -1.07 2.39
5.71 -0.96 2.39
5.73 -0.84 2.39
5.74 -0.73 2.39
5.76 -0.61 2.39
5.77 -0.50 2.39
5.78 -0.38 2.39
5.78 -0.26 2.39
5.79 -0.15 2.39
5.79 -0.03 2.39
5.79 0.09 2.39
5.78 0.20 2.39
5.78 0.32 2.39
5.77 0.43 2.39
5.76 0.55 2.39
5.75 0.67 2.39
5.73 0.78 2.39
5.72 0.90 2.39
5.70 1.01 2.39
5.68 1.13 2.39
5.65 1.24 2.39
5.63 1.35 2.39
5.60 1.47 2.39
5.57 1.58 2.39
5.54 1.69 2.39
5.50 1.80 2.39
5.46 1.91 2.39
5.42 2.02 2.39
5.38 2.13 2.39
5.34 2.24 2.39
5.29 2.34 2.39
5.25 2.45 2.39
5.20 2.56 2.39
5.14 2.66 2.39
5.09 2.76 2.39
5.03 2.86 2.39
4.97 2.96 2.39
4.91 3.06 2.39
4.85 3.16 2.39
4.79 3.26 2.39
4.72 3.36 2.39
4.65 3.45 2.39
4.58 3.54 2.39
4.51 3.63 2.39
4.44 3.73 2.39
4.36 3.81 2.39
4.29 3.90 2.39
4.21 3.99 2.39
4.13 4.07 2.39
4.04 4.15 2.39
3.96 4.23 2.39
3.88 4.31 2.39
3.79 4.39 2.39
3.70 4.47 2.39
3.61 4.54 2.39
3.52 4.61 2.39
3.43 4.68 2.39
3.16 4.51 2.27
3.08 4.59 2.28
3.08 4.79 2.34
2.99 4.87 2.35
2.89 4.92 2.35
2.79 4.98 2.35
2.60 4.86 2.27
2.50 4.92 2.27
2.49 5.15 2.35
2.42 5.28 2.39
2.33 5.34 2.40
2.21 5.38 2.39
2.14 5.51 2.43
2.08 5.70 2.49
1.97 5.74 2.49
1.85 5.78 2.49
1.73 5.82 2.49
1.62 5.85 2.49
1.50 5.88 2.49
1.38 5.91 2.49
1.26 5.94 2.49
1.14 5.96 2.49
1.02 5.99 2.49
0.90 6.01 2.49
0.78 6.03 2.49
0.66 6.04 2.49
0.54 6.05 2.49
0.42 6.07 2.49
0.30 6.07 2.49
0.18 6.08 2.49
0.05 6.08 2.49
-0.07 6.08 2.49
-0.19 6.08 2.49
-0.31 6.08 2.49
-0.44 6.07 2.49
-0.56 6.06 2.49
-0.68 6.05 2.49
-0.80 6.04 2.49
-0.92 6.02 2.49
-1.04 6.00 2.49
-1.16 5.98 2.49
-1.28 5.96 2.49
-1.40 5.93 2.49
-1.52 5.91 2.49
-1.64 5.87 2.49
-1.76 5.84 2.49
-1.88 5.81 2.49
-1.99 5.77 2.49
-2.11 5.73 2.49
-2.22 5.69 2.49
-2.34 5.64 2.49
-2.45 5.59 2.49
-2.56 5.54 2.49
-2.67 5.49 2.49
-2.78 5.44 2.49
-2.89 5.38 2.49
-3.00 5.33 2.49
-3.11 5.27 2.49
-3.21 5.20 2.49
-3.32 5.14 2.49
-3.42 5.07 2.49
-3.52 5.00 2.49
-3.62 4.93 2.49
-3.72 4.86 2.49
-3.82 4.78 2.49
-3.91 4.71 2.49
-4.01 4.63 2.49
-4.10 4.55 2.49
-4.19 4.47 2.49
-4.28 4.38 2.49
-4.37 4.30 2.49
-4.46 4.21 2.49
-4.54 4.12 2.49
-4.62 4.03 2.49
-4.70 3.93 2.49
-4.78 3.84 2.49
-4.86 3.74 2.49
-4.93 3.65 2.49
-5.01 3.55 2.49
-5.08 3.45 2.49
-5.15 3.34 2.49
-5.21 3.24 2.49
-5.28 3.13 2.49
-5.34 3.03 2.49
-5.40 2.92 2.49
-5.46 2.81 2.49
-5.51 2.70 2.49
-5.57 2.59 2.49
-5.62 2.48 2.49
-5.67 2.37 2.49
-5.71 2.25 2.49
-5.76 2.14 2.49
-5.80 2.02 2.49
-5.84 1.91 2.49
-5.88 1.79 2.49
-5.91 1.67 2.49
-5.92 1.54 2.48
-5.92 1.42 2.47
-5.92 1.29 2.46
-5.92 1.17 2.45
-5.92 1.05 2.44
-5.92 0.93 2.43
-5.92 0.81 2.42
-5.92 0.68 2.42
-5.93 0.56 2.41
-5.93 0.45 2.41
-5.93 0.33 2.41
-5.93 0.21 2.41
-5.93 0.09 2.40
-5.93 -0.03 2.40
-5.93 -0.15 2.40
-5.93 -0.27 2.41
-5.93 -0.39 2.41
-5.93 -0.51 2.41
-5.93 -0.63 2.42
-5.93 -0.75 2.42
-5.92 -0.87 2.43
-5.92 -0.99 2.43
-5.92 -1.11 2.44
-5.92 -1.24 2.45
-5.92 -1.36 2.46
-5.92 -1.49 2.48
-5.92 -1.61 2.49
-5.90 -1.73 2.49
-5.87 -1.85 2.49
-5.83 -1.97 2.49
-5.79 -2.09 2.49
-5.74 -2.20 2.49
-5.70 -2.32 2.49
-5.65 -2.43 2.49
-5.60 -2.54 2.49
-5.55 -2.65 2.49
-5.49 -2.76 2.49
-5.44 -2.87 2.49
-5.38 -2.98 2.49
-5.32 -3.09 2.49
-5.25 -3.20 2.49
-5.19 -3.30 2.49
-5.12 -3.40 2.49
-5.05 -3.50 2.49
-4.98 -3.60 2.49
-4.90 -3.70 2.49
-4.83 -3.80 2.49
-4.75 -3.90 2.49
-4.67 -3.99 2.49
-4.59 -4.08 2.49
-4.51 -4.17 2.49
-4.42 -4.26 2.49
-4.33 -4.35 2.49
-4.25 -4.44 2.49
-4.16 -4.52 2.49
-4.06 -4.60 2.49
-3.97 -4.68 2.49
-3.88 -4.76 2.49
-3.78 -4.84 2.49
-3.68 -4.91 2.49
-3.58 -4.98 2.49
-3.48 -5.05 2.49
-3.38 -5.12 2.49
-3.27 -5.19 2.49
-3.17 -5.25 2.49
-3.06 -5.31 2.49
-2.95 -5.37 2.49
-2.85 -5.43 2.49
-2.74 -5.48 2.49
-2.62 -5.54 2.49
-2.51 -5.59 2.49
-2.40 -5.64 2.49
-2.29 -5.68 2.49
-2.17 -5.73 2.49
-2.06 -5.77 2.49
-1.94 -5.81 2.49
-1.82 -5.84 2.49
-1.70 -5.88 2.49
-1.59 -5.91 2.49
-1.47 -5.94 2.49
-1.35 -5.97 2.49
-1.23 -5.99 2.49
-1.11 -6.01 2.49
-0.99 -6.03 2.49
-0.86 -6.05 2.49
-0.74 -6.07 2.49
-0.62 -6.08 2.49
-0.50 -6.09 2.49
-0.38 -6.10 2.49
-0.25 -6.10 2.49
-0.13 -6.10 2.49
-0.01 -5.73 2.49
0.11 -5.73 2.49
0.22 -5.73 2.49
0.34 -5.72 2.49
0.45 -5.71 2.49
0.57 -5.70 2.49
0.68 -5.69 2.49
0.79 -5.67 2.49
0.91 -5.65 2.49
1.02 -5.63 2.49
1.13 -5.61 2.49
1.24 -5.58 2.49
1.36 -5.56 2.49
1.47 -5.53 2.49
1.58 -5.50 2.49
1.69 -5.46 2.49
1.80 -5.43 2.49
1.90 -5.39 2.49
2.01 -5.35 2.49
2.12 -5.30 2.49
2.13 -5.04 2.39
2.23 -5.00 2.39
2.33 -4.95 2.39
2.43 -4.90 2.39
2.53 -4.85 2.39
2.62 -4.80 2.39
2.72 -4.74 2.39
2.81 -4.69 2.39
2.91 -4.63 2.39
3.00 -4.57 2.39
3.09 -4.51 2.39
3.18 -4.44 2.39
3.27 -4.38 2.39
3.35 -4.31 2.39
3.44 -4.24 2.39
3.52 -4.17 2.39
3.61 -4.10 2.39
3.69 -4.03 2.39
3.77 -3.95 2.39
3.85 -3.87 2.39
3.92 -3.80 2.39
4.00 -3.72 2.39
4.07 -3.63 2.39
4.14 -3.55 2.39
4.21 -3.47 2.39
4.28 -3.38 2.39
4.35 -3.29 2.39
4.41 -3.20 2.39
4.47 -3.12 2.39
4.53 -3.02 2.39
4.59 -2.93 2.39
4.65 -2.84 2.39
4.71 -2.74 2.39
4.76 -2.65 2.39
4.81 -2.55 2.39
4.86 -2.46 2.39
4.91 -2.36 2.39
4.96 -2.26 2.39
5.00 -2.16 2.39
5.04 -2.06 2.39
5.08 -1.95 2.39
5.12 -1.85 2.39
5.15 -1.75 2.39
5.19 -1.64 2.39
5.22 -1.54 2.39
5.25 -1.43 2.39
5.28 -1.33 2.39
5.30 -1.22 2.39
5.33 -1.11 2.39
5.35 -1.01 2.39
5.37 -0.90 2.39
5.38 -0.79 2.39
5.40 -0.68 2.39
5.41 -0.57 2.39
5.42 -0.47 2.39
5.43 -0.36 2.39
5.43 -0.25 2.39
5.44 -0.14 2.39
5.44 -0.03 2.39
5.44 0.08 2.39
5.43 0.19 2.39
5.43 0.30 2.39
5.42 0.41 2.39
5.41 0.52 2.39
5.40 0.63 2.39
5.39 0.73 2.39
5.37 0.84 2.39
5.35 0.95 2.39
5.33 1.06 2.39
5.31 1.16 2.39
5.29 1.27 2.39
5.26 1.38 2.39
5.23 1.48 2.39
5.20 1.59 2.39
5.17 1.69 2.39
5.13 1.80 2.39
5.10 1.90 2.39
5.06 2.00 2.39
5.02 2.10 2.39
4.97 2.20 2.39
4.93 2.30 2.39
4.88 2.40 2.39
4.83 2.50 2.39
4.78 2.59 2.39
4.73 2.69 2.39
4.67 2.79 2.39
4.62 2.88 2.39
4.56 2.97 2.39
4.50 3.06 2.39
4.44 3.15 2.39
4.37 3.24 2.39
4.31 3.33 2.39
4.24 3.41 2.39
4.17 3.50 2.39
4.10 3.58 2.39
4.03 3.67 2.39
3.95 3.75 2.39
3.88 3.82 2.39
3.80 3.90 2.39
3.72 3.98 2.39
3.64 4.05 2.39
3.56 4.13 2.39
3.48 4.20 2.39
3.39 4.27 2.39
3.14 4.11 2.27
3.08 4.21 2.29
3.07 4.38 2.35
2.99 4.45 2.35
2.90 4.51 2.35
2.81 4.57 2.35
2.62 4.46 2.27
2.53 4.52 2.27
2.49 4.66 2.32
2.47 4.86 2.39
2.38 4.91 2.39
2.28 4.96 2.39
2.18 5.01 2.39
2.13 5.19 2.46
2.06 5.31 2.49
1.95 5.35 2.49
1.85 5.39 2.49
1.74 5.43 2.49
1.63 5.46 2.49
1.52 5.49 2.49
1.41 5.52 2.49
1.30 5.55 2.49
1.19 5.58 2.49
1.07 5.60 2.49
0.96 5.62 2.49
0.85 5.64 2.49
0.73 5.66 2.49
0.62 5.67 2.49
0.51 5.69 2.49
0.39 5.70 2.49
0.28 5.70 2.49
0.16 5.71 2.49
0.05 5.71 2.49
-0.07 5.71 2.49
-0.18 5.71 2.49
-0.29 5.71 2.49
-0.41 5.70 2.49
-0.52 5.69 2.49
-0.64 5.68 2.49
-0.75 5.67 2.49
-0.87 5.66 2.49
-0.98 5.64 2.49
-1.09 5.62 2.49
-1.21 5.60 2.49
-1.32 5.57 2.49
-1.43 5.55 2.49
-1.54 5.52 2.49
-1.65 5.49 2.49
-1.76 5.45 2.49
-1.87 5.42 2.49
-1.98 5.38 2.49
-2.09 5.34 2.49
-2.20 5.30 2.49
-2.30 5.25 2.49
-2.41 5.21 2.49
-2.51 5.16 2.49
-2.61 5.11 2.49
-2.72 5.05 2.49
-2.82 5.00 2.49
-2.92 4.94 2.49
-3.02 4.88 2.49
-3.12 4.82 2.49
-3.21 4.76 2.49
-3.31 4.70 2.49
-3.40 4.63 2.49
-3.49 4.56 2.49
-3.59 4.49 2.49
-3.68 4.42 2.49
-3.76 4.35 2.49
-3.85 4.27 2.49
-3.94 4.19 2.49
-4.02 4.11 2.49
-4.10 4.03 2.49
-4.18 3.95 2.49
-4.26 3.87 2.49
-4.34 3.78 2.49
-4.42 3.69 2.49
-4.49 3.60 2.49
-4.56 3.51 2.49
-4.63 3.42 2.49
-4.70 3.33 2.49
-4.77 3.23 2.49
-4.83 3.14 2.49
-4.89 3.04 2.49
-4.95 2.94 2.49
-5.01 2.84 2.49
-5.07 2.74 2.49
-5.12 2.64 2.49
-5.18 2.54 2.49
-5.23 2.43 2.49
-5.27 2.33 2.49
-5.32 2.22 2.49
-5.36 2.12 2.49
-5.41 2.01 2.49
-5.45 1.90 2.49
-5.48 1.79 2.49
-5.52 1.68 2.49
-5.55 1.57 2.49
-5.58 1.46 2.49
-5.61 1.35 2.49
-5.64 1.23 2.49
-5.66 1.12 2.49
-5.68 1.01 2.49
-5.70 0.89 2.49
-5.72 0.78 2.49
-5.73 0.66 2.49
-5.75 0.55 2.49
-5.76 0.43 2.49
-5.76 0.32 2.49
-5.77 0.20 2.49
-5.77 0.09 2.49
-5.77 -0.03 2.49
-5.77 -0.15 2.49
-5.77 -0.26 2.49
-5.76 -0.38 2.49
-5.75 -0.49 2.49
-5.74 -0.61 2.49
-5.73 -0.72 2.49
-5.71 -0.84 2.49
-5.70 -0.95 2.49
-5.68 -1.07 2.49
-5.65 -1.18 2.49
-5.63 -1.29 2.49
-5.60 -1.41 2.49
-5.57 -1.52 2.49
-5.54 -1.63 2.49
-5.51 -1.74 2.49
-5.47 -1.85 2.49
-5.43 -1.96 2.49
-5.39 -2.07 2.49
-5.35 -2.17 2.49
-5.30 -2.28 2.49
-5.26 -2.39 2.49
-5.21 -2.49 2.49
-5.16 -2.60 2.49
-5.10 -2.70 2.49
-5.05 -2.80 2.49
-4.99 -2.90 2.49
-4.93 -3.00 2.49
-4.87 -3.10 2.49
-4.81 -3.19 2.49
-4.74 -3.29 2.49
-4.67 -3.38 2.49
-4.60 -3.48 2.49
-4.53 -3.57 2.49
-4.46 -3.66 2.49
-4.39 -3.75 2.49
-4.31 -3.83 2.49
-4.23 -3.92 2.49
-4.15 -4.00 2.49
-4.07 -4.08 2.49
-3.99 -4.16 2.49
-3.90 -4.24 2.49
-3.82 -4.32 2.49
-3.73 -4.39 2.49
-3.64 -4.47 2.49
-3.55 -4.54 2.49
-3.46 -4.61 2.49
-3.36 -4.68 2.49
-3.27 -4.74 2.49
-3.17 -4.81 2.49
-3.07 -4.87 2.49
-2.97 -4.93 2.49
-2.88 -4.99 2.49
-2.77 -5.04 2.49
-2.67 -5.10 2.49
-2.57 -5.15 2.49
-2.46 -5.20 2.49
-2.36 -5.25 2.49
-2.25 -5.29 2.49
-2.15 -5.33 2.49
-2.04 -5.38 2.49
-1.93 -5.41 2.49
-1.82 -5.45 2.49
-1.71 -5.49 2.49
-1.60 -5.52 2.49
-1.49 -5.55 2.49
-1.38 -5.58 2.49
-1.27 -5.60 2.49
-1.15 -5.62 2.49
-1.04 -5.65 2.49
-0.93 -5.66 2.49
-0.81 -5.68 2.49
-0.70 -5.70 2.49
-0.58 -5.71 2.49
-0.47 -5.72 2.49
-0.35 -5.72 2.49
-0.24 -5.73 2.49
-0.12 -5.73 2.49
-0.01 -5.40 2.49
0.10 -5.39 2.49
0.21 -5.39 2.49
0.32 -5.38 2.49
0.42 -5.38 2.49
0.53 -5.37 2.49
0.64 -5.35 2.49
0.75 -5.34 2.49
0.85 -5.32 2.49
0.96 -5.30 2.49
1.07 -5.28 2.49
1.17 -5.26 2.49
1.28 -5.23 2.49
1.38 -5.20 2.49
1.49 -5.17 2.49
1.59 -5.14 2.49
1.69 -5.11 2.49
1.79 -5.07 2.49
1.89 -5.03 2.49
1.99 -5.00 2.49
2.09 -4.95 2.49
2.12 -4.76 2.42
2.20 -4.66 2.39
2.29 -4.62 2.39
2.38 -4.57 2.39
2.47 -4.52 2.39
2.56 -4.47 2.39
2.65 -4.42 2.39
2.74 -4.36 2.39
2.82 -4.30 2.39
2.91 -4.25 2.39
2.84 -3.97 2.27
2.92 -3.91 2.27
3.00 -3.85 2.27
3.07 -3.79 2.27
3.15 -3.73 2.27
3.40 -3.86 2.39
3.47 -3.79 2.39
3.55 -3.72 2.39
3.62 -3.65 2.39
3.69 -3.57 2.39
3.76 -3.50 2.39
3.83 -3.42 2.39
3.90 -3.34 2.39
3.97 -3.26 2.39
4.03 -3.18 2.39
4.09 -3.10 2.39
4.15 -3.02 2.39
4.21 -2.93 2.39
4.27 -2.85 2.39
4.33 -2.76 2.39
4.38 -2.67 2.39
4.43 -2.58 2.39
4.48 -2.50 2.39
4.53 -2.40 2.39
4.58 -2.31 2.39
4.62 -2.22 2.39
4.67 -2.13 2.39
4.71 -2.03 2.39
4.75 -1.94 2.39
4.79 -1.84 2.39
4.82 -1.74 2.39
4.85 -1.65 2.39
4.89 -1.55 2.39
4.92 -1.45 2.39
4.94 -1.35 2.39
4.97 -1.25 2.39
4.99 -1.15 2.39
5.02 -1.05 2.39
5.04 -0.95 2.39
5.05 -0.85 2.39
5.07 -0.75 2.39
5.08 -0.64 2.39
5.09 -0.54 2.39
5.10 -0.44 2.39
5.11 -0.34 2.39
5.12 -0.23 2.39
5.12 -0.13 2.39
5.12 -0.03 2.39
5.12 0.08 2.39
5.12 0.18 2.39
5.11 0.28 2.39
5.11 0.38 2.39
5.10 0.49 2.39
5.09 0.59 2.39
5.07 0.69 2.39
5.06 0.79 2.39
5.04 0.89 2.39
5.02 1.00 2.39
5.00 1.10 2.39
4.98 1.20 2.39
4.95 1.30 2.39
4.93 1.40 2.39
4.90 1.50 2.39
4.87 1.59 2.39
4.83 1.69 2.39
4.80 1.79 2.39
4.76 1.88 2.39
4.72 1.98 2.39
4.68 2.07 2.39
4.64 2.17 2.39
4.60 2.26 2.39
4.55 2.35 2.39
4.50 2.44 2.39
4.45 2.53 2.39
4.40 2.62 2.39
4.35 2.71 2.39
4.29 2.80 2.39
4.24 2.88 2.39
4.18 2.97 2.39
4.12 3.05 2.39
4.06 3.14 2.39
3.99 3.22 2.39
3.93 3.30 2.39
3.86 3.37 2.39
3.79 3.45 2.39
3.72 3.53 2.39
3.65 3.60 2.39
3.58 3.68 2.39
3.50 3.75 2.39
3.43 3.82 2.39
3.18 3.69 2.27
3.11 3.75 2.27
3.08 3.87 2.30
3.06 4.01 2.35
2.98 4.08 2.35
2.90 4.14 2.35
2.81 4.19 2.35
2.73 4.25 2.35
2.55 4.15 2.27
2.49 4.24 2.29
2.49 4.44 2.37
2.42 4.53 2.39
2.33 4.58 2.39
2.24 4.63 2.39
2.14 4.67 2.39
2.13 4.90 2.49
2.04 4.96 2.49
1.94 5.00 2.49
1.84 5.04 2.49
1.74 5.08 2.49
1.64 5.11 2.49
1.53 5.14 2.49
1.43 5.17 2.49
1.33 5.20 2.49
1.22 5.23 2.49
1.12 5.25 2.49
1.01 5.28 2.49
0.90 5.30 2.49
0.80 5.31 2.49
0.69 5.33 2.49
0.58 5.34 2.49
0.48 5.35 2.49
0.37 5.36 2.49
0.26 5.37 2.49
0.15 5.38 2.49
0.05 5.38 2.49
-0.06 5.38 2.49
-0.17 5.38 2.49
-0.28 5.38 2.49
-0.39 5.37 2.49
-0.49 5.36 2.49
-0.60 5.35 2.49
-0.71 5.34 2.49
-0.82 5.32 2.49
-0.92 5.31 2.49
-1.03 5.29 2.49
-1.14 5.27 2.49
-1.24 5.25 2.49
-1.35 5.22 2.49
-1.45 5.19 2.49
-1.56 5.16 2.49
-1.66 5.13 2.49
-1.76 5.10 2.49
-1.86 5.06 2.49
-1.97 5.03 2.49
-2.07 4.99 2.49
-2.17 4.95 2.49
-2.27 4.90 2.49
-2.36 4.86 2.49
-2.46 4.81 2.49
-2.56 4.76 2.49
-2.65 4.71 2.49
-2.75 4.65 2.49
-2.84 4.60 2.49
-2.93 4.54 2.49
-3.02 4.48 2.49
-3.11 4.42 2.49
-3.20 4.36 2.49
-3.29 4.29 2.49
-3.38 4.23 2.49
-3.46 4.16 2.49
-3.54 4.09 2.49
-3.63 4.02 2.49
-3.71 3.95 2.49
-3.79 3.87 2.49
-3.86 3.80 2.49
-3.94 3.72 2.49
-4.01 3.64 2.49
-4.09 3.56 2.49
-4.16 3.48 2.49
-4.23 3.39 2.49
-4.29 3.31 2.49
-4.36 3.22 2.49
-4.42 3.13 2.49
-4.49 3.04 2.49
-4.55 2.95 2.49
-4.61 2.86 2.49
-4.66 2.77 2.49
-4.72 2.68 2.49
-4.77 2.58 2.49
-4.82 2.49 2.49
-4.87 2.39 2.49
-4.92 2.29 2.49
-4.96 2.19 2.49
-5.01 2.09 2.49
-5.05 1.99 2.49
-5.09 1.89 2.49
-5.13 1.79 2.49
-5.16 1.68 2.49
-5.19 1.58 2.49
-5.23 1.48 2.49
-5.25 1.37 2.49
-5.28 1.27 2.49
-5.31 1.16 2.49
-5.33 1.05 2.49
-5.35 0.95 2.49
-5.37 0.84 2.49
-5.38 0.73 2.49
-5.40 0.62 2.49
-5.41 0.52 2.49
-5.42 0.41 2.49
-5.43 0.30 2.49
-5.43 0.19 2.49
-5.43 0.08 2.49
-5.43 -0.03 2.49
-5.43 -0.14 2.49
-5.43 -0.25 2.49
-5.42 -0.36 2.49
-5.41 -0.46 2.49
-5.40 -0.57 2.49
-5.39 -0.68 2.49
-5.38 -0.79 2.49
-5.36 -0.90 2.49
-5.34 -1.00 2.49
-5.32 -1.11 2.49
-5.30 -1.22 2.49
-5.27 -1.32 2.49
-5.24 -1.43 2.49
-5.21 -1.53 2.49
-5.18 -1.64 2.49
-5.15 -1.74 2.49
-5.11 -1.84 2.49
-5.07 -1.95 2.49
-5.03 -2.05 2.49
-4.99 -2.15 2.49
-4.95 -2.25 2.49
-4.90 -2.34 2.49
-4.85 -2.44 2.49
-4.80 -2.54 2.49
-4.75 -2.63 2.49
-4.70 -2.73 2.49
-4.64 -2.82 2.49
-4.58 -2.91 2.49
-4.52 -3.01 2.49
-4.46 -3.10 2.49
-4.40 -3.18 2.49
-4.33 -3.27 2.49
-4.27 -3.36 2.49
-4.20 -3.44 2.49
-4.13 -3.53 2.49
-4.06 -3.61 2.49
-3.98 -3.69 2.49
-3.91 -3.77 2.49
-3.83 -3.84 2.49
-3.75 -3.92 2.49
-3.67 -3.99 2.49
-3.59 -4.07 2.49
-3.51 -4.14 2.49
-3.43 -4.21 2.49
-3.34 -4.27 2.49
-3.25 -4.34 2.49
-3.16 -4.40 2.49
-3.08 -4.46 2.49
-2.99 -4.52 2.49
-2.89 -4.58 2.49
-2.80 -4.64 2.49
-2.71 -4.69 2.49
-2.61 -4.75 2.49
-2.52 -4.80 2.49
-2.42 -4.85 2.49
-2.32 -4.89 2.49
-2.22 -4.94 2.49
-2.12 -4.98 2.49
-2.02 -5.02 2.49
-1.92 -5.06 2.49
-1.82 -5.10 2.49
-1.71 -5.13 2.49
-1.61 -5.16 2.49
-1.51 -5.19 2.49
-1.40 -5.22 2.49
-1.30 -5.25 2.49
-1.19 -5.27 2.49
-1.09 -5.30 2.49
-0.98 -5.31 2.49
-0.87 -5.33 2.49
-0.76 -5.35 2.49
-0.66 -5.36 2.49
-0.55 -5.37 2.49
-0.44 -5.38 2.49
-0.33 -5.39 2.49
-0.22 -5.39 2.49
-0.12 -5.40 2.49
-0.01 -5.09 2.49
0.09 -5.09 2.49
0.20 -5.09 2.49
0.30 -5.08 2.49
0.40 -5.07 2.49
0.50 -5.06 2.49
0.60 -5.05 2.49
0.70 -5.04 2.49
0.81 -5.02 2.49
0.91 -5.00 2.49
1.01 -4.98 2.49
1.11 -4.96 2.49
1.20 -4.94 2.49
1.30 -4.91 2.49
1.40 -4.88 2.49
1.50 -4.85 2.49
1.60 -4.82 2.49
1.69 -4.79 2.49
1.79 -4.75 2.49
1.88 -4.71 2.49
1.98 -4.67 2.49
2.07 -4.63 2.49
2.12 -4.50 2.45
2.16 -4.36 2.39
2.25 -4.31 2.39
2.33 -4.27 2.39
2.42 -4.22 2.39
2.50 -4.17 2.39
2.48 -3.95 2.29
2.53 -3.86 2.27
2.61 -3.80 2.27
2.69 -3.76 2.27
2.80 -3.75 2.30
2.92 -3.75 2.34
3.01 -3.71 2.35
3.07 -3.63 2.34
3.07 -3.49 2.29
3.11 -3.40 2.27
3.18 -3.33 2.27
3.42 -3.44 2.39
3.49 -3.37 2.39
3.55 -3.30 2.39
3.62 -3.23 2.39
3.68 -3.16 2.39
3.74 -3.08 2.39
3.80 -3.01 2.39
3.86 -2.93 2.39
3.92 -2.85 2.39
3.98 -2.77 2.39
4.03 -2.69 2.39
4.08 -2.61 2.39
4.13 -2.52 2.39
4.18 -2.44 2.39
4.23 -2.36 2.39
4.28 -2.27 2.39
4.32 -2.18 2.39
4.36 -2.10 2.39
4.41 -2.01 2.39
4.44 -1.92 2.39
4.48 -1.83 2.39
4.52 -1.74 2.39
4.55 -1.65 2.39
4.58 -1.55 2.39
4.61 -1.46 2.39
4.64 -1.37 2.39
4.67 -1.27 2.39
4.69 -1.18 2.39
4.71 -1.09 2.39
4.73 -0.99 2.39
4.75 -0.90 2.39
4.77 -0.80 2.39
4.78 -0.70 2.39
4.80 -0.61 2.39
4.81 -0.51 2.39
4.82 -0.41 2.39
4.82 -0.32 2.39
4.83 -0.22 2.39
4.83 -0.12 2.39
4.83 -0.03 2.39
4.83 0.07 2.39
4.83 0.17 2.39
4.83 0.27 2.39
4.82 0.36 2.39
4.81 0.46 2.39
4.80 0.56 2.39
4.79 0.65 2.39
4.78 0.75 2.39
4.76 0.84 2.39
4.74 0.94 2.39
4.72 1.04 2.39
4.70 1.13 2.39
4.68 1.22 2.39
4.65 1.32 2.39
4.62 1.41 2.39
4.59 1.50 2.39
4.56 1.60 2.39
4.53 1.69 2.39
4.50 1.78 2.39
4.46 1.87 2.39
4.42 1.96 2.39
4.38 2.05 2.39
4.34 2.13 2.39
4.30 2.22 2.39
4.25 2.31 2.39
4.20 2.39 2.39
4.15 2.48 2.39
4.10 2.56 2.39
4.05 2.64 2.39
4.00 2.72 2.39
3.94 2.80 2.39
3.89 2.88 2.39
3.83 2.96 2.39
3.77 3.04 2.39
3.71 3.11 2.39
3.64 3.19 2.39
3.58 3.26 2.39
3.51 3.33 2.39
3.45 3.40 2.39
3.21 3.29 2.27
3.14 3.36 2.27
3.08 3.43 2.28
3.08 3.57 2.33
3.04 3.67 2.35
2.96 3.73 2.35
2.89 3.79 2.35
2.81 3.85 2.35
2.73 3.90 2.35
2.56 3.82 2.27
2.49 3.88 2.28
2.49 4.05 2.35
2.45 4.18 2.39
2.37 4.23 2.39
2.28 4.28 2.39
2.20 4.32 2.39
2.14 4.42 2.42
2.11 4.60 2.49
2.02 4.64 2.49
1.92 4.68 2.49
1.83 4.72 2.49
1.74 4.76 2.49
1.64 4.79 2.49
1.54 4.82 2.49
1.45 4.85 2.49
1.35 4.88 2.49
1.25 4.91 2.49
1.15 4.94 2.49
1.05 4.96 2.49
0.95 4.98 2.49
0.85 5.00 2.49
0.75 5.01 2.49
0.65 5.03 2.49
0.55 5.04 2.49
0.45 5.05 2.49
0.35 5.06 2.49
0.25 5.07 2.49
0.14 5.07 2.49
0.04 5.08 2.49
-0.06 5.08 2.49
-0.16 5.08 2.49
-0.26 5.07 2.49
-0.36 5.07 2.49
-0.47 5.06 2.49
-0.57 5.05 2.49
-0.67 5.04 2.49
-0.77 5.02 2.49
-0.87 5.01 2.49
-0.97 4.99 2.49
-1.07 4.97 2.49
-1.17 4.95 2.49
-1.27 4.93 2.49
-1.37 4.90 2.49
-1.47 4.87 2.49
-1.57 4.84 2.49
-1.66 4.81 2.49
-1.76 4.78 2.49
-1.86 4.74 2.49
-1.95 4.71 2.49
-2.05 4.67 2.49
-2.14 4.62 2.49
-2.23 4.58 2.49
-2.32 4.54 2.49
-2.41 4.49 2.49
-2.50 4.44 2.49
-2.59 4.39 2.49
-2.68 4.34 2.49
-2.77 4.28 2.49
-2.85 4.23 2.49
-2.94 4.17 2.49
-3.02 4.11 2.49
-3.10 4.05 2.49
-3.19 3.99 2.49
-3.27 3.92 2.49
-3.34 3.86 2.49
-3.42 3.79 2.49
-3.50 3.72 2.49
-3.57 3.65 2.49
-3.64 3.58 2.49
-3.72 3.51 2.49
-3.79 3.43 2.49
-3.85 3.36 2.49
-3.92 3.28 2.49
-3.99 3.20 2.49
-4.05 3.12 2.49
-4.11 3.04 2.49
-4.17 2.96 2.49
-4.23 2.87 2.49
-4.29 2.79 2.49
-4.35 2.70 2.49
-4.40 2.61 2.49
-4.45 2.52 2.49
-4.50 2.43 2.49
-4.55 2.34 2.49
-4.60 2.25 2.49
-4.64 2.16 2.49
-4.68 2.07 2.49
-4.72 1.97 2.49
-4.76 1.88 2.49
-4.80 1.78 2.49
-4.84 1.69 2.49
-4.87 1.59 2.49
-4.90 1.49 2.49
-4.93 1.39 2.49
-4.96 1.29 2.49
-4.98 1.19 2.49
-5.01 1.09 2.49
-5.03 0.99 2.49
-5.05 0.89 2.49
-5.06 0.79 2.49
-5.08 0.69 2.49
-5.09 0.59 2.49
-5.10 0.49 2.49
-5.11 0.38 2.49
-5.12 0.28 2.49
-5.12 0.18 2.49
-5.13 0.08 2.49
-5.13 -0.03 2.49
-5.13 -0.13 2.49
-5.12 -0.23 2.49
-5.12 -0.34 2.49
-5.11 -0.44 2.49
-5.10 -0.54 2.49
-5.09 -0.64 2.49
-5.07 -0.74 2.49
-5.06 -0.85 2.49
-5.04 -0.95 2.49
-5.02 -1.05 2.49
-5.00 -1.15 2.49
-4.97 -1.25 2.49
-4.95 -1.35 2.49
-4.92 -1.45 2.49
-4.89 -1.54 2.49
-4.86 -1.64 2.49
-4.82 -1.74 2.49
-4.79 -1.83 2.49
-4.75 -1.93 2.49
-4.71 -2.03 2.49
-4.67 -2.12 2.49
-4.62 -2.21 2.49
-4.58 -2.30 2.49
-4.53 -2.40 2.49
-4.48 -2.49 2.49
-4.43 -2.57 2.49
-4.38 -2.66 2.49
-4.32 -2.75 2.49
-4.27 -2.84 2.49
-4.21 -2.92 2.49
-4.15 -3.00 2.49
-4.09 -3.09 2.49
-4.03 -3.17 2.49
-3.96 -3.25 2.49
-3.89 -3.33 2.49
-3.83 -3.40 2.49
-3.76 -3.48 2.49
-3.69 -3.55 2.49
-3.61 -3.63 2.49
-3.54 -3.70 2.49
-3.47 -3.77 2.49
-3.39 -3.84 2.49
-3.31 -3.90 2.49
-3.23 -3.97 2.49
-3.15 -4.03 2.49
-3.07 -4.09 2.49
-2.99 -4.15 2.49
-2.90 -4.21 2.49
-2.82 -4.27 2.49
-2.73 -4.32 2.49
-2.64 -4.38 2.49
-2.55 -4.43 2.49
-2.46 -4.48 2.49
-2.37 -4.53 2.49
-2.28 -4.57 2.49
-2.19 -4.62 2.49
-2.10 -4.66 2.49
-2.00 -4.70 2.49
-1.91 -4.74 2.49
-1.81 -4.77 2.49
-1.72 -4.81 2.49
-1.62 -4.84 2.49
-1.52 -4.87 2.49
-1.42 -4.90 2.49
-1.32 -4.93 2.49
-1.22 -4.95 2.49
-1.12 -4.98 2.49
-1.02 -5.00 2.49
-0.92 -5.01 2.49
-0.82 -5.03 2.49
-0.72 -5.05 2.49
-0.62 -5.06 2.49
-0.52 -5.07 2.49
-0.42 -5.08 2.49
-0.31 -5.08 2.49
-0.21 -5.09 2.49
-0.11 -5.09 2.49
-0.01 -4.81 2.49
0.09 -4.81 2.49
0.19 -4.81 2.49
0.28 -4.80 2.49
0.38 -4.80 2.49
0.47 -4.79 2.49
0.57 -4.78 2.49
0.67 -4.76 2.49
0.76 -4.75 2.49
0.86 -4.73 2.49
0.95 -4.71 2.49
1.04 -4.69 2.49
1.14 -4.67 2.49
1.23 -4.64 2.49
1.32 -4.62 2.49
1.42 -4.59 2.49
1.51 -4.56 2.49
1.60 -4.53 2.49
1.69 -4.49 2.49
1.78 -4.46 2.49
1.87 -4.42 2.49
1.96 -4.38 2.49
2.04 -4.34 2.49
2.12 -4.28 2.48
2.13 -4.09 2.40
2.20 -4.03 2.39
2.29 -3.99 2.39
2.36 -3.94 2.39
2.44 -3.89 2.39
2.48 -3.78 2.35
2.48 -3.62 2.28
2.54 -3.55 2.27
2.61 -3.49 2.27
2.77 -3.57 2.35
2.84 -3.51 2.35
2.91 -3.45 2.35
2.98 -3.39 2.35
3.05 -3.33 2.35
3.07 -3.22 2.32
3.07 -3.10 2.27
3.13 -3.03 2.27
3.19 -2.96 2.27
3.42 -3.05 2.39
3.48 -2.99 2.39
3.54 -2.91 2.39
3.60 -2.84 2.39
3.65 -2.77 2.39
3.71 -2.69 2.39
3.76 -2.62 2.39
3.81 -2.54 2.39
3.86 -2.47 2.39
3.91 -2.39 2.39
3.96 -2.31 2.39
4.00 -2.23 2.39
4.05 -2.15 2.39
4.09 -2.06 2.39
4.13 -1.98 2.39
4.17 -1.90 2.39
4.20 -1.81 2.39
4.24 -1.73 2.39
4.27 -1.64 2.39
4.30 -1.56 2.39
4.33 -1.47 2.39
4.36 -1.38 2.39
4.39 -1.29 2.39
4.41 -1.21 2.39
4.44 -1.12 2.39
4.46 -1.03 2.39
4.48 -0.94 2.39
4.50 -0.85 2.39
4.51 -0.76 2.39
4.53 -0.67 2.39
4.54 -0.57 2.39
4.55 -0.48 2.39
4.56 -0.39 2.39
4.56 -0.30 2.39
4.57 -0.21 2.39
4.57 -0.12 2.39
4.57 -0.02 2.39
4.57 0.07 2.39
4.57 0.16 2.39
4.57 0.25 2.39
4.56 0.34 2.39
4.55 0.43 2.39
4.54 0.53 2.39
4.53 0.62 2.39
4.52 0.71 2.39
4.50 0.80 2.39
4.48 0.89 2.39
4.47 0.98 2.39
4.45 1.07 2.39
4.42 1.16 2.39
4.40 1.25 2.39
4.37 1.33 2.39
4.35 1.42 2.39
4.32 1.51 2.39
4.28 1.60 2.39
4.25 1.68 2.39
4.22 1.77 2.39
4.18 1.85 2.39
4.14 1.94 2.39
4.10 2.02 2.39
4.06 2.10 2.39
4.02 2.18 2.39
3.98 2.26 2.39
3.93 2.34 2.39
3.88 2.42 2.39
3.83 2.50 2.39
3.78 2.58 2.39
3.73 2.65 2.39
3.68 2.73 2.39
3.62 2.80 2.39
3.56 2.87 2.39
3.51 2.94 2.39
3.45 3.01 2.39
3.38 3.08 2.39
3.15 2.99 2.27
3.09 3.05 2.27
3.08 3.16 2.30
3.07 3.28 2.35
3.01 3.35 2.35
2.94 3.41 2.35
2.87 3.47 2.35
2.80 3.53 2.35
2.73 3.58 2.35
2.57 3.51 2.27
2.50 3.57 2.27
2.49 3.71 2.33
2.48 3.86 2.39
2.40 3.91 2.39
2.32 3.96 2.39
2.24 4.00 2.39
2.16 4.05 2.39
2.13 4.19 2.45
2.08 4.31 2.49
2.00 4.35 2.49
1.91 4.39 2.49
1.82 4.43 2.49
1.73 4.46 2.49
1.64 4.50 2.49
1.55 4.53 2.49
1.46 4.56 2.49
1.37 4.59 2.49
1.28 4.62 2.49
1.18 4.64 2.49
1.09 4.67 2.49
1.00 4.69 2.49
0.90 4.71 2.49
0.81 4.73 2.49
0.71 4.74 2.49
0.62 4.76 2.49
0.52 4.77 2.49
0.42 4.78 2.49
0.33 4.79 2.49
0.23 4.79 2.49
0.14 4.80 2.49
0.04 4.80 2.49
-0.06 4.80 2.49
-0.15 4.80 2.49
-0.25 4.80 2.49
-0.35 4.79 2.49
-0.44 4.78 2.49
-0.54 4.77 2.49
-0.63 4.76 2.49
-0.73 4.75 2.49
-0.82 4.74 2.49
-0.92 4.72 2.49
-1.01 4.70 2.49
-1.11 4.68 2.49
-1.20 4.66 2.49
-1.30 4.63 2.49
-1.39 4.61 2.49
-1.48 4.58 2.49
-1.57 4.55 2.49
-1.66 4.52 2.49
-1.75 4.48 2.49
-1.84 4.45 2.49
-1.93 4.41 2.49
-2.02 4.37 2.49
-2.11 4.33 2.49
-2.20 4.29 2.49
-2.28 4.24 2.49
-2.37 4.20 2.49
-2.45 4.15 2.49
-2.54 4.10 2.49
-2.62 4.05 2.49
-2.70 4.00 2.49
-2.78 3.94 2.49
-2.86 3.89 2.49
-2.94 3.83 2.49
-3.01 3.77 2.49
-3.09 3.71 2.49
-3.16 3.65 2.49
-3.23 3.58 2.49
-3.31 3.52 2.49
-3.38 3.45 2.49
-3.45 3.38 2.49
-3.51 3.32 2.49
-3.58 3.24 2.49
-3.64 3.17 2.49
-3.71 3.10 2.49
-3.77 3.02 2.49
-3.83 2.95 2.49
-3.89 2.87 2.49
-3.95 2.79 2.49
-4.00 2.71 2.49
-4.06 2.63 2.49
-4.11 2.55 2.49
-4.16 2.47 2.49
-4.21 2.39 2.49
-4.26 2.30 2.49
-4.30 2.22 2.49
-4.35 2.13 2.49
-4.39 2.04 2.49
-4.43 1.95 2.49
-4.47 1.87 2.49
-4.50 1.78 2.49
-4.54 1.68 2.49
-4.57 1.59 2.49
-4.60 1.50 2.49
-4.63 1.41 2.49
-4.66 1.32 2.49
-4.69 1.22 2.49
-4.71 1.13 2.49
-4.73 1.03 2.49
-4.75 0.94 2.49
-4.77 0.84 2.49
-4.79 0.75 2.49
-4.80 0.65 2.49
-4.81 0.56 2.49
-4.82 0.46 2.49
-4.83 0.36 2.49
-4.84 0.27 2.49
-4.84 0.17 2.49
-4.85 0.07 2.49
-4.85 -0.03 2.49
-4.84 -0.12 2.49
-4.84 -0.22 2.49
-4.84 -0.32 2.49
-4.83 -0.41 2.49
-4.82 -0.51 2.49
-4.81 -0.61 2.49
-4.80 -0.70 2.49
-4.78 -0.80 2.49
-4.76 -0.89 2.49
-4.74 -0.99 2.49
-4.72 -1.08 2.49
-4.70 -1.18 2.49
-4.68 -1.27 2.49
-4.65 -1.37 2.49
-4.62 -1.46 2.49
-4.59 -1.55 2.49
-4.56 -1.64 2.49
-4.52 -1.73 2.49
-4.49 -1.82 2.49
-4.45 -1.91 2.49
-4.41 -2.00 2.49
-4.37 -2.09 2.49
-4.33 -2.18 2.49
-4.28 -2.26 2.49
-4.24 -2.35 2.49
-4.19 -2.43 2.49
-4.14 -2.52 2.49
-4.09 -2.60 2.49
-4.03 -2.68 2.49
-3.98 -2.76 2.49
-3.92 -2.84 2.49
-3.86 -2.92 2.49
-3.81 -2.99 2.49
-3.74 -3.07 2.49
-3.68 -3.14 2.49
-3.62 -3.22 2.49
-3.55 -3.29 2.49
-3.49 -3.36 2.49
-3.42 -3.43 2.49
-3.35 -3.49 2.49
-3.28 -3.56 2.49
-3.20 -3.63 2.49
-3.13 -3.69 2.49
-3.06 -3.75 2.49
-2.98 -3.81 2.49
-2.90 -3.87 2.49
-2.82 -3.93 2.49
-2.74 -3.98 2.49
-2.66 -4.03 2.49
-2.58 -4.09 2.49
-2.50 -4.14 2.49
-2.41 -4.19 2.49
-2.33 -4.23 2.49
-2.24 -4.28 2.49
-2.16 -4.32 2.49
-2.07 -4.36 2.49
-1.98 -4.40 2.49
-1.89 -4.44 2.49
-1.80 -4.48 2.49
-1.71 -4.51 2.49
-1.62 -4.55 2.49
-1.53 -4.58 2.49
-1.44 -4.61 2.49
-1.35 -4.63 2.49
-1.25 -4.66 2.49
-1.16 -4.68 2.49
-1.06 -4.70 2.49
-0.97 -4.72 2.49
-0.87 -4.74 2.49
-0.78 -4.76 2.49
-0.68 -4.77 2.49
-0.59 -4.78 2.49
-0.49 -4.79 2.49
-0.39 -4.80 2.49
-0.30 -4.81 2.49
-0.20 -4.81 2.49
-0.10 -4.81 2.49
-0.01 -4.56 2.49
0.08 -4.56 2.49
0.17 -4.56 2.49
0.27 -4.55 2.49
0.36 -4.54 2.49
0.45 -4.53 2.49
0.54 -4.52 2.49
0.63 -4.51 2.49
0.72 -4.50 2.49
0.81 -4.48 2.49
0.90 -4.46 2.49
0.99 -4.44 2.49
1.08 -4.42 2.49
1.17 -4.40 2.49
1.25 -4.37 2.49
1.34 -4.35 2.49
1.43 -4.32 2.49
1.51 -4.29 2.49
1.60 -4.26 2.49
1.68 -4.22 2.49
1.77 -4.19 2.49
1.85 -4.15 2.49
1.94 -4.11 2.49
2.02 -4.07 2.49
2.10 -4.03 2.49
2.12 -3.88 2.43
2.16 -3.78 2.39
2.24 -3.73 2.39
2.31 -3.69 2.39
2.39 -3.64 2.39
2.46 -3.59 2.39
2.48 -3.47 2.34
2.48 -3.32 2.28
2.53 -3.26 2.27
2.60 -3.21 2.27
2.76 -3.27 2.35
2.82 -3.21 2.35
2.89 -3.15 2.35
2.95 -3.09 2.35
3.01 -3.03 2.35
3.06 -2.97 2.35
3.07 -2.85 2.30
3.08 -2.75 2.27
3.13 -2.68 2.27
3.18 -2.62 2.27
3.41 -2.69 2.39
3.46 -2.62 2.39
3.51 -2.55 2.39
3.56 -2.48 2.39
3.61 -2.41 2.39
3.66 -2.34 2.39
3.70 -2.26 2.39
3.75 -2.19 2.39
3.79 -2.11 2.39
3.83 -2.03 2.39
3.87 -1.96 2.39
3.91 -1.88 2.39
3.95 -1.80 2.39
3.98 -1.72 2.39
4.02 -1.64 2.39
4.05 -1.56 2.39
4.08 -1.48 2.39
4.11 -1.39 2.39
4.13 -1.31 2.39
4.16 -1.23 2.39
4.18 -1.14 2.39
4.20 -1.06 2.39
4.22 -0.97 2.39
4.24 -0.89 2.39
4.26 -0.80 2.39
4.27 -0.72 2.39
4.29 -0.63 2.39
4.30 -0.54 2.39
4.31 -0.46 2.39
4.32 -0.37 2.39
4.32 -0.28 2.39
4.33 -0.20 2.39
4.33 -0.11 2.39
4.33 -0.02 2.39
4.33 0.06 2.39
4.33 0.15 2.39
4.33 0.24 2.39
4.32 0.32 2.39
4.31 0.41 2.39
4.30 0.50 2.39
4.29 0.58 2.39
4.28 0.67 2.39
4.26 0.76 2.39
4.25 0.84 2.39
4.23 0.93 2.39
4.21 1.01 2.39
4.19 1.10 2.39
4.17 1.18 2.39
4.14 1.26 2.39
4.12 1.35 2.39
4.09 1.43 2.39
4.06 1.51 2.39
4.03 1.59 2.39
4.00 1.67 2.39
3.96 1.75 2.39
3.93 1.83 2.39
3.89 1.91 2.39
3.85 1.99 2.39
3.81 2.07 2.39
3.77 2.14 2.39
3.72 2.22 2.39
3.68 2.29 2.39
3.63 2.37 2.39
3.58 2.44 2.39
3.53 2.51 2.39
3.48 2.58 2.39
3.43 2.65 2.39
3.20 2.58 2.27
3.15 2.65 2.27
3.10 2.71 2.27
3.07 2.80 2.29
3.07 2.92 2.34
3.04 3.00 2.35
2.98 3.06 2.35
2.91 3.12 2.35
2.85 3.18 2.35
2.79 3.23 2.35
2.63 3.18 2.28
2.56 3.23 2.27
2.50 3.28 2.27
2.49 3.40 2.32
2.49 3.56 2.39
2.42 3.61 2.39
2.35 3.65 2.39
2.27 3.70 2.39
2.20 3.75 2.39
2.14 3.82 2.41
2.13 3.99 2.49
2.05 4.04 2.49
1.97 4.08 2.49
1.89 4.12 2.49
1.81 4.16 2.49
1.72 4.19 2.49
1.64 4.23 2.49
1.55 4.26 2.49
1.47 4.29 2.49
1.38 4.32 2.49
1.30 4.35 2.49
1.21 4.37 2.49
1.12 4.40 2.49
1.03 4.42 2.49
0.94 4.44 2.49
0.85 4.46 2.49
0.76 4.48 2.49
0.67 4.49 2.49
0.58 4.51 2.49
0.49 4.52 2.49
0.40 4.53 2.49
0.31 4.53 2.49
0.22 4.54 2.49
0.13 4.54 2.49
0.04 4.55 2.49
-0.05 4.55 2.49
-0.15 4.55 2.49
-0.24 4.54 2.49
-0.33 4.54 2.49
-0.42 4.53 2.49
-0.51 4.52 2.49
-0.60 4.51 2.49
-0.69 4.50 2.49
-0.78 4.49 2.49
-0.87 4.47 2.49
-0.96 4.45 2.49
-1.05 4.43 2.49
-1.14 4.41 2.49
-1.23 4.39 2.49
-1.32 4.36 2.49
-1.40 4.34 2.49
-1.49 4.31 2.49
-1.58 4.28 2.49
-1.66 4.25 2.49
-1.75 4.21 2.49
-1.83 4.18 2.49
-1.92 4.14 2.49
-2.00 4.10 2.49
-2.08 4.06 2.49
-2.16 4.02 2.49
-2.24 3.98 2.49
-2.32 3.93 2.49
-2.40 3.88 2.49
-2.48 3.84 2.49
-2.56 3.79 2.49
-2.63 3.73 2.49
-2.71 3.68 2.49
-2.78 3.63 2.49
-2.85 3.57 2.49
-2.92 3.51 2.49
-2.99 3.45 2.49
-3.06 3.39 2.49
-3.13 3.33 2.49
-3.20 3.27 2.49
-3.26 3.21 2.49
-3.33 3.14 2.49
-3.39 3.07 2.49
-3.45 3.00 2.49
-3.51 2.94 2.49
-3.57 2.86 2.49
-3.63 2.79 2.49
-3.68 2.72 2.49
-3.74 2.65 2.49
-3.79 2.57 2.49
-3.84 2.49 2.49
-3.89 2.42 2.49
-3.94 2.34 2.49
-3.99 2.26 2.49
-4.03 2.18 2.49
-4.07 2.10 2.49
-4.12 2.02 2.49
-4.16 1.93 2.49
-4.19 1.85 2.49
-4.23 1.77 2.49
-4.26 1.68 2.49
-4.30 1.60 2.49
-4.33 1.51 2.49
-4.36 1.42 2.49
-4.39 1.33 2.49
-4.41 1.25 2.49
-4.44 1.16 2.49
-4.46 1.07 2.49
-4.48 0.98 2.49
-4.50 0.89 2.49
-4.52 0.80 2.49
-4.53 0.71 2.49
-4.55 0.62 2.49
-4.56 0.53 2.49
-4.57 0.43 2.49
-4.58 0.34 2.49
-4.58 0.25 2.49
-4.59 0.16 2.49
-4.59 0.07 2.49
-4.59 -0.02 2.49
-4.59 -0.12 2.49
-4.58 -0.21 2.49
-4.58 -0.30 2.49
-4.57 -0.39 2.49
-4.56 -0.48 2.49
-4.55 -0.57 2.49
-4.54 -0.67 2.49
-4.53 -0.76 2.49
-4.51 -0.85 2.49
-4.49 -0.94 2.49
-4.47 -1.03 2.49
-4.45 -1.12 2.49
-4.43 -1.21 2.49
-4.40 -1.29 2.49
-4.38 -1.38 2.49
-4.35 -1.47 2.49
-4.32 -1.56 2.49
-4.28 -1.64 2.49
-4.25 -1.73 2.49
-4.22 -1.81 2.49
-4.18 -1.90 2.49
-4.14 -1.98 2.49
-4.10 -2.06 2.49
-4.06 -2.14 2.49
-4.01 -2.22 2.49
-3.97 -2.30 2.49
-3.92 -2.38 2.49
-3.87 -2.46 2.49
-3.82 -2.54 2.49
-3.77 -2.61 2.49
-3.71 -2.69 2.49
-3.66 -2.76 2.49
-3.60 -2.84 2.49
-3.55 -2.91 2.49
-3.49 -2.98 2.49
-3.43 -3.05 2.49
-3.36 -3.11 2.49
-3.30 -3.18 2.49
-3.24 -3.25 2.49
-3.17 -3.31 2.49
-3.10 -3.37 2.49
-3.03 -3.43 2.49
-2.96 -3.49 2.49
-2.89 -3.55 2.49
-2.82 -3.61 2.49
-2.75 -3.66 2.49
-2.67 -3.72 2.49
-2.60 -3.77 2.49
-2.52 -3.82 2.49
-2.44 -3.87 2.49
-2.37 -3.92 2.49
-2.29 -3.96 2.49
-2.21 -4.01 2.49
-2.13 -4.05 2.49
-2.04 -4.09 2.49
-1.96 -4.13 2.49
-1.88 -4.17 2.49
-1.79 -4.21 2.49
-1.71 -4.24 2.49
-1.62 -4.27 2.49
-1.54 -4.31 2.49
-1.45 -4.33 2.49
-1.36 -4.36 2.49
-1.27 -4.39 2.49
-1.19 -4.41 2.49
-1.10 -4.43 2.49
-1.01 -4.45 2.49
-0.92 -4.47 2.49
-0.83 -4.49 2.49
-0.74 -4.51 2.49
-0.65 -4.52 2.49
-0.56 -4.53 2.49
-0.47 -4.54 2.49
-0.37 -4.55 2.49
-0.28 -4.55 2.49
-0.19 -4.56 2.49
-0.10 -4.56 2.49
-0.01 -4.33 2.49
0.08 -4.32 2.49
0.17 -4.32 2.49
0.25 -4.32 2.49
0.34 -4.31 2.49
0.42 -4.30 2.49
0.51 -4.29 2.49
0.60 -4.28 2.49
0.68 -4.27 2.49
0.77 -4.25 2.49
0.85 -4.23 2.49
0.94 -4.22 2.49
1.02 -4.19 2.49
1.11 -4.17 2.49
1.19 -4.15 2.49
1.27 -4.12 2.49
1.35 -4.10 2.49
1.44 -4.07 2.49
1.52 -4.04 2.49
1.60 -4.01 2.49
1.68 -3.97 2.49
1.76 -3.94 2.49
1.84 -3.90 2.49
1.91 -3.86 2.49
1.99 -3.82 2.49
2.07 -3.78 2.49
2.12 -3.70 2.47
2.13 -3.55 2.40
2.19 -3.50 2.39
2.26 -3.45 2.39
2.33 -3.41 2.39
2.40 -3.36 2.39
2.47 -3.31 2.39
2.48 -3.19 2.34
2.48 -3.06 2.28
2.53 -2.99 2.27
2.58 -2.94 2.27
2.74 -2.99 2.35
2.80 -2.94 2.35
2.86 -2.88 2.35
2.91 -2.82 2.35
2.97 -2.76 2.35
3.02 -2.70 2.35
3.07 -2.63 2.34
3.07 -2.53 2.31
3.07 -2.43 2.27
3.12 -2.36 2.27
3.16 -2.30 2.27
3.38 -2.35 2.39
3.43 -2.29 2.39
3.47 -2.22 2.39
3.51 -2.15 2.39
3.56 -2.07 2.39
3.60 -2.00 2.39
3.64 -1.93 2.39
3.67 -1.86 2.39
3.71 -1.78 2.39
3.74 -1.71 2.39
3.78 -1.63 2.39
3.81 -1.55 2.39
3.84 -1.48 2.39
3.87 -1.40 2.39
3.90 -1.32 2.39
3.92 -1.24 2.39
3.95 -1.16 2.39
3.97 -1.08 2.39
3.99 -1.00 2.39
4.01 -0.92 2.39
4.02 -0.84 2.39
4.04 -0.76 2.39
4.06 -0.68 2.39
4.07 -0.60 2.39
4.08 -0.52 2.39
4.09 -0.43 2.39
4.10 -0.35 2.39
4.10 -0.27 2.39
4.11 -0.19 2.39
4.11 -0.10 2.39
4.11 -0.02 2.39
4.11 0.06 2.39
4.11 0.14 2.39
4.10 0.23 2.39
4.10 0.31 2.39
4.09 0.39 2.39
4.08 0.47 2.39
4.07 0.55 2.39
4.06 0.64 2.39
4.05 0.72 2.39
4.03 0.80 2.39
4.01 0.88 2.39
4.00 0.96 2.39
3.98 1.04 2.39
3.95 1.12 2.39
3.93 1.20 2.39
3.91 1.28 2.39
3.88 1.36 2.39
3.85 1.44 2.39
3.82 1.51 2.39
3.79 1.59 2.39
3.76 1.66 2.39
3.72 1.74 2.39
3.69 1.81 2.39
3.65 1.89 2.39
3.61 1.96 2.39
3.57 2.03 2.39
3.53 2.11 2.39
3.49 2.18 2.39
3.44 2.25 2.39
3.40 2.32 2.39
3.18 2.26 2.27
3.14 2.33 2.27
3.09 2.39 2.27
3.07 2.48 2.29
3.07 2.58 2.33
3.05 2.66 2.35
2.99 2.73 2.35
2.94 2.78 2.35
2.88 2.84 2.35
2.82 2.90 2.35
2.76 2.96 2.35
2.61 2.91 2.27
2.55 2.96 2.27
2.50 3.02 2.27
2.49 3.13 2.32
2.49 3.26 2.38
2.43 3.33 2.39
2.36 3.37 2.39
2.29 3.42 2.39
2.23 3.47 2.39
2.16 3.51 2.39
2.13 3.63 2.44
2.10 3.75 2.49
2.02 3.79 2.49
1.95 3.83 2.49
1.87 3.87 2.49
1.79 3.91 2.49
1.71 3.95 2.49
1.64 3.98 2.49
1.55 4.01 2.49
1.47 4.04 2.49
1.39 4.07 2.49
1.31 4.10 2.49
1.23 4.13 2.49
1.15 4.15 2.49
1.06 4.17 2.49
0.98 4.19 2.49
0.89 4.21 2.49
0.81 4.23 2.49
0.72 4.25 2.49
0.64 4.26 2.49
0.55 4.27 2.49
0.47 4.29 2.49
0.38 4.29 2.49
0.29 4.30 2.49
0.21 4.31 2.49
0.12 4.31 2.49
0.04 4.31 2.49
-0.05 4.31 2.49
-0.14 4.31 2.49
-0.22 4.31 2.49
-0.31 4.31 2.49
-0.40 4.30 2.49
-0.48 4.29 2.49
-0.57 4.28 2.49
-0.66 4.27 2.49
-0.74 4.26 2.49
-0.83 4.24 2.49
-0.91 4.22 2.49
-1.00 4.21 2.49
-1.08 4.18 2.49
-1.17 4.16 2.49
-1.25 4.14 2.49
-1.33 4.11 2.49
-1.41 4.09 2.49
-1.50 4.06 2.49
-1.58 4.03 2.49
-1.66 4.00 2.49
-1.74 3.96 2.49
-1.82 3.93 2.49
-1.90 3.89 2.49
-1.97 3.85 2.49
-2.05 3.81 2.49
-2.13 3.77 2.49
-2.20 3.73 2.49
-2.28 3.68 2.49
-2.35 3.64 2.49
-2.42 3.59 2.49
-2.50 3.54 2.49
-2.57 3.49 2.49
-2.64 3.44 2.49
-2.71 3.39 2.49
-2.77 3.33 2.49
-2.84 3.28 2.49
-2.91 3.22 2.49
-2.97 3.16 2.49
-3.03 3.10 2.49
-3.10 3.04 2.49
-3.16 2.98 2.49
-3.22 2.91 2.49
-3.27 2.85 2.49
-3.33 2.78 2.49
-3.39 2.72 2.49
-3.44 2.65 2.49
-3.49 2.58 2.49
-3.54 2.51 2.49
-3.59 2.44 2.49
-3.64 2.37 2.49
-3.69 2.29 2.49
-3.74 2.22 2.49
-3.78 2.14 2.49
-3.82 2.07 2.49
-3.86 1.99 2.49
-3.90 1.91 2.49
-3.94 1.83 2.49
-3.98 1.75 2.49
-4.01 1.67 2.49
-4.05 1.59 2.49
-4.08 1.51 2.49
-4.11 1.43 2.49
-4.13 1.35 2.49
