ply
format ascii 1.0
element vertex 2869
property float32 x
property float32 y
property float32 z
end_header
-20.41 -4.68 1.88
-20.40 -5.11 1.89
-20.31 -5.52 1.89
-20.30 -5.96 1.91
-23.71 -7.48 2.24
-23.53 -7.95 2.24
-22.48 -8.10 2.16
-21.08 -8.08 2.04
-19.83 -8.06 1.94
-18.70 -8.04 1.84
-17.68 -8.02 1.76
-16.74 -8.01 1.69
-15.89 -8.00 1.62
-15.10 -7.98 1.56
-14.31 -7.94 1.49
-13.70 -7.96 1.45
-13.07 -7.95 1.40
-12.43 -7.91 1.35
-11.94 -7.93 1.31
-11.37 -7.89 1.27
-10.93 -7.92 1.24
-10.43 -7.88 1.20
-10.04 -7.90 1.18
-9.78 -8.02 1.17
-9.81 -8.38 1.19
-9.84 -8.75 1.22
-9.83 -9.11 1.24
-9.79 -9.45 1.26
-9.82 -9.86 1.29
-9.79 -10.23 1.32
-5.97 -6.49 0.82
-9.80 -11.10 1.38
-9.76 -11.51 1.41
-9.79 -12.03 1.45
-9.75 -12.48 1.48
-9.77 -13.04 1.53
-9.73 -13.55 1.57
-9.75 -14.17 1.62
-9.74 -14.78 1.67
-9.70 -15.38 1.71
-9.72 -16.12 1.78
-9.71 -16.86 1.84
-9.26 -16.86 1.82
-8.83 -16.85 1.80
-10.85 -21.77 2.31
-10.48 -22.14 2.33
-10.11 -22.51 2.35
-9.73 -22.87 2.37
-9.33 -23.22 2.39
-8.85 -23.36 2.39
-8.36 -23.50 2.39
-7.88 -23.63 2.39
-7.39 -23.75 2.39
-6.90 -23.85 2.39
-6.41 -23.95 2.39
-5.92 -24.04 2.39
-5.52 -24.53 2.43
-5.15 -25.23 2.49
-4.64 -25.29 2.49
-4.12 -25.34 2.49
-3.61 -25.38 2.49
-3.09 -25.42 2.49
-2.58 -25.44 2.49
-2.06 -25.45 2.49
-1.55 -25.45 2.49
-1.04 -25.44 2.49
-0.53 -25.42 2.49
-0.02 -20.60 2.49
0.40 -20.58 2.49
0.81 -20.54 2.49
1.22 -20.50 2.49
1.63 -20.45 2.49
2.04 -20.39 2.49
2.44 -20.32 2.49
2.73 -19.41 2.39
3.12 -19.33 2.39
3.50 -19.24 2.39
3.88 -19.15 2.39
4.26 -19.05 2.39
4.64 -18.94 2.39
5.01 -18.83 2.39
5.38 -18.70 2.39
5.75 -18.57 2.39
6.12 -18.44 2.39
7.43 -20.96 2.74
7.60 -20.14 2.65
10.06 -25.12 3.34
10.62 -25.05 3.36
11.17 -24.95 3.38
11.72 -24.82 3.40
12.50 -25.17 3.48
6.33 -12.12 1.69
14.36 -26.20 3.71
6.29 -10.95 1.57
34.06 28.59 5.45
32.47 28.39 5.28
31.02 28.24 5.13
29.72 28.17 5.00
28.48 28.10 4.88
27.30 28.03 4.77
26.17 27.97 4.67
25.08 27.92 4.57
24.04 27.86 4.47
23.04 27.81 4.39
22.07 27.76 4.30
21.14 27.72 4.22
20.24 27.68 4.15
19.37 27.63 4.08
18.44 27.45 3.99
17.62 27.41 3.93
16.83 27.37 3.87
16.06 27.34 3.82
15.33 27.33 3.77
14.61 27.32 3.72
5.94 11.66 1.57
13.21 27.30 3.63
12.54 27.29 3.59
11.88 27.28 3.55
5.92 14.37 1.85
10.59 27.26 3.49
5.88 16.07 2.04
5.86 17.09 2.15
5.84 18.22 2.27
5.77 19.31 2.39
5.39 19.45 2.39
5.00 19.58 2.39
4.61 19.70 2.39
2.32 10.90 1.32
3.83 19.91 2.39
3.43 20.01 2.39
3.03 20.10 2.39
2.63 20.18 2.39
2.23 20.26 2.39
1.83 20.39 2.40
1.48 21.26 2.49
1.05 21.31 2.49
0.63 21.35 2.49
0.20 21.38 2.49
-0.23 21.41 2.49
-0.66 21.42 2.49
-1.09 21.43 2.49
-1.52 21.43 2.49
-1.96 21.42 2.49
-2.39 21.40 2.49
-2.82 21.37 2.49
-3.25 21.33 2.49
-3.68 21.29 2.49
-4.12 21.23 2.49
-4.55 21.17 2.49
-4.97 21.10 2.49
-5.40 21.01 2.49
-5.83 20.92 2.49
-6.23 20.75 2.48
-6.40 19.86 2.39
-6.81 19.75 2.39
-7.21 19.63 2.39
-7.61 19.50 2.39
-8.00 19.36 2.39
-8.40 19.21 2.39
-8.79 19.06 2.39
-8.86 18.23 2.31
-9.15 17.90 2.29
-9.95 18.54 2.39
-8.80 15.65 2.04
-9.20 15.62 2.06
-10.90 17.67 2.35
-10.01 15.53 2.09
-10.00 14.85 2.02
-10.00 14.22 1.96
-9.98 13.61 1.91
-9.97 13.04 1.85
-9.96 12.50 1.80
-9.95 11.99 1.76
-9.95 11.50 1.71
-9.94 11.04 1.67
-9.93 10.59 1.63
-9.93 10.17 1.60
-9.92 9.76 1.56
-9.91 9.37 1.53
-9.91 9.00 1.50
-9.90 8.64 1.47
-9.90 8.29 1.45
-9.89 7.95 1.42
-9.89 7.63 1.40
-9.88 7.31 1.38
-9.88 7.01 1.36
-9.87 6.71 1.34
-9.87 6.42 1.32
-9.86 6.14 1.30
-9.86 5.87 1.28
-9.85 5.60 1.27
-9.55 5.18 1.21
-9.98 5.15 1.25
-10.46 5.14 1.30
-10.98 5.12 1.35
-11.54 5.10 1.41
-12.15 5.08 1.47
-12.81 5.06 1.54
-13.57 5.05 1.62
-14.41 5.04 1.70
-15.35 5.02 1.80
-16.41 5.01 1.91
-17.60 4.99 2.04
-18.97 4.96 2.19
-19.53 4.70 2.24
-19.62 4.30 2.24
-19.70 3.91 2.24
-19.77 3.51 2.24
-19.83 3.11 2.24
-19.89 2.71 2.24
-19.93 2.31 2.24
-19.97 1.91 2.24
-20.00 1.51 2.24
-20.02 1.11 2.24
-20.03 0.71 2.24
-20.03 0.31 2.24
-20.03 -0.10 2.24
-18.70 -0.46 2.10
-18.69 -0.84 2.10
-18.69 -1.22 2.10
-18.68 -1.59 2.10
-18.68 -1.97 2.11
-18.67 -2.35 2.11
-18.66 -2.73 2.12
-19.67 -3.28 2.24
-19.59 -3.67 2.24
-19.50 -4.06 2.24
-19.41 -4.45 2.24
-19.30 -4.84 2.24
-19.19 -5.22 2.24
-19.06 -5.60 2.24
-18.93 -5.97 2.24
-18.80 -6.35 2.24
-18.65 -6.72 2.24
-18.50 -7.09 2.24
-18.34 -7.45 2.24
-18.17 -7.81 2.24
-17.68 -8.02 2.20
-16.75 -8.01 2.11
-15.89 -8.00 2.02
-15.11 -7.98 1.94
-14.32 -7.94 1.86
-13.70 -7.96 1.81
-13.08 -7.95 1.75
-12.49 -7.94 1.69
-11.94 -7.93 1.64
-11.37 -7.89 1.58
-10.94 -7.92 1.55
-10.43 -7.88 1.50
-10.04 -7.90 1.47
-9.78 -8.02 1.45
-9.81 -8.38 1.48
-9.84 -8.75 1.52
-9.83 -9.11 1.55
-9.79 -9.44 1.57
-9.82 -9.86 1.61
-9.79 -10.23 1.64
-5.97 -6.49 1.02
-9.80 -11.10 1.72
-9.76 -11.51 1.75
-9.79 -12.02 1.80
-9.75 -12.48 1.84
-9.77 -13.04 1.90
-9.73 -13.54 1.94
-9.75 -14.17 2.01
-9.74 -14.78 2.07
-9.70 -15.38 2.13
-9.72 -16.12 2.21
-9.71 -16.86 2.28
-9.26 -16.85 2.26
-8.84 -16.88 2.24
-9.06 -18.17 2.39
-8.68 -18.32 2.39
-8.30 -18.47 2.39
-7.92 -18.61 2.39
-7.54 -18.75 2.39
-7.15 -18.87 2.39
-6.76 -18.99 2.39
-6.37 -19.09 2.39
-5.98 -19.20 2.39
-5.61 -19.38 2.40
-5.42 -20.21 2.49
-5.00 -20.29 2.49
-4.59 -20.36 2.49
-4.17 -20.43 2.49
-3.76 -20.48 2.49
-3.34 -20.53 2.49
-2.93 -20.57 2.49
-2.51 -20.60 2.49
-2.09 -20.62 2.49
-1.68 -20.63 2.49
-1.26 -20.64 2.49
-0.85 -20.63 2.49
-0.43 -20.62 2.49
-0.02 -17.32 2.49
0.33 -17.30 2.49
0.68 -17.28 2.49
1.02 -17.24 2.49
1.37 -17.20 2.49
1.71 -17.16 2.49
2.05 -17.10 2.49
2.40 -17.04 2.49
2.62 -16.28 2.39
2.80 -15.38 2.27
3.21 -15.86 2.35
3.40 -15.23 2.27
3.91 -15.96 2.39
4.22 -15.86 2.39
4.54 -15.76 2.39
4.85 -15.65 2.39
5.16 -15.54 2.39
5.46 -15.42 2.39
5.77 -15.30 2.39
6.07 -15.17 2.39
6.37 -15.03 2.39
6.35 -14.19 2.28
7.57 -16.04 2.60
9.98 -20.10 3.29
10.48 -20.07 3.33
10.97 -20.03 3.36
11.47 -19.98 3.39
12.07 -20.08 3.45
6.29 -10.00 1.74
13.65 -20.76 3.66
15.74 -22.92 4.10
6.25 -8.36 1.54
34.37 31.30 6.75
33.96 32.20 6.79
29.19 31.22 6.19
28.89 32.16 6.25
24.50 28.41 5.42
23.40 28.26 5.30
22.35 28.12 5.18
21.40 28.07 5.09
20.49 28.02 5.00
19.60 27.97 4.91
5.98 8.91 1.54
5.98 9.31 1.59
17.11 27.84 4.69
16.33 27.80 4.62
15.56 27.76 4.55
14.82 27.73 4.49
14.09 27.69 4.44
5.94 12.27 1.94
12.69 27.63 4.33
12.01 27.60 4.29
10.25 24.90 3.83
9.50 24.46 3.73
5.78 15.82 2.39
5.47 15.95 2.39
5.15 16.07 2.39
4.83 16.19 2.39
4.51 16.30 2.39
4.19 16.40 2.39
3.86 16.50 2.39
2.31 10.87 1.57
3.20 16.68 2.39
2.82 16.46 2.35
2.49 16.55 2.35
2.20 16.89 2.39
1.88 17.10 2.41
1.59 17.73 2.49
1.23 17.78 2.49
0.88 17.82 2.49
0.52 17.85 2.49
0.16 17.87 2.49
-0.20 17.89 2.49
-0.56 17.90 2.49
-0.92 17.90 2.49
-1.28 17.90 2.49
-1.64 17.89 2.49
-2.00 17.87 2.49
-2.36 17.84 2.49
-2.72 17.81 2.49
-3.08 17.77 2.49
-3.44 17.72 2.49
-3.79 17.66 2.49
-4.15 17.60 2.49
-4.51 17.53 2.49
-4.86 17.45 2.49
-5.22 17.36 2.49
-5.57 17.27 2.49
-5.92 17.17 2.49
-6.17 16.79 2.45
-6.34 16.24 2.39
-6.67 16.12 2.39
-7.00 16.00 2.39
-7.32 15.87 2.39
-7.65 15.73 2.39
-7.97 15.59 2.39
-8.28 15.43 2.39
-8.60 15.28 2.39
-8.91 15.11 2.39
-9.22 14.94 2.39
-9.52 14.76 2.39
-9.82 14.58 2.39
-10.00 14.22 2.36
-9.98 13.60 2.29
-9.97 13.04 2.23
-9.96 12.50 2.17
-9.95 11.99 2.11
-9.95 11.50 2.06
-9.94 11.04 2.01
-9.93 10.59 1.97
-9.93 10.17 1.92
-9.92 9.76 1.88
-9.91 9.37 1.84
-9.91 9.00 1.81
-9.90 8.64 1.77
-9.90 8.29 1.74
-9.89 7.95 1.71
-9.89 7.63 1.68
-9.88 7.31 1.66
-9.88 7.01 1.63
-9.87 6.71 1.61
-9.87 6.42 1.59
-9.86 6.14 1.56
-9.86 5.87 1.54
-9.85 5.60 1.53
-9.55 5.18 1.46
-9.98 5.15 1.51
-10.46 5.14 1.57
-10.98 5.12 1.63
-11.54 5.10 1.70
-12.15 5.08 1.77
-12.81 5.06 1.85
-13.57 5.05 1.95
-14.41 5.04 2.05
-15.35 5.02 2.17
-16.35 4.99 2.30
-16.40 4.64 2.29
-16.43 4.30 2.28
-16.48 3.96 2.28
-16.53 3.62 2.28
-16.57 3.29 2.27
-16.62 2.95 2.27
-16.65 2.61 2.27
-16.56 2.26 2.25
-16.55 1.92 2.24
-16.58 1.59 2.24
-16.60 1.26 2.24
-16.62 0.92 2.24
-16.63 0.59 2.24
-16.63 0.26 2.24
-16.63 -0.08 2.24
-16.62 -0.41 2.24
-15.61 -0.70 2.11
-15.58 -1.01 2.11
-15.56 -1.32 2.11
-15.52 -1.64 2.11
-15.49 -1.95 2.11
-15.44 -2.26 2.11
-16.35 -2.73 2.24
-16.28 -3.05 2.24
-16.21 -3.38 2.24
-16.13 -3.70 2.24
-16.04 -4.02 2.24
-15.95 -4.34 2.24
-15.85 -4.65 2.24
-15.75 -4.97 2.24
-15.63 -5.28 2.24
-15.51 -5.59 2.24
-15.39 -5.89 2.24
-15.26 -6.20 2.24
-15.12 -6.50 2.24
-14.97 -6.79 2.24
-14.84 -7.09 2.24
-14.71 -7.40 2.25
-14.57 -7.70 2.25
-14.32 -7.94 2.24
-13.71 -7.96 2.17
-13.08 -7.95 2.10
-12.49 -7.94 2.03
-11.94 -7.93 1.97
-11.38 -7.89 1.90
-10.94 -7.92 1.86
-10.48 -7.91 1.81
-10.05 -7.90 1.76
-9.78 -8.02 1.74
-9.81 -8.38 1.78
-9.84 -8.75 1.82
-9.83 -9.10 1.85
-9.79 -9.44 1.88
-9.82 -9.85 1.93
-9.80 -10.23 1.96
-5.97 -6.49 1.22
-9.80 -11.10 2.06
-9.76 -11.51 2.10
-9.79 -12.02 2.16
-9.75 -12.47 2.20
-9.77 -13.03 2.27
-9.73 -13.54 2.33
-9.75 -14.16 2.40
-9.42 -14.27 2.39
-9.12 -14.45 2.39
-8.82 -14.61 2.39
-8.51 -14.77 2.39
-8.21 -14.92 2.39
-7.90 -15.07 2.39
-7.59 -15.21 2.39
-7.27 -15.34 2.39
-6.96 -15.47 2.39
-6.64 -15.59 2.39
-6.32 -15.70 2.39
-5.99 -15.81 2.39
-5.67 -15.91 2.39
-5.57 -16.70 2.49
-5.23 -16.79 2.49
-4.89 -16.87 2.49
-4.55 -16.95 2.49
-4.20 -17.02 2.49
-3.85 -17.09 2.49
-3.51 -17.14 2.49
-3.16 -17.19 2.49
-2.81 -17.23 2.49
-2.46 -17.27 2.49
-2.11 -17.30 2.49
-1.76 -17.32 2.49
-1.41 -17.33 2.49
-1.06 -17.34 2.49
-0.71 -17.34 2.49
-0.36 -17.34 2.49
-0.02 -14.93 2.49
0.28 -14.92 2.49
0.58 -14.90 2.49
0.88 -14.87 2.49
1.18 -14.84 2.49
1.47 -14.80 2.49
1.77 -14.75 2.49
2.06 -14.70 2.49
2.36 -14.65 2.49
2.55 -14.05 2.40
2.71 -13.37 2.30
2.96 -13.27 2.29
3.24 -13.26 2.30
3.64 -13.69 2.39
3.91 -13.61 2.39
4.18 -13.52 2.39
4.45 -13.42 2.39
4.72 -13.32 2.39
4.98 -13.21 2.39
5.24 -13.10 2.39
5.50 -12.98 2.39
4.66 -10.42 1.94
4.73 -10.02 1.88
4.92 -9.92 1.88
5.12 -9.81 1.88
7.43 -13.57 2.63
7.83 -13.63 2.67
6.32 -10.51 2.09
10.09 -16.05 3.23
10.61 -16.14 3.29
11.14 -16.23 3.36
11.57 -16.15 3.39
12.19 -16.31 3.48
6.25 -8.03 1.74
13.58 -16.73 3.68
6.23 -6.79 1.58
6.22 -6.52 1.54
34.36 31.30 7.82
33.96 32.20 7.87
29.18 31.21 7.17
28.88 32.17 7.25
6.01 6.97 1.54
6.01 7.26 1.58
6.02 7.58 1.62
23.75 31.16 6.55
23.72 32.45 6.71
19.96 31.07 6.15
19.08 31.06 6.07
16.63 28.33 5.46
15.82 28.23 5.38
15.03 28.13 5.29
5.94 11.69 2.17
5.93 12.27 2.26
12.83 27.93 5.09
5.76 13.25 2.39
5.50 13.38 2.39
5.24 13.50 2.39
4.97 13.61 2.39
4.70 13.72 2.39
4.43 13.82 2.39
4.15 13.92 2.39
3.88 14.01 2.39
3.60 14.10 2.39
3.32 14.18 2.39
2.31 10.87 1.82
2.70 14.10 2.35
2.34 13.66 2.27
2.18 14.46 2.39
1.91 14.71 2.42
1.67 15.18 2.49
1.36 15.23 2.49
1.06 15.27 2.49
0.75 15.30 2.49
0.44 15.32 2.49
0.14 15.34 2.49
-0.17 15.35 2.49
-0.48 15.36 2.49
-0.79 15.36 2.49
-1.10 15.35 2.49
-1.41 15.34 2.49
-1.72 15.32 2.49
-2.02 15.30 2.49
-2.33 15.27 2.49
-2.64 15.23 2.49
-2.95 15.19 2.49
-3.25 15.14 2.49
-3.56 15.08 2.49
-3.86 15.02 2.49
-4.17 14.95 2.49
-4.47 14.87 2.49
-4.77 14.79 2.49
-5.07 14.70 2.49
-5.37 14.61 2.49
-5.66 14.51 2.49
-5.96 14.40 2.49
-6.13 14.00 2.44
-6.27 13.58 2.39
-6.54 13.46 2.39
-6.82 13.34 2.39
-7.09 13.21 2.39
-7.36 13.07 2.39
-7.62 12.93 2.39
-7.88 12.78 2.39
-8.14 12.63 2.39
-8.40 12.47 2.39
-8.65 12.30 2.39
-8.90 12.13 2.39
-9.15 11.96 2.39
-9.39 11.78 2.39
-9.63 11.59 2.39
-9.87 11.40 2.39
-9.94 11.03 2.35
-9.93 10.59 2.30
-9.93 10.17 2.25
-9.92 9.76 2.20
-9.91 9.37 2.16
-9.91 9.00 2.12
-9.90 8.64 2.08
-9.90 8.29 2.04
-9.89 7.95 2.00
-9.89 7.63 1.97
-9.88 7.31 1.94
-9.88 7.01 1.91
-9.87 6.71 1.88
-9.87 6.42 1.86
-9.86 6.14 1.83
-9.86 5.87 1.81
-9.85 5.60 1.79
-9.55 5.18 1.71
-9.98 5.15 1.77
-10.46 5.14 1.84
-10.98 5.12 1.91
-11.54 5.10 1.99
-12.15 5.08 2.07
-12.81 5.06 2.17
-13.57 5.05 2.28
-14.27 4.99 2.38
-14.33 4.69 2.37
-14.37 4.39 2.37
-14.39 4.08 2.35
-14.35 3.76 2.34
-14.31 3.44 2.32
-14.27 3.13 2.30
-14.28 2.83 2.29
-14.34 2.55 2.29
-14.39 2.26 2.29
-14.42 1.97 2.29
-14.44 1.68 2.29
-14.46 1.39 2.29
-14.47 1.10 2.29
-14.48 0.80 2.29
-14.41 0.51 2.27
-14.28 0.22 2.25
-14.24 -0.07 2.25
-14.24 -0.35 2.25
-13.63 -0.61 2.15
-13.61 -0.88 2.16
-13.60 -1.16 2.16
-13.57 -1.43 2.16
-13.55 -1.70 2.16
-13.51 -1.97 2.16
-13.48 -2.25 2.16
-13.92 -2.61 2.24
-13.86 -2.88 2.24
-13.79 -3.16 2.24
-13.72 -3.43 2.24
-13.64 -3.71 2.24
-13.55 -3.98 2.24
-13.46 -4.25 2.24
-13.39 -4.52 2.25
-13.35 -4.81 2.26
-13.31 -5.09 2.27
-13.25 -5.38 2.28
-13.20 -5.67 2.29
-13.13 -5.95 2.30
-13.02 -6.22 2.30
-12.90 -6.49 2.30
-12.79 -6.76 2.31
-11.05 -6.12 2.02
-10.62 -6.17 1.96
-10.62 -6.45 1.99
-10.62 -6.75 2.01
-10.61 -7.05 2.04
-11.38 -7.89 2.22
-10.94 -7.92 2.17
-10.48 -7.91 2.11
-10.05 -7.90 2.05
-9.78 -8.02 2.03
-9.81 -8.38 2.08
-9.84 -8.75 2.12
-9.83 -9.10 2.16
-9.79 -9.44 2.19
-9.82 -9.85 2.25
-9.80 -10.23 2.29
-5.95 -6.47 1.42
-9.80 -11.09 2.40
-9.55 -11.25 2.39
-9.31 -11.43 2.39
-9.07 -11.61 2.39
-8.83 -11.78 2.39
-8.59 -11.94 2.39
-8.34 -12.10 2.39
-8.09 -12.25 2.39
-7.83 -12.40 2.39
-7.57 -12.55 2.39
-7.31 -12.68 2.39
-7.05 -12.82 2.39
-6.79 -12.95 2.39
-6.52 -13.07 2.39
-6.25 -13.18 2.39
-5.98 -13.29 2.39
-5.71 -13.41 2.39
-5.67 -14.08 2.49
-5.38 -14.18 2.49
-5.09 -14.27 2.49
-4.80 -14.36 2.49
-4.50 -14.44 2.49
-4.21 -14.52 2.49
-3.91 -14.58 2.49
-3.62 -14.65 2.49
-3.32 -14.70 2.49
-3.02 -14.75 2.49
-2.72 -14.80 2.49
-2.42 -14.84 2.49
-2.12 -14.87 2.49
-1.82 -14.90 2.49
-1.52 -14.92 2.49
-1.22 -14.93 2.49
-0.92 -14.94 2.49
-0.62 -14.94 2.49
-0.32 -14.94 2.49
-0.02 -13.11 2.49
0.25 -13.10 2.49
0.51 -13.08 2.49
0.77 -13.06 2.49
1.03 -13.03 2.49
1.29 -13.00 2.49
1.55 -12.96 2.49
1.81 -12.92 2.49
2.07 -12.87 2.49
2.33 -12.81 2.49
2.47 -12.23 2.39
2.72 -12.17 2.39
2.96 -12.10 2.39
3.20 -12.03 2.39
3.44 -11.96 2.39
3.68 -11.88 2.39
3.91 -11.80 2.39
4.14 -11.71 2.39
4.38 -11.62 2.39
4.61 -11.52 2.39
4.83 -11.42 2.39
4.75 -10.62 2.24
4.98 -10.57 2.25
4.65 -9.37 2.02
4.88 -9.35 2.04
5.12 -9.35 2.06
6.15 -10.72 2.39
6.31 -10.51 2.37
7.30 -11.61 2.66
7.45 -11.34 2.63
8.21 -11.96 2.81
9.49 -13.25 3.16
9.94 -13.31 3.22
10.35 -13.29 3.27
10.77 -13.27 3.32
11.19 -13.23 3.37
11.62 -13.19 3.42
12.19 -13.29 3.51
6.22 -6.52 1.75
13.39 -13.47 3.69
28.27 -27.33 7.65
30.77 -28.57 8.17
6.20 -5.10 1.56
6.20 -4.89 1.54
6.04 5.28 1.54
6.03 5.50 1.56
33.96 32.21 8.96
29.17 31.21 8.16
28.88 32.18 8.26
24.74 31.14 7.58
23.74 31.16 7.46
23.72 32.46 7.65
19.95 31.07 7.01
5.97 9.73 2.17
18.47 31.48 6.92
5.95 11.14 2.39
5.73 11.27 2.39
5.51 11.39 2.39
5.28 11.51 2.39
5.05 11.62 2.39
4.82 11.73 2.39
4.59 11.83 2.39
4.35 11.93 2.39
4.12 12.03 2.39
3.88 12.12 2.39
3.64 12.20 2.39
3.39 12.28 2.39
3.15 12.36 2.39
2.90 12.43 2.39
2.31 10.86 2.08
2.41 12.55 2.39
2.16 12.61 2.39
1.94 12.90 2.44
1.72 13.25 2.49
1.46 13.29 2.49
1.19 13.33 2.49
0.92 13.36 2.49
0.66 13.39 2.49
0.39 13.41 2.49
0.12 13.42 2.49
-0.15 13.43 2.49
-0.42 13.44 2.49
-0.69 13.44 2.49
-0.96 13.43 2.49
-1.23 13.42 2.49
-1.50 13.40 2.49
-1.77 13.38 2.49
-2.04 13.35 2.49
-2.31 13.31 2.49
-2.58 13.28 2.49
-2.85 13.23 2.49
-3.11 13.18 2.49
-3.38 13.12 2.49
-3.64 13.06 2.49
-3.91 12.99 2.49
-4.17 12.92 2.49
-4.43 12.84 2.49
-4.69 12.76 2.49
-4.95 12.67 2.49
-5.21 12.58 2.49
-5.46 12.48 2.49
-5.71 12.37 2.49
-5.96 12.26 2.49
-6.09 11.92 2.45
-6.19 11.53 2.39
-6.42 11.41 2.39
-6.65 11.28 2.39
-6.88 11.15 2.39
-7.11 11.02 2.39
-7.33 10.88 2.39
-7.55 10.74 2.39
-7.77 10.59 2.39
-7.99 10.44 2.39
-8.20 10.28 2.39
-8.40 10.12 2.39
-8.61 9.95 2.39
-8.81 9.78 2.39
-9.01 9.60 2.39
-9.20 9.43 2.39
-9.39 9.24 2.39
-9.58 9.06 2.39
-9.76 8.86 2.39
-9.94 8.67 2.39
-9.90 8.29 2.34
-9.89 7.95 2.30
-9.89 7.62 2.26
-9.88 7.31 2.22
-9.88 7.00 2.19
-9.87 6.71 2.16
-9.87 6.42 2.13
-9.86 6.14 2.10
-9.86 5.86 2.07
-9.85 5.60 2.05
-9.55 5.18 1.96
-9.98 5.15 2.03
-10.46 5.14 2.11
-10.98 5.12 2.19
-11.54 5.10 2.28
-12.18 5.10 2.38
-10.79 4.26 2.10
-10.78 4.01 2.08
-10.78 3.77 2.06
-10.78 3.53 2.05
-10.77 3.29 2.03
-12.71 3.60 2.39
-12.79 3.35 2.39
-12.88 3.10 2.39
-12.95 2.84 2.40
-13.02 2.58 2.40
-13.08 2.32 2.40
-13.10 2.06 2.40
-10.74 1.47 1.96
-10.74 1.25 1.95
-10.74 1.03 1.95
-10.73 0.81 1.95
-10.73 0.60 1.94
-12.62 0.45 2.29
-12.62 0.19 2.28
-12.62 -0.06 2.28
-12.60 -0.31 2.28
-12.30 -0.55 2.23
-12.29 -0.80 2.23
-12.27 -1.04 2.23
-12.25 -1.29 2.23
-12.23 -1.54 2.23
-12.20 -1.78 2.24
-12.16 -2.03 2.24
-12.13 -2.27 2.24
-12.35 -2.57 2.29
-12.31 -2.82 2.29
-12.26 -3.07 2.30
-12.21 -3.32 2.30
-12.16 -3.57 2.30
-10.67 -3.36 2.04
-10.66 -3.60 2.05
-10.66 -3.84 2.06
-10.66 -4.08 2.08
-10.65 -4.32 2.10
-11.87 -5.10 2.36
-11.78 -5.34 2.36
-11.69 -5.58 2.37
-11.59 -5.83 2.37
-11.49 -6.07 2.38
-11.38 -6.30 2.38
-10.62 -6.17 2.25
-10.62 -6.45 2.28
-10.64 -6.76 2.31
-10.63 -7.06 2.34
-10.78 -7.47 2.41
-10.62 -7.68 2.41
-10.45 -7.89 2.41
-10.05 -7.90 2.35
-9.78 -8.01 2.33
-9.81 -8.37 2.38
-9.70 -8.62 2.39
-9.51 -8.80 2.39
-9.33 -8.99 2.39
-9.14 -9.17 2.39
-8.95 -9.34 2.39
-5.95 -6.47 1.63
-8.55 -9.68 2.39
-8.35 -9.84 2.39
-8.15 -10.00 2.39
-7.94 -10.15 2.39
-7.73 -10.30 2.39
-7.51 -10.45 2.39
-7.30 -10.59 2.39
-7.08 -10.72 2.39
-6.86 -10.86 2.39
-6.63 -10.98 2.39
-6.41 -11.10 2.39
-6.18 -11.22 2.39
-5.95 -11.34 2.39
-5.74 -11.49 2.40
-5.71 -12.05 2.49
-5.47 -12.15 2.49
-5.22 -12.25 2.49
-4.97 -12.34 2.49
-4.71 -12.43 2.49
-4.46 -12.51 2.49
-4.21 -12.59 2.49
-3.95 -12.66 2.49
-3.69 -12.72 2.49
-3.43 -12.79 2.49
-3.17 -12.84 2.49
-2.91 -12.89 2.49
-2.65 -12.94 2.49
-2.39 -12.98 2.49
-2.13 -13.01 2.49
-1.86 -13.04 2.49
-1.60 -13.07 2.49
-1.34 -13.09 2.49
-1.07 -13.10 2.49
-0.81 -13.11 2.49
-0.54 -13.12 2.49
-0.28 -13.11 2.49
-0.02 -11.67 2.49
0.22 -11.66 2.49
0.45 -11.65 2.49
0.68 -11.63 2.49
0.92 -11.60 2.49
1.15 -11.58 2.49
1.38 -11.54 2.49
1.61 -11.51 2.49
1.84 -11.46 2.49
2.07 -11.42 2.49
2.30 -11.37 2.49
2.42 -10.84 2.39
2.64 -10.79 2.39
2.85 -10.72 2.39
3.06 -10.66 2.39
3.27 -10.59 2.39
3.48 -10.52 2.39
3.69 -10.44 2.39
3.90 -10.36 2.39
4.10 -10.27 2.39
4.31 -10.18 2.39
4.51 -10.09 2.39
4.71 -9.99 2.39
4.76 -9.59 2.32
5.00 -9.59 2.34
5.29 -9.67 2.39
5.49 -9.56 2.39
5.67 -9.44 2.39
4.63 -7.36 1.89
4.76 -7.24 1.88
4.90 -7.14 1.88
5.04 -7.04 1.88
6.26 -8.38 2.27
7.44 -9.55 2.63
8.14 -10.03 2.81
9.38 -11.10 3.16
6.25 -7.10 2.06
10.14 -11.06 3.27
6.22 -6.52 1.96
10.79 -10.86 3.34
11.11 -10.74 3.37
11.44 -10.62 3.40
11.83 -10.55 3.46
12.26 -10.50 3.52
12.70 -10.44 3.59
13.17 -10.39 3.66
13.78 -10.43 3.77
6.21 -4.51 1.68
6.19 -4.31 1.65
29.23 -19.47 7.67
29.92 -19.07 7.75
30.53 -18.61 7.82
6.18 -3.60 1.56
6.17 -3.43 1.54
32.38 -17.15 8.01
33.09 -16.68 8.11
33.81 -16.20 8.20
34.54 -15.70 8.30
35.37 -15.23 8.43
36.64 -14.91 8.66
38.46 -14.76 9.01
40.49 -14.61 9.42
40.65 -13.75 9.39
40.71 -12.87 9.34
40.94 -12.04 9.34
41.30 -11.25 9.36
41.88 -10.51 9.45
42.52 -9.76 9.55
43.29 -9.03 9.67
43.36 -8.13 9.65
43.47 -7.26 9.64
6.06 3.78 1.54
6.06 3.95 1.56
40.21 27.42 10.51
34.34 31.29 9.99
33.96 32.22 10.06
30.37 31.23 9.35
29.16 31.21 9.16
28.88 32.19 9.27
24.73 31.14 8.51
23.74 31.16 8.38
23.72 32.47 8.59
19.94 31.07 7.87
5.87 9.56 2.39
5.68 9.68 2.39
5.49 9.80 2.39
5.29 9.92 2.39
5.10 10.03 2.39
4.90 10.13 2.39
4.70 10.24 2.39
4.49 10.34 2.39
4.29 10.43 2.39
4.08 10.52 2.39
3.87 10.61 2.39
3.66 10.69 2.39
3.45 10.77 2.39
3.23 10.85 2.39
3.02 10.92 2.39
2.80 10.98 2.39
2.58 11.05 2.39
2.31 10.86 2.34
2.15 11.24 2.41
1.96 11.48 2.45
1.76 11.73 2.49
1.53 11.78 2.49
1.29 11.81 2.49
1.06 11.84 2.49
0.82 11.87 2.49
0.58 11.89 2.49
0.34 11.91 2.49
0.10 11.92 2.49
-0.14 11.93 2.49
-0.38 11.93 2.49
-0.62 11.93 2.49
-0.86 11.92 2.49
-1.10 11.91 2.49
-1.34 11.90 2.49
-1.57 11.87 2.49
-1.81 11.85 2.49
-2.05 11.82 2.49
-2.29 11.78 2.49
-2.53 11.74 2.49
-2.76 11.69 2.49
-3.00 11.64 2.49
-3.23 11.59 2.49
-3.47 11.53 2.49
-3.70 11.46 2.49
-3.93 11.39 2.49
-4.16 11.32 2.49
-4.39 11.24 2.49
-4.62 11.15 2.49
-4.84 11.06 2.49
-5.07 10.97 2.49
-5.29 10.87 2.49
-5.51 10.77 2.49
-5.73 10.66 2.49
-5.94 10.55 2.49
-6.07 10.29 2.46
-6.10 9.89 2.39
-6.30 9.77 2.39
-6.50 9.64 2.39
-6.70 9.52 2.39
-6.89 9.38 2.39
-7.08 9.25 2.39
-7.26 9.11 2.39
-7.45 8.96 2.39
-7.63 8.82 2.39
-7.81 8.66 2.39
-7.98 8.51 2.39
-8.15 8.35 2.39
-8.32 8.19 2.39
-8.49 8.02 2.39
-8.65 7.85 2.39
-8.81 7.68 2.39
-8.96 7.50 2.39
-9.11 7.32 2.39
-9.26 7.14 2.39
-9.40 6.96 2.39
-9.54 6.77 2.39
-9.68 6.58 2.39
-9.81 6.38 2.39
-9.86 6.14 2.37
-9.86 5.86 2.34
-9.85 5.60 2.31
-9.55 5.18 2.22
-9.98 5.15 2.29
-10.59 5.20 2.41
-10.69 4.99 2.41
-10.79 4.77 2.41
-10.88 4.55 2.41
-10.97 4.33 2.41
-10.81 4.02 2.35
-10.80 3.78 2.33
-10.80 3.53 2.32
-10.80 3.29 2.30
-11.35 3.22 2.41
-11.41 2.99 2.41
-11.47 2.76 2.41
-11.52 2.53 2.41
-11.57 2.30 2.41
-11.55 2.05 2.39
-11.50 1.81 2.38
-10.74 1.47 2.21
-10.74 1.25 2.21
-10.74 1.03 2.20
-10.73 0.81 2.20
-10.73 0.60 2.19
-11.56 0.41 2.36
-11.56 0.18 2.36
-11.55 -0.05 2.36
-11.54 -0.28 2.36
-11.21 -0.50 2.29
-11.20 -0.73 2.30
-11.18 -0.95 2.30
-11.17 -1.17 2.30
-11.14 -1.40 2.30
-11.12 -1.62 2.30
-11.09 -1.85 2.30
-11.05 -2.07 2.30
-11.02 -2.29 2.31
-11.29 -2.59 2.38
-11.25 -2.81 2.38
-11.20 -3.04 2.38
-11.15 -3.27 2.39
-10.70 -3.37 2.30
-10.69 -3.61 2.32
-10.68 -3.84 2.33
-10.68 -4.09 2.35
-10.68 -4.33 2.37
-10.74 -4.61 2.41
-10.64 -4.82 2.41
-10.54 -5.03 2.41
-10.43 -5.24 2.41
-10.32 -5.45 2.41
-10.20 -5.65 2.41
-10.08 -5.85 2.41
-9.96 -6.05 2.41
-9.76 -6.20 2.39
-9.63 -6.39 2.39
-9.49 -6.58 2.39
-9.36 -6.77 2.39
-9.21 -6.95 2.39
-9.07 -7.13 2.39
-8.92 -7.30 2.39
-8.76 -7.48 2.39
-8.61 -7.65 2.39
-8.45 -7.81 2.39
-8.28 -7.97 2.39
-8.11 -8.13 2.39
-7.94 -8.29 2.39
-5.95 -6.47 1.83
-7.60 -8.59 2.39
-7.42 -8.74 2.39
-7.24 -8.88 2.39
-7.05 -9.01 2.39
-6.86 -9.15 2.39
-6.68 -9.28 2.39
-6.48 -9.40 2.39
-6.29 -9.52 2.39
-6.09 -9.64 2.39
-5.89 -9.76 2.39
-5.76 -9.98 2.42
-5.73 -10.40 2.49
-5.51 -10.51 2.49
-5.30 -10.61 2.49
-5.08 -10.70 2.49
-4.86 -10.80 2.49
-4.64 -10.88 2.49
-4.42 -10.97 2.49
-4.19 -11.05 2.49
-3.97 -11.12 2.49
-3.74 -11.19 2.49
-3.51 -11.26 2.49
-3.28 -11.32 2.49
-3.05 -11.37 2.49
-2.82 -11.42 2.49
-2.59 -11.47 2.49
-2.36 -11.51 2.49
-2.13 -11.55 2.49
-1.89 -11.58 2.49
-1.66 -11.61 2.49
-1.42 -11.63 2.49
-1.19 -11.65 2.49
-0.96 -11.66 2.49
-0.72 -11.67 2.49
-0.49 -11.68 2.49
-0.25 -11.67 2.49
-0.02 -10.51 2.49
0.19 -10.50 2.49
0.40 -10.49 2.49
0.61 -10.47 2.49
0.82 -10.45 2.49
1.03 -10.42 2.49
1.24 -10.40 2.49
1.45 -10.36 2.49
1.66 -10.33 2.49
1.86 -10.28 2.49
2.07 -10.24 2.49
2.27 -10.19 2.49
2.37 -9.72 2.39
2.57 -9.66 2.39
2.76 -9.60 2.39
2.95 -9.54 2.39
3.14 -9.48 2.39
3.33 -9.41 2.39
3.51 -9.33 2.39
3.70 -9.26 2.39
3.88 -9.18 2.39
4.06 -9.09 2.39
4.24 -9.00 2.39
4.42 -8.91 2.39
4.60 -8.82 2.39
4.77 -8.72 2.39
4.94 -8.62 2.39
5.11 -8.51 2.39
5.28 -8.41 2.39
4.61 -7.02 2.02
4.60 -6.71 1.96
4.60 -6.43 1.91
4.67 -6.25 1.88
4.79 -6.15 1.88
4.91 -6.05 1.88
5.04 -5.97 1.89
6.24 -7.09 2.28
7.41 -8.09 2.65
6.22 -6.52 2.18
9.17 -9.23 3.14
9.66 -9.34 3.25
9.90 -9.20 3.27
10.15 -9.06 3.29
6.22 -5.32 1.98
10.66 -8.77 3.34
10.92 -8.62 3.37
11.17 -8.45 3.39
6.21 -4.51 1.86
11.72 -8.15 3.46
12.06 -8.03 3.51
6.19 -3.95 1.78
12.75 -7.77 3.62
13.09 -7.62 3.67
13.46 -7.48 3.73
14.40 -7.62 3.95
29.66 -14.95 8.05
30.50 -14.61 8.20
6.17 -2.81 1.64
32.16 -13.85 8.49
6.16 -2.51 1.61
6.18 -2.37 1.61
35.34 -12.75 9.11
6.15 -2.08 1.58
6.15 -1.94 1.56
6.15 -1.81 1.55
6.15 -1.67 1.54
6.15 -1.54 1.54
40.64 -9.33 10.11
41.44 -8.64 10.26
41.08 -7.71 10.13
43.00 -7.18 10.57
44.28 -6.48 10.85
44.10 11.58 11.00
43.55 12.38 10.92
6.10 1.87 1.54
6.09 2.00 1.54
6.09 2.13 1.55
6.08 2.27 1.56
6.08 2.41 1.58
42.04 18.66 11.06
41.65 19.49 11.06
6.08 3.15 1.64
6.07 3.46 1.68
41.34 24.68 11.55
37.26 23.27 10.54
6.07 3.96 1.74
38.05 25.95 11.04
38.66 27.52 11.37
36.76 28.46 11.12
35.35 28.52 10.86
36.51 30.69 11.40
35.50 31.08 11.27
34.07 31.05 11.00
33.72 32.00 11.09
33.34 32.94 11.18
30.36 31.23 10.38
29.15 31.21 10.17
28.88 32.19 10.30
29.49 34.24 10.75
28.86 34.90 10.77
24.72 31.14 9.45
23.74 31.17 9.30
5.94 8.13 2.39
5.78 8.26 2.39
5.62 8.38 2.39
5.45 8.49 2.39
5.28 8.61 2.39
5.11 8.72 2.39
4.94 8.82 2.39
4.76 8.92 2.39
4.58 9.02 2.39
4.41 9.12 2.39
4.22 9.21 2.39
4.04 9.30 2.39
3.86 9.39 2.39
3.67 9.47 2.39
3.48 9.55 2.39
3.29 9.62 2.39
3.10 9.69 2.39
2.91 9.76 2.39
2.71 9.82 2.39
2.51 9.88 2.39
2.32 9.93 2.39
2.12 9.98 2.39
1.98 10.34 2.46
1.79 10.51 2.49
1.58 10.55 2.49
1.37 10.58 2.49
1.16 10.62 2.49
0.95 10.64 2.49
0.73 10.67 2.49
0.52 10.69 2.49
0.31 10.70 2.49
0.09 10.71 2.49
-0.12 10.72 2.49
-0.34 10.72 2.49
-0.56 10.72 2.49
-0.77 10.71 2.49
-0.99 10.70 2.49
-1.20 10.68 2.49
-1.42 10.66 2.49
-1.63 10.64 2.49
-1.84 10.61 2.49
-2.06 10.58 2.49
-2.27 10.54 2.49
-2.48 10.50 2.49
-2.69 10.45 2.49
-2.91 10.40 2.49
-3.12 10.35 2.49
-3.32 10.29 2.49
-3.53 10.23 2.49
-3.74 10.16 2.49
-3.94 10.09 2.49
-4.15 10.01 2.49
-4.35 9.93 2.49
-4.55 9.84 2.49
-4.75 9.76 2.49
-4.94 9.66 2.49
-5.14 9.57 2.49
-5.33 9.47 2.49
-5.52 9.36 2.49
-5.71 9.25 2.49
-5.90 9.14 2.49
-6.05 8.97 2.48
-6.05 8.60 2.41
-6.18 8.42 2.39
-6.35 8.29 2.39
-6.52 8.17 2.39
-6.68 8.04 2.39
-6.84 7.91 2.39
-7.00 7.77 2.39
-7.16 7.63 2.39
-7.31 7.49 2.39
-7.46 7.34 2.39
-7.61 7.19 2.39
-7.76 7.04 2.39
-7.90 6.88 2.39
-8.04 6.73 2.39
-8.17 6.57 2.39
-8.30 6.40 2.39
-8.43 6.24 2.39
-8.56 6.07 2.39
-8.68 5.90 2.39
-8.80 5.72 2.39
-8.91 5.54 2.39
-9.02 5.37 2.39
-9.13 5.18 2.39
-9.23 5.00 2.39
-9.33 4.82 2.39
-9.43 4.63 2.39
-9.52 4.44 2.39
-9.61 4.25 2.39
-9.69 4.05 2.39
-9.77 3.86 2.39
-9.84 3.66 2.39
-9.92 3.47 2.39
-10.05 3.29 2.41
-10.11 3.09 2.41
-10.17 2.88 2.41
-10.23 2.68 2.41
-10.28 2.47 2.41
-10.33 2.27 2.41
-10.37 2.06 2.41
-10.41 1.85 2.41
-10.44 1.64 2.41
-10.47 1.43 2.41
-10.50 1.22 2.41
-10.52 1.01 2.41
-10.53 0.80 2.41
-10.55 0.59 2.41
-10.55 0.38 2.41
-10.56 0.16 2.41
-10.56 -0.05 2.41
-10.55 -0.26 2.41
-10.29 -0.46 2.35
-10.28 -0.67 2.35
-10.27 -0.87 2.35
-10.25 -1.08 2.35
-10.23 -1.28 2.35
-10.21 -1.49 2.36
-10.18 -1.69 2.36
-10.15 -1.90 2.36
-10.11 -2.10 2.36
-10.08 -2.31 2.36
-10.21 -2.55 2.41
-10.15 -2.76 2.41
-10.09 -2.96 2.41
-10.02 -3.16 2.41
-9.96 -3.36 2.41
-9.82 -3.53 2.39
-9.74 -3.73 2.39
-9.66 -3.92 2.39
-9.57 -4.11 2.39
-9.49 -4.30 2.39
-9.39 -4.49 2.39
-9.30 -4.67 2.39
-9.20 -4.85 2.39
-9.09 -5.04 2.39
-8.99 -5.21 2.39
-8.88 -5.39 2.39
-8.76 -5.57 2.39
-8.64 -5.74 2.39
-8.52 -5.91 2.39
-8.40 -6.07 2.39
-8.27 -6.24 2.39
-8.14 -6.40 2.39
-8.01 -6.56 2.39
-7.87 -6.71 2.39
-7.73 -6.86 2.39
-7.58 -7.01 2.39
-7.44 -7.16 2.39
-7.29 -7.30 2.39
-7.14 -7.44 2.39
-5.96 -6.47 2.04
-6.82 -7.72 2.39
-6.66 -7.85 2.39
-6.50 -7.97 2.39
-6.34 -8.10 2.39
-6.17 -8.22 2.39
-6.00 -8.33 2.39
-5.83 -8.45 2.39
-5.77 -8.74 2.44
-5.71 -9.04 2.49
-5.53 -9.15 2.49
-5.34 -9.25 2.49
-5.15 -9.35 2.49
-4.96 -9.44 2.49
-4.76 -9.54 2.49
-4.57 -9.62 2.49
-4.37 -9.71 2.49
-4.17 -9.79 2.49
-3.97 -9.86 2.49
-3.77 -9.93 2.49
-3.57 -10.00 2.49
-3.37 -10.06 2.49
-3.16 -10.12 2.49
-2.96 -10.18 2.49
-2.75 -10.23 2.49
-2.54 -10.28 2.49
-2.33 -10.32 2.49
-2.13 -10.36 2.49
-1.92 -10.39 2.49
-1.71 -10.42 2.49
-1.49 -10.45 2.49
-1.28 -10.47 2.49
-1.07 -10.48 2.49
-0.86 -10.50 2.49
-0.65 -10.51 2.49
-0.44 -10.51 2.49
-0.23 -10.51 2.49
-0.02 -9.54 2.49
0.17 -9.54 2.49
0.37 -9.53 2.49
0.56 -9.51 2.49
0.75 -9.49 2.49
0.94 -9.47 2.49
1.13 -9.45 2.49
1.32 -9.42 2.49
1.50 -9.38 2.49
1.69 -9.35 2.49
1.88 -9.31 2.49
2.06 -9.26 2.49
2.25 -9.21 2.49
2.33 -8.78 2.39
2.51 -8.73 2.39
2.68 -8.67 2.39
2.85 -8.62 2.39
3.02 -8.55 2.39
3.19 -8.49 2.39
3.36 -8.42 2.39
3.53 -8.34 2.39
3.69 -8.27 2.39
3.86 -8.19 2.39
4.02 -8.11 2.39
4.18 -8.02 2.39
4.34 -7.93 2.39
4.50 -7.84 2.39
4.65 -7.74 2.39
4.80 -7.65 2.39
4.71 -7.17 2.27
4.91 -7.17 2.30
5.25 -7.33 2.39
4.60 -6.16 2.04
4.63 -5.95 2.00
4.83 -5.95 2.03
5.81 -6.88 2.39
5.95 -6.76 2.39
6.08 -6.64 2.39
6.21 -6.51 2.39
7.19 -7.23 2.71
7.26 -7.02 2.69
6.22 -5.78 2.26
7.41 -6.61 2.64
9.26 -7.93 3.24
9.64 -7.93 3.32
9.85 -7.77 3.34
10.06 -7.61 3.36
6.21 -4.51 2.04
10.47 -7.28 3.39
10.67 -7.11 3.41
10.87 -6.93 3.43
11.06 -6.74 3.45
11.26 -6.55 3.47
11.45 -6.36 3.49
11.72 -6.21 3.53
12.03 -6.07 3.59
12.34 -5.91 3.65
12.65 -5.75 3.70
12.96 -5.58 3.76
6.16 -2.51 1.77
13.78 -5.29 3.93
14.55 -5.25 4.12
6.16 -2.08 1.73
33.12 -10.47 9.26
34.78 -10.23 9.66
36.23 -9.87 10.01
37.58 -9.43 10.32
38.73 -8.89 10.59
39.93 -8.33 10.87
40.78 -7.65 11.05
41.25 -6.88 11.14
6.14 -0.90 1.65
43.66 -5.49 11.72
6.13 -0.52 1.64
23.61 0.37 6.28
23.29 0.83 6.20
23.02 1.29 6.13
22.84 1.74 6.09
22.98 2.22 6.14
6.12 1.09 1.65
46.97 9.36 12.72
45.93 10.11 12.48
6.10 1.47 1.66
44.86 11.79 12.31
44.59 12.68 12.29
6.10 1.87 1.69
42.29 13.89 11.80
44.20 15.51 12.41
39.76 14.85 11.24
39.29 15.58 11.19
39.97 16.79 11.47
43.60 19.36 12.62
43.27 20.26 12.64
38.23 18.85 11.27
42.46 22.00 12.64
41.90 22.79 12.60
6.07 3.46 1.84
37.26 22.25 11.45
36.88 23.05 11.47
35.97 23.50 11.33
33.54 22.88 10.70
33.63 23.95 10.88
33.89 25.17 11.11
6.05 4.69 2.02
35.13 28.35 11.88
35.22 29.61 12.10
34.66 30.36 12.11
34.05 31.05 12.11
33.60 31.90 12.16
29.44 29.10 10.86
6.03 6.20 2.27
28.92 30.97 11.11
28.65 31.95 11.24
5.96 6.92 2.39
5.82 7.04 2.39
5.68 7.16 2.39
5.54 7.28 2.39
5.39 7.39 2.39
5.25 7.50 2.39
5.10 7.61 2.39
4.95 7.71 2.39
4.80 7.82 2.39
4.64 7.92 2.39
4.48 8.01 2.39
4.32 8.11 2.39
4.16 8.20 2.39
4.00 8.28 2.39
3.83 8.37 2.39
3.67 8.45 2.39
3.50 8.52 2.39
3.33 8.60 2.39
3.00 8.22 2.27
2.94 8.59 2.35
2.76 8.65 2.35
2.50 8.41 2.27
2.36 8.57 2.30
2.28 8.97 2.39
2.10 9.01 2.39
1.99 9.40 2.48
1.81 9.49 2.49
1.63 9.53 2.49
1.43 9.57 2.49
1.24 9.60 2.49
1.05 9.63 2.49
0.86 9.66 2.49
0.66 9.68 2.49
0.47 9.69 2.49
0.28 9.71 2.49
0.08 9.72 2.49
-0.11 9.72 2.49
-0.31 9.72 2.49
-0.50 9.72 2.49
-0.70 9.71 2.49
-0.90 9.70 2.49
-1.09 9.69 2.49
-1.29 9.67 2.49
-1.48 9.65 2.49
-1.67 9.62 2.49
-1.87 9.59 2.49
-2.06 9.56 2.49
-2.25 9.52 2.49
-2.44 9.47 2.49
-2.63 9.43 2.49
-2.82 9.38 2.49
-3.01 9.32 2.49
-3.20 9.27 2.49
-3.39 9.20 2.49
-3.57 9.14 2.49
-3.76 9.07 2.49
-3.94 9.00 2.49
-4.12 8.92 2.49
-4.30 8.84 2.49
-4.48 8.75 2.49
-4.66 8.67 2.49
-4.83 8.58 2.49
-5.00 8.48 2.49
-5.18 8.38 2.49
-5.34 8.28 2.49
-5.51 8.17 2.49
-5.68 8.06 2.49
-5.84 7.95 2.49
-6.00 7.84 2.49
-6.03 7.55 2.44
-6.05 7.28 2.39
-6.20 7.16 2.39
-6.34 7.04 2.39
-6.48 6.91 2.39
-6.62 6.78 2.39
-6.76 6.65 2.39
-6.89 6.51 2.39
-7.02 6.37 2.39
-7.15 6.23 2.39
-7.28 6.09 2.39
-7.40 5.94 2.39
-7.52 5.80 2.39
-7.63 5.65 2.39
-7.75 5.49 2.39
-7.86 5.34 2.39
-7.96 5.18 2.39
-8.07 5.02 2.39
-8.17 4.86 2.39
-8.26 4.69 2.39
-8.36 4.53 2.39
-8.45 4.36 2.39
-8.53 4.19 2.39
-8.62 4.02 2.39
-8.70 3.85 2.39
-8.77 3.67 2.39
-8.84 3.49 2.39
-8.91 3.32 2.39
-8.98 3.14 2.39
-9.04 2.96 2.39
-9.10 2.77 2.39
-9.15 2.59 2.39
-9.20 2.41 2.39
-9.24 2.22 2.39
-9.29 2.04 2.39
-9.33 1.85 2.39
-9.36 1.66 2.39
-9.39 1.48 2.39
-9.42 1.29 2.39
-9.44 1.10 2.39
-9.46 0.91 2.39
-9.47 0.72 2.39
-9.49 0.53 2.39
-9.49 0.34 2.39
-9.50 0.15 2.39
-9.49 -0.04 2.39
-9.49 -0.23 2.39
-9.48 -0.42 2.39
-9.47 -0.61 2.39
-9.45 -0.80 2.39
-9.43 -0.99 2.39
-9.41 -1.18 2.39
-9.38 -1.37 2.39
-9.35 -1.55 2.39
-9.31 -1.74 2.39
-9.27 -1.93 2.39
-9.23 -2.11 2.39
-9.18 -2.30 2.39
-9.13 -2.48 2.39
-9.08 -2.66 2.39
-9.02 -2.84 2.39
-8.96 -3.02 2.39
-8.89 -3.20 2.39
-8.82 -3.37 2.39
-8.75 -3.55 2.39
-8.67 -3.72 2.39
-8.59 -3.89 2.39
-8.51 -4.06 2.39
-8.42 -4.23 2.39
-8.33 -4.40 2.39
-8.24 -4.56 2.39
-8.14 -4.72 2.39
-8.04 -4.88 2.39
-7.94 -5.04 2.39
-7.83 -5.20 2.39
-7.73 -5.35 2.39
-7.61 -5.50 2.39
-7.50 -5.65 2.39
-7.38 -5.80 2.39
-7.26 -5.94 2.39
-7.13 -6.08 2.39
-7.01 -6.22 2.39
-6.88 -6.36 2.39
-6.74 -6.49 2.39
-6.61 -6.62 2.39
-6.47 -6.75 2.39
-5.96 -6.47 2.25
-6.19 -7.00 2.39
-6.04 -7.11 2.39
-5.90 -7.23 2.39
-5.80 -7.41 2.41
-5.79 -7.71 2.47
-5.68 -7.89 2.49
-5.52 -7.99 2.49
-5.35 -8.10 2.49
-5.18 -8.20 2.49
-5.02 -8.30 2.49
-4.85 -8.39 2.49
-4.67 -8.48 2.49
-4.50 -8.57 2.49
-4.32 -8.65 2.49
-4.15 -8.73 2.49
-3.97 -8.81 2.49
-3.79 -8.88 2.49
-3.61 -8.95 2.49
-3.43 -9.01 2.49
-3.24 -9.08 2.49
-3.06 -9.13 2.49
-2.87 -9.19 2.49
-2.69 -9.24 2.49
-2.50 -9.29 2.49
-2.31 -9.33 2.49
-2.12 -9.37 2.49
-1.93 -9.40 2.49
-1.74 -9.43 2.49
-1.55 -9.46 2.49
-1.36 -9.49 2.49
-1.17 -9.51 2.49
-0.98 -9.52 2.49
-0.78 -9.53 2.49
-0.59 -9.54 2.49
-0.40 -9.55 2.49
-0.21 -9.55 2.49
-0.02 -8.74 2.49
0.16 -8.73 2.49
0.33 -8.72 2.49
0.51 -8.71 2.49
0.68 -8.69 2.49
0.86 -8.67 2.49
1.03 -8.65 2.49
1.20 -8.62 2.49
1.38 -8.59 2.49
1.55 -8.56 2.49
1.72 -8.52 2.49
1.89 -8.48 2.49
2.06 -8.44 2.49
2.23 -8.39 2.49
2.29 -8.00 2.39
2.46 -7.96 2.39
2.61 -7.89 2.39
2.77 -7.83 2.39
2.92 -7.77 2.39
3.08 -7.71 2.39
3.23 -7.64 2.39
3.38 -7.57 2.39
3.53 -7.50 2.39
3.68 -7.42 2.39
3.83 -7.35 2.39
3.97 -7.27 2.39
4.12 -7.18 2.39
4.26 -7.09 2.39
4.40 -7.00 2.39
4.54 -6.91 2.39
4.67 -6.82 2.39
4.81 -6.72 2.39
4.68 -6.27 2.27
4.82 -6.19 2.27
5.20 -6.41 2.39
5.33 -6.30 2.39
5.45 -6.19 2.39
5.57 -6.08 2.39
5.69 -5.97 2.39
5.81 -5.85 2.39
5.93 -5.73 2.39
6.04 -5.61 2.39
6.15 -5.49 2.39
7.11 -6.09 2.72
7.17 -5.90 2.70
7.24 -5.71 2.68
6.20 -4.69 2.26
6.20 -4.50 2.22
9.37 -6.52 3.31
9.64 -6.42 3.36
9.82 -6.26 3.38
9.99 -6.09 3.40
10.16 -5.92 3.42
10.33 -5.74 3.43
10.49 -5.56 3.45
10.69 -5.39 3.48
10.89 -5.22 3.51
11.08 -5.04 3.54
11.27 -4.86 3.57
6.16 -2.51 1.93
11.75 -4.51 3.66
12.04 -4.35 3.72
12.34 -4.17 3.79
12.63 -3.99 3.85
12.93 -3.80 3.92
6.15 -1.68 1.85
6.15 -1.54 1.84
6.15 -1.41 1.83
14.68 -3.06 4.36
15.27 -2.86 4.52
16.42 -2.74 4.84
25.69 -3.76 7.55
25.84 -3.25 7.57
26.52 -2.79 7.75
6.13 -0.52 1.79
27.86 -1.81 8.11
28.62 -1.28 8.32
22.64 -0.10 6.57
6.13 0.10 1.78
22.70 0.81 6.59
22.61 1.27 6.57
22.57 1.72 6.57
22.75 2.19 6.63
6.12 0.71 1.79
47.31 6.49 13.85
46.58 7.35 13.67
45.74 8.16 13.47
45.05 8.98 13.31
44.44 9.79 13.18
6.10 1.47 1.82
30.45 8.01 9.12
42.99 12.23 12.94
38.70 11.85 11.71
38.54 12.66 11.74
42.24 14.82 12.94
42.06 15.72 12.98
41.81 16.59 13.00
41.52 17.44 13.01
41.16 18.28 13.01
36.28 16.99 11.56
35.00 17.26 11.26
39.65 20.55 12.88
39.02 21.23 12.81
6.07 3.46 2.01
37.73 22.54 12.66
37.14 23.21 12.61
36.56 23.88 12.57
33.15 22.62 11.55
32.92 23.45 11.62
34.84 25.88 12.48
34.26 26.54 12.46
33.73 27.23 12.45
6.05 5.09 2.27
27.40 24.00 10.45
32.01 29.20 12.43
6.05 5.74 2.39
5.93 5.86 2.39
5.82 5.98 2.39
5.70 6.10 2.39
5.58 6.22 2.39
5.45 6.33 2.39
5.33 6.45 2.39
5.20 6.55 2.39
5.07 6.66 2.39
4.94 6.76 2.39
4.80 6.87 2.39
4.67 6.96 2.39
4.53 7.06 2.39
4.39 7.15 2.39
4.24 7.24 2.39
4.10 7.33 2.39
3.95 7.42 2.39
3.81 7.50 2.39
3.66 7.58 2.39
3.51 7.65 2.39
3.35 7.73 2.39
3.04 7.40 2.27
2.96 7.66 2.33
2.84 7.80 2.35
2.68 7.86 2.35
2.44 7.64 2.27
2.37 7.98 2.35
2.25 8.15 2.39
2.08 8.20 2.39
2.00 8.60 2.49
1.83 8.64 2.49
1.66 8.68 2.49
1.48 8.72 2.49
1.31 8.75 2.49
1.13 8.78 2.49
0.96 8.81 2.49
0.78 8.83 2.49
0.61 8.85 2.49
0.43 8.86 2.49
0.25 8.87 2.49
0.07 8.88 2.49
-0.11 8.89 2.49
-0.28 8.89 2.49
-0.46 8.88 2.49
-0.64 8.88 2.49
-0.82 8.87 2.49
-1.00 8.85 2.49
-1.18 8.83 2.49
-1.35 8.81 2.49
-1.53 8.79 2.49
-1.71 8.76 2.49
-1.88 8.73 2.49
-2.06 8.69 2.49
-2.23 8.65 2.49
-2.41 8.61 2.49
-2.58 8.57 2.49
-2.75 8.52 2.49
-2.93 8.46 2.49
-3.10 8.41 2.49
-3.27 8.35 2.49
-3.43 8.28 2.49
-3.60 8.22 2.49
-3.77 8.15 2.49
-3.93 8.07 2.49
-4.09 7.99 2.49
-4.25 7.91 2.49
-4.41 7.83 2.49
-4.57 7.74 2.49
-4.73 7.65 2.49
-4.88 7.56 2.49
-5.03 7.46 2.49
-5.18 7.36 2.49
-5.33 7.26 2.49
-5.48 7.15 2.49
-5.62 7.04 2.49
-5.76 6.93 2.49
-5.90 6.82 2.49
-6.01 6.67 2.48
-6.01 6.40 2.43
-6.05 6.19 2.39
-6.17 6.07 2.39
-6.29 5.94 2.39
-6.41 5.82 2.39
-6.53 5.69 2.39
-6.64 5.56 2.39
-6.75 5.43 2.39
-6.86 5.29 2.39
-6.97 5.15 2.39
-7.07 5.01 2.39
-7.17 4.87 2.39
-7.27 4.73 2.39
-7.36 4.58 2.39
-7.45 4.43 2.39
-7.54 4.28 2.39
-7.63 4.13 2.39
-7.71 3.98 2.39
-7.79 3.82 2.39
-7.86 3.67 2.39
-7.94 3.51 2.39
-8.00 3.35 2.39
-8.07 3.19 2.39
-8.13 3.03 2.39
-8.19 2.86 2.39
-8.25 2.70 2.39
-8.30 2.53 2.39
-8.35 2.37 2.39
-8.39 2.20 2.39
-8.44 2.03 2.39
-8.48 1.86 2.39
-8.51 1.69 2.39
-8.54 1.52 2.39
-8.57 1.35 2.39
-8.59 1.17 2.39
-8.62 1.00 2.39
-8.63 0.83 2.39
-8.65 0.66 2.39
-8.66 0.48 2.39
-8.66 0.31 2.39
-8.67 0.14 2.39
-8.67 -0.04 2.39
-8.66 -0.21 2.39
-8.65 -0.39 2.39
-8.64 -0.56 2.39
-8.63 -0.73 2.39
-8.61 -0.90 2.39
-8.59 -1.08 2.39
-8.56 -1.25 2.39
-8.53 -1.42 2.39
-8.50 -1.59 2.39
-8.47 -1.76 2.39
-8.43 -1.93 2.39
-8.38 -2.09 2.39
-8.34 -2.26 2.39
-8.29 -2.43 2.39
-8.23 -2.59 2.39
-8.18 -2.76 2.39
-8.12 -2.92 2.39
-8.06 -3.08 2.39
-7.99 -3.24 2.39
-7.92 -3.40 2.39
-7.85 -3.55 2.39
-7.77 -3.71 2.39
-7.69 -3.86 2.39
-7.61 -4.01 2.39
-7.53 -4.16 2.39
-7.44 -4.31 2.39
-7.35 -4.46 2.39
-7.25 -4.60 2.39
-7.16 -4.75 2.39
-7.06 -4.89 2.39
-6.95 -5.03 2.39
-6.85 -5.16 2.39
-6.74 -5.30 2.39
-6.63 -5.43 2.39
-6.52 -5.56 2.39
-6.40 -5.68 2.39
-6.28 -5.81 2.39
-6.16 -5.93 2.39
-6.04 -6.05 2.39
-5.91 -6.17 2.39
-5.82 -6.31 2.40
-5.80 -6.56 2.45
-5.76 -6.78 2.49
-5.62 -6.89 2.49
-5.48 -7.00 2.49
-5.34 -7.10 2.49
-5.19 -7.21 2.49
-5.04 -7.31 2.49
-4.89 -7.40 2.49
-4.74 -7.49 2.49
-4.59 -7.58 2.49
-4.43 -7.67 2.49
-4.27 -7.75 2.49
-4.12 -7.83 2.49
-3.96 -7.91 2.49
-3.79 -7.98 2.49
-3.63 -8.05 2.49
-3.47 -8.12 2.49
-3.30 -8.18 2.49
-3.13 -8.24 2.49
-2.97 -8.30 2.49
-2.80 -8.35 2.49
-2.63 -8.40 2.49
-2.46 -8.45 2.49
-2.29 -8.49 2.49
-2.11 -8.53 2.49
-1.94 -8.57 2.49
-1.77 -8.60 2.49
-1.59 -8.63 2.49
-1.42 -8.66 2.49
-1.25 -8.68 2.49
-1.07 -8.70 2.49
-0.89 -8.71 2.49
-0.72 -8.72 2.49
-0.54 -8.73 2.49
-0.37 -8.74 2.49
-0.19 -8.74 2.49
-0.02 -8.04 2.49
0.14 -8.04 2.49
0.31 -8.03 2.49
0.47 -8.02 2.49
0.63 -8.00 2.49
0.79 -7.99 2.49
0.95 -7.97 2.49
1.11 -7.94 2.49
1.27 -7.91 2.49
1.42 -7.88 2.49
1.58 -7.85 2.49
1.74 -7.81 2.49
1.89 -7.77 2.49
2.05 -7.73 2.49
2.20 -7.68 2.49
2.27 -7.34 2.40
2.40 -7.27 2.39
2.55 -7.22 2.39
2.69 -7.16 2.39
2.83 -7.10 2.39
2.98 -7.04 2.39
3.12 -6.98 2.39
3.25 -6.91 2.39
3.39 -6.84 2.39
3.53 -6.77 2.39
3.66 -6.70 2.39
3.79 -6.62 2.39
3.92 -6.54 2.39
4.05 -6.46 2.39
4.18 -6.37 2.39
4.31 -6.28 2.39
4.43 -6.19 2.39
4.55 -6.10 2.39
4.67 -6.01 2.39
4.79 -5.91 2.39
4.91 -5.81 2.39
5.02 -5.71 2.39
5.14 -5.61 2.39
5.25 -5.50 2.39
5.36 -5.39 2.39
5.46 -5.28 2.39
5.57 -5.17 2.39
4.57 -4.08 1.93
4.57 -3.91 1.89
4.61 -3.80 1.88
4.69 -3.70 1.88
4.76 -3.61 1.88
4.83 -3.51 1.88
4.90 -3.41 1.88
4.97 -3.31 1.88
7.20 -4.59 2.69
7.25 -4.42 2.67
6.18 -3.60 2.26
7.34 -4.08 2.65
7.39 -3.91 2.63
9.64 -4.86 3.40
9.82 -4.70 3.43
9.99 -4.54 3.46
10.15 -4.37 3.49
6.16 -2.51 2.10
10.47 -4.02 3.54
10.62 -3.83 3.56
10.77 -3.64 3.59
6.16 -1.95 2.04
11.17 -3.28 3.67
11.39 -3.10 3.72
11.64 -2.92 3.78
11.89 -2.73 3.85
12.15 -2.53 3.91
12.41 -2.33 3.98
12.67 -2.11 4.05
12.93 -1.89 4.12
13.18 -1.66 4.19
13.45 -1.42 4.26
6.13 -0.52 1.94
14.46 -0.94 4.57
15.00 -0.67 4.73
15.62 -0.38 4.92
16.75 -0.07 5.28
18.53 0.29 5.84
22.33 0.80 7.04
6.12 0.34 1.93
22.57 1.72 7.13
22.87 2.21 7.23
34.08 3.98 10.79
33.83 4.65 10.74
45.24 7.14 14.41
44.67 7.98 14.27
23.33 4.65 7.48
23.11 5.09 7.44
6.10 1.47 1.97
30.10 7.92 9.78
41.29 11.75 13.48
30.61 9.38 10.05
30.11 9.89 9.95
24.49 8.60 8.14
39.67 14.83 13.28
39.25 15.58 13.24
38.83 16.32 13.20
38.45 17.08 13.18
38.03 17.82 13.15
6.08 3.00 2.12
37.03 19.20 13.06
36.45 19.84 12.99
6.07 3.46 2.18
15.50 9.26 5.65
15.17 9.49 5.59
6.06 3.96 2.26
14.80 10.10 5.60
14.58 10.39 5.59
7.20 5.35 2.80
6.06 4.69 2.39
5.96 4.82 2.39
5.87 4.94 2.39
5.77 5.06 2.39
5.67 5.17 2.39
5.57 5.29 2.39
5.46 5.40 2.39
5.36 5.51 2.39
5.25 5.62 2.39
5.13 5.73 2.39
5.02 5.83 2.39
4.90 5.94 2.39
4.79 6.04 2.39
4.67 6.13 2.39
4.54 6.23 2.39
4.42 6.32 2.39
4.30 6.41 2.39
4.17 6.50 2.39
4.04 6.59 2.39
3.91 6.67 2.39
3.77 6.75 2.39
3.64 6.83 2.39
3.50 6.90 2.39
3.37 6.98 2.39
3.06 6.69 2.27
2.98 6.86 2.31
2.90 7.06 2.35
2.75 7.12 2.35
2.52 6.93 2.27
2.39 7.00 2.28
2.36 7.41 2.39
2.22 7.45 2.39
2.07 7.50 2.39
2.00 7.87 2.49
1.84 7.91 2.49
1.68 7.95 2.49
1.52 7.99 2.49
1.36 8.02 2.49
1.20 8.05 2.49
1.04 8.08 2.49
0.88 8.10 2.49
0.72 8.12 2.49
0.56 8.14 2.49
0.39 8.15 2.49
0.23 8.16 2.49
0.07 8.17 2.49
-0.10 8.17 2.49
-0.26 8.17 2.49
-0.43 8.17 2.49
-0.59 8.16 2.49
-0.76 8.15 2.49
-0.92 8.14 2.49
-1.08 8.12 2.49
-1.25 8.11 2.49
-1.41 8.08 2.49
-1.57 8.06 2.49
-1.73 8.03 2.49
-1.89 7.99 2.49
-2.06 7.96 2.49
-2.22 7.92 2.49
-2.37 7.88 2.49
-2.53 7.83 2.49
-2.69 7.78 2.49
-2.85 7.73 2.49
-3.00 7.67 2.49
-3.16 7.61 2.49
-3.31 7.55 2.49
-3.46 7.49 2.49
-3.61 7.42 2.49
-3.76 7.35 2.49
-3.91 7.27 2.49
-4.06 7.20 2.49
-4.20 7.12 2.49
-4.34 7.03 2.49
-4.49 6.95 2.49
-4.63 6.86 2.49
-4.76 6.77 2.49
-4.90 6.67 2.49
-5.03 6.57 2.49
-5.17 6.47 2.49
-5.30 6.37 2.49
-5.42 6.26 2.49
-5.55 6.16 2.49
-5.67 6.04 2.49
-5.80 5.93 2.49
-5.91 5.81 2.49
-6.00 5.66 2.48
-5.99 5.44 2.43
-6.00 5.23 2.39
-6.10 5.11 2.39
-6.21 4.98 2.39
-6.30 4.86 2.39
-6.40 4.73 2.39
-6.50 4.60 2.39
-6.59 4.47 2.39
-6.68 4.34 2.39
-6.76 4.21 2.39
-6.85 4.07 2.39
-6.93 3.93 2.39
-7.01 3.80 2.39
-7.08 3.65 2.39
-7.15 3.51 2.39
-7.22 3.37 2.39
-7.29 3.22 2.39
-7.35 3.08 2.39
-7.41 2.93 2.39
-7.47 2.78 2.39
-7.53 2.63 2.39
-7.58 2.48 2.39
-7.63 2.33 2.39
-7.67 2.17 2.39
-7.71 2.02 2.39
-7.75 1.86 2.39
-7.79 1.71 2.39
-7.82 1.55 2.39
-7.85 1.40 2.39
-7.87 1.24 2.39
-7.90 1.08 2.39
-7.91 0.92 2.39
-7.93 0.76 2.39
-7.94 0.60 2.39
-7.95 0.44 2.39
-7.96 0.28 2.39
-7.96 0.12 2.39
-7.96 -0.03 2.39
-7.96 -0.19 2.39
-7.95 -0.35 2.39
-7.94 -0.51 2.39
-7.93 -0.67 2.39
-7.91 -0.83 2.39
-7.89 -0.99 2.39
-7.87 -1.15 2.39
-7.84 -1.30 2.39
-7.81 -1.46 2.39
-7.78 -1.61 2.39
-7.74 -1.77 2.39
-7.70 -1.92 2.39
-7.66 -2.08 2.39
-7.62 -2.23 2.39
-7.57 -2.38 2.39
-7.52 -2.53 2.39
-7.46 -2.68 2.39
-7.40 -2.83 2.39
-7.34 -2.98 2.39
-7.28 -3.12 2.39
-7.21 -3.27 2.39
-7.14 -3.41 2.39
-7.07 -3.55 2.39
-7.00 -3.69 2.39
-6.92 -3.83 2.39
-6.84 -3.96 2.39
-6.75 -4.10 2.39
-6.67 -4.23 2.39
-6.58 -4.36 2.39
-6.49 -4.49 2.39
-6.39 -4.62 2.39
-6.30 -4.74 2.39
-6.20 -4.87 2.39
-6.10 -4.99 2.39
-5.99 -5.11 2.39
-5.89 -5.22 2.39
-5.83 -5.39 2.41
-5.82 -5.60 2.45
-5.80 -5.80 2.49
-5.68 -5.91 2.49
-5.55 -6.02 2.49
-5.43 -6.13 2.49
-5.30 -6.24 2.49
-5.17 -6.34 2.49
-5.04 -6.44 2.49
-4.91 -6.53 2.49
-4.78 -6.63 2.49
-4.64 -6.72 2.49
-4.50 -6.81 2.49
-4.36 -6.89 2.49
-4.22 -6.98 2.49
-4.08 -7.06 2.49
-3.93 -7.13 2.49
-3.79 -7.21 2.49
-3.64 -7.28 2.49
-3.49 -7.35 2.49
-3.34 -7.41 2.49
-3.19 -7.47 2.49
-3.04 -7.53 2.49
-2.89 -7.59 2.49
-2.73 -7.64 2.49
-2.58 -7.69 2.49
-2.42 -7.73 2.49
-2.26 -7.78 2.49
-2.11 -7.82 2.49
-1.95 -7.85 2.49
-1.79 -7.89 2.49
-1.63 -7.92 2.49
-1.47 -7.95 2.49
-1.31 -7.97 2.49
-1.15 -7.99 2.49
-0.99 -8.01 2.49
-0.83 -8.02 2.49
-0.66 -8.03 2.49
-0.50 -8.04 2.49
-0.34 -8.04 2.49
-0.18 -8.05 2.49
-0.02 -7.45 2.49
0.13 -7.44 2.49
0.28 -7.43 2.49
0.43 -7.42 2.49
0.58 -7.41 2.49
0.73 -7.39 2.49
0.88 -7.38 2.49
1.02 -7.35 2.49
1.17 -7.33 2.49
1.32 -7.30 2.49
1.46 -7.27 2.49
1.61 -7.24 2.49
1.75 -7.20 2.49
1.90 -7.16 2.49
2.04 -7.12 2.49
2.18 -7.07 2.49
2.25 -6.81 2.42
2.36 -6.68 2.39
2.49 -6.63 2.39
2.62 -6.58 2.39
2.76 -6.52 2.39
2.89 -6.46 2.39
3.01 -6.40 2.39
3.14 -6.34 2.39
3.27 -6.27 2.39
3.39 -6.20 2.39
3.51 -6.13 2.39
3.63 -6.06 2.39
3.75 -5.98 2.39
3.87 -5.90 2.39
3.99 -5.82 2.39
4.11 -5.74 2.39
4.22 -5.65 2.39
4.33 -5.57 2.39
4.44 -5.48 2.39
4.55 -5.39 2.39
4.65 -5.29 2.39
4.76 -5.20 2.39
4.86 -5.10 2.39
4.96 -5.00 2.39
5.06 -4.90 2.39
5.16 -4.79 2.39
5.25 -4.69 2.39
4.56 -3.91 2.04
4.56 -3.75 2.01
4.56 -3.60 1.97
4.55 -3.45 1.94
4.55 -3.30 1.91
4.56 -3.17 1.89
4.60 -3.07 1.88
4.66 -2.97 1.88
4.72 -2.88 1.88
4.78 -2.78 1.88
4.83 -2.69 1.88
4.89 -2.59 1.88
4.98 -2.51 1.90
6.88 -3.30 2.60
6.97 -3.17 2.61
7.06 -3.04 2.61
6.16 -2.51 2.26
6.18 -2.37 2.25
7.29 -2.63 2.64
7.36 -2.49 2.64
9.76 -3.09 3.48
9.95 -2.93 3.53
10.14 -2.76 3.58
10.32 -2.59 3.62
10.50 -2.41 3.67
10.68 -2.23 3.71
10.85 -2.03 3.76
11.01 -1.84 3.80
11.18 -1.63 3.84
11.35 -1.43 3.89
11.59 -1.22 3.96
6.13 -0.52 2.09
12.07 -0.78 4.11
12.30 -0.55 4.19
12.53 -0.31 4.26
12.76 -0.05 4.34
12.99 0.21 4.42
13.21 0.48 4.49
13.49 0.76 4.59
13.89 1.06 4.73
14.30 1.38 4.88
14.72 1.72 5.03
15.14 2.08 5.19
6.11 0.97 2.10
16.78 3.00 5.79
18.50 3.69 6.40
22.93 5.06 7.97
6.10 1.47 2.13
29.95 7.88 10.50
6.10 1.74 2.15
29.82 9.14 10.57
24.08 7.92 8.59
23.66 8.31 8.49
24.05 8.99 8.69
36.10 14.33 13.15
35.85 15.07 13.16
6.09 2.70 2.25
6.08 2.85 2.27
34.49 17.02 13.00
33.97 17.62 12.93
7.25 3.94 2.79
6.07 3.46 2.36
6.08 3.63 2.39
6.01 3.76 2.39
5.93 3.88 2.39
5.85 4.00 2.39
5.78 4.12 2.39
5.69 4.23 2.39
5.61 4.35 2.39
5.52 4.46 2.39
5.43 4.57 2.39
5.34 4.68 2.39
5.25 4.79 2.39
5.16 4.90 2.39
5.06 5.00 2.39
4.96 5.11 2.39
4.86 5.21 2.39
4.75 5.31 2.39
4.65 5.40 2.39
4.54 5.50 2.39
4.43 5.59 2.39
4.32 5.68 2.39
4.21 5.77 2.39
4.09 5.85 2.39
3.97 5.94 2.39
3.86 6.02 2.39
3.74 6.10 2.39
3.62 6.18 2.39
3.49 6.25 2.39
3.37 6.32 2.39
3.08 6.07 2.27
2.99 6.20 2.29
2.94 6.41 2.35
2.81 6.48 2.35
2.68 6.53 2.35
2.46 6.36 2.27
2.39 6.58 2.33
2.32 6.80 2.39
2.19 6.85 2.39
2.05 6.90 2.39
1.99 7.24 2.49
1.85 7.28 2.49
1.70 7.32 2.49
1.56 7.36 2.49
1.41 7.39 2.49
1.26 7.42 2.49
1.11 7.45 2.49
0.96 7.47 2.49
0.81 7.49 2.49
0.66 7.51 2.49
0.51 7.53 2.49
0.36 7.54 2.49
0.21 7.55 2.49
0.06 7.56 2.49
-0.09 7.56 2.49
-0.24 7.56 2.49
-0.40 7.56 2.49
-0.55 7.55 2.49
-0.70 7.54 2.49
-0.85 7.53 2.49
-1.00 7.51 2.49
-1.15 7.49 2.49
-1.30 7.47 2.49
-1.45 7.45 2.49
-1.60 7.42 2.49
-1.75 7.39 2.49
-1.90 7.36 2.49
-2.05 7.32 2.49
-2.20 7.28 2.49
-2.34 7.24 2.49
-2.49 7.19 2.49
-2.63 7.14 2.49
-2.78 7.09 2.49
-2.92 7.04 2.49
-3.06 6.98 2.49
-3.20 6.92 2.49
-3.34 6.86 2.49
-3.48 6.79 2.49
-3.62 6.72 2.49
-3.75 6.65 2.49
-3.88 6.58 2.49
-4.02 6.50 2.49
-4.15 6.42 2.49
-4.28 6.34 2.49
-4.40 6.25 2.49
-4.53 6.16 2.49
-4.65 6.07 2.49
-4.77 5.98 2.49
-4.90 5.89 2.49
-5.01 5.79 2.49
-5.13 5.69 2.49
-5.24 5.58 2.49
-5.36 5.48 2.49
-5.47 5.37 2.49
-5.57 5.26 2.49
-5.68 5.15 2.49
-5.78 5.04 2.49
-5.88 4.92 2.49
-5.98 4.80 2.49
-5.98 4.61 2.45
-5.98 4.42 2.42
-6.00 4.25 2.39
-6.09 4.13 2.39
-6.18 4.02 2.40
-6.25 3.89 2.39
-6.33 3.76 2.39
-6.40 3.64 2.39
-6.47 3.51 2.39
-6.54 3.38 2.39
-6.61 3.24 2.39
-6.67 3.11 2.39
-6.74 2.98 2.39
-6.79 2.84 2.39
-6.85 2.71 2.39
-6.90 2.57 2.39
-6.95 2.43 2.39
-7.00 2.29 2.39
-7.04 2.15 2.39
-7.09 2.01 2.39
-7.12 1.87 2.39
-7.16 1.72 2.39
-7.19 1.58 2.39
-7.22 1.43 2.39
-7.25 1.29 2.39
-7.27 1.14 2.39
-7.29 1.00 2.39
-7.31 0.85 2.39
-7.33 0.70 2.39
-7.34 0.56 2.39
-7.35 0.41 2.39
-7.35 0.26 2.39
-7.36 0.12 2.39
-7.36 -0.03 2.39
-7.35 -0.18 2.39
-7.35 -0.33 2.39
-7.34 -0.47 2.39
-7.32 -0.62 2.39
-7.31 -0.77 2.39
-7.29 -0.91 2.39
-7.27 -1.06 2.39
-7.25 -1.20 2.39
-7.22 -1.35 2.39
-7.19 -1.49 2.39
-7.16 -1.63 2.39
-7.12 -1.78 2.39
-7.08 -1.92 2.39
-7.04 -2.06 2.39
-6.99 -2.20 2.39
-6.95 -2.34 2.39
-6.90 -2.48 2.39
-6.84 -2.61 2.39
-6.79 -2.75 2.39
-6.73 -2.88 2.39
-6.67 -3.02 2.39
-6.60 -3.15 2.39
-6.54 -3.28 2.39
-6.47 -3.41 2.39
-6.40 -3.54 2.39
-6.32 -3.66 2.39
-6.24 -3.79 2.39
-6.17 -3.91 2.39
-6.08 -4.03 2.39
-6.00 -4.15 2.39
-5.91 -4.27 2.39
-5.85 -4.40 2.40
-5.84 -4.58 2.43
-5.83 -4.77 2.47
-5.78 -4.93 2.49
-5.68 -5.04 2.49
-5.57 -5.15 2.49
-5.47 -5.26 2.49
-5.36 -5.36 2.49
-5.25 -5.47 2.49
-5.14 -5.57 2.49
-5.02 -5.67 2.49
-4.90 -5.77 2.49
-4.79 -5.86 2.49
-4.66 -5.95 2.49
-4.54 -6.04 2.49
-4.42 -6.13 2.49
-4.29 -6.21 2.49
-4.16 -6.30 2.49
-4.04 -6.38 2.49
-3.91 -6.45 2.49
-3.77 -6.53 2.49
-3.64 -6.60 2.49
-3.51 -6.67 2.49
-3.37 -6.73 2.49
-3.23 -6.79 2.49
-3.09 -6.86 2.49
-2.95 -6.91 2.49
-2.81 -6.97 2.49
-2.67 -7.02 2.49
-2.53 -7.07 2.49
-2.39 -7.11 2.49
-2.24 -7.16 2.49
-2.10 -7.20 2.49
-1.95 -7.23 2.49
-1.80 -7.27 2.49
-1.66 -7.30 2.49
-1.51 -7.33 2.49
-1.36 -7.35 2.49
-1.21 -7.38 2.49
-1.06 -7.39 2.49
-0.91 -7.41 2.49
-0.76 -7.42 2.49
-0.62 -7.44 2.49
-0.47 -7.44 2.49
-0.32 -7.45 2.49
-0.17 -7.45 2.49
-0.02 -6.92 2.49
0.12 -6.92 2.49
0.26 -6.91 2.49
0.40 -6.90 2.49
0.54 -6.89 2.49
0.68 -6.88 2.49
0.81 -6.86 2.49
0.95 -6.84 2.49
1.09 -6.82 2.49
1.22 -6.79 2.49
1.36 -6.76 2.49
1.50 -6.73 2.49
1.63 -6.70 2.49
1.76 -6.66 2.49
1.90 -6.62 2.49
2.03 -6.58 2.49
2.16 -6.53 2.49
2.24 -6.35 2.44
2.32 -6.17 2.39
2.44 -6.12 2.39
2.56 -6.07 2.39
2.68 -6.01 2.39
2.80 -5.96 2.39
2.92 -5.90 2.39
3.04 -5.84 2.39
3.15 -5.77 2.39
3.27 -5.71 2.39
3.38 -5.64 2.39
3.49 -5.57 2.39
3.60 -5.49 2.39
3.71 -5.42 2.39
3.82 -5.34 2.39
3.93 -5.26 2.39
4.03 -5.18 2.39
4.13 -5.10 2.39
4.23 -5.01 2.39
4.33 -4.92 2.39
4.43 -4.84 2.39
4.52 -4.74 2.39
4.62 -4.65 2.39
4.71 -4.56 2.39
4.80 -4.46 2.39
4.89 -4.36 2.39
4.97 -4.26 2.39
4.64 -3.82 2.20
4.72 -3.73 2.20
4.92 -3.73 2.25
4.56 -3.31 2.06
4.55 -3.17 2.02
4.55 -3.03 2.00
4.54 -2.90 1.97
4.54 -2.77 1.94
4.54 -2.65 1.92
4.55 -2.53 1.90
4.74 -2.51 1.96
4.97 -2.51 2.03
5.90 -2.83 2.39
5.95 -2.71 2.39
6.01 -2.59 2.39
6.06 -2.47 2.39
6.10 -2.34 2.39
6.15 -2.22 2.39
6.73 -2.28 2.60
6.79 -2.15 2.61
6.88 -2.02 2.62
6.97 -1.90 2.64
7.06 -1.77 2.66
7.15 -1.64 2.68
7.22 -1.50 2.70
7.23 -1.36 2.69
6.14 -1.02 2.28
6.14 -0.90 2.27
6.14 -0.77 2.26
6.14 -0.65 2.26
6.13 -0.52 2.25
7.30 -0.47 2.67
7.30 -0.33 2.67
7.31 -0.18 2.67
7.31 -0.03 2.67
7.31 0.12 2.67
