ply
format ascii 1.0
element vertex 2974
property float32 x
property float32 y
property float32 z
end_header
-3.87 9.95 2.49
-4.06 9.87 2.49
-4.26 9.78 2.49
-4.45 9.69 2.49
-4.64 9.60 2.49
-4.83 9.50 2.49
-5.02 9.40 2.49
-5.21 9.29 2.49
-5.39 9.18 2.49
-5.57 9.07 2.49
-5.70 8.87 2.47
-5.72 8.51 2.40
-5.85 8.35 2.39
-6.01 8.22 2.39
-6.18 8.10 2.39
-6.33 7.97 2.39
-6.49 7.84 2.39
-6.64 7.70 2.39
-6.80 7.57 2.39
-6.94 7.43 2.39
-7.09 7.28 2.39
-7.23 7.14 2.39
-7.37 6.99 2.39
-7.51 6.84 2.39
-7.64 6.68 2.39
-7.77 6.52 2.39
-7.90 6.36 2.39
-8.02 6.20 2.39
-8.14 6.04 2.39
-8.26 5.87 2.39
-8.37 5.70 2.39
-8.48 5.53 2.39
-8.59 5.36 2.39
-8.69 5.18 2.39
-8.79 5.01 2.39
-8.88 4.83 2.39
-8.98 4.65 2.39
-9.06 4.46 2.39
-9.15 4.28 2.39
-9.23 4.09 2.39
-9.31 3.91 2.39
-9.38 3.72 2.39
-9.45 3.53 2.39
-9.52 3.34 2.39
-9.58 3.14 2.39
-9.64 2.95 2.39
-9.69 2.75 2.39
-9.74 2.56 2.39
-9.79 2.36 2.39
-9.83 2.16 2.39
-9.94 1.98 2.41
-9.97 1.78 2.41
-5.98 0.94 1.44
-6.00 0.82 1.44
-10.05 1.17 2.41
-10.07 0.97 2.41
-10.09 0.77 2.41
-10.10 0.56 2.41
-10.10 0.36 2.41
-10.11 0.16 2.41
-10.11 -0.04 2.41
-10.10 -0.25 2.41
-9.89 -0.44 2.36
-9.96 -0.65 2.38
-9.93 -0.84 2.38
-9.97 -1.05 2.39
-9.98 -1.25 2.40
-9.92 -1.45 2.39
-9.89 -1.65 2.39
-9.85 -1.85 2.39
-9.81 -2.04 2.39
-9.76 -2.24 2.39
-9.71 -2.43 2.39
-9.66 -2.63 2.39
-9.61 -2.82 2.39
-9.55 -3.01 2.39
-9.48 -3.20 2.39
-9.41 -3.39 2.39
-9.34 -3.58 2.39
-9.27 -3.77 2.39
-9.19 -3.95 2.39
-9.11 -4.14 2.39
-9.02 -4.32 2.39
-8.93 -4.50 2.39
-8.84 -4.68 2.39
-8.74 -4.85 2.39
-8.64 -5.03 2.39
-8.54 -5.20 2.39
-8.43 -5.37 2.39
-8.32 -5.54 2.39
-8.21 -5.70 2.39
-8.09 -5.87 2.39
-7.97 -6.03 2.39
-7.85 -6.19 2.39
-7.72 -6.34 2.39
-7.60 -6.50 2.39
-7.46 -6.65 2.39
-7.33 -6.80 2.39
-7.19 -6.94 2.39
-7.05 -7.09 2.39
-6.91 -7.23 2.39
-6.76 -7.36 2.39
-6.61 -7.50 2.39
-6.46 -7.63 2.39
-6.30 -7.76 2.39
-6.15 -7.88 2.39
-6.05 -8.09 2.42
-6.06 -8.44 2.48
-5.91 -8.60 2.49
-5.73 -8.72 2.49
-5.56 -8.83 2.49
-5.38 -8.94 2.49
-5.20 -9.05 2.49
-5.02 -9.15 2.49
-4.83 -9.25 2.49
-4.65 -9.35 2.49
-4.46 -9.44 2.49
-4.27 -9.53 2.49
-4.08 -9.61 2.49
-3.88 -9.70 2.49
-3.69 -9.77 2.49
-3.49 -9.85 2.49
-3.29 -9.92 2.49
-3.10 -9.98 2.49
-2.89 -10.05 2.49
-2.69 -10.10 2.49
-2.49 -10.16 2.49
-2.29 -10.21 2.49
-2.08 -10.25 2.49
-1.87 -10.30 2.49
-1.67 -10.33 2.49
-1.46 -10.37 2.49
-1.25 -10.40 2.49
-1.04 -10.42 2.49
-0.83 -10.44 2.49
-0.62 -10.46 2.49
-0.41 -10.47 2.49
-0.20 -10.48 2.49
0.01 -9.53 2.49
0.20 -9.53 2.49
0.39 -9.53 2.49
0.58 -9.52 2.49
0.77 -9.51 2.49
0.96 -9.49 2.49
1.15 -9.47 2.49
1.34 -9.45 2.49
1.53 -9.42 2.49
1.72 -9.39 2.49
1.91 -9.36 2.49
2.01 -8.94 2.39
2.19 -8.90 2.39
2.34 -8.74 2.36
2.42 -8.36 2.27
2.68 -8.61 2.35
2.86 -8.56 2.35
2.94 -8.26 2.28
3.25 -8.58 2.39
3.43 -8.52 2.39
3.60 -8.45 2.39
3.77 -8.38 2.39
3.94 -8.31 2.39
4.10 -8.23 2.39
4.27 -8.15 2.39
4.43 -8.06 2.39
4.60 -7.97 2.39
4.76 -7.88 2.39
4.92 -7.79 2.39
5.07 -7.69 2.39
5.23 -7.59 2.39
5.38 -7.48 2.39
5.53 -7.38 2.39
5.68 -7.27 2.39
5.83 -7.15 2.39
5.97 -7.04 2.39
6.89 -7.80 2.69
6.98 -7.58 2.67
6.02 -6.29 2.25
7.14 -7.16 2.62
6.03 -5.81 2.17
6.03 -5.58 2.12
8.91 -7.92 3.08
9.39 -8.01 3.19
9.64 -7.90 3.22
9.89 -7.78 3.25
10.14 -7.65 3.28
10.38 -7.51 3.31
10.63 -7.37 3.34
10.87 -7.22 3.36
11.11 -7.06 3.39
11.36 -6.90 3.43
6.07 -3.53 1.81
11.95 -6.62 3.52
12.24 -6.46 3.56
12.52 -6.29 3.61
12.80 -6.12 3.65
13.08 -5.93 3.69
13.36 -5.74 3.74
27.54 -11.18 7.64
28.11 -10.76 7.74
28.68 -10.32 7.83
29.25 -9.87 7.93
29.81 -9.39 8.03
6.12 -1.79 1.64
31.23 -8.48 8.30
6.11 -1.53 1.62
6.12 -1.40 1.61
34.11 -7.09 8.93
35.23 -6.59 9.19
36.26 -6.03 9.42
37.22 -5.43 9.64
38.28 -4.80 9.88
39.22 -4.12 10.10
6.14 -0.52 1.58
6.14 -0.40 1.57
6.14 -0.27 1.57
6.14 -0.15 1.57
6.15 -0.03 1.57
6.15 0.10 1.57
6.15 0.22 1.57
6.15 0.34 1.58
6.16 0.47 1.58
24.26 6.36 6.40
23.76 6.74 6.30
23.43 7.16 6.25
23.24 7.61 6.24
22.95 8.03 6.20
23.03 8.58 6.27
6.20 2.45 1.70
38.89 18.16 10.94
6.22 3.06 1.77
40.06 20.70 11.49
40.91 22.19 11.86
40.68 23.14 11.93
36.92 23.00 11.08
35.64 23.21 10.84
6.24 4.43 1.95
37.85 29.23 12.18
6.26 5.03 2.05
34.12 28.60 11.34
21.14 18.46 7.15
7.48 7.37 2.67
6.28 6.44 2.29
7.06 7.53 2.63
6.28 6.97 2.39
6.14 7.10 2.39
5.99 7.22 2.39
5.85 7.34 2.39
5.70 7.45 2.39
5.55 7.57 2.39
5.39 7.68 2.39
5.24 7.78 2.39
5.08 7.88 2.39
4.92 7.98 2.39
4.76 8.08 2.39
4.60 8.17 2.39
4.43 8.26 2.39
4.26 8.35 2.39
4.09 8.43 2.39
3.92 8.51 2.39
3.75 8.59 2.39
3.40 8.22 2.27
3.28 8.42 2.31
3.17 8.65 2.35
3.00 8.71 2.35
2.72 8.46 2.27
2.69 8.97 2.39
2.51 9.02 2.39
2.36 9.18 2.42
2.24 9.50 2.49
2.05 9.54 2.49
1.86 9.58 2.49
1.66 9.61 2.49
1.47 9.64 2.49
1.28 9.67 2.49
1.08 9.69 2.49
0.89 9.71 2.49
0.69 9.72 2.49
0.50 9.73 2.49
0.30 9.73 2.49
0.11 9.74 2.49
-0.09 9.73 2.49
-0.29 9.73 2.49
-0.48 9.72 2.49
-0.68 9.70 2.49
-0.87 9.69 2.49
-1.06 9.66 2.49
-1.26 9.64 2.49
-1.45 9.61 2.49
-1.64 9.57 2.49
-1.83 9.54 2.49
-2.02 9.50 2.49
-2.21 9.45 2.49
-2.40 9.40 2.49
-2.59 9.35 2.49
-2.77 9.29 2.49
-2.96 9.23 2.49
-3.14 9.17 2.49
-3.33 9.10 2.49
-3.51 9.03 2.49
-3.69 8.95 2.49
-3.86 8.88 2.49
-4.04 8.79 2.49
-4.21 8.71 2.49
-4.39 8.62 2.49
-4.56 8.53 2.49
-4.73 8.43 2.49
-4.89 8.33 2.49
-5.06 8.23 2.49
-5.22 8.12 2.49
-5.38 8.01 2.49
-5.54 7.90 2.49
-5.69 7.79 2.49
-5.73 7.51 2.44
-5.75 7.23 2.39
-5.89 7.12 2.39
-6.03 6.99 2.39
-6.17 6.87 2.39
-6.30 6.74 2.39
-6.43 6.61 2.39
-6.56 6.48 2.39
-6.69 6.34 2.39
-6.81 6.21 2.39
-6.94 6.07 2.39
-7.05 5.92 2.39
-7.17 5.78 2.39
-7.28 5.63 2.39
-7.39 5.48 2.39
-7.50 5.33 2.39
-7.60 5.18 2.39
-7.70 5.02 2.39
-7.80 4.87 2.39
-7.89 4.71 2.39
-7.98 4.55 2.39
-8.07 4.38 2.39
-8.15 4.22 2.39
-8.23 4.05 2.39
-8.31 3.89 2.39
-8.38 3.72 2.39
-8.45 3.55 2.39
-8.52 3.38 2.39
-8.58 3.20 2.39
-8.64 3.03 2.39
-8.70 2.86 2.39
-8.75 2.68 2.39
-8.80 2.50 2.39
-8.85 2.32 2.39
-8.89 2.15 2.39
-8.93 1.97 2.39
-8.97 1.79 2.39
-9.00 1.60 2.39
-5.98 0.94 1.58
-6.00 0.82 1.58
-9.07 1.06 2.39
-9.09 0.88 2.39
-9.10 0.69 2.39
-9.11 0.51 2.39
-9.12 0.33 2.39
-9.12 0.14 2.39
-9.12 -0.04 2.39
-9.12 -0.22 2.39
-9.11 -0.41 2.39
-9.10 -0.59 2.39
-9.08 -0.77 2.39
-9.06 -0.95 2.39
-9.04 -1.13 2.39
-9.01 -1.32 2.39
-8.98 -1.50 2.39
-8.95 -1.68 2.39
-8.91 -1.86 2.39
-8.87 -2.03 2.39
-8.83 -2.21 2.39
-8.78 -2.39 2.39
-8.73 -2.56 2.39
-8.68 -2.74 2.39
-8.62 -2.91 2.39
-8.56 -3.08 2.39
-8.49 -3.25 2.39
-8.42 -3.42 2.39
-8.35 -3.59 2.39
-8.28 -3.76 2.39
-8.20 -3.92 2.39
-8.12 -4.09 2.39
-8.03 -4.25 2.39
-7.95 -4.41 2.39
-7.86 -4.57 2.39
-7.76 -4.73 2.39
-7.67 -4.88 2.39
-7.57 -5.03 2.39
-7.46 -5.18 2.39
-7.36 -5.33 2.39
-7.25 -5.48 2.39
-7.14 -5.62 2.39
-7.02 -5.77 2.39
-6.90 -5.91 2.39
-6.78 -6.04 2.39
-6.66 -6.18 2.39
-6.54 -6.31 2.39
-6.41 -6.44 2.39
-6.28 -6.57 2.39
-6.14 -6.69 2.39
-6.03 -6.84 2.40
-6.03 -7.12 2.45
-5.98 -7.36 2.49
-5.83 -7.48 2.49
-5.68 -7.59 2.49
-5.52 -7.71 2.49
-5.37 -7.82 2.49
-5.21 -7.92 2.49
-5.05 -8.03 2.49
-4.89 -8.13 2.49
-4.73 -8.22 2.49
-4.56 -8.32 2.49
-4.39 -8.41 2.49
-4.22 -8.50 2.49
-4.05 -8.58 2.49
-3.88 -8.66 2.49
-3.71 -8.74 2.49
-3.53 -8.81 2.49
-3.35 -8.88 2.49
-3.17 -8.95 2.49
-2.99 -9.01 2.49
-2.81 -9.07 2.49
-2.63 -9.13 2.49
-2.45 -9.18 2.49
-2.26 -9.23 2.49
-2.08 -9.28 2.49
-1.89 -9.32 2.49
-1.70 -9.36 2.49
-1.51 -9.39 2.49
-1.33 -9.42 2.49
-1.14 -9.45 2.49
-0.95 -9.47 2.49
-0.76 -9.49 2.49
-0.57 -9.50 2.49
-0.38 -9.52 2.49
-0.18 -9.52 2.49
0.01 -8.72 2.49
0.18 -8.72 2.49
0.36 -8.72 2.49
0.53 -8.71 2.49
0.71 -8.70 2.49
0.88 -8.69 2.49
1.06 -8.67 2.49
1.23 -8.65 2.49
1.41 -8.62 2.49
1.58 -8.60 2.49
1.75 -8.57 2.49
1.92 -8.53 2.49
2.01 -8.15 2.39
2.19 -8.16 2.41
2.34 -8.06 2.39
2.37 -7.62 2.27
2.61 -7.83 2.35
2.77 -7.78 2.35
2.93 -7.72 2.35
2.98 -7.40 2.27
3.29 -7.73 2.39
3.45 -7.67 2.39
3.60 -7.60 2.39
3.76 -7.53 2.39
3.91 -7.45 2.39
4.06 -7.37 2.39
4.21 -7.29 2.39
4.35 -7.21 2.39
4.50 -7.12 2.39
4.64 -7.03 2.39
4.78 -6.94 2.39
4.92 -6.85 2.39
5.06 -6.75 2.39
5.20 -6.65 2.39
5.33 -6.54 2.39
5.46 -6.44 2.39
5.59 -6.33 2.39
5.72 -6.22 2.39
5.84 -6.10 2.39
5.97 -5.98 2.39
6.88 -6.62 2.70
6.03 -5.58 2.32
7.03 -6.25 2.66
7.11 -6.07 2.64
7.18 -5.88 2.62
7.30 -5.74 2.62
7.91 -5.96 2.80
8.59 -6.21 2.99
9.28 -6.43 3.19
9.48 -6.29 3.21
9.67 -6.14 3.23
9.85 -5.99 3.25
6.07 -3.53 1.98
10.22 -5.66 3.29
10.40 -5.49 3.31
10.57 -5.31 3.33
10.74 -5.13 3.35
10.91 -4.94 3.37
11.06 -4.75 3.39
11.21 -4.55 3.40
11.36 -4.34 3.42
11.54 -4.15 3.45
11.71 -3.95 3.47
11.87 -3.74 3.50
12.03 -3.53 3.52
12.18 -3.30 3.54
6.11 -1.53 1.77
12.45 -2.85 3.58
12.58 -2.61 3.60
12.70 -2.37 3.62
6.13 -1.02 1.74
12.91 -1.88 3.66
13.00 -1.63 3.67
13.08 -1.37 3.68
13.14 -1.11 3.70
13.20 -0.85 3.70
13.32 -0.59 3.73
13.46 -0.33 3.77
6.15 -0.03 1.72
14.25 0.22 3.99
14.61 0.52 4.09
14.94 0.84 4.19
6.16 0.47 1.73
31.34 3.02 8.80
6.17 0.97 1.75
24.45 5.89 7.03
23.05 6.04 6.66
6.19 1.76 1.80
22.65 6.92 6.62
22.89 7.50 6.73
22.79 7.97 6.74
22.94 8.55 6.83
6.20 2.45 1.86
43.16 18.09 13.06
30.91 13.69 9.43
23.76 11.10 7.32
23.43 11.52 7.28
41.74 21.57 13.11
41.31 22.41 13.11
40.83 23.22 13.10
6.23 3.71 2.02
39.74 24.76 13.06
39.07 25.45 13.01
38.35 26.09 12.94
6.24 4.43 2.13
6.26 4.64 2.17
36.34 28.06 12.80
7.45 6.00 2.67
6.26 5.25 2.28
5.08 4.44 1.88
7.24 6.58 2.73
6.23 5.89 2.39
6.11 6.02 2.39
5.99 6.14 2.39
5.86 6.26 2.39
5.73 6.37 2.39
5.61 6.48 2.39
5.47 6.60 2.39
5.34 6.70 2.39
5.20 6.81 2.39
5.07 6.91 2.39
4.93 7.01 2.39
4.78 7.11 2.39
4.64 7.20 2.39
4.50 7.29 2.39
4.35 7.38 2.39
4.20 7.47 2.39
4.05 7.55 2.39
3.89 7.63 2.39
3.74 7.70 2.39
3.58 7.77 2.39
3.27 7.47 2.28
3.22 7.78 2.35
3.06 7.84 2.35
2.80 7.62 2.27
2.68 7.79 2.30
2.62 8.14 2.39
2.46 8.19 2.39
2.34 8.40 2.44
2.22 8.64 2.49
2.05 8.68 2.49
1.87 8.72 2.49
1.70 8.75 2.49
1.52 8.78 2.49
1.34 8.81 2.49
1.17 8.83 2.49
0.99 8.85 2.49
0.81 8.87 2.49
0.63 8.88 2.49
0.45 8.89 2.49
0.28 8.90 2.49
0.10 8.90 2.49
-0.08 8.90 2.49
-0.26 8.89 2.49
-0.44 8.88 2.49
-0.62 8.87 2.49
-0.79 8.85 2.49
-0.97 8.83 2.49
-1.15 8.81 2.49
-1.32 8.78 2.49
-1.50 8.75 2.49
-1.67 8.72 2.49
-1.85 8.68 2.49
-2.02 8.64 2.49
-2.19 8.59 2.49
-2.37 8.55 2.49
-2.54 8.49 2.49
-2.70 8.44 2.49
-2.87 8.38 2.49
-3.04 8.32 2.49
-3.20 8.25 2.49
-3.37 8.19 2.49
-3.53 8.11 2.49
-3.69 8.04 2.49
-3.85 7.96 2.49
-4.01 7.88 2.49
-4.17 7.80 2.49
-4.32 7.71 2.49
-4.47 7.62 2.49
-4.62 7.52 2.49
-4.77 7.43 2.49
-4.92 7.33 2.49
-5.06 7.23 2.49
-5.21 7.12 2.49
-5.35 7.01 2.49
-5.48 6.90 2.49
-5.62 6.79 2.49
-5.74 6.66 2.49
-5.75 6.41 2.44
-5.77 6.17 2.39
-5.88 6.05 2.39
-6.00 5.93 2.39
-6.12 5.80 2.39
-6.23 5.68 2.39
-6.34 5.55 2.39
-6.45 5.42 2.39
-6.56 5.29 2.39
-6.66 5.15 2.39
-6.76 5.02 2.39
-6.86 4.88 2.39
-6.95 4.74 2.39
-7.04 4.60 2.39
-7.13 4.45 2.39
-7.22 4.31 2.39
-7.30 4.16 2.39
-7.38 4.01 2.39
-7.46 3.86 2.39
-7.53 3.71 2.39
-7.60 3.56 2.39
-7.67 3.40 2.39
-7.74 3.25 2.39
-7.80 3.09 2.39
-7.86 2.93 2.39
-7.91 2.77 2.39
-7.96 2.61 2.39
-8.01 2.45 2.39
-8.06 2.29 2.39
-8.10 2.13 2.39
-8.14 1.96 2.39
-8.17 1.80 2.39
-8.21 1.63 2.39
-8.24 1.47 2.39
-5.98 0.94 1.73
-5.99 0.82 1.73
-8.30 0.97 2.39
-8.32 0.80 2.39
-8.33 0.64 2.39
-8.34 0.47 2.39
-8.35 0.30 2.39
-8.35 0.13 2.39
-8.35 -0.04 2.39
-8.35 -0.20 2.39
-8.34 -0.37 2.39
-8.33 -0.54 2.39
-8.31 -0.71 2.39
-8.30 -0.87 2.39
-8.28 -1.04 2.39
-8.25 -1.20 2.39
-8.22 -1.37 2.39
-8.19 -1.53 2.39
-8.16 -1.70 2.39
-8.12 -1.86 2.39
-8.08 -2.02 2.39
-8.04 -2.19 2.39
-7.99 -2.35 2.39
-7.94 -2.51 2.39
-7.89 -2.67 2.39
-7.83 -2.82 2.39
-7.78 -2.98 2.39
-7.71 -3.14 2.39
-7.65 -3.29 2.39
-7.58 -3.44 2.39
-7.51 -3.59 2.39
-7.43 -3.74 2.39
-7.36 -3.89 2.39
-7.28 -4.04 2.39
-7.19 -4.18 2.39
-7.11 -4.33 2.39
-7.02 -4.47 2.39
-6.93 -4.61 2.39
-6.83 -4.75 2.39
-6.74 -4.88 2.39
-6.64 -5.02 2.39
-6.53 -5.15 2.39
-6.43 -5.28 2.39
-6.32 -5.41 2.39
-6.21 -5.53 2.39
-6.10 -5.66 2.39
-6.01 -5.80 2.40
-6.01 -6.04 2.45
-6.00 -6.27 2.49
-5.87 -6.39 2.49
-5.74 -6.51 2.49
-5.61 -6.63 2.49
-5.47 -6.74 2.49
-5.34 -6.85 2.49
-5.20 -6.95 2.49
-5.06 -7.06 2.49
-4.92 -7.16 2.49
-4.77 -7.25 2.49
-4.63 -7.35 2.49
-4.48 -7.44 2.49
-4.33 -7.53 2.49
-4.18 -7.62 2.49
-4.02 -7.70 2.49
-3.87 -7.78 2.49
-3.71 -7.86 2.49
-3.55 -7.93 2.49
-3.39 -8.00 2.49
-3.23 -8.07 2.49
-3.07 -8.13 2.49
-2.91 -8.19 2.49
-2.74 -8.25 2.49
-2.57 -8.31 2.49
-2.41 -8.36 2.49
-2.24 -8.41 2.49
-2.07 -8.45 2.49
-1.90 -8.49 2.49
-1.73 -8.53 2.49
-1.56 -8.57 2.49
-1.39 -8.60 2.49
-1.21 -8.62 2.49
-1.04 -8.65 2.49
-0.87 -8.67 2.49
-0.69 -8.69 2.49
-0.52 -8.70 2.49
-0.34 -8.71 2.49
-0.17 -8.72 2.49
0.01 -8.03 2.49
0.17 -8.03 2.49
0.33 -8.03 2.49
0.49 -8.02 2.49
0.65 -8.01 2.49
0.81 -8.00 2.49
0.97 -7.98 2.49
1.13 -7.96 2.49
1.29 -7.94 2.49
1.45 -7.92 2.49
1.61 -7.89 2.49
1.77 -7.86 2.49
1.93 -7.82 2.49
2.02 -7.52 2.41
2.15 -7.42 2.39
2.30 -7.38 2.39
2.38 -7.12 2.32
2.46 -6.91 2.27
2.70 -7.11 2.35
2.84 -7.06 2.35
2.97 -6.97 2.34
3.01 -6.70 2.27
3.32 -7.00 2.39
3.46 -6.93 2.39
3.60 -6.86 2.39
3.74 -6.79 2.39
3.87 -6.71 2.39
4.01 -6.64 2.39
4.14 -6.56 2.39
4.27 -6.47 2.39
4.40 -6.39 2.39
4.53 -6.30 2.39
4.66 -6.21 2.39
4.78 -6.12 2.39
4.91 -6.02 2.39
5.03 -5.92 2.39
5.15 -5.82 2.39
5.26 -5.72 2.39
5.38 -5.61 2.39
5.49 -5.51 2.39
5.60 -5.40 2.39
5.71 -5.29 2.39
5.82 -5.17 2.39
5.92 -5.05 2.39
6.03 -4.94 2.39
4.82 -3.79 1.88
4.90 -3.69 1.88
7.06 -5.11 2.67
6.07 -4.20 2.26
7.16 -4.76 2.64
7.23 -4.59 2.62
7.47 -4.54 2.68
6.07 -3.52 2.15
8.49 -4.70 2.97
9.05 -4.78 3.13
6.09 -3.06 2.09
9.52 -4.55 3.23
9.65 -4.37 3.24
9.79 -4.20 3.26
9.91 -4.02 3.27
6.11 -2.34 2.00
10.15 -3.65 3.30
10.27 -3.46 3.31
10.37 -3.27 3.32
10.48 -3.07 3.33
10.58 -2.87 3.34
6.11 -1.53 1.92
10.74 -2.46 3.36
10.82 -2.25 3.37
10.88 -2.03 3.38
10.95 -1.82 3.38
11.00 -1.60 3.39
11.05 -1.38 3.39
6.14 -0.64 1.88
11.15 -0.94 3.41
11.21 -0.72 3.42
11.27 -0.50 3.44
11.33 -0.28 3.45
11.38 -0.05 3.46
11.42 0.18 3.48
11.48 0.41 3.50
11.54 0.65 3.52
6.16 0.47 1.88
11.63 1.12 3.55
11.69 1.36 3.58
11.77 1.61 3.61
11.84 1.86 3.64
11.89 2.12 3.67
11.93 2.37 3.70
11.95 2.63 3.72
6.18 1.49 1.93
11.97 3.14 3.76
11.99 3.40 3.79
12.04 3.68 3.82
12.07 3.95 3.86
12.08 4.23 3.89
12.08 4.50 3.91
6.20 2.45 2.02
12.02 5.04 3.96
11.97 5.30 3.97
6.21 2.90 2.08
12.01 5.90 4.06
11.93 6.17 4.07
11.83 6.42 4.08
11.71 6.66 4.09
11.57 6.89 4.08
7.39 4.61 2.64
6.24 4.06 2.26
7.16 4.87 2.63
5.06 3.59 1.88
4.98 3.69 1.88
4.91 3.79 1.88
4.83 3.89 1.88
4.75 3.98 1.88
4.67 4.08 1.88
4.62 4.20 1.89
4.62 4.37 1.93
5.62 5.53 2.39
5.50 5.64 2.39
5.39 5.75 2.39
5.27 5.86 2.39
5.15 5.96 2.39
5.03 6.06 2.39
4.91 6.16 2.39
4.79 6.26 2.39
4.66 6.35 2.39
4.53 6.45 2.39
4.40 6.54 2.39
4.27 6.62 2.39
4.13 6.71 2.39
4.00 6.79 2.39
3.86 6.86 2.39
3.72 6.94 2.39
3.58 7.01 2.39
3.26 6.72 2.27
3.24 7.03 2.35
3.10 7.09 2.35
2.96 7.15 2.35
2.71 6.96 2.27
2.67 7.28 2.36
2.56 7.44 2.39
2.41 7.49 2.39
2.33 7.74 2.46
2.20 7.90 2.49
2.04 7.94 2.49
1.88 7.98 2.49
1.72 8.02 2.49
1.56 8.05 2.49
1.40 8.08 2.49
1.24 8.10 2.49
1.07 8.12 2.49
0.91 8.14 2.49
0.75 8.16 2.49
0.58 8.17 2.49
0.42 8.18 2.49
0.25 8.18 2.49
0.09 8.18 2.49
-0.07 8.18 2.49
-0.24 8.18 2.49
-0.40 8.17 2.49
-0.57 8.16 2.49
-0.73 8.14 2.49
-0.89 8.12 2.49
-1.06 8.10 2.49
-1.22 8.08 2.49
-1.38 8.05 2.49
-1.54 8.02 2.49
-1.70 7.98 2.49
-1.86 7.95 2.49
-2.02 7.91 2.49
-2.18 7.86 2.49
-2.33 7.82 2.49
-2.49 7.76 2.49
-2.64 7.71 2.49
-2.80 7.65 2.49
-2.95 7.60 2.49
-3.10 7.53 2.49
-3.25 7.47 2.49
-3.40 7.40 2.49
-3.54 7.33 2.49
-3.69 7.25 2.49
-3.83 7.17 2.49
-3.97 7.09 2.49
-4.12 7.01 2.49
-4.25 6.93 2.49
-4.39 6.84 2.49
-4.53 6.75 2.49
-4.66 6.65 2.49
-4.79 6.55 2.49
-4.92 6.46 2.49
-5.05 6.35 2.49
-5.17 6.25 2.49
-5.29 6.14 2.49
-5.42 6.03 2.49
-5.53 5.92 2.49
-5.65 5.81 2.49
-5.76 5.69 2.49
-5.77 5.47 2.45
-5.78 5.27 2.41
-5.84 5.11 2.39
-5.94 4.99 2.39
-6.04 4.87 2.39
-6.13 4.74 2.39
-6.22 4.62 2.39
-6.31 4.49 2.39
-6.40 4.36 2.39
-6.48 4.23 2.39
-6.57 4.10 2.39
-6.65 3.97 2.39
-6.72 3.83 2.39
-6.80 3.69 2.39
-6.87 3.56 2.39
-6.93 3.42 2.39
-7.00 3.28 2.39
-7.06 3.13 2.39
-7.12 2.99 2.39
-7.18 2.85 2.39
-7.23 2.70 2.39
-7.28 2.55 2.39
-7.33 2.41 2.39
-7.38 2.26 2.39
-7.42 2.11 2.39
-7.46 1.96 2.39
-7.50 1.81 2.39
-7.53 1.66 2.39
-7.56 1.51 2.39
-7.59 1.35 2.39
-5.98 0.94 1.88
-5.99 0.82 1.88
-7.65 0.89 2.39
-7.66 0.74 2.39
-7.67 0.59 2.39
-7.68 0.43 2.39
-7.69 0.28 2.39
-7.69 0.12 2.39
-7.69 -0.03 2.39
-7.69 -0.19 2.39
-7.68 -0.34 2.39
-7.67 -0.50 2.39
-7.66 -0.65 2.39
-7.64 -0.80 2.39
-7.62 -0.96 2.39
-7.60 -1.11 2.39
-7.58 -1.26 2.39
-7.55 -1.41 2.39
-7.52 -1.56 2.39
-7.48 -1.71 2.39
-7.45 -1.86 2.39
-7.41 -2.01 2.39
-7.36 -2.16 2.39
-7.32 -2.31 2.39
-7.27 -2.46 2.39
-7.22 -2.60 2.39
-7.16 -2.74 2.39
-7.11 -2.89 2.39
-7.05 -3.03 2.39
-6.98 -3.17 2.39
-6.92 -3.31 2.39
-6.85 -3.45 2.39
-6.78 -3.58 2.39
-6.70 -3.72 2.39
-6.63 -3.85 2.39
-6.55 -3.99 2.39
-6.47 -4.12 2.39
-6.38 -4.25 2.39
-6.30 -4.37 2.39
-6.21 -4.50 2.39
-6.11 -4.62 2.39
-6.02 -4.74 2.39
-5.99 -4.92 2.42
-5.99 -5.12 2.46
-5.97 -5.32 2.49
-5.86 -5.44 2.49
-5.75 -5.55 2.49
-5.64 -5.67 2.49
-5.52 -5.78 2.49
-5.41 -5.89 2.49
-5.29 -6.00 2.49
-5.17 -6.10 2.49
-5.04 -6.21 2.49
-4.92 -6.31 2.49
-4.79 -6.40 2.49
-4.66 -6.50 2.49
-4.53 -6.59 2.49
-4.40 -6.68 2.49
-4.26 -6.77 2.49
-4.12 -6.86 2.49
-3.99 -6.94 2.49
-3.85 -7.02 2.49
-3.71 -7.09 2.49
-3.56 -7.17 2.49
-3.42 -7.24 2.49
-3.27 -7.31 2.49
-3.12 -7.37 2.49
-2.98 -7.43 2.49
-2.83 -7.49 2.49
-2.68 -7.55 2.49
-2.52 -7.60 2.49
-2.37 -7.65 2.49
-2.22 -7.70 2.49
-2.06 -7.74 2.49
-1.91 -7.78 2.49
-1.75 -7.82 2.49
-1.59 -7.86 2.49
-1.44 -7.89 2.49
-1.28 -7.92 2.49
-1.12 -7.94 2.49
-0.96 -7.97 2.49
-0.80 -7.98 2.49
-0.64 -8.00 2.49
-0.48 -8.01 2.49
-0.32 -8.02 2.49
-0.15 -8.03 2.49
0.01 -7.44 2.49
0.16 -7.44 2.49
0.31 -7.43 2.49
0.46 -7.43 2.49
0.60 -7.42 2.49
0.75 -7.41 2.49
0.90 -7.39 2.49
1.05 -7.37 2.49
1.20 -7.35 2.49
1.35 -7.33 2.49
1.49 -7.30 2.49
1.64 -7.27 2.49
1.79 -7.24 2.49
1.93 -7.20 2.49
2.02 -6.98 2.43
2.13 -6.83 2.39
2.27 -6.79 2.39
2.39 -6.69 2.37
2.41 -6.35 2.27
2.54 -6.30 2.27
2.66 -6.25 2.27
2.79 -6.20 2.27
2.92 -6.16 2.27
3.07 -6.15 2.29
3.33 -6.35 2.39
3.46 -6.28 2.39
3.58 -6.21 2.39
3.71 -6.14 2.39
3.83 -6.07 2.39
3.95 -5.99 2.39
4.07 -5.91 2.39
4.19 -5.83 2.39
4.31 -5.75 2.39
4.43 -5.66 2.39
4.54 -5.57 2.39
4.65 -5.48 2.39
4.76 -5.39 2.39
4.87 -5.29 2.39
4.98 -5.19 2.39
5.08 -5.10 2.39
5.19 -4.99 2.39
5.29 -4.89 2.39
5.38 -4.78 2.39
4.45 -3.79 1.94
4.45 -3.65 1.91
4.47 -3.51 1.89
4.53 -3.42 1.88
4.60 -3.32 1.88
4.67 -3.23 1.88
4.73 -3.14 1.88
4.79 -3.04 1.88
4.86 -2.95 1.88
4.91 -2.85 1.88
7.03 -3.89 2.66
6.09 -3.21 2.28
6.09 -3.06 2.25
7.19 -3.43 2.64
7.24 -3.28 2.63
7.28 -3.13 2.62
7.55 -3.06 2.69
7.95 -3.04 2.81
8.36 -3.01 2.94
8.79 -2.96 3.06
6.13 -1.93 2.12
9.40 -2.75 3.23
9.48 -2.57 3.24
6.12 -1.53 2.08
9.66 -2.21 3.27
9.75 -2.02 3.28
9.83 -1.84 3.30
6.13 -1.02 2.05
9.98 -1.45 3.32
10.05 -1.26 3.34
10.11 -1.06 3.35
10.17 -0.86 3.36
10.23 -0.66 3.37
6.15 -0.27 2.03
10.32 -0.25 3.40
10.37 -0.04 3.41
10.40 0.17 3.42
10.42 0.37 3.43
10.43 0.58 3.44
6.16 0.47 2.03
10.42 1.00 3.44
10.41 1.21 3.45
10.42 1.43 3.46
6.17 0.97 2.05
10.47 1.87 3.50
10.49 2.09 3.51
10.49 2.31 3.53
10.43 2.51 3.53
10.35 2.71 3.51
10.26 2.91 3.50
10.17 3.11 3.49
10.06 3.30 3.48
6.20 2.17 2.16
10.03 3.74 3.52
6.20 2.45 2.19
6.21 2.60 2.21
7.38 3.27 2.65
6.22 2.91 2.25
6.22 3.06 2.27
7.06 3.65 2.61
6.97 3.78 2.60
6.87 3.91 2.60
4.97 2.96 1.90
4.87 3.03 1.88
4.80 3.13 1.88
4.74 3.22 1.88
4.67 3.32 1.88
4.62 3.42 1.88
4.60 3.55 1.91
4.60 3.70 1.94
4.60 3.86 1.97
4.61 4.02 2.01
4.61 4.19 2.05
5.29 5.01 2.39
5.19 5.11 2.39
5.09 5.22 2.39
4.98 5.32 2.39
4.87 5.42 2.39
4.76 5.51 2.39
4.65 5.61 2.39
4.54 5.70 2.39
4.42 5.79 2.39
4.31 5.88 2.39
4.19 5.96 2.39
4.07 6.04 2.39
3.95 6.12 2.39
3.82 6.20 2.39
3.70 6.27 2.39
3.57 6.35 2.39
3.27 6.09 2.27
3.24 6.35 2.34
3.13 6.44 2.35
3.00 6.50 2.35
2.77 6.33 2.27
2.66 6.42 2.28
2.64 6.78 2.39
2.51 6.83 2.39
2.37 6.88 2.39
2.31 7.18 2.48
2.18 7.27 2.49
2.04 7.31 2.49
1.89 7.35 2.49
1.74 7.38 2.49
1.59 7.41 2.49
1.44 7.44 2.49
1.29 7.47 2.49
1.14 7.49 2.49
0.99 7.51 2.49
0.84 7.53 2.49
0.69 7.54 2.49
0.54 7.55 2.49
0.39 7.56 2.49
0.24 7.57 2.49
0.08 7.57 2.49
-0.07 7.57 2.49
-0.22 7.56 2.49
-0.37 7.55 2.49
-0.52 7.54 2.49
-0.67 7.53 2.49
-0.82 7.51 2.49
-0.98 7.49 2.49
-1.13 7.47 2.49
-1.27 7.45 2.49
-1.42 7.42 2.49
-1.57 7.39 2.49
-1.72 7.35 2.49
-1.87 7.31 2.49
-2.01 7.27 2.49
-2.16 7.23 2.49
-2.30 7.18 2.49
-2.44 7.13 2.49
-2.59 7.08 2.49
-2.73 7.03 2.49
-2.87 6.97 2.49
-3.00 6.91 2.49
-3.14 6.84 2.49
-3.28 6.78 2.49
-3.41 6.71 2.49
-3.55 6.64 2.49
-3.68 6.56 2.49
-3.81 6.49 2.49
-3.93 6.41 2.49
-4.06 6.33 2.49
-4.19 6.24 2.49
-4.31 6.15 2.49
-4.43 6.06 2.49
-4.55 5.97 2.49
-4.67 5.88 2.49
-4.78 5.78 2.49
-4.90 5.68 2.49
-5.01 5.58 2.49
-5.12 5.48 2.49
-5.23 5.37 2.49
-5.33 5.27 2.49
-5.44 5.16 2.49
-5.54 5.05 2.49
-5.64 4.93 2.49
-5.73 4.82 2.49
-5.79 4.67 2.48
-5.79 4.48 2.44
-5.80 4.31 2.41
-5.84 4.16 2.39
-5.92 4.04 2.39
-6.01 3.93 2.40
-6.08 3.80 2.39
-6.15 3.67 2.39
-6.22 3.55 2.39
-6.29 3.42 2.39
-6.36 3.29 2.39
-6.42 3.16 2.39
-6.48 3.03 2.39
-6.54 2.90 2.39
-6.59 2.77 2.39
-6.65 2.64 2.39
-6.70 2.50 2.39
-6.74 2.37 2.39
-6.79 2.23 2.39
-6.83 2.09 2.39
-6.87 1.95 2.39
-6.90 1.81 2.39
-6.94 1.68 2.39
-6.97 1.54 2.39
-7.00 1.39 2.39
-7.02 1.25 2.39
-5.98 0.94 2.03
-5.99 0.82 2.03
-7.08 0.83 2.39
-7.09 0.69 2.39
-7.11 0.54 2.39
-7.11 0.40 2.39
-7.12 0.26 2.39
-7.12 0.11 2.39
-7.12 -0.03 2.39
-7.12 -0.17 2.39
-7.11 -0.32 2.39
-7.10 -0.46 2.39
-7.09 -0.60 2.39
-7.08 -0.74 2.39
-7.06 -0.88 2.39
-7.04 -1.03 2.39
-7.02 -1.17 2.39
-6.99 -1.31 2.39
-6.96 -1.45 2.39
-6.93 -1.59 2.39
-6.90 -1.73 2.39
-6.86 -1.86 2.39
-6.82 -2.00 2.39
-6.78 -2.14 2.39
-6.73 -2.27 2.39
-6.68 -2.41 2.39
-6.63 -2.54 2.39
-6.58 -2.67 2.39
-6.53 -2.81 2.39
-6.47 -2.94 2.39
-6.41 -3.07 2.39
-6.34 -3.19 2.39
-6.28 -3.32 2.39
-6.21 -3.44 2.39
-6.14 -3.57 2.39
-6.06 -3.69 2.39
-5.99 -3.81 2.39
-5.97 -3.97 2.41
-5.97 -4.14 2.45
-5.97 -4.33 2.48
-5.91 -4.47 2.49
-5.82 -4.58 2.49
-5.72 -4.70 2.49
-5.63 -4.81 2.49
-5.53 -4.93 2.49
-5.43 -5.04 2.49
-5.33 -5.14 2.49
-5.22 -5.25 2.49
-5.12 -5.35 2.49
-5.01 -5.46 2.49
-4.90 -5.56 2.49
-4.78 -5.65 2.49
-4.67 -5.75 2.49
-4.55 -5.84 2.49
-4.44 -5.93 2.49
-4.32 -6.02 2.49
-4.19 -6.11 2.49
-4.07 -6.19 2.49
-3.95 -6.27 2.49
-3.82 -6.35 2.49
-3.69 -6.42 2.49
-3.56 -6.50 2.49
-3.43 -6.57 2.49
-3.30 -6.64 2.49
-3.16 -6.70 2.49
-3.03 -6.77 2.49
-2.89 -6.83 2.49
-2.76 -6.88 2.49
-2.62 -6.94 2.49
-2.48 -6.99 2.49
-2.34 -7.04 2.49
-2.20 -7.09 2.49
-2.05 -7.13 2.49
-1.91 -7.17 2.49
-1.77 -7.21 2.49
-1.62 -7.24 2.49
-1.47 -7.28 2.49
-1.33 -7.31 2.49
-1.18 -7.33 2.49
-1.03 -7.36 2.49
-0.89 -7.38 2.49
-0.74 -7.39 2.49
-0.59 -7.41 2.49
-0.44 -7.42 2.49
-0.29 -7.43 2.49
-0.14 -7.43 2.49
0.01 -6.92 2.49
0.15 -6.92 2.49
0.29 -6.91 2.49
0.42 -6.91 2.49
0.56 -6.90 2.49
0.70 -6.89 2.49
0.84 -6.87 2.49
0.98 -6.86 2.49
1.12 -6.84 2.49
1.25 -6.81 2.49
1.39 -6.79 2.49
1.53 -6.76 2.49
1.66 -6.73 2.49
1.80 -6.70 2.49
1.93 -6.66 2.49
2.03 -6.51 2.45
2.11 -6.31 2.39
2.23 -6.27 2.39
2.36 -6.22 2.39
2.47 -6.14 2.38
2.61 -6.13 2.39
2.73 -6.07 2.39
2.86 -6.02 2.39
2.98 -5.96 2.39
3.10 -5.90 2.39
3.21 -5.84 2.39
3.33 -5.78 2.39
3.45 -5.71 2.39
3.56 -5.64 2.39
3.68 -5.57 2.39
3.79 -5.50 2.39
3.90 -5.42 2.39
4.01 -5.34 2.39
4.12 -5.26 2.39
4.22 -5.18 2.39
4.33 -5.09 2.39
4.43 -5.01 2.39
4.53 -4.92 2.39
4.63 -4.83 2.39
4.72 -4.74 2.39
4.82 -4.64 2.39
4.91 -4.54 2.39
5.00 -4.45 2.39
5.09 -4.35 2.39
4.46 -3.65 2.06
4.45 -3.50 2.02
4.46 -3.36 1.99
4.46 -3.22 1.96
4.46 -3.09 1.94
4.47 -2.96 1.91
4.48 -2.84 1.89
4.51 -2.74 1.88
4.57 -2.65 1.88
4.62 -2.56 1.88
4.67 -2.47 1.88
4.72 -2.37 1.88
4.82 -2.30 1.90
6.12 -2.77 2.39
6.95 -2.98 2.69
7.00 -2.84 2.69
7.06 -2.70 2.69
7.09 -2.55 2.68
7.13 -2.40 2.67
6.11 -1.92 2.28
6.12 -1.79 2.26
6.12 -1.66 2.25
6.12 -1.53 2.24
7.27 -1.66 2.65
7.29 -1.51 2.64
7.31 -1.37 2.64
7.33 -1.22 2.64
7.57 -1.10 2.71
8.01 -1.00 2.86
8.43 -0.88 3.01
8.82 -0.75 3.14
9.24 -0.59 3.28
9.40 -0.42 3.34
9.42 -0.23 3.34
9.44 -0.04 3.35
9.45 0.15 3.35
6.16 0.22 2.18
9.46 0.53 3.36
6.16 0.47 2.19
6.17 0.59 2.19
7.38 0.86 2.63
7.37 1.01 2.63
7.36 1.16 2.64
7.34 1.31 2.64
7.33 1.46 2.64
7.31 1.61 2.65
6.19 1.49 2.25
6.19 1.62 2.26
6.19 1.76 2.28
7.24 2.21 2.68
7.22 2.36 2.68
7.19 2.52 2.69
7.16 2.67 2.70
6.20 2.45 2.36
6.24 2.61 2.39
6.18 2.74 2.39
6.13 2.86 2.39
6.07 2.99 2.39
6.01 3.11 2.39
5.95 3.23 2.39
5.88 3.35 2.39
4.96 2.96 2.04
4.75 2.96 1.98
4.59 2.99 1.93
4.59 3.12 1.96
4.59 3.26 1.99
4.60 3.40 2.02
4.60 3.56 2.05
5.27 4.24 2.39
4.98 4.18 2.30
4.79 4.18 2.24
4.70 4.27 2.24
4.92 4.65 2.39
4.82 4.75 2.39
4.73 4.85 2.39
4.63 4.94 2.39
4.53 5.03 2.39
4.43 5.12 2.39
4.32 5.21 2.39
4.22 5.29 2.39
4.11 5.38 2.39
4.00 5.46 2.39
3.89 5.54 2.39
3.78 5.61 2.39
3.66 5.69 2.39
3.55 5.76 2.39
3.26 5.53 2.27
3.15 5.60 2.27
3.03 5.66 2.27
3.03 5.92 2.35
2.91 5.98 2.35
2.69 5.83 2.27
2.65 6.06 2.34
2.58 6.25 2.39
2.46 6.30 2.39
2.33 6.34 2.39
2.30 6.66 2.49
2.16 6.71 2.49
2.03 6.75 2.49
1.89 6.79 2.49
1.75 6.82 2.49
1.62 6.86 2.49
1.48 6.89 2.49
1.34 6.91 2.49
1.20 6.94 2.49
1.06 6.96 2.49
0.92 6.98 2.49
0.78 6.99 2.49
0.64 7.01 2.49
0.50 7.02 2.49
0.36 7.02 2.49
0.22 7.03 2.49
0.08 7.03 2.49
-0.06 7.03 2.49
-0.20 7.03 2.49
-0.34 7.02 2.49
-0.49 7.01 2.49
-0.63 7.00 2.49
-0.77 6.98 2.49
-0.91 6.96 2.49
-1.04 6.94 2.49
-1.18 6.92 2.49
-1.32 6.89 2.49
-1.46 6.86 2.49
-1.60 6.83 2.49
-1.73 6.80 2.49
-1.87 6.76 2.49
-2.00 6.72 2.49
-2.14 6.67 2.49
-2.27 6.63 2.49
-2.40 6.58 2.49
-2.53 6.53 2.49
-2.66 6.48 2.49
-2.79 6.42 2.49
-2.92 6.36 2.49
-3.05 6.30 2.49
-3.17 6.24 2.49
-3.29 6.17 2.49
-3.42 6.10 2.49
-3.54 6.03 2.49
-3.66 5.96 2.49
-3.77 5.88 2.49
-3.89 5.80 2.49
-4.01 5.72 2.49
-4.12 5.64 2.49
-4.23 5.55 2.49
-4.34 5.46 2.49
-4.45 5.38 2.49
-4.55 5.28 2.49
-4.66 5.19 2.49
-4.76 5.09 2.49
-4.86 5.00 2.49
-4.96 4.90 2.49
-5.05 4.79 2.49
-5.15 4.69 2.49
-5.24 4.59 2.49
-5.33 4.48 2.49
-5.42 4.37 2.49
-5.50 4.26 2.49
-5.58 4.15 2.49
-5.67 4.03 2.49
-5.74 3.92 2.49
-5.80 3.79 2.49
-5.81 3.63 2.46
-5.81 3.47 2.43
-5.82 3.32 2.41
-5.85 3.18 2.39
-5.91 3.06 2.39
-5.97 2.94 2.39
-6.04 2.83 2.39
-6.08 2.70 2.39
-6.13 2.58 2.39
-6.18 2.45 2.39
-6.23 2.33 2.39
-6.27 2.20 2.39
-6.31 2.07 2.39
-6.35 1.95 2.39
-6.39 1.82 2.39
-6.42 1.69 2.39
-6.45 1.56 2.39
-6.48 1.43 2.39
-6.51 1.30 2.39
-6.53 1.17 2.39
-5.98 0.94 2.18
-5.99 0.82 2.18
-6.58 0.77 2.39
-6.60 0.64 2.39
-6.61 0.51 2.39
-6.62 0.37 2.39
-6.62 0.24 2.39
-6.62 0.11 2.39
-6.62 -0.03 2.39
-6.62 -0.16 2.39
-6.61 -0.29 2.39
-6.61 -0.43 2.39
-6.60 -0.56 2.39
-6.58 -0.69 2.39
-6.57 -0.82 2.39
-6.55 -0.95 2.39
-6.53 -1.09 2.39
-6.50 -1.22 2.39
-6.47 -1.35 2.39
-6.45 -1.48 2.39
-6.41 -1.61 2.39
-6.38 -1.73 2.39
-6.34 -1.86 2.39
-6.30 -1.99 2.39
-6.26 -2.11 2.39
-6.22 -2.24 2.39
-6.17 -2.36 2.39
-6.14 -2.50 2.40
-6.07 -2.61 2.39
-6.02 -2.73 2.39
-5.96 -2.85 2.39
-5.95 -3.00 2.41
-5.95 -3.15 2.43
-5.95 -3.30 2.46
-5.95 -3.46 2.49
-5.88 -3.58 2.49
-5.81 -3.70 2.49
-5.74 -3.82 2.49
-5.66 -3.93 2.49
-5.58 -4.04 2.49
-5.49 -4.15 2.49
-5.41 -4.26 2.49
-5.32 -4.37 2.49
-5.23 -4.48 2.49
-5.14 -4.58 2.49
-5.05 -4.68 2.49
-4.96 -4.78 2.49
-4.86 -4.88 2.49
-4.76 -4.98 2.49
-4.66 -5.07 2.49
-4.56 -5.17 2.49
-4.45 -5.26 2.49
-4.34 -5.35 2.49
-4.24 -5.43 2.49
-4.13 -5.52 2.49
-4.01 -5.60 2.49
-3.90 -5.68 2.49
-3.79 -5.76 2.49
-3.67 -5.83 2.49
-3.55 -5.91 2.49
-3.43 -5.98 2.49
-3.31 -6.04 2.49
-3.19 -6.11 2.49
-3.07 -6.17 2.49
-2.94 -6.23 2.49
-2.82 -6.29 2.49
-2.69 -6.35 2.49
-2.56 -6.40 2.49
-2.43 -6.45 2.49
-2.30 -6.50 2.49
-2.17 -6.55 2.49
-2.04 -6.59 2.49
-1.91 -6.63 2.49
-1.78 -6.67 2.49
-1.64 -6.70 2.49
-1.51 -6.74 2.49
-1.37 -6.77 2.49
-1.23 -6.79 2.49
-1.10 -6.82 2.49
-0.96 -6.84 2.49
-0.82 -6.86 2.49
-0.69 -6.88 2.49
-0.55 -6.89 2.49
-0.41 -6.90 2.49
-0.27 -6.91 2.49
-0.13 -6.91 2.49
0.01 -6.46 2.49
0.14 -6.46 2.49
0.27 -6.45 2.49
0.40 -6.45 2.49
0.53 -6.44 2.49
0.66 -6.43 2.49
0.78 -6.42 2.49
0.91 -6.40 2.49
1.04 -6.38 2.49
1.17 -6.36 2.49
1.30 -6.34 2.49
1.43 -6.31 2.49
1.55 -6.28 2.49
1.68 -6.25 2.49
1.80 -6.22 2.49
1.93 -6.18 2.49
2.04 -6.11 2.48
2.09 -5.85 2.39
2.20 -5.81 2.39
2.32 -5.76 2.39
2.44 -5.72 2.39
2.55 -5.67 2.39
2.67 -5.62 2.39
2.78 -5.56 2.39
2.89 -5.51 2.39
3.00 -5.45 2.39
3.11 -5.39 2.39
3.22 -5.33 2.39
3.33 -5.26 2.39
3.43 -5.20 2.39
3.54 -5.13 2.39
3.64 -5.06 2.39
3.74 -4.98 2.39
3.84 -4.91 2.39
3.94 -4.83 2.39
4.04 -4.75 2.39
4.13 -4.67 2.39
4.23 -4.59 2.39
4.32 -4.50 2.39
4.41 -4.42 2.39
4.50 -4.33 2.39
4.59 -4.24 2.39
4.67 -4.15 2.39
4.75 -4.05 2.39
4.84 -3.96 2.39
4.54 -3.57 2.21
4.66 -3.51 2.23
5.07 -3.66 2.39
5.14 -3.56 2.39
4.47 -2.96 2.05
4.47 -2.84 2.02
4.47 -2.71 2.00
4.47 -2.59 1.97
4.47 -2.48 1.95
4.48 -2.36 1.93
4.57 -2.29 1.95
4.82 -2.30 2.04
5.71 -2.59 2.39
5.76 -2.47 2.39
5.81 -2.36 2.39
5.86 -2.24 2.39
5.90 -2.12 2.39
5.95 -2.00 2.39
5.99 -1.88 2.39
6.02 -1.76 2.39
6.06 -1.64 2.39
6.09 -1.52 2.39
6.12 -1.40 2.39
6.15 -1.28 2.39
7.03 -1.31 2.72
7.05 -1.17 2.72
7.06 -1.03 2.71
7.08 -0.88 2.71
7.09 -0.74 2.71
4.93 -0.42 1.88
4.94 -0.32 1.88
4.95 -0.22 1.88
4.95 -0.12 1.88
4.95 -0.02 1.88
4.95 0.08 1.88
4.95 0.18 1.88
4.95 0.28 1.88
4.94 0.38 1.88
4.93 0.48 1.88
4.92 0.57 1.88
4.91 0.67 1.88
4.90 0.77 1.88
4.88 0.87 1.88
4.86 0.97 1.88
4.84 1.07 1.88
6.13 1.48 2.39
6.10 1.60 2.39
6.06 1.72 2.39
6.03 1.84 2.39
5.99 1.96 2.39
5.95 2.08 2.39
5.91 2.20 2.39
5.86 2.32 2.39
5.82 2.44 2.39
5.77 2.55 2.39
5.72 2.67 2.39
5.66 2.78 2.39
5.60 2.90 2.39
5.55 3.01 2.39
5.48 3.12 2.39
5.42 3.23 2.39
5.36 3.34 2.39
4.91 3.20 2.22
4.71 3.20 2.16
5.15 3.65 2.39
5.07 3.76 2.39
5.00 3.86 2.39
4.92 3.96 2.39
4.84 4.05 2.39
4.76 4.15 2.39
4.67 4.25 2.39
4.58 4.34 2.39
4.50 4.43 2.39
4.41 4.52 2.39
4.32 4.61 2.39
4.22 4.69 2.39
4.13 4.77 2.39
4.03 4.86 2.39
3.93 4.94 2.39
3.83 5.01 2.39
3.73 5.09 2.39
3.63 5.16 2.39
3.52 5.23 2.39
3.42 5.30 2.39
3.31 5.37 2.39
3.20 5.44 2.39
3.06 5.43 2.36
2.92 5.44 2.34
2.78 5.44 2.32
2.65 5.45 2.30
2.64 5.73 2.39
2.53 5.78 2.39
2.41 5.83 2.39
2.30 5.89 2.40
2.27 6.17 2.49
2.14 6.22 2.49
2.02 6.26 2.49
1.89 6.29 2.49
1.76 6.33 2.49
1.64 6.36 2.49
1.51 6.39 2.49
1.38 6.42 2.49
1.25 6.45 2.49
1.12 6.47 2.49
0.99 6.49 2.49
0.86 6.51 2.49
0.73 6.52 2.49
0.60 6.54 2.49
0.47 6.55 2.49
0.34 6.55 2.49
0.20 6.56 2.49
0.07 6.56 2.49
-0.06 6.56 2.49
-0.19 6.55 2.49
-0.32 6.55 2.49
-0.45 6.54 2.49
-0.58 6.53 2.49
-0.71 6.51 2.49
-0.84 6.50 2.49
-0.97 6.48 2.49
-1.10 6.45 2.49
-1.23 6.43 2.49
-1.36 6.40 2.49
-1.49 6.37 2.49
-1.62 6.34 2.49
-1.74 6.30 2.49
-1.87 6.27 2.49
-1.99 6.23 2.49
-2.12 6.18 2.49
-2.24 6.14 2.49
-2.36 6.09 2.49
-2.48 6.04 2.49
-2.60 5.99 2.49
-2.72 5.93 2.49
-2.84 5.88 2.49
-2.96 5.82 2.49
-3.07 5.76 2.49
-3.19 5.69 2.49
-3.30 5.63 2.49
-3.41 5.56 2.49
-3.52 5.49 2.49
-3.63 5.41 2.49
-3.74 5.34 2.49
-3.84 5.26 2.49
-3.95 5.18 2.49
-4.05 5.10 2.49
-4.15 5.02 2.49
-4.25 4.93 2.49
-4.35 4.84 2.49
-4.44 4.75 2.49
-4.53 4.66 2.49
-4.63 4.57 2.49
-4.72 4.48 2.49
-4.80 4.38 2.49
-4.89 4.28 2.49
-4.97 4.18 2.49
-5.05 4.08 2.49
-5.13 3.98 2.49
-5.21 3.87 2.49
-5.29 3.76 2.49
-5.36 3.66 2.49
-5.43 3.55 2.49
-5.50 3.44 2.49
-5.57 3.33 2.49
-5.63 3.21 2.49
-5.69 3.10 2.49
-5.75 2.98 2.49
-5.81 2.86 2.49
-5.83 2.73 2.48
-5.83 2.59 2.46
-5.83 2.45 2.44
-5.84 2.32 2.42
-5.85 2.18 2.40
-5.85 2.05 2.39
-5.89 1.94 2.39
-5.93 1.82 2.39
-5.96 1.70 2.39
-5.99 1.58 2.39
-6.02 1.46 2.39
-6.07 1.34 2.40
-6.07 1.21 2.39
-6.10 1.09 2.39
-5.98 0.94 2.34
-5.99 0.82 2.33
-6.15 0.72 2.39
-6.16 0.60 2.39
-6.17 0.47 2.39
-6.18 0.35 2.39
-6.18 0.22 2.39
-6.18 0.10 2.39
-6.18 -0.02 2.39
-6.18 -0.15 2.39
-6.18 -0.27 2.39
-6.17 -0.40 2.39
-6.16 -0.52 2.39
-6.15 -0.64 2.39
-6.13 -0.77 2.39
-6.11 -0.89 2.39
-6.11 -1.02 2.40
-6.07 -1.14 2.39
-6.05 -1.26 2.39
-6.02 -1.38 2.39
-5.99 -1.50 2.39
-5.96 -1.62 2.39
-5.93 -1.74 2.39
-5.93 -1.87 2.41
-5.93 -2.00 2.42
-5.93 -2.13 2.44
-5.93 -2.27 2.46
-5.93 -2.41 2.48
-5.91 -2.54 2.49
-5.86 -2.66 2.49
-5.80 -2.78 2.49
-5.75 -2.89 2.49
-5.69 -3.01 2.49
-5.63 -3.12 2.49
-5.56 -3.23 2.49
-5.49 -3.34 2.49
-5.43 -3.45 2.49
-5.36 -3.56 2.49
-5.28 -3.67 2.49
-5.21 -3.77 2.49
-5.13 -3.88 2.49
-5.05 -3.98 2.49
-4.97 -4.08 2.49
-4.89 -4.18 2.49
-4.80 -4.28 2.49
-4.72 -4.37 2.49
-4.63 -4.47 2.49
-4.54 -4.56 2.49
-4.44 -4.65 2.49
-4.35 -4.74 2.49
-4.25 -4.83 2.49
-4.16 -4.91 2.49
-4.06 -4.99 2.49
-3.96 -5.07 2.49
-3.85 -5.15 2.49
-3.75 -5.23 2.49
-3.64 -5.30 2.49
-3.54 -5.38 2.49
-3.43 -5.45 2.49
-3.32 -5.51 2.49
-3.21 -5.58 2.49
-3.09 -5.64 2.49
-2.98 -5.71 2.49
-2.86 -5.76 2.49
-2.75 -5.82 2.49
-2.63 -5.88 2.49
-2.51 -5.93 2.49
-2.39 -5.98 2.49
-2.27 -6.03 2.49
-2.15 -6.07 2.49
-2.03 -6.11 2.49
-1.91 -6.15 2.49
-1.78 -6.19 2.49
-1.66 -6.23 2.49
-1.53 -6.26 2.49
-1.41 -6.29 2.49
-1.28 -6.32 2.49
-1.15 -6.34 2.49
-1.03 -6.37 2.49
-0.90 -6.39 2.49
-0.77 -6.40 2.49
-0.64 -6.42 2.49
-0.51 -6.43 2.49
-0.38 -6.44 2.49
-0.25 -6.45 2.49
-0.12 -6.45 2.49
0.01 -6.05 2.49
0.13 -6.05 2.49
0.25 -6.04 2.49
0.37 -6.04 2.49
0.49 -6.03 2.49
0.61 -6.02 2.49
0.74 -6.01 2.49
0.86 -5.99 2.49
0.98 -5.98 2.49
1.10 -5.96 2.49
1.22 -5.94 2.49
1.34 -5.91 2.49
1.45 -5.88 2.49
1.57 -5.85 2.49
1.69 -5.82 2.49
1.81 -5.79 2.49
1.92 -5.75 2.49
2.04 -5.71 2.49
2.07 -5.44 2.39
2.17 -5.40 2.39
2.28 -5.35 2.39
2.39 -5.31 2.39
2.50 -5.26 2.39
2.60 -5.21 2.39
2.71 -5.16 2.39
2.81 -5.10 2.39
2.91 -5.05 2.39
3.01 -4.99 2.39
3.11 -4.93 2.39
3.21 -4.87 2.39
3.31 -4.80 2.39
3.41 -4.73 2.39
3.50 -4.67 2.39
3.60 -4.60 2.39
3.69 -4.52 2.39
3.78 -4.45 2.39
3.87 -4.37 2.39
3.96 -4.30 2.39
4.04 -4.22 2.39
4.13 -4.14 2.39
4.21 -4.05 2.39
4.29 -3.97 2.39
4.37 -3.88 2.39
4.45 -3.80 2.39
4.53 -3.71 2.39
4.54 -3.56 2.36
4.66 -3.51 2.38
4.75 -3.43 2.39
4.81 -3.33 2.39
4.88 -3.24 2.39
4.95 -3.14 2.39
5.01 -3.04 2.39
4.56 -2.64 2.15
4.58 -2.53 2.13
4.81 -2.54 2.22
5.24 -2.63 2.39
5.29 -2.53 2.39
5.35 -2.42 2.39
5.39 -2.31 2.39
5.44 -2.20 2.39
5.48 -2.10 2.39
5.53 -1.99 2.39
5.57 -1.87 2.39
5.60 -1.76 2.39
5.64 -1.65 2.39
5.67 -1.54 2.39
5.70 -1.42 2.39
5.73 -1.31 2.39
5.76 -1.19 2.39
5.78 -1.08 2.39
5.80 -0.96 2.39
5.82 -0.85 2.39
5.84 -0.73 2.39
5.85 -0.61 2.39
4.62 -0.39 1.88
4.62 -0.30 1.88
4.63 -0.20 1.88
4.63 -0.11 1.88
4.63 -0.02 1.88
4.63 0.07 1.88
4.63 0.17 1.88
4.63 0.26 1.88
4.62 0.35 1.88
4.62 0.45 1.88
4.61 0.54 1.88
4.60 0.63 1.88
4.58 0.72 1.88
4.57 0.82 1.88
4.56 0.91 1.89
4.55 1.00 1.89
4.57 1.10 1.91
5.71 1.50 2.39
5.68 1.61 2.39
5.64 1.73 2.39
5.61 1.84 2.39
5.57 1.95 2.39
5.53 2.06 2.39
5.49 2.17 2.39
5.44 2.28 2.39
5.40 2.39 2.39
5.35 2.50 2.39
5.30 2.61 2.39
5.25 2.71 2.39
5.19 2.82 2.39
5.13 2.92 2.39
5.07 3.02 2.39
5.01 3.12 2.39
4.91 3.20 2.37
4.70 3.20 2.30
4.82 3.42 2.39
4.75 3.52 2.39
4.68 3.61 2.39
4.60 3.70 2.39
4.53 3.79 2.39
4.45 3.88 2.39
4.37 3.97 2.39
4.29 4.06 2.39
4.21 4.14 2.39
4.12 4.23 2.39
4.04 4.31 2.39
3.95 4.39 2.39
3.86 4.47 2.39
3.77 4.54 2.39
3.68 4.62 2.39
3.59 4.69 2.39
3.49 4.76 2.39
3.40 4.83 2.39
3.30 4.90 2.39
3.20 4.96 2.39
3.10 5.03 2.39
3.00 5.09 2.39
2.89 5.15 2.39
2.79 5.20 2.39
2.69 5.26 2.39
2.58 5.31 2.39
2.47 5.36 2.39
2.36 5.41 2.39
2.28 5.52 2.42
2.24 5.73 2.49
2.12 5.78 2.49
2.01 5.82 2.49
1.89 5.86 2.49
1.77 5.89 2.49
1.65 5.92 2.49
1.53 5.96 2.49
1.41 5.98 2.49
1.29 6.01 2.49
1.17 6.03 2.49
1.05 6.06 2.49
0.93 6.08 2.49
0.81 6.09 2.49
0.68 6.11 2.49
0.56 6.12 2.49
0.44 6.13 2.49
0.32 6.13 2.49
0.19 6.14 2.49
0.07 6.14 2.49
-0.05 6.14 2.49
-0.18 6.13 2.49
-0.30 6.13 2.49
-0.42 6.12 2.49
-0.55 6.11 2.49
-0.67 6.10 2.49
-0.79 6.08 2.49
-0.91 6.06 2.49
-1.03 6.04 2.49
-1.15 6.02 2.49
-1.27 5.99 2.49
-1.39 5.97 2.49
-1.51 5.93 2.49
-1.63 5.90 2.49
-1.75 5.87 2.49
-1.87 5.83 2.49
-1.98 5.79 2.49
-2.10 5.75 2.49
-2.21 5.70 2.49
-2.32 5.66 2.49
-2.44 5.61 2.49
-2.55 5.56 2.49
-2.66 5.50 2.49
-2.77 5.45 2.49
-2.88 5.39 2.49
-2.98 5.33 2.49
-3.09 5.27 2.49
-3.19 5.20 2.49
-3.30 5.14 2.49
-3.40 5.07 2.49
-3.50 5.00 2.49
-3.60 4.93 2.49
-3.69 4.85 2.49
-3.79 4.78 2.49
-3.88 4.70 2.49
-3.98 4.62 2.49
-4.07 4.54 2.49
-4.16 4.45 2.49
-4.24 4.37 2.49
-4.33 4.28 2.49
-4.41 4.19 2.49
-4.50 4.10 2.49
-4.58 4.01 2.49
-4.66 3.91 2.49
-4.73 3.82 2.49
-4.81 3.72 2.49
-4.88 3.63 2.49
-4.95 3.53 2.49
-5.02 3.42 2.49
-5.09 3.32 2.49
-5.15 3.22 2.49
-5.21 3.11 2.49
-5.27 3.01 2.49
-5.33 2.90 2.49
-5.39 2.79 2.49
-5.44 2.68 2.49
-5.49 2.57 2.49
-5.54 2.46 2.49
-5.59 2.35 2.49
-5.63 2.24 2.49
-5.68 2.12 2.49
-5.72 2.01 2.49
-5.76 1.89 2.49
-5.79 1.78 2.49
-5.82 1.66 2.49
-5.85 1.54 2.49
-5.85 1.41 2.48
-5.86 1.29 2.47
-5.86 1.17 2.46
-5.86 1.05 2.45
-5.86 0.93 2.45
-5.86 0.81 2.44
-5.87 0.69 2.44
-5.87 0.57 2.43
-5.87 0.45 2.43
-5.88 0.33 2.43
-5.88 0.21 2.43
-5.88 0.10 2.43
-5.89 -0.02 2.43
-5.89 -0.14 2.43
-5.89 -0.26 2.43
-5.89 -0.38 2.44
-5.89 -0.50 2.44
-5.89 -0.62 2.45
-5.90 -0.74 2.45
-5.90 -0.86 2.46
-5.90 -0.98 2.47
-5.90 -1.10 2.48
-5.91 -1.23 2.49
-5.88 -1.35 2.49
-5.85 -1.46 2.49
-5.82 -1.58 2.49
-5.79 -1.70 2.49
-5.75 -1.81 2.49
-5.71 -1.93 2.49
-5.67 -2.04 2.49
-5.63 -2.16 2.49
-5.59 -2.27 2.49
-5.54 -2.38 2.49
-5.49 -2.49 2.49
-5.44 -2.60 2.49
-5.38 -2.71 2.49
-5.33 -2.82 2.49
-5.27 -2.92 2.49
-5.21 -3.03 2.49
-5.15 -3.13 2.49
-5.08 -3.24 2.49
-5.02 -3.34 2.49
-4.95 -3.44 2.49
-4.88 -3.54 2.49
-4.81 -3.63 2.49
-4.73 -3.73 2.49
-4.66 -3.82 2.49
-4.58 -3.92 2.49
-4.50 -4.01 2.49
-4.42 -4.10 2.49
-4.33 -4.19 2.49
-4.25 -4.27 2.49
-4.16 -4.36 2.49
-4.07 -4.44 2.49
-3.98 -4.52 2.49
-3.89 -4.60 2.49
-3.80 -4.68 2.49
-3.71 -4.75 2.49
-3.61 -4.83 2.49
-3.51 -4.90 2.49
-3.41 -4.97 2.49
-3.31 -5.04 2.49
-3.21 -5.10 2.49
-3.11 -5.17 2.49
-3.00 -5.23 2.49
-2.90 -5.29 2.49
-2.79 -5.34 2.49
-2.68 -5.40 2.49
-2.57 -5.45 2.49
-2.46 -5.50 2.49
-2.35 -5.55 2.49
-2.24 -5.60 2.49
-2.13 -5.64 2.49
-2.01 -5.69 2.49
-1.90 -5.73 2.49
-1.79 -5.76 2.49
-1.67 -5.80 2.49
-1.55 -5.83 2.49
-1.43 -5.86 2.49
-1.32 -5.89 2.49
-1.20 -5.92 2.49
-1.08 -5.94 2.49
-0.96 -5.96 2.49
-0.84 -5.98 2.49
-0.72 -6.00 2.49
-0.60 -6.01 2.49
-0.48 -6.02 2.49
-0.36 -6.03 2.49
-0.24 -6.04 2.49
-0.11 -6.05 2.49
0.01 -5.68 2.49
0.12 -5.68 2.49
0.24 -5.68 2.49
0.35 -5.67 2.49
0.46 -5.67 2.49
0.58 -5.66 2.49
0.69 -5.64 2.49
0.80 -5.63 2.49
0.92 -5.61 2.49
1.03 -5.60 2.49
1.14 -5.58 2.49
1.26 -5.55 2.49
1.37 -5.53 2.49
1.48 -5.50 2.49
1.59 -5.47 2.49
1.70 -5.44 2.49
1.81 -5.40 2.49
1.92 -5.37 2.49
2.02 -5.33 2.49
2.07 -5.13 2.42
2.14 -5.03 2.39
2.25 -5.00 2.40
2.35 -4.94 2.39
2.44 -4.89 2.39
2.54 -4.84 2.39
2.64 -4.79 2.39
2.74 -4.74 2.39
2.83 -4.69 2.39
2.93 -4.63 2.39
3.02 -4.57 2.39
3.11 -4.51 2.39
3.20 -4.45 2.39
3.29 -4.38 2.39
3.38 -4.32 2.39
3.47 -4.25 2.39
3.55 -4.18 2.39
3.63 -4.11 2.39
3.72 -4.03 2.39
3.80 -3.96 2.39
3.88 -3.88 2.39
3.96 -3.81 2.39
4.03 -3.73 2.39
4.11 -3.65 2.39
4.18 -3.56 2.39
4.25 -3.48 2.39
4.32 -3.39 2.39
4.39 -3.31 2.39
4.46 -3.22 2.39
4.52 -3.13 2.39
4.58 -3.04 2.39
4.64 -2.95 2.39
4.70 -2.85 2.39
4.56 -2.64 2.29
4.58 -2.53 2.27
4.81 -2.54 2.36
4.92 -2.47 2.39
4.97 -2.37 2.39
5.02 -2.27 2.39
5.06 -2.17 2.39
5.11 -2.07 2.39
5.15 -1.97 2.39
5.19 -1.86 2.39
5.23 -1.76 2.39
5.26 -1.65 2.39
5.29 -1.55 2.39
5.33 -1.44 2.39
5.35 -1.34 2.39
5.38 -1.23 2.39
5.41 -1.12 2.39
5.43 -1.01 2.39
5.45 -0.90 2.39
5.47 -0.79 2.39
5.48 -0.68 2.39
4.54 -0.47 1.98
4.52 -0.38 1.96
4.52 -0.29 1.96
4.52 -0.20 1.96
4.52 -0.11 1.96
4.53 -0.02 1.96
4.53 0.07 1.96
4.53 0.16 1.96
4.53 0.26 1.96
4.53 0.35 1.96
4.53 0.44 1.97
4.54 0.53 1.97
4.54 0.62 1.98
4.54 0.72 1.99
4.54 0.81 1.99
4.54 0.90 2.00
4.55 1.00 2.01
4.56 1.10 2.03
5.36 1.41 2.39
5.33 1.51 2.39
5.30 1.62 2.39
5.26 1.73 2.39
5.23 1.83 2.39
5.19 1.94 2.39
5.15 2.04 2.39
5.11 2.14 2.39
5.07 2.24 2.39
5.02 2.35 2.39
4.97 2.45 2.39
4.92 2.55 2.39
4.87 2.64 2.39
4.82 2.74 2.39
4.76 2.84 2.39
4.70 2.93 2.39
4.65 3.03 2.39
4.58 3.12 2.39
4.52 3.21 2.39
4.46 3.30 2.39
4.39 3.39 2.39
4.32 3.48 2.39
4.25 3.56 2.39
4.18 3.65 2.39
4.10 3.73 2.39
4.03 3.81 2.39
3.95 3.89 2.39
3.87 3.97 2.39
3.79 4.05 2.39
3.71 4.12 2.39
3.63 4.19 2.39
3.54 4.27 2.39
3.45 4.34 2.39
3.37 4.40 2.39
3.28 4.47 2.39
3.19 4.53 2.39
3.10 4.60 2.39
3.00 4.66 2.39
2.91 4.72 2.39
2.81 4.77 2.39
2.72 4.83 2.39
2.62 4.88 2.39
2.52 4.93 2.39
2.42 4.98 2.39
2.32 5.03 2.39
2.27 5.20 2.45
2.21 5.34 2.49
2.10 5.38 2.49
1.99 5.42 2.49
1.88 5.46 2.49
1.77 5.50 2.49
1.66 5.53 2.49
1.55 5.56 2.49
1.44 5.59 2.49
1.33 5.62 2.49
1.21 5.64 2.49
1.10 5.67 2.49
0.99 5.69 2.49
0.87 5.70 2.49
0.76 5.72 2.49
0.64 5.73 2.49
0.53 5.74 2.49
0.41 5.75 2.49
0.30 5.76 2.49
0.18 5.76 2.49
0.07 5.76 2.49
-0.05 5.76 2.49
-0.17 5.76 2.49
-0.28 5.75 2.49
-0.40 5.75 2.49
-0.51 5.74 2.49
-0.63 5.72 2.49
-0.74 5.71 2.49
-0.86 5.69 2.49
-0.97 5.67 2.49
-1.08 5.65 2.49
-1.20 5.63 2.49
-1.31 5.60 2.49
-1.42 5.57 2.49
-1.53 5.54 2.49
-1.64 5.51 2.49
-1.75 5.47 2.49
-1.86 5.44 2.49
-1.97 5.40 2.49
-2.08 5.36 2.49
-2.18 5.31 2.49
-2.29 5.27 2.49
-2.39 5.22 2.49
-2.50 5.17 2.49
-2.60 5.12 2.49
-2.70 5.06 2.49
-2.80 5.00 2.49
-2.90 4.95 2.49
-3.00 4.89 2.49
-3.09 4.82 2.49
-3.19 4.76 2.49
-3.28 4.69 2.49
-3.38 4.63 2.49
-3.47 4.56 2.49
-3.56 4.48 2.49
-3.65 4.41 2.49
-3.73 4.34 2.49
-3.82 4.26 2.49
-3.90 4.18 2.49
-3.99 4.10 2.49
-4.07 4.02 2.49
-4.15 3.94 2.49
-4.22 3.85 2.49
-4.30 3.77 2.49
-4.37 3.68 2.49
-4.44 3.59 2.49
-4.51 3.50 2.49
-4.58 3.41 2.49
-4.65 3.31 2.49
-4.71 3.22 2.49
-4.78 3.12 2.49
-4.84 3.02 2.49
-4.90 2.93 2.49
-4.95 2.83 2.49
-5.01 2.73 2.49
-5.06 2.62 2.49
-5.11 2.52 2.49
-5.16 2.42 2.49
-5.21 2.31 2.49
-5.25 2.21 2.49
-5.29 2.10 2.49
-5.33 1.99 2.49
-5.37 1.89 2.49
-5.41 1.78 2.49
-5.44 1.67 2.49
-5.47 1.56 2.49
-5.50 1.45 2.49
-5.53 1.34 2.49
-5.55 1.23 2.49
-5.58 1.11 2.49
-5.60 1.00 2.49
-5.61 0.89 2.49
-5.63 0.77 2.49
-5.64 0.66 2.49
-5.65 0.55 2.49
-5.66 0.43 2.49
-5.67 0.32 2.49
-5.67 0.21 2.49
-5.68 0.09 2.49
-5.68 -0.02 2.49
-5.67 -0.14 2.49
-5.67 -0.25 2.49
-5.66 -0.36 2.49
-5.65 -0.48 2.49
-5.64 -0.59 2.49
-5.63 -0.70 2.49
-5.61 -0.82 2.49
-5.59 -0.93 2.49
-5.57 -1.04 2.49
-5.55 -1.15 2.49
-5.53 -1.26 2.49
-5.50 -1.38 2.49
-5.47 -1.49 2.49
-5.44 -1.59 2.49
-5.40 -1.70 2.49
-5.37 -1.81 2.49
-5.33 -1.92 2.49
-5.29 -2.03 2.49
-5.25 -2.13 2.49
-5.20 -2.24 2.49
-5.16 -2.34 2.49
-5.11 -2.44 2.49
-5.06 -2.55 2.49
-5.01 -2.65 2.49
-4.95 -2.75 2.49
-4.90 -2.85 2.49
-4.84 -2.94 2.49
-4.78 -3.04 2.49
-4.71 -3.14 2.49
-4.65 -3.23 2.49
-4.58 -3.32 2.49
-4.52 -3.41 2.49
-4.45 -3.50 2.49
-4.38 -3.59 2.49
-4.30 -3.68 2.49
-4.23 -3.77 2.49
-4.15 -3.85 2.49
-4.07 -3.93 2.49
-3.99 -4.01 2.49
-3.91 -4.09 2.49
-3.83 -4.17 2.49
-3.74 -4.25 2.49
-3.66 -4.32 2.49
-3.57 -4.39 2.49
-3.48 -4.47 2.49
-3.39 -4.53 2.49
-3.30 -4.60 2.49
-3.21 -4.67 2.49
-3.11 -4.73 2.49
-3.02 -4.79 2.49
-2.92 -4.85 2.49
-2.82 -4.91 2.49
-2.72 -4.97 2.49
-2.62 -5.02 2.49
-2.52 -5.07 2.49
-2.42 -5.12 2.49
-2.31 -5.17 2.49
-2.21 -5.22 2.49
-2.11 -5.26 2.49
-2.00 -5.30 2.49
-1.89 -5.34 2.49
-1.79 -5.38 2.49
-1.68 -5.42 2.49
-1.57 -5.45 2.49
-1.46 -5.48 2.49
-1.35 -5.51 2.49
-1.24 -5.54 2.49
-1.13 -5.56 2.49
-1.01 -5.58 2.49
-0.90 -5.60 2.49
-0.79 -5.62 2.49
-0.68 -5.64 2.49
-0.56 -5.65 2.49
-0.45 -5.66 2.49
-0.33 -5.67 2.49
-0.22 -5.68 2.49
-0.11 -5.68 2.49
0.01 -5.35 2.49
0.11 -5.35 2.49
0.22 -5.35 2.49
0.33 -5.34 2.49
0.44 -5.34 2.49
0.54 -5.33 2.49
0.65 -5.32 2.49
0.76 -5.30 2.49
0.86 -5.29 2.49
0.97 -5.27 2.49
1.08 -5.25 2.49
1.18 -5.23 2.49
1.29 -5.20 2.49
1.39 -5.18 2.49
1.50 -5.15 2.49
1.60 -5.12 2.49
1.70 -5.09 2.49
1.80 -5.05 2.49
1.91 -5.02 2.49
2.01 -4.98 2.49
2.07 -4.84 2.45
2.11 -4.69 2.39
2.21 -4.65 2.39
2.30 -4.61 2.39
2.40 -4.56 2.39
2.49 -4.51 2.39
2.58 -4.46 2.39
2.67 -4.41 2.39
2.76 -4.36 2.39
2.84 -4.30 2.39
2.93 -4.25 2.39
3.01 -4.19 2.39
3.10 -4.13 2.39
3.18 -4.06 2.39
3.26 -4.00 2.39
3.34 -3.93 2.39
3.42 -3.87 2.39
3.50 -3.80 2.39
3.58 -3.73 2.39
3.65 -3.66 2.39
3.72 -3.58 2.39
3.80 -3.51 2.39
3.87 -3.43 2.39
3.94 -3.35 2.39
4.00 -3.28 2.39
4.07 -3.20 2.39
4.13 -3.11 2.39
4.20 -3.03 2.39
4.26 -2.95 2.39
4.32 -2.86 2.39
4.37 -2.77 2.39
4.43 -2.69 2.39
4.48 -2.60 2.39
4.53 -2.51 2.39
4.59 -2.42 2.39
4.63 -2.32 2.39
4.68 -2.23 2.39
4.72 -2.14 2.39
4.77 -2.04 2.39
4.81 -1.95 2.39
4.85 -1.85 2.39
4.88 -1.75 2.39
4.92 -1.66 2.39
4.95 -1.56 2.39
4.98 -1.46 2.39
5.01 -1.36 2.39
5.04 -1.26 2.39
5.07 -1.16 2.39
5.09 -1.05 2.39
5.11 -0.95 2.39
5.13 -0.85 2.39
5.14 -0.75 2.39
5.16 -0.64 2.39
5.17 -0.54 2.39
5.18 -0.44 2.39
5.19 -0.33 2.39
4.61 -0.20 2.12
5.20 -0.12 2.39
5.20 -0.02 2.39
5.20 0.08 2.39
5.20 0.19 2.39
5.20 0.29 2.39
5.19 0.40 2.39
5.18 0.50 2.39
5.17 0.61 2.39
5.16 0.71 2.39
4.69 0.74 2.18
4.63 0.83 2.16
5.11 1.02 2.39
5.09 1.12 2.39
5.07 1.22 2.39
5.04 1.32 2.39
5.01 1.42 2.39
4.99 1.52 2.39
4.95 1.62 2.39
4.92 1.72 2.39
4.89 1.82 2.39
4.85 1.92 2.39
4.81 2.02 2.39
4.77 2.11 2.39
4.73 2.21 2.39
4.68 2.30 2.39
4.63 2.40 2.39
4.58 2.49 2.39
4.53 2.58 2.39
4.48 2.67 2.39
4.43 2.76 2.39
4.37 2.85 2.39
4.31 2.93 2.39
4.25 3.02 2.39
4.19 3.11 2.39
4.13 3.19 2.39
4.07 3.27 2.39
4.00 3.35 2.39
3.93 3.43 2.39
3.86 3.51 2.39
3.79 3.59 2.39
3.72 3.66 2.39
3.64 3.74 2.39
3.57 3.81 2.39
3.49 3.88 2.39
3.41 3.95 2.39
3.33 4.01 2.39
3.25 4.08 2.39
3.17 4.14 2.39
3.08 4.21 2.39
3.00 4.27 2.39
2.91 4.33 2.39
2.83 4.38 2.39
2.74 4.44 2.39
2.65 4.49 2.39
2.56 4.55 2.39
2.47 4.60 2.39
2.37 4.64 2.39
2.28 4.69 2.39
2.27 4.91 2.48
2.18 4.98 2.49
2.08 5.02 2.49
1.98 5.06 2.49
1.88 5.10 2.49
1.77 5.14 2.49
1.67 5.17 2.49
1.56 5.20 2.49
1.46 5.23 2.49
1.35 5.26 2.49
1.25 5.29 2.49
1.14 5.31 2.49
1.04 5.33 2.49
0.93 5.35 2.49
0.82 5.37 2.49
0.71 5.38 2.49
0.60 5.39 2.49
0.50 5.41 2.49
0.39 5.41 2.49
0.28 5.42 2.49
0.17 5.42 2.49
0.06 5.42 2.49
-0.05 5.42 2.49
-0.16 5.42 2.49
-0.26 5.42 2.49
-0.37 5.41 2.49
-0.48 5.40 2.49
-0.59 5.39 2.49
-0.70 5.37 2.49
-0.80 5.36 2.49
-0.91 5.34 2.49
-1.02 5.32 2.49
-1.12 5.30 2.49
-1.23 5.27 2.49
-1.34 5.25 2.49
-1.44 5.22 2.49
-1.54 5.19 2.49
-1.65 5.15 2.49
-1.75 5.12 2.49
-1.85 5.08 2.49
-1.95 5.04 2.49
-2.05 5.00 2.49
-2.15 4.96 2.49
-2.25 4.91 2.49
-2.35 4.86 2.49
-2.45 4.82 2.49
-2.54 4.76 2.49
-2.64 4.71 2.49
-2.73 4.66 2.49
-2.82 4.60 2.49
-2.91 4.54 2.49
-3.00 4.48 2.49
-3.09 4.42 2.49
-3.18 4.36 2.49
-3.27 4.29 2.49
-3.35 4.22 2.49
-3.43 4.15 2.49
-3.52 4.08 2.49
-3.60 4.01 2.49
-3.67 3.94 2.49
-3.75 3.86 2.49
-3.83 3.78 2.49
-3.90 3.71 2.49
-3.98 3.63 2.49
-4.05 3.55 2.49
-4.12 3.46 2.49
-4.18 3.38 2.49
-4.25 3.29 2.49
-4.31 3.21 2.49
-4.38 3.12 2.49
-4.44 3.03 2.49
-4.50 2.94 2.49
-4.55 2.85 2.49
-4.61 2.76 2.49
-4.66 2.66 2.49
-4.72 2.57 2.49
-4.76 2.47 2.49
-4.81 2.37 2.49
-4.86 2.28 2.49
-4.90 2.18 2.49
-4.94 2.08 2.49
-4.98 1.98 2.49
-5.02 1.88 2.49
-5.06 1.78 2.49
-5.09 1.67 2.49
-5.12 1.57 2.49
-5.15 1.47 2.49
-5.18 1.36 2.49
-5.21 1.26 2.49
-5.23 1.15 2.49
-5.25 1.05 2.49
-5.27 0.94 2.49
-5.29 0.84 2.49
-5.30 0.73 2.49
-5.31 0.62 2.49
-5.32 0.52 2.49
-5.33 0.41 2.49
-5.34 0.30 2.49
-5.34 0.19 2.49
-5.35 0.09 2.49
-5.35 -0.02 2.49
-5.34 -0.13 2.49
-5.34 -0.24 2.49
-5.33 -0.34 2.49
-5.32 -0.45 2.49
-5.31 -0.56 2.49
-5.30 -0.66 2.49
-5.29 -0.77 2.49
-5.27 -0.88 2.49
-5.25 -0.98 2.49
-5.23 -1.09 2.49
-5.20 -1.19 2.49
-5.18 -1.30 2.49
-5.15 -1.40 2.49
-5.12 -1.50 2.49
-5.09 -1.60 2.49
-5.06 -1.71 2.49
-5.02 -1.81 2.49
-4.98 -1.91 2.49
-4.94 -2.01 2.49
-4.90 -2.11 2.49
-4.86 -2.20 2.49
-4.81 -2.30 2.49
-4.76 -2.40 2.49
-4.72 -2.49 2.49
-4.66 -2.59 2.49
-4.61 -2.68 2.49
-4.56 -2.77 2.49
-4.50 -2.86 2.49
-4.44 -2.95 2.49
-4.38 -3.04 2.49
-4.32 -3.13 2.49
-4.25 -3.22 2.49
-4.19 -3.30 2.49
-4.12 -3.38 2.49
-4.05 -3.47 2.49
-3.98 -3.55 2.49
-3.91 -3.63 2.49
-3.84 -3.70 2.49
-3.76 -3.78 2.49
-3.68 -3.86 2.49
-3.61 -3.93 2.49
-3.53 -4.00 2.49
-3.44 -4.07 2.49
-3.36 -4.14 2.49
-3.28 -4.21 2.49
-3.19 -4.27 2.49
-3.11 -4.33 2.49
-3.02 -4.40 2.49
-2.93 -4.46 2.49
-2.84 -4.52 2.49
-2.75 -4.57 2.49
-2.66 -4.63 2.49
-2.56 -4.68 2.49
-2.47 -4.73 2.49
-2.37 -4.78 2.49
-2.28 -4.83 2.49
-2.18 -4.87 2.49
-2.08 -4.91 2.49
-1.98 -4.96 2.49
-1.88 -5.00 2.49
-1.78 -5.03 2.49
-1.68 -5.07 2.49
-1.58 -5.10 2.49
-1.48 -5.13 2.49
-1.37 -5.16 2.49
-1.27 -5.19 2.49
-1.16 -5.21 2.49
-1.06 -5.24 2.49
-0.95 -5.26 2.49
-0.85 -5.28 2.49
-0.74 -5.29 2.49
-0.64 -5.31 2.49
-0.53 -5.32 2.49
-0.42 -5.33 2.49
-0.32 -5.34 2.49
-0.21 -5.34 2.49
-0.10 -5.35 2.49
0.01 -5.05 2.49
0.11 -5.05 2.49
0.21 -5.05 2.49
0.31 -5.04 2.49
0.41 -5.04 2.49
0.51 -5.03 2.49
0.62 -5.02 2.49
0.72 -5.00 2.49
0.82 -4.99 2.49
0.92 -4.97 2.49
1.02 -4.96 2.49
1.12 -4.93 2.49
1.22 -4.91 2.49
1.31 -4.89 2.49
1.41 -4.86 2.49
1.51 -4.83 2.49
1.61 -4.80 2.49
1.70 -4.77 2.49
1.80 -4.74 2.49
1.89 -4.70 2.49
1.99 -4.66 2.49
2.07 -4.60 2.48
2.09 -4.39 2.39
2.17 -4.35 2.39
2.27 -4.32 2.40
2.35 -4.26 2.39
2.43 -4.21 2.39
2.52 -4.16 2.39
2.60 -4.11 2.39
2.68 -4.06 2.39
2.76 -4.01 2.39
2.85 -3.95 2.39
2.92 -3.89 2.39
3.00 -3.83 2.39
3.08 -3.77 2.39
3.16 -3.71 2.39
3.23 -3.65 2.39
3.30 -3.58 2.39
3.38 -3.52 2.39
