ply
format ascii 1.0
element vertex 2753
property float32 x
property float32 y
property float32 z
end_header
-14.20 -3.27 -0.67
-14.35 -3.61 -0.68
-14.15 -3.86 -0.67
-14.04 -4.14 -0.67
-13.95 -4.41 -0.67
-12.34 -4.18 -0.59
-11.78 -4.26 -0.57
-11.66 -4.48 -0.56
-11.62 -4.73 -0.56
-11.57 -4.99 -0.56
-34.66 -15.77 -1.70
-34.63 -16.60 -1.71
-34.07 -17.18 -1.69
-34.56 -18.30 -1.73
-34.70 -19.28 -1.75
-35.43 -20.63 -1.80
-34.82 -21.22 -1.78
-34.03 -23.66 -1.79
-34.77 -25.23 -1.85
-34.43 -26.05 -1.85
-11.75 -9.27 -0.64
-11.58 -9.51 -0.64
-11.39 -9.75 -0.64
-11.22 -10.00 -0.63
-11.03 -10.24 -0.63
-34.40 -33.24 -2.00
-34.09 -34.29 -2.02
-26.22 -27.46 -1.58
-25.17 -27.43 -1.54
-24.15 -27.41 -1.50
-23.17 -27.38 -1.47
-22.22 -27.36 -1.44
-12.01 -15.40 -0.79
-11.46 -15.32 -0.77
-11.27 -15.72 -0.78
-21.07 -30.67 -1.49
-21.04 -31.98 -1.53
-20.44 -32.48 -1.53
-12.11 -20.12 -0.93
-11.49 -20.00 -0.91
-11.11 -20.26 -0.91
-20.84 -39.90 -1.76
-18.85 -37.92 -1.65
-11.37 -25.38 -1.07
-10.91 -25.72 -1.07
-11.10 -29.39 -1.19
-11.26 -31.74 -1.27
-10.70 -32.19 -1.28
-10.90 -35.15 -1.38
-13.69 -47.48 -1.84
-11.04 -41.40 -1.59
-10.28 -41.91 -1.59
-10.63 -47.45 -1.79
2.69 -8.08 -0.09
-22.09 43.31 -1.19
-19.92 37.19 -1.03
-20.86 37.13 -1.05
-21.81 37.07 -1.06
-18.43 29.93 -0.87
-18.28 28.39 -0.84
-18.48 27.48 -0.82
-19.28 27.46 -0.84
-20.10 27.44 -0.85
-20.57 26.93 -0.85
-20.54 25.80 -0.83
-20.52 24.73 -0.81
-21.16 24.49 -0.82
-22.01 24.47 -0.84
-22.90 24.44 -0.85
-6.23 6.39 -0.23
-24.77 24.40 -0.89
-20.51 19.41 -0.72
-20.23 18.39 -0.70
-20.27 17.69 -0.69
-18.52 15.52 -0.62
-18.49 14.87 -0.61
-18.46 14.25 -0.60
-18.64 13.80 -0.60
-19.11 13.56 -0.60
-19.78 13.45 -0.62
-20.36 13.26 -0.63
-20.35 12.67 -0.62
-20.34 12.11 -0.61
-20.32 11.55 -0.60
-20.31 11.01 -0.60
-20.30 10.48 -0.59
-20.75 10.19 -0.60
-21.80 10.17 -0.62
-22.93 10.14 -0.65
-24.16 10.11 -0.67
-25.51 10.08 -0.71
-27.00 10.05 -0.74
-19.70 3.09 -0.50
-19.67 2.68 -0.50
-19.65 2.28 -0.50
-19.62 1.87 -0.49
-19.59 1.48 -0.49
-19.57 1.08 -0.49
-19.55 0.68 -0.48
-19.52 0.29 -0.48
-19.50 -0.10 -0.48
-19.48 -0.49 -0.48
-19.46 -0.88 -0.48
-19.44 -1.27 -0.47
-19.42 -1.66 -0.47
-19.40 -2.05 -0.47
-19.39 -2.45 -0.47
-23.64 -3.47 -0.57
-21.61 -3.61 -0.52
-17.47 -3.28 -0.42
-15.95 -3.33 -0.38
-14.13 -3.25 -0.34
-14.54 -3.65 -0.35
-14.16 -3.86 -0.34
-14.11 -4.15 -0.34
-13.69 -4.33 -0.33
-13.74 -4.65 -0.33
-11.71 -4.23 -0.28
-11.67 -4.48 -0.28
-11.29 -4.59 -0.27
-11.28 -4.86 -0.27
-11.48 -5.22 -0.28
-34.57 -16.56 -0.84
-34.28 -17.28 -0.84
-35.11 -18.59 -0.86
-26.71 -14.83 -0.66
-26.74 -15.57 -0.66
-34.98 -21.31 -0.87
-34.63 -22.06 -0.86
-22.80 -15.18 -0.57
-34.08 -23.69 -0.86
-33.87 -24.56 -0.86
-34.48 -26.08 -0.88
-11.87 -9.36 -0.31
-11.49 -9.44 -0.30
-11.25 -9.63 -0.29
-11.13 -9.92 -0.29
-10.98 -10.18 -0.29
-34.51 -33.33 -0.93
-34.53 -34.72 -0.94
-26.23 -27.46 -0.72
-25.18 -27.43 -0.70
-24.16 -27.41 -0.68
-23.18 -27.38 -0.66
-22.23 -27.36 -0.64
-11.88 -15.24 -0.35
-11.44 -15.30 -0.34
-11.18 -15.60 -0.34
-21.07 -30.66 -0.65
-21.04 -31.97 -0.67
-20.45 -32.48 -0.66
-12.02 -19.96 -0.40
-11.40 -19.83 -0.39
-10.98 -20.02 -0.38
-20.84 -39.88 -0.74
-18.86 -37.92 -0.69
-11.36 -25.34 -0.44
-10.90 -25.69 -0.44
-11.66 -29.08 -0.49
-11.13 -29.47 -0.49
-11.27 -31.74 -0.51
-10.68 -32.13 -0.51
-10.85 -34.96 -0.55
-10.28 -35.64 -0.55
-10.96 -41.08 -0.62
-10.20 -41.56 -0.62
-10.60 -47.26 -0.69
2.69 -8.08 0.10
2.44 48.66 0.08
-22.10 43.31 -0.09
-22.06 41.17 -0.09
-22.03 39.21 -0.09
-14.19 24.11 -0.06
-14.97 24.30 -0.06
-15.62 24.26 -0.07
-16.10 23.94 -0.07
-16.52 23.53 -0.07
-16.82 22.95 -0.07
-16.79 21.98 -0.07
-20.54 25.80 -0.09
-20.52 24.73 -0.09
-21.16 24.49 -0.09
-22.06 24.51 -0.09
-22.90 24.44 -0.10
-6.23 6.39 -0.03
-24.82 24.45 -0.10
-20.51 19.41 -0.09
-20.49 18.63 -0.09
-20.48 17.87 -0.08
-19.05 15.97 -0.08
-20.44 16.45 -0.08
-20.32 15.68 -0.08
-18.88 13.98 -0.08
-20.26 14.38 -0.08
-20.38 13.86 -0.08
-20.36 13.26 -0.08
-20.35 12.67 -0.08
-20.34 12.11 -0.08
-20.32 11.55 -0.08
-20.31 11.01 -0.08
-20.30 10.48 -0.07
-20.75 10.19 -0.08
-21.80 10.17 -0.08
-22.93 10.14 -0.08
-24.16 10.11 -0.08
-25.51 10.08 -0.09
-21.48 3.37 -0.06
-21.47 2.93 -0.06
-21.40 2.48 -0.05
-21.50 2.06 -0.05
-21.38 1.61 -0.05
-21.43 1.18 -0.05
-21.42 0.75 -0.05
-19.93 0.30 -0.04
-21.34 -0.11 -0.04
-21.39 -0.54 -0.04
-21.37 -0.97 -0.04
-21.36 -1.40 -0.04
-21.35 -1.83 -0.04
-21.34 -2.26 -0.03
-21.33 -2.69 -0.03
-23.50 -3.44 -0.03
-21.42 -3.58 -0.03
-17.39 -3.27 -0.02
-16.24 -3.39 -0.02
-14.04 -3.23 -0.01
-14.23 -3.57 -0.01
-14.26 -3.89 -0.01
-14.10 -4.15 -0.01
-13.84 -4.37 -0.01
-11.89 -4.02 -0.00
-11.75 -4.24 -0.00
-11.55 -4.43 0.00
-11.49 -4.67 0.00
-11.44 -4.92 0.00
-11.77 -5.35 0.01
-34.45 -16.50 0.02
-34.21 -17.23 0.03
-35.16 -18.61 0.04
-26.71 -14.83 0.03
-35.10 -21.37 0.06
-29.91 -19.91 0.06
-29.33 -20.38 0.07
-28.75 -20.84 0.07
-34.64 -26.19 0.09
-11.93 -9.40 0.04
-11.60 -9.53 0.04
-11.37 -9.73 0.04
-11.25 -10.02 0.04
-11.08 -10.27 0.05
-11.03 -10.65 0.05
-34.45 -34.62 0.16
-26.28 -27.50 0.13
-25.22 -27.47 0.14
-24.17 -27.41 0.14
-23.19 -27.38 0.15
-22.24 -27.36 0.15
-11.89 -15.24 0.09
-11.44 -15.29 0.09
-11.24 -15.66 0.09
-11.18 -16.26 0.10
-21.10 -32.05 0.20
-20.45 -32.47 0.20
-11.85 -19.67 0.13
-11.44 -19.88 0.13
-10.99 -20.02 0.13
-20.91 -39.98 0.27
-18.87 -37.92 0.26
-11.38 -25.37 0.18
-10.91 -25.71 0.19
-11.77 -29.34 0.22
-11.08 -29.30 0.22
-11.30 -31.80 0.24
-10.66 -32.04 0.25
-10.83 -34.87 0.28
-13.63 -47.20 0.38
-11.02 -41.25 0.34
-10.23 -41.62 0.35
-10.61 -47.24 0.40
3.51 -43.73 1.46
7.29 -45.07 1.54
2.69 -8.08 0.30
24.82 -27.03 1.35
27.75 -26.79 1.42
30.02 -26.74 1.48
32.48 -26.68 1.55
35.17 -26.59 1.63
36.62 -26.55 1.68
38.16 -26.51 1.72
39.78 -26.48 1.77
28.61 -18.22 1.26
31.05 -18.07 1.33
34.00 -17.99 1.43
39.28 -17.85 1.60
41.33 -17.79 1.67
43.59 -17.73 1.74
46.07 -17.67 1.82
2.44 48.70 1.17
-20.43 44.35 1.02
-20.30 41.84 0.97
-20.25 39.68 0.92
-20.25 37.78 0.88
-22.03 39.20 0.92
-14.20 24.12 0.57
-14.97 24.30 0.58
-15.63 24.26 0.58
-16.11 23.93 0.58
-16.53 23.53 0.58
-16.82 22.95 0.57
-16.79 21.97 0.55
-20.61 25.87 0.66
-20.52 24.73 0.64
-21.16 24.49 0.64
-22.06 24.51 0.65
-22.90 24.44 0.66
-6.23 6.39 0.17
-24.82 24.45 0.68
-20.51 19.41 0.55
-20.49 18.63 0.54
-20.48 17.87 0.53
-20.46 17.15 0.52
-20.44 16.44 0.51
-20.38 15.73 0.50
-20.30 15.03 0.49
-20.30 14.41 0.48
-20.38 13.86 0.47
-20.36 13.26 0.47
-20.35 12.67 0.46
-20.34 12.11 0.46
-20.32 11.55 0.45
-20.31 11.01 0.44
-20.30 10.48 0.44
-20.75 10.20 0.45
-21.80 10.17 0.46
-22.93 10.14 0.48
-24.16 10.11 0.51
-25.51 10.08 0.53
-21.48 3.37 0.43
-21.47 2.93 0.43
-21.40 2.48 0.43
-21.50 2.06 0.43
-21.38 1.61 0.43
-21.43 1.19 0.43
-21.42 0.75 0.43
-19.93 0.30 0.41
-21.34 -0.11 0.44
-21.39 -0.53 0.44
-21.37 -0.96 0.44
-21.37 -1.39 0.44
-21.32 -1.82 0.45
-21.34 -2.26 0.45
-21.33 -2.69 0.45
-27.34 -4.00 0.58
-21.57 -3.60 0.47
-18.82 -3.53 0.41
-16.42 -3.43 0.36
-15.85 -3.64 0.35
-14.01 -3.51 0.31
-14.17 -3.86 0.32
-14.18 -4.17 0.33
-14.15 -4.47 0.33
-13.79 -4.66 0.32
-11.70 -4.22 0.28
-11.53 -4.42 0.28
-11.48 -4.67 0.28
-11.37 -4.89 0.28
-11.51 -5.23 0.29
-34.77 -16.65 0.89
-34.25 -17.25 0.89
-26.71 -14.82 0.72
-35.03 -21.33 0.98
-34.22 -23.77 1.02
-33.83 -24.52 1.02
-11.97 -9.43 0.38
-11.56 -9.49 0.37
-11.21 -9.58 0.37
-11.12 -9.90 0.38
-11.23 -10.41 0.39
-35.87 -34.62 1.28
-34.73 -34.89 1.27
-26.30 -27.50 0.99
-25.23 -27.47 0.98
-24.18 -27.41 0.96
-23.20 -27.38 0.95
-22.25 -27.36 0.94
-11.85 -15.19 0.52
-11.44 -15.28 0.52
-11.03 -15.37 0.52
-11.08 -16.12 0.54
-21.10 -32.04 1.06
-20.46 -32.46 1.07
-11.95 -19.83 0.65
-11.48 -19.95 0.65
-11.01 -20.06 0.65
-20.91 -39.96 1.29
-18.87 -37.91 1.22
-12.09 -25.56 0.82
-9.22 -20.56 0.66
-10.94 -25.76 0.82
-11.80 -29.41 0.93
-9.19 -24.31 0.77
-11.38 -32.02 1.01
-10.75 -32.29 1.02
-9.13 -29.36 0.93
-13.76 -47.62 1.50
-7.05 -26.37 0.83
-9.02 -36.67 1.16
-8.75 -38.93 1.23
-8.66 -42.51 1.34
-8.56 -46.78 1.48
-0.02 -45.18 2.49
0.89 -45.04 2.49
1.79 -44.89 2.49
2.68 -44.72 2.49
3.42 -42.70 2.39
4.14 -41.24 2.32
5.10 -42.31 2.39
5.94 -42.09 2.39
6.77 -41.86 2.39
7.15 -39.21 2.25
8.45 -27.24 1.63
2.69 -8.08 0.49
5.72 -16.13 0.98
10.27 -27.20 1.68
10.89 -27.18 1.69
11.52 -27.17 1.71
12.17 -27.15 1.72
12.82 -27.13 1.74
13.48 -27.12 1.76
14.16 -27.10 1.78
14.85 -27.08 1.80
15.56 -27.07 1.83
16.28 -27.05 1.85
17.02 -27.03 1.87
12.21 -18.56 1.30
12.72 -18.51 1.32
19.34 -26.97 1.95
17.12 -22.89 1.68
21.00 -26.93 2.02
15.12 -18.61 1.42
15.61 -18.44 1.43
23.69 -26.87 2.12
24.64 -26.85 2.16
25.63 -26.82 2.20
18.28 -18.38 1.54
23.18 -22.38 1.91
24.10 -22.36 1.95
20.54 -18.30 1.64
21.37 -18.28 1.67
22.23 -18.26 1.71
23.13 -18.23 1.75
24.08 -18.21 1.80
25.08 -18.19 1.85
26.14 -18.16 1.90
27.25 -18.13 1.95
28.43 -18.11 2.01
29.68 -18.07 2.07
31.01 -18.04 2.14
32.43 -18.01 2.21
33.96 -17.97 2.29
35.59 -17.93 2.38
37.35 -17.89 2.47
39.26 -17.84 2.57
41.33 -17.79 2.68
43.60 -17.73 2.80
46.08 -17.67 2.94
5.47 31.81 1.54
5.38 35.56 1.71
-0.35 33.27 1.54
-1.01 33.25 1.53
-9.90 38.58 1.77
-10.60 38.11 1.75
-10.47 34.89 1.61
-10.90 33.86 1.57
-11.51 33.45 1.56
-12.22 33.33 1.56
-13.00 33.35 1.57
-13.78 33.36 1.57
-14.56 33.34 1.58
-15.36 33.32 1.59
-16.17 33.30 1.60
-16.99 33.28 1.61
-17.83 33.26 1.63
-18.69 33.24 1.64
-14.20 24.12 1.20
-14.97 24.30 1.22
-15.63 24.26 1.23
-16.11 23.93 1.23
-13.85 19.72 1.03
-14.35 19.58 1.03
-14.96 19.58 1.05
-15.58 19.56 1.06
-16.22 19.55 1.08
-16.88 19.53 1.09
-17.56 19.51 1.11
-18.27 19.50 1.13
-6.23 6.39 0.38
-19.76 19.46 1.17
-20.51 19.41 1.19
-20.49 18.62 1.16
-20.48 17.87 1.14
-20.46 17.14 1.12
-20.44 16.44 1.10
-20.38 15.73 1.08
-20.30 15.03 1.06
-20.30 14.41 1.04
-20.38 13.86 1.03
-20.36 13.26 1.02
-20.35 12.67 1.00
-20.34 12.11 0.99
-20.32 11.55 0.98
-20.31 11.01 0.97
-20.30 10.48 0.95
-20.75 10.20 0.97
-21.80 10.17 1.01
-21.29 9.42 0.97
-21.94 9.18 1.00
-23.16 9.15 1.04
-24.65 9.18 1.10
-26.06 9.11 1.16
-21.16 3.32 0.91
-21.47 2.93 0.92
-21.40 2.48 0.92
-21.50 2.06 0.92
-21.38 1.62 0.91
-21.43 1.19 0.92
-21.36 0.75 0.92
-19.93 0.30 0.86
-21.34 -0.10 0.92
-21.39 -0.53 0.92
-21.38 -0.96 0.92
-21.38 -1.39 0.93
-21.32 -1.82 0.93
-21.34 -2.25 0.93
-20.18 -2.54 0.89
-19.46 -2.85 0.86
-15.87 -2.65 0.71
-21.30 -4.00 0.95
-16.32 -3.40 0.73
-15.93 -3.66 0.72
-15.69 -3.93 0.72
-14.00 -3.81 0.64
-14.00 -4.11 0.65
-13.94 -4.40 0.65
-34.51 -11.66 1.63
-11.46 -4.13 0.55
-11.57 -4.43 0.56
-11.48 -4.67 0.56
-11.34 -4.88 0.56
-11.39 -5.17 0.57
-36.28 -17.36 1.84
-34.30 -17.27 1.76
-36.24 -19.16 1.88
-26.71 -14.82 1.41
-36.19 -21.04 1.94
-34.95 -21.27 1.90
-25.76 -16.40 1.42
-24.96 -16.60 1.40
-24.54 -17.03 1.40
-24.10 -17.46 1.40
-36.04 -27.23 2.13
-11.97 -9.43 0.72
-11.62 -9.54 0.72
-11.38 -9.73 0.71
-11.21 -9.98 0.72
-11.09 -10.28 0.73
-33.44 -32.26 2.24
-32.67 -32.80 2.24
-26.27 -27.46 1.85
-9.47 -10.31 0.68
-24.19 -27.41 1.79
-23.21 -27.38 1.76
-22.26 -27.36 1.74
-9.51 -12.18 0.76
-9.39 -12.54 0.78
-11.11 -15.48 0.95
-9.47 -13.77 0.84
-9.43 -14.31 0.86
-20.26 -32.14 1.91
-12.05 -20.00 1.18
-9.39 -16.31 0.95
-9.39 -17.10 0.99
-17.66 -33.74 1.95
-9.25 -18.56 1.06
-17.05 -36.02 2.05
-9.20 -20.49 1.16
-9.17 -21.58 1.21
-9.14 -22.77 1.28
-9.11 -24.08 1.34
-9.07 -25.49 1.42
-9.05 -27.17 1.50
-9.03 -29.02 1.60
-8.98 -31.04 1.71
-7.00 -26.18 1.44
-8.86 -35.98 1.97
-8.75 -38.90 2.13
-7.88 -38.66 2.11
-8.01 -43.76 2.39
-7.11 -43.77 2.39
-6.21 -43.77 2.39
-3.21 -26.43 1.44
-2.67 -26.42 1.44
-2.13 -26.40 1.44
-2.76 -45.48 2.49
-1.84 -45.40 2.49
-0.93 -45.29 2.49
-0.02 -32.04 2.49
0.62 -31.97 2.49
1.26 -31.89 2.49
1.90 -31.80 2.49
2.53 -31.69 2.49
3.03 -30.27 2.39
3.54 -29.40 2.33
4.23 -30.01 2.39
4.82 -29.87 2.39
5.41 -29.72 2.39
6.00 -29.55 2.39
6.58 -29.37 2.39
7.44 -30.35 2.49
7.27 -27.27 2.25
7.82 -27.14 2.25
8.35 -26.93 2.25
2.68 -8.08 0.68
5.72 -16.13 1.37
7.04 -18.64 1.60
7.46 -18.63 1.61
7.93 -18.71 1.64
8.33 -18.60 1.64
8.78 -18.59 1.66
9.23 -18.57 1.68
9.70 -18.56 1.69
10.17 -18.55 1.71
10.65 -18.54 1.73
11.15 -18.53 1.76
11.65 -18.52 1.78
12.17 -18.50 1.80
12.70 -18.49 1.83
13.25 -18.48 1.85
13.81 -18.46 1.88
14.38 -18.45 1.91
14.98 -18.43 1.94
15.59 -18.42 1.97
16.22 -18.40 2.01
16.88 -18.39 2.04
17.55 -18.37 2.08
18.26 -18.35 2.12
18.99 -18.34 2.17
19.75 -18.32 2.21
20.54 -18.30 2.26
21.36 -18.28 2.31
22.23 -18.26 2.36
23.13 -18.23 2.42
24.08 -18.21 2.48
25.08 -18.19 2.55
26.14 -18.16 2.62
27.25 -18.13 2.69
28.43 -18.11 2.77
29.68 -18.07 2.86
31.01 -18.04 2.95
32.43 -18.01 3.05
33.96 -17.97 3.16
35.59 -17.93 3.28
37.36 -17.89 3.41
39.26 -17.84 3.55
41.34 -17.79 3.70
43.64 -17.75 3.87
48.87 -3.18 3.98
48.82 -2.19 3.97
49.22 -1.22 4.00
14.50 39.65 3.03
13.45 39.19 2.97
12.45 38.81 2.91
11.69 39.11 2.91
11.02 39.75 2.93
10.30 40.28 2.95
5.66 24.14 1.75
8.71 40.83 2.95
7.58 39.42 2.83
5.47 31.85 2.27
5.10 33.74 2.39
4.43 33.92 2.39
3.76 34.08 2.39
3.08 34.23 2.39
2.34 33.47 2.33
1.71 34.48 2.39
1.07 36.08 2.49
0.34 36.18 2.49
-0.34 31.89 2.19
-0.98 31.87 2.19
-1.68 33.07 2.27
-2.58 36.41 2.49
-3.32 36.43 2.49
-4.06 36.44 2.49
-4.80 36.43 2.49
-5.54 36.40 2.49
-6.28 36.35 2.49
-6.73 34.79 2.39
-7.45 34.72 2.39
-8.16 34.63 2.39
-8.87 34.53 2.39
-9.58 34.41 2.39
-10.28 34.27 2.39
-10.90 33.85 2.37
-11.52 33.45 2.35
-11.86 32.32 2.29
-12.35 31.67 2.25
-12.82 31.03 2.22
-13.44 30.76 2.22
-14.02 30.41 2.21
-14.76 30.40 2.23
-15.51 30.38 2.24
-10.55 19.69 1.47
-11.06 19.67 1.48
-11.58 19.66 1.50
-12.11 19.65 1.51
-12.65 19.63 1.53
-13.21 19.62 1.54
-13.78 19.61 1.56
-14.36 19.59 1.58
-14.97 19.58 1.60
-15.59 19.56 1.63
-16.22 19.55 1.65
-16.88 19.53 1.67
-17.57 19.51 1.70
-18.27 19.50 1.73
-6.23 6.39 0.58
-19.76 19.46 1.79
-20.51 19.41 1.82
-20.58 18.70 1.80
-20.57 17.95 1.76
-11.57 9.70 0.97
-11.77 9.47 0.97
-12.21 9.42 0.99
-12.71 9.41 1.02
-13.24 9.40 1.05
-13.84 9.41 1.08
-14.48 9.43 1.11
-15.06 9.38 1.14
-15.78 9.39 1.18
-16.50 9.38 1.22
-17.26 9.36 1.26
-18.02 9.31 1.31
-18.90 9.28 1.36
-19.84 9.26 1.41
-20.87 9.24 1.47
-21.99 9.21 1.54
-23.30 9.21 1.61
-24.65 9.18 1.70
-26.06 9.11 1.78
-33.01 10.80 2.24
-33.20 10.13 2.24
-33.37 9.46 2.24
-14.56 3.81 0.97
-14.68 3.53 0.98
-15.95 3.50 1.06
-17.71 3.52 1.17
-19.53 3.47 1.29
-21.48 3.37 1.41
-21.47 2.93 1.41
-20.02 2.33 1.31
-20.00 1.92 1.31
-21.44 1.62 1.40
-21.43 1.19 1.40
-19.97 0.71 1.31
-19.47 0.30 1.28
-21.40 -0.10 1.40
-21.39 -0.53 1.41
-21.38 -0.96 1.41
-21.37 -1.39 1.41
-21.32 -1.82 1.41
-21.34 -2.25 1.42
-20.48 -2.58 1.37
-18.57 -2.71 1.24
-15.89 -2.65 1.07
-13.87 -2.60 0.94
-12.88 -2.68 0.88
-11.66 -2.67 0.80
-15.74 -3.94 1.09
-9.81 -2.67 0.68
-14.06 -4.13 0.98
-31.78 -10.03 2.24
-12.27 -4.14 0.87
-11.74 -4.23 0.84
-11.47 -4.39 0.83
-11.35 -4.61 0.83
-11.64 -5.00 0.86
-9.60 -4.36 0.72
-9.59 -4.59 0.73
-29.27 -14.73 2.24
-28.91 -15.28 2.24
-26.71 -14.81 2.10
-9.67 -5.62 0.77
-9.67 -5.88 0.78
-27.34 -17.39 2.24
-9.54 -6.34 0.79
-26.50 -18.39 2.24
-23.89 -17.30 2.06
-9.63 -7.27 0.84
-12.15 -9.56 1.08
-7.49 -6.14 0.68
-7.30 -6.23 0.68
-7.29 -6.48 0.69
-11.15 -10.33 1.07
-22.78 -21.96 2.24
-9.57 -9.61 0.96
-21.77 -22.75 2.24
-9.48 -10.31 1.00
-20.74 -23.49 2.24
-20.21 -23.84 2.24
-9.52 -11.70 1.08
-9.51 -12.18 1.11
-9.39 -12.54 1.13
-9.55 -13.29 1.19
-9.37 -13.61 1.20
-9.35 -14.19 1.24
-9.34 -14.80 1.28
-9.32 -15.46 1.32
-9.30 -16.15 1.37
-9.29 -16.90 1.42
-9.27 -17.70 1.47
-9.25 -18.55 1.53
-9.22 -19.48 1.60
-9.20 -20.48 1.67
-9.17 -21.57 1.74
-9.14 -22.76 1.83
-9.11 -24.06 1.92
-9.07 -25.48 2.03
-9.05 -27.16 2.15
-9.03 -29.00 2.29
-8.80 -30.42 2.39
-7.05 -26.35 2.06
-7.54 -30.60 2.39
-6.91 -30.68 2.39
-6.28 -30.74 2.39
-5.64 -30.79 2.39
-5.08 -31.24 2.42
-3.78 -26.63 2.06
-3.12 -25.62 1.98
-2.60 -25.62 1.98
-2.08 -25.61 1.98
-1.77 -29.05 2.25
-1.31 -32.15 2.49
-0.66 -32.10 2.49
-0.02 -24.81 2.49
0.48 -24.76 2.49
0.97 -24.71 2.49
1.47 -24.65 2.49
1.96 -24.58 2.49
2.45 -24.50 2.49
2.82 -23.40 2.39
3.28 -23.31 2.39
3.74 -23.20 2.39
4.20 -23.09 2.39
4.66 -22.97 2.39
5.11 -22.84 2.39
5.56 -22.71 2.39
6.01 -22.56 2.39
6.45 -22.41 2.39
6.78 -21.88 2.35
2.68 -8.08 0.87
5.72 -16.13 1.76
7.03 -18.63 2.05
6.66 -16.63 1.85
7.89 -18.61 2.09
8.33 -18.60 2.11
8.78 -18.59 2.13
9.23 -18.57 2.15
9.70 -18.56 2.17
10.17 -18.55 2.19
10.65 -18.54 2.22
11.15 -18.53 2.25
11.65 -18.52 2.27
12.17 -18.50 2.30
12.70 -18.49 2.34
13.24 -18.48 2.37
13.80 -18.46 2.40
14.38 -18.45 2.44
14.97 -18.43 2.48
15.59 -18.42 2.52
16.22 -18.40 2.56
16.87 -18.39 2.61
17.55 -18.37 2.66
18.25 -18.35 2.71
18.98 -18.34 2.76
19.74 -18.32 2.82
20.54 -18.30 2.88
21.36 -18.28 2.95
22.23 -18.26 3.02
23.13 -18.23 3.09
24.08 -18.21 3.17
25.08 -18.19 3.25
26.14 -18.16 3.34
27.25 -18.13 3.44
28.43 -18.11 3.54
29.68 -18.07 3.65
31.01 -18.04 3.77
32.48 -18.04 3.90
34.39 -18.20 4.09
36.18 -18.22 4.25
38.11 -18.25 4.44
40.23 -18.28 4.64
42.55 -18.31 4.86
45.11 -18.35 5.11
49.52 -4.22 5.18
48.82 -3.17 5.09
48.51 -2.17 5.05
48.67 -1.20 5.06
14.21 29.35 3.11
13.31 28.97 3.03
12.54 28.80 2.98
12.22 29.67 3.04
5.88 15.14 1.54
11.48 31.42 3.16
10.84 31.61 3.15
10.04 31.30 3.09
9.22 30.86 3.03
8.32 30.05 2.92
7.16 28.03 2.71
6.26 26.72 2.56
5.34 25.08 2.39
4.85 25.22 2.39
4.35 25.36 2.39
3.85 25.49 2.39
3.34 25.61 2.39
2.83 25.72 2.39
2.32 25.81 2.39
1.80 25.90 2.39
1.34 27.10 2.49
0.80 27.17 2.49
0.25 27.23 2.49
-0.29 27.27 2.49
-0.84 27.31 2.49
-1.39 27.33 2.49
-1.94 27.34 2.49
-2.50 27.34 2.49
-3.05 27.33 2.49
-3.60 27.31 2.49
-4.16 27.27 2.49
-4.71 27.22 2.49
-5.26 27.17 2.49
-5.82 27.10 2.49
-6.37 27.01 2.49
-6.63 25.80 2.39
-7.16 25.70 2.39
-7.68 25.59 2.39
-8.21 25.46 2.39
-8.73 25.33 2.39
-9.24 25.18 2.39
-9.76 25.02 2.39
-10.27 24.85 2.39
-10.87 24.86 2.41
-11.37 24.65 2.41
-11.88 24.46 2.41
-10.40 20.35 2.02
-10.56 19.69 1.97
-11.06 19.67 1.99
-11.58 19.66 2.01
-12.11 19.65 2.03
-12.65 19.63 2.06
-13.21 19.62 2.08
-13.78 19.61 2.11
-14.17 19.32 2.10
-14.50 18.97 2.09
-14.82 18.60 2.08
-15.14 18.24 2.08
-16.33 18.89 2.19
-16.74 18.59 2.19
-17.14 18.28 2.19
-6.23 6.39 0.78
-9.92 9.77 1.22
-10.08 9.53 1.21
-10.48 9.52 1.24
-10.90 9.51 1.26
-11.34 9.50 1.29
-11.79 9.48 1.32
-12.28 9.48 1.35
-12.79 9.47 1.39
-13.32 9.45 1.42
-13.84 9.41 1.46
-14.48 9.43 1.50
-15.06 9.38 1.54
-15.78 9.39 1.60
-16.50 9.38 1.65
-17.26 9.36 1.71
-18.02 9.31 1.76
-18.89 9.28 1.83
-19.84 9.26 1.91
-20.87 9.24 1.99
-21.99 9.21 2.08
-23.30 9.21 2.18
-10.47 3.90 0.97
-10.55 3.69 0.97
-11.05 3.62 1.01
-11.87 3.62 1.08
-12.73 3.61 1.15
-13.78 3.61 1.24
-14.77 3.55 1.33
-16.05 3.52 1.44
-17.71 3.52 1.58
-19.53 3.47 1.74
-19.99 3.14 1.77
-19.56 2.67 1.73
-19.59 2.28 1.73
-19.58 1.88 1.73
-19.17 1.45 1.69
-19.94 1.11 1.76
-19.93 0.71 1.76
-19.17 0.30 1.69
-19.74 -0.09 1.74
-19.73 -0.49 1.74
-19.72 -0.88 1.75
-19.71 -1.28 1.75
-19.70 -1.68 1.75
-19.69 -2.07 1.76
-19.68 -2.47 1.76
-18.59 -2.72 1.67
-15.90 -2.65 1.44
-13.88 -2.60 1.26
-12.89 -2.68 1.18
-11.66 -2.67 1.07
-15.91 -3.98 1.47
-9.81 -2.67 0.91
-19.16 -5.62 1.79
-23.77 -7.50 2.24
-9.78 -3.30 0.93
-11.80 -4.25 1.13
-9.75 -3.73 0.94
-9.74 -3.96 0.95
-11.39 -4.89 1.12
-9.60 -4.36 0.96
-9.59 -4.58 0.97
-21.99 -11.06 2.24
-19.23 -10.16 1.98
-9.68 -5.37 1.01
-9.67 -5.62 1.02
-18.07 -10.99 1.94
-17.95 -11.41 1.95
-9.54 -6.34 1.05
-19.98 -13.86 2.24
-19.67 -14.24 2.24
-9.63 -7.27 1.12
-19.01 -14.96 2.24
-7.36 -6.03 0.88
-7.20 -6.15 0.88
-7.13 -6.34 0.89
-9.48 -8.78 1.21
-9.48 -9.13 1.23
-9.47 -9.50 1.26
-9.46 -9.88 1.28
-9.45 -10.27 1.31
-9.44 -10.69 1.34
-9.43 -11.12 1.38
-9.42 -11.57 1.41
-9.41 -12.04 1.45
-9.39 -12.53 1.49
-9.38 -13.05 1.53
-9.37 -13.60 1.57
-9.35 -14.18 1.62
-9.34 -14.80 1.67
-9.32 -15.45 1.73
-9.30 -16.15 1.79
-9.29 -16.89 1.85
-9.27 -17.69 1.92
-9.25 -18.54 2.00
-9.22 -19.47 2.08
-9.20 -20.47 2.18
-9.17 -21.56 2.27
-9.16 -22.79 2.39
-8.69 -22.93 2.39
-8.21 -23.06 2.39
-7.73 -23.18 2.39
-7.25 -23.29 2.39
-6.77 -23.38 2.39
-6.29 -23.47 2.39
-5.81 -23.55 2.39
-5.32 -23.62 2.39
-5.05 -24.71 2.49
-4.54 -24.76 2.49
-4.04 -24.81 2.49
-3.53 -24.84 2.49
-3.03 -24.86 2.49
-2.53 -24.88 2.49
-2.02 -24.88 2.49
-1.52 -24.88 2.49
-1.02 -24.86 2.49
-0.52 -24.84 2.49
-0.02 -20.22 2.49
0.39 -20.19 2.49
0.79 -20.15 2.49
1.19 -20.11 2.49
1.60 -20.06 2.49
2.00 -20.00 2.49
2.39 -19.93 2.49
2.69 -19.10 2.40
3.05 -18.95 2.39
3.36 -18.49 2.34
3.61 -17.82 2.27
4.18 -18.67 2.39
4.55 -18.56 2.39
4.91 -18.45 2.39
5.28 -18.33 2.39
5.64 -18.20 2.39
2.68 -8.08 1.07
5.73 -16.16 2.15
7.03 -18.63 2.50
6.65 -16.62 2.25
7.89 -18.61 2.55
8.33 -18.60 2.57
8.77 -18.59 2.59
9.23 -18.57 2.62
9.69 -18.56 2.65
10.17 -18.55 2.68
10.65 -18.54 2.71
11.14 -18.53 2.74
6.49 -10.32 1.55
12.17 -18.50 2.81
12.70 -18.49 2.85
13.24 -18.48 2.89
13.80 -18.46 2.93
14.38 -18.45 2.97
14.97 -18.43 3.02
15.59 -18.42 3.07
16.22 -18.40 3.12
16.87 -18.39 3.18
17.55 -18.37 3.24
18.25 -18.35 3.30
18.98 -18.34 3.37
19.74 -18.32 3.44
20.53 -18.30 3.51
21.36 -18.28 3.59
22.22 -18.26 3.67
23.13 -18.23 3.76
24.09 -18.22 3.86
25.16 -18.25 3.97
26.49 -18.41 4.12
27.69 -18.43 4.25
28.98 -18.46 4.39
30.35 -18.48 4.54
31.82 -18.51 4.71
33.40 -18.54 4.88
35.11 -18.58 5.08
37.16 -18.72 5.32
44.64 -21.38 6.33
49.06 -4.17 6.25
49.13 -3.19 6.25
49.35 -2.20 6.26
49.47 -1.21 6.27
49.43 -0.22 6.26
49.33 0.77 6.24
49.36 1.76 6.25
49.40 2.76 6.25
49.39 3.76 6.25
16.32 21.41 3.23
15.26 20.88 3.10
14.71 20.99 3.07
14.28 21.28 3.06
13.86 21.58 3.06
13.44 21.87 3.06
13.02 22.17 3.06
12.61 22.50 3.06
12.18 22.80 3.06
5.95 11.70 1.55
5.94 12.28 1.61
10.83 23.58 3.06
10.38 23.85 3.06
9.92 24.12 3.07
9.47 24.39 3.07
9.01 24.67 3.08
7.90 23.05 2.85
6.65 20.75 2.55
6.18 20.71 2.52
5.47 19.77 2.39
5.08 19.91 2.39
4.69 20.03 2.39
4.29 20.15 2.39
3.89 20.27 2.39
3.49 20.37 2.39
3.08 20.47 2.39
2.68 20.55 2.39
2.27 20.63 2.39
1.86 20.70 2.39
1.50 21.66 2.49
1.07 21.72 2.49
0.64 21.77 2.49
0.20 21.81 2.49
-0.24 21.84 2.49
-0.68 21.86 2.49
-1.12 21.87 2.49
-1.56 21.87 2.49
-2.00 21.86 2.49
-2.44 21.85 2.49
-2.88 21.82 2.49
-3.32 21.79 2.49
-3.76 21.74 2.49
-4.20 21.69 2.49
-4.64 21.63 2.49
-5.08 21.55 2.49
-5.52 21.47 2.49
-5.96 21.38 2.49
-6.36 21.16 2.48
-6.55 20.31 2.39
-6.96 20.18 2.39
-7.37 20.06 2.39
-7.78 19.93 2.39
-8.18 19.79 2.39
-8.59 19.64 2.39
-8.99 19.48 2.39
-9.38 19.31 2.39
-9.78 19.14 2.39
-10.17 18.96 2.39
-10.47 18.62 2.37
-10.53 17.87 2.30
-10.80 17.51 2.28
-11.05 17.15 2.26
-11.40 16.94 2.26
-11.88 16.91 2.29
-12.88 17.56 2.41
-12.32 16.11 2.24
-12.58 15.78 2.23
-12.82 15.45 2.21
-13.06 15.11 2.20
-13.30 14.77 2.19
-9.53 10.17 1.53
-6.23 6.38 0.98
-9.92 9.76 1.53
-10.08 9.53 1.53
-10.48 9.52 1.56
-10.90 9.51 1.59
-11.34 9.50 1.63
-11.79 9.48 1.66
-12.28 9.48 1.70
-12.79 9.47 1.75
-13.32 9.45 1.79
-13.84 9.41 1.84
-14.48 9.43 1.90
-15.06 9.38 1.95
-15.78 9.39 2.02
-16.50 9.38 2.08
-17.26 9.36 2.15
-18.02 9.31 2.23
-18.33 9.01 2.24
-18.51 8.64 2.24
-18.67 8.26 2.24
-18.83 7.89 2.24
-18.98 7.50 2.24
-10.05 3.74 1.18
-10.46 3.66 1.22
-11.22 3.67 1.30
-11.87 3.62 1.37
-12.73 3.61 1.46
-13.78 3.61 1.57
-14.77 3.55 1.67
-16.05 3.52 1.81
-17.70 3.52 1.99
-19.52 3.47 2.19
-19.99 3.14 2.23
-19.98 2.73 2.23
-19.97 2.32 2.22
-19.96 1.92 2.22
-19.07 1.45 2.12
-19.94 1.11 2.21
-19.12 0.68 2.12
-19.17 0.30 2.13
-19.28 -0.09 2.14
-19.27 -0.47 2.14
-19.26 -0.86 2.14
-19.25 -1.25 2.15
-19.24 -1.63 2.15
-19.23 -2.02 2.16
-15.92 -2.00 1.79
-16.21 -2.36 1.83
-15.92 -2.65 1.80
-13.89 -2.60 1.58
-12.32 -2.56 1.41
-11.17 -2.56 1.29
-10.24 -2.56 1.19
-9.81 -2.67 1.14
-19.11 -5.61 2.24
-18.98 -5.98 2.24
-16.19 -5.46 1.93
-9.88 -3.55 1.19
-9.75 -3.73 1.18
-9.71 -3.94 1.19
-9.62 -4.13 1.19
-9.60 -4.35 1.20
-9.59 -4.58 1.21
-9.58 -4.82 1.22
-9.58 -5.06 1.23
-9.57 -5.30 1.25
-9.56 -5.55 1.26
-9.56 -5.81 1.28
-9.55 -6.07 1.30
-9.54 -6.34 1.32
-9.55 -6.62 1.34
-9.53 -6.90 1.35
-9.52 -7.19 1.38
-9.52 -7.49 1.40
-7.36 -6.03 1.10
-7.20 -6.14 1.10
-7.12 -6.33 1.11
-9.49 -8.78 1.50
-9.48 -9.13 1.53
-9.47 -9.50 1.56
-9.46 -9.88 1.60
-9.45 -10.27 1.63
-9.44 -10.68 1.67
-9.43 -11.11 1.71
-9.42 -11.56 1.75
-9.41 -12.03 1.80
-9.39 -12.53 1.84
-9.38 -13.05 1.89
-9.37 -13.60 1.95
-9.35 -14.18 2.01
-9.34 -14.79 2.07
-9.32 -15.44 2.14
-9.31 -16.14 2.21
-9.29 -16.88 2.29
-9.31 -17.76 2.39
-8.94 -17.92 2.39
-8.57 -18.07 2.39
-8.19 -18.21 2.39
-7.81 -18.34 2.39
-7.43 -18.47 2.39
-7.05 -18.58 2.39
-6.66 -18.69 2.39
-6.28 -18.80 2.39
-5.89 -18.89 2.39
-5.50 -18.98 2.39
-5.33 -19.88 2.49
-4.92 -19.95 2.49
-4.52 -20.02 2.49
-4.11 -20.08 2.49
-3.70 -20.13 2.49
-3.29 -20.17 2.49
-2.88 -20.20 2.49
-2.47 -20.23 2.49
-2.06 -20.25 2.49
-1.65 -20.26 2.49
-1.24 -20.26 2.49
-0.83 -20.25 2.49
-0.43 -20.24 2.49
-0.02 -17.05 2.49
0.32 -17.03 2.49
0.66 -17.00 2.49
1.00 -16.96 2.49
1.34 -16.92 2.49
1.68 -16.88 2.49
2.02 -16.82 2.49
2.35 -16.76 2.49
2.61 -16.21 2.42
2.89 -15.93 2.39
3.05 -15.05 2.27
3.47 -15.52 2.35
3.64 -14.89 2.27
4.15 -15.59 2.39
4.46 -15.49 2.39
4.76 -15.39 2.39
2.68 -8.08 1.26
5.37 -15.16 2.39
5.67 -15.04 2.39
5.97 -14.91 2.39
6.26 -14.77 2.39
6.55 -14.63 2.39
7.74 -16.41 2.71
8.67 -17.45 2.91
9.69 -18.56 3.13
10.16 -18.55 3.16
6.53 -11.37 1.96
11.14 -18.53 3.24
11.65 -18.52 3.28
12.16 -18.50 3.32
6.48 -9.43 1.72
6.46 -9.02 1.66
13.80 -18.46 3.46
6.44 -8.27 1.57
6.45 -7.94 1.54
15.58 -18.42 3.63
16.22 -18.40 3.69
16.87 -18.39 3.75
17.55 -18.37 3.82
18.28 -18.38 3.90
19.05 -18.40 3.99
20.00 -18.56 4.11
20.85 -18.58 4.21
21.73 -18.60 4.31
22.67 -18.62 4.42
23.65 -18.64 4.54
24.68 -18.67 4.67
25.78 -18.70 4.80
26.95 -18.73 4.95
28.19 -18.76 5.11
29.64 -18.88 5.30
35.47 -21.60 6.26
40.07 -22.25 6.91
40.58 -21.47 6.92
48.89 -5.14 7.37
48.60 -4.13 7.31
48.80 -3.16 7.33
49.01 -2.18 7.35
49.09 -1.20 7.35
48.99 -0.21 7.33
48.93 0.77 7.32
48.99 1.76 7.32
49.03 2.75 7.33
48.98 3.73 7.33
49.09 4.73 7.35
48.83 5.70 7.32
48.63 6.67 7.31
48.57 7.66 7.32
48.55 8.66 7.33
48.44 9.65 7.34
16.66 15.80 3.31
15.11 14.93 3.06
14.81 15.22 3.06
14.49 15.51 3.05
14.16 15.78 3.04
13.84 16.06 3.04
13.53 16.35 3.04
13.21 16.63 3.04
12.88 16.91 3.04
12.55 17.18 3.03
12.21 17.43 3.03
6.02 8.97 1.54
6.02 9.37 1.58
11.17 18.18 3.03
10.75 18.32 3.01
10.30 18.40 2.99
9.87 18.49 2.96
9.44 18.57 2.94
5.94 12.28 1.92
8.38 18.25 2.83
7.74 17.80 2.73
7.12 17.32 2.63
5.88 15.15 2.28
6.47 17.73 2.64
5.53 16.16 2.39
5.22 16.29 2.39
4.89 16.41 2.39
4.57 16.53 2.39
4.24 16.63 2.39
3.91 16.74 2.39
3.58 16.83 2.39
3.25 16.92 2.39
2.77 16.17 2.27
2.53 16.80 2.35
2.16 16.61 2.31
1.89 17.21 2.39
1.61 18.01 2.49
1.25 18.06 2.49
0.89 18.11 2.49
0.53 18.14 2.49
0.16 18.17 2.49
-0.20 18.19 2.49
-0.57 18.20 2.49
-0.93 18.21 2.49
-1.30 18.21 2.49
-1.67 18.20 2.49
-2.03 18.18 2.49
-2.40 18.15 2.49
-2.77 18.12 2.49
-3.13 18.08 2.49
-3.50 18.03 2.49
-3.86 17.98 2.49
-4.23 17.91 2.49
-4.59 17.84 2.49
-4.95 17.76 2.49
-5.31 17.68 2.49
-5.67 17.58 2.49
-6.03 17.48 2.49
-6.26 17.03 2.44
-6.46 16.54 2.39
-6.79 16.42 2.39
-7.13 16.30 2.39
-7.46 16.16 2.39
-7.79 16.02 2.39
-8.11 15.88 2.39
-8.44 15.72 2.39
-8.76 15.56 2.39
-9.07 15.39 2.39
-9.38 15.22 2.39
-9.69 15.03 2.39
-10.00 14.85 2.39
-10.28 14.63 2.39
-10.51 14.33 2.37
-10.89 14.24 2.39
-11.26 14.12 2.41
-11.54 13.90 2.41
-11.82 13.67 2.41
-9.28 10.31 1.85
-9.46 10.09 1.84
-6.23 6.38 1.19
-9.92 9.76 1.85
-10.08 9.53 1.84
-10.48 9.52 1.88
-10.90 9.51 1.92
-11.34 9.50 1.96
-11.79 9.48 2.01
-12.28 9.48 2.06
-12.79 9.47 2.11
-13.32 9.45 2.17
-13.84 9.41 2.22
-14.48 9.43 2.29
-14.63 9.11 2.29
-14.75 8.78 2.28
-14.86 8.45 2.27
-14.96 8.11 2.26
-15.06 7.78 2.25
-15.17 7.46 2.24
-15.32 7.15 2.24
-15.46 6.84 2.24
-15.59 6.53 2.24
-15.09 5.97 2.15
-10.05 3.74 1.42
-10.46 3.66 1.47
-11.22 3.67 1.57
-11.87 3.62 1.65
-12.73 3.61 1.76
-13.78 3.61 1.89
-14.76 3.55 2.02
-16.04 3.52 2.18
-16.52 3.28 2.24
-16.58 2.95 2.24
-16.63 2.61 2.24
-16.67 2.28 2.24
-16.70 1.94 2.24
-16.73 1.61 2.24
-16.75 1.27 2.24
-16.76 0.94 2.24
-16.76 0.60 2.24
-15.96 0.25 2.14
-15.96 -0.07 2.14
-15.94 -0.39 2.14
-15.92 -0.71 2.14
-15.90 -1.03 2.14
-15.86 -1.35 2.14
-16.60 -1.74 2.24
-16.07 -2.02 2.18
-13.21 -1.93 1.80
-13.12 -2.18 1.79
-13.90 -2.60 1.91
-12.32 -2.56 1.70
-11.18 -2.56 1.55
-10.25 -2.56 1.43
-9.81 -2.66 1.38
-9.70 -2.84 1.37
-9.68 -3.05 1.38
-9.67 -3.26 1.38
-9.66 -3.47 1.39
-9.64 -3.69 1.40
-9.63 -3.91 1.41
-9.62 -4.13 1.43
-9.60 -4.35 1.44
-9.59 -4.58 1.45
-9.58 -4.82 1.47
-9.58 -5.06 1.48
-9.57 -5.30 1.50
-9.56 -5.55 1.52
-9.56 -5.81 1.54
-9.55 -6.07 1.56
-9.54 -6.34 1.58
-9.56 -6.62 1.60
-9.53 -6.89 1.62
-9.52 -7.18 1.65
-9.52 -7.48 1.67
-7.36 -6.03 1.32
-7.20 -6.14 1.31
-7.12 -6.33 1.32
-9.49 -8.78 1.80
-9.48 -9.13 1.83
-9.47 -9.49 1.87
-9.46 -9.87 1.91
-9.45 -10.27 1.95
-9.44 -10.68 1.99
-9.43 -11.11 2.04
-9.42 -11.56 2.09
-9.41 -12.03 2.14
-9.39 -12.52 2.20
-9.38 -13.04 2.26
-9.37 -13.59 2.33
-9.33 -14.13 2.39
-9.03 -14.30 2.39
-8.73 -14.46 2.39
-8.43 -14.61 2.39
-8.12 -14.76 2.39
-7.81 -14.90 2.39
-7.50 -15.03 2.39
-7.19 -15.16 2.39
-6.88 -15.28 2.39
-6.56 -15.40 2.39
-6.24 -15.51 2.39
-5.92 -15.61 2.39
-5.60 -15.71 2.39
-5.44 -16.29 2.46
-5.17 -16.56 2.49
-4.83 -16.64 2.49
-4.49 -16.72 2.49
-4.14 -16.78 2.49
-3.80 -16.84 2.49
-3.46 -16.89 2.49
-3.12 -16.94 2.49
-2.77 -16.98 2.49
-2.43 -17.01 2.49
-2.08 -17.04 2.49
-1.74 -17.06 2.49
-1.39 -17.07 2.49
-1.05 -17.07 2.49
-0.70 -17.07 2.49
-0.36 -17.06 2.49
-0.02 -14.72 2.49
0.28 -14.71 2.49
0.57 -14.69 2.49
0.87 -14.66 2.49
1.16 -14.62 2.49
1.45 -14.59 2.49
1.74 -14.54 2.49
2.03 -14.49 2.49
2.32 -14.43 2.49
2.55 -14.07 2.44
2.77 -13.71 2.39
2.89 -12.96 2.27
3.19 -13.04 2.30
3.47 -13.03 2.31
3.86 -13.41 2.39
4.12 -13.32 2.39
2.67 -8.06 1.46
4.65 -13.12 2.39
4.91 -13.02 2.39
5.16 -12.91 2.39
5.42 -12.79 2.39
5.67 -12.67 2.39
5.92 -12.55 2.39
6.17 -12.42 2.39
6.41 -12.28 2.39
7.72 -14.09 2.77
6.52 -11.36 2.26
11.14 -18.53 3.73
11.64 -18.52 3.78
12.16 -18.50 3.83
12.71 -18.51 3.88
6.46 -9.02 1.92
13.86 -18.54 4.01
6.45 -8.28 1.82
15.19 -18.71 4.18
15.84 -18.72 4.25
16.51 -18.74 4.33
17.20 -18.75 4.41
17.93 -18.77 4.50
6.40 -6.43 1.58
6.39 -6.17 1.54
20.30 -18.83 4.81
21.16 -18.86 4.92
22.07 -18.89 5.05
23.02 -18.92 5.18
24.19 -19.07 5.35
30.02 -22.70 6.54
30.00 -21.76 6.44
31.23 -21.70 6.61
35.09 -22.35 7.23
35.47 -21.60 7.22
40.07 -22.25 7.97
40.58 -21.47 7.98
48.77 -6.12 8.51
48.41 -5.09 8.43
48.24 -4.09 8.38
48.46 -3.13 8.40
48.67 -2.16 8.42
48.66 -1.19 8.41
48.57 -0.21 8.39
48.57 0.77 8.38
48.63 1.75 8.39
48.63 2.73 8.40
48.58 3.71 8.39
48.56 4.69 8.40
48.24 5.64 8.36
48.12 6.61 8.35
48.06 7.59 8.36
47.99 8.57 8.37
47.88 9.54 8.38
47.70 10.51 8.38
47.50 11.47 8.37
47.38 12.45 8.39
47.23 13.43 8.40
47.07 14.42 8.42
16.93 8.77 3.24
16.44 8.94 3.17
16.12 9.19 3.14
15.94 9.52 3.14
15.55 9.72 3.10
15.20 9.93 3.07
14.99 10.22 3.06
14.76 10.51 3.05
14.54 10.79 3.05
14.31 11.08 3.04
14.08 11.36 3.04
13.86 11.65 3.04
13.62 11.92 3.04
13.38 12.20 3.03
13.14 12.47 3.03
12.91 12.75 3.03
12.66 13.02 3.03
12.42 13.29 3.03
12.16 13.56 3.03
6.07 7.04 1.55
11.62 14.04 3.03
11.33 14.27 3.03
6.05 7.95 1.66
10.72 14.67 3.01
10.38 14.82 2.99
10.03 14.96 2.98
9.71 15.12 2.97
9.38 15.27 2.96
8.98 15.31 2.93
8.50 15.19 2.87
5.97 11.19 2.09
7.59 14.93 2.75
5.94 12.29 2.24
6.89 15.02 2.71
5.82 13.39 2.39
5.56 13.52 2.39
5.29 13.64 2.39
5.02 13.76 2.39
4.75 13.88 2.39
4.47 13.98 2.39
4.20 14.09 2.39
3.92 14.18 2.39
3.64 14.27 2.39
3.35 14.36 2.39
2.91 13.70 2.27
2.74 14.28 2.35
2.37 13.86 2.27
2.20 14.65 2.39
1.91 14.70 2.39
1.69 15.39 2.49
1.38 15.44 2.49
1.07 15.48 2.49
0.76 15.51 2.49
0.45 15.54 2.49
0.14 15.56 2.49
-0.18 15.57 2.49
-0.49 15.58 2.49
-0.80 15.59 2.49
-1.12 15.58 2.49
-1.43 15.57 2.49
-1.74 15.55 2.49
-2.06 15.53 2.49
-2.37 15.50 2.49
-2.68 15.46 2.49
-2.99 15.42 2.49
-3.31 15.37 2.49
-3.62 15.31 2.49
-3.93 15.25 2.49
-4.23 15.18 2.49
-4.54 15.10 2.49
-4.85 15.02 2.49
-5.15 14.93 2.49
-5.45 14.84 2.49
-5.75 14.74 2.49
-6.05 14.63 2.49
-6.19 14.14 2.43
-6.39 13.84 2.40
-6.65 13.68 2.39
-6.93 13.55 2.39
-7.20 13.42 2.39
-7.47 13.28 2.39
-7.74 13.13 2.39
-8.01 12.98 2.39
-8.27 12.83 2.39
-8.53 12.66 2.39
-8.79 12.50 2.39
-9.04 12.32 2.39
-9.29 12.15 2.39
-9.54 11.96 2.39
-9.78 11.77 2.39
-10.02 11.58 2.39
-9.33 10.36 2.17
-9.47 10.10 2.16
-6.21 6.36 1.39
-9.92 9.76 2.17
-10.08 9.53 2.16
-10.48 9.52 2.21
-10.90 9.51 2.25
-11.34 9.50 2.30
-11.79 9.48 2.36
-12.24 9.44 2.41
-12.42 9.20 2.41
-12.61 8.95 2.41
-12.79 8.69 2.41
-12.96 8.44 2.41
-13.12 8.17 2.41
-13.23 7.88 2.40
-13.34 7.58 2.39
-13.44 7.29 2.38
-13.53 6.99 2.37
-13.63 6.70 2.36
-12.72 5.94 2.19
-12.82 5.67 2.18
-12.91 5.41 2.18
-12.99 5.14 2.17
-10.05 3.74 1.67
-10.46 3.66 1.73
-11.22 3.67 1.84
-11.87 3.62 1.93
-12.73 3.61 2.06
-13.78 3.61 2.22
-14.33 3.45 2.30
-14.37 3.16 2.30
-14.40 2.86 2.29
-14.43 2.57 2.29
-14.46 2.28 2.29
-14.48 1.98 2.28
-14.50 1.69 2.28
-14.51 1.40 2.28
-14.52 1.10 2.28
-14.53 0.81 2.28
-14.53 0.52 2.28
-13.96 0.22 2.19
-13.95 -0.06 2.19
-13.94 -0.34 2.19
-13.93 -0.62 2.19
-13.91 -0.90 2.19
-13.89 -1.18 2.19
-13.86 -1.45 2.19
-14.39 -1.80 2.28
-13.19 -1.92 2.10
-13.11 -2.18 2.10
-13.92 -2.60 2.23
-12.33 -2.56 1.99
-11.19 -2.56 1.81
-10.25 -2.56 1.67
-9.81 -2.66 1.61
-9.70 -2.84 1.60
-9.68 -3.05 1.61
-9.67 -3.26 1.62
-9.66 -3.47 1.63
-9.64 -3.69 1.64
-9.63 -3.91 1.65
-9.62 -4.13 1.67
-9.60 -4.35 1.68
-9.59 -4.58 1.70
-9.58 -4.81 1.71
-9.58 -5.05 1.73
-9.57 -5.30 1.75
-9.56 -5.55 1.77
-9.56 -5.80 1.79
-9.55 -6.07 1.82
-9.54 -6.33 1.84
-9.56 -6.62 1.87
-9.53 -6.89 1.89
-9.52 -7.18 1.92
-9.52 -7.48 1.95
-7.36 -6.03 1.54
-7.20 -6.14 1.53
-7.12 -6.33 1.54
-9.49 -8.77 2.09
-9.48 -9.12 2.13
-9.47 -9.49 2.18
-9.46 -9.87 2.22
-9.45 -10.26 2.27
-9.44 -10.67 2.32
-9.48 -11.17 2.39
-9.25 -11.34 2.39
-9.01 -11.52 2.39
-8.77 -11.68 2.39
-8.52 -11.84 2.39
-8.27 -12.00 2.39
-8.02 -12.15 2.39
-7.77 -12.29 2.39
-7.51 -12.43 2.39
-7.25 -12.56 2.39
-6.99 -12.69 2.39
-6.73 -12.82 2.39
-6.46 -12.93 2.39
-6.19 -13.05 2.39
-5.92 -13.15 2.39
-5.65 -13.26 2.39
-5.51 -13.67 2.45
-5.32 -14.02 2.49
-5.03 -14.11 2.49
-4.75 -14.19 2.49
-4.45 -14.27 2.49
-4.16 -14.34 2.49
-3.87 -14.41 2.49
-3.58 -14.47 2.49
-3.28 -14.52 2.49
-2.99 -14.57 2.49
-2.69 -14.61 2.49
-2.39 -14.65 2.49
-2.10 -14.68 2.49
-1.80 -14.70 2.49
-1.50 -14.72 2.49
-1.21 -14.73 2.49
-0.91 -14.74 2.49
-0.61 -14.74 2.49
-0.31 -14.74 2.49
-0.02 -12.95 2.49
0.24 -12.93 2.49
0.50 -12.92 2.49
0.76 -12.89 2.49
1.02 -12.86 2.49
1.27 -12.83 2.49
1.53 -12.79 2.49
1.79 -12.75 2.49
2.04 -12.70 2.49
2.29 -12.65 2.49
2.51 -12.43 2.46
2.69 -12.07 2.40
2.85 -11.67 2.33
3.10 -11.68 2.35
3.34 -11.61 2.35
3.44 -11.13 2.27
2.67 -8.06 1.65
4.09 -11.56 2.39
4.32 -11.46 2.39
4.55 -11.37 2.39
4.77 -11.27 2.39
4.99 -11.16 2.39
5.21 -11.05 2.39
5.43 -10.94 2.39
5.65 -10.82 2.39
5.86 -10.70 2.39
6.07 -10.58 2.39
6.28 -10.45 2.39
7.67 -12.20 2.83
12.41 -18.88 4.43
6.49 -9.46 2.25
6.46 -9.02 2.18
14.14 -18.92 4.64
14.75 -18.93 4.72
15.38 -18.95 4.80
16.04 -18.97 4.89
16.73 -18.99 4.98
17.44 -19.01 5.08
18.18 -19.04 5.18
19.05 -19.16 5.32
6.40 -5.94 1.72
6.39 -5.69 1.69
25.52 -21.84 6.62
6.36 -4.81 1.57
6.35 -4.61 1.55
31.23 -21.70 7.50
35.09 -22.35 8.20
35.46 -21.60 8.19
40.07 -22.24 9.04
40.58 -21.47 9.05
45.66 -17.50 9.64
47.69 -8.93 9.54
48.50 -7.08 9.63
48.33 -6.06 9.57
46.78 -4.91 9.24
47.18 -4.00 9.30
48.12 -3.11 9.46
48.32 -2.15 9.49
48.23 -1.17 9.46
48.15 -0.20 9.44
48.21 0.77 9.45
48.27 1.74 9.46
48.23 2.71 9.45
48.18 3.68 9.45
47.97 4.64 9.42
47.51 5.56 9.35
47.47 6.52 9.36
47.43 7.49 9.37
47.35 8.46 9.38
47.25 9.42 9.39
47.12 10.39 9.40
46.98 11.35 9.41
46.89 12.33 9.43
46.73 13.30 9.45
46.57 14.27 9.46
46.35 15.23 9.47
46.13 16.19 9.48
45.89 17.15 9.50
17.09 6.78 3.56
16.55 6.95 3.47
16.13 7.16 3.41
15.73 7.37 3.36
15.32 7.55 3.30
14.94 7.75 3.25
14.57 7.93 3.20
14.25 8.13 3.16
13.97 8.34 3.13
13.69 8.55 3.10
13.41 8.76 3.08
13.15 8.97 3.06
12.98 9.24 3.06
12.81 9.51 3.06
12.62 9.78 3.06
12.44 10.04 3.06
12.23 10.29 3.05
6.11 5.35 1.55
6.10 5.57 1.58
11.58 11.00 3.04
6.10 6.03 1.63
6.09 6.26 1.66
6.09 6.52 1.70
10.69 11.92 3.04
10.45 12.13 3.04
10.19 12.33 3.03
9.93 12.52 3.02
9.67 12.70 3.02
9.40 12.88 3.01
9.12 13.04 3.00
8.55 12.76 2.90
7.99 12.46 2.79
7.47 12.17 2.69
7.03 12.00 2.62
6.76 12.08 2.60
6.49 12.16 2.59
5.77 11.37 2.39
5.55 11.49 2.39
5.32 11.61 2.39
5.10 11.73 2.39
4.86 11.84 2.39
4.63 11.95 2.39
4.39 12.05 2.39
4.15 12.15 2.39
3.91 12.24 2.39
3.67 12.33 2.39
3.43 12.41 2.39
3.18 12.49 2.39
2.90 12.42 2.36
2.63 12.41 2.35
2.37 12.40 2.34
2.18 12.75 2.39
1.92 12.81 2.39
1.74 13.41 2.49
1.47 13.45 2.49
1.20 13.49 2.49
0.93 13.53 2.49
0.66 13.55 2.49
0.39 13.58 2.49
0.12 13.59 2.49
-0.16 13.60 2.49
-0.43 13.61 2.49
-0.70 13.61 2.49
-0.98 13.61 2.49
-1.25 13.59 2.49
-1.52 13.58 2.49
-1.80 13.56 2.49
-2.07 13.53 2.49
-2.34 13.49 2.49
-2.61 13.45 2.49
-2.89 13.41 2.49
-3.16 13.36 2.49
-3.43 13.30 2.49
-3.70 13.24 2.49
-3.96 13.17 2.49
-4.23 13.10 2.49
-4.49 13.02 2.49
-4.76 12.94 2.49
-5.02 12.85 2.49
-5.28 12.75 2.49
-5.54 12.65 2.49
-5.79 12.55 2.49
-6.05 12.43 2.49
-6.14 12.00 2.43
-6.28 11.69 2.39
-6.51 11.57 2.39
-6.75 11.44 2.39
-6.98 11.31 2.39
-7.21 11.17 2.39
-7.43 11.03 2.39
-7.66 10.89 2.39
-7.88 10.73 2.39
-8.09 10.58 2.39
-8.31 10.42 2.39
-8.52 10.25 2.39
-8.72 10.08 2.39
-8.93 9.91 2.39
-9.13 9.73 2.39
-6.21 6.36 1.59
-9.51 9.36 2.39
-9.70 9.17 2.39
-9.89 8.98 2.39
-10.07 8.78 2.39
-10.31 8.64 2.41
-10.48 8.43 2.41
-10.65 8.22 2.41
-10.82 8.01 2.41
-10.98 7.79 2.41
-11.13 7.57 2.41
-11.28 7.34 2.41
-11.43 7.12 2.41
-11.57 6.89 2.41
-11.70 6.65 2.41
-11.19 6.07 2.27
-11.27 5.82 2.27
-11.35 5.58 2.26
-11.43 5.33 2.25
-11.50 5.09 2.25
-11.57 4.85 2.24
-11.64 4.60 2.24
-10.05 3.74 1.92
-10.46 3.66 1.98
-11.22 3.67 2.11
-11.87 3.62 2.22
-12.73 3.61 2.37
-13.00 3.41 2.41
-13.04 3.14 2.40
-13.08 2.87 2.40
-13.11 2.61 2.40
-13.14 2.34 2.39
-13.17 2.07 2.39
-13.19 1.81 2.39
-13.20 1.54 2.39
-13.22 1.27 2.38
-13.23 1.01 2.38
-13.23 0.74 2.38
-12.55 0.45 2.26
-12.55 0.20 2.26
-12.55 -0.05 2.26
-12.54 -0.30 2.26
-12.53 -0.56 2.26
-12.51 -0.81 2.26
-12.49 -1.06 2.26
-12.47 -1.31 2.26
-12.44 -1.56 2.26
-13.08 -1.90 2.39
-13.05 -2.17 2.39
-13.01 -2.43 2.39
-12.34 -2.56 2.28
-11.19 -2.56 2.08
-10.26 -2.56 1.92
-9.81 -2.66 1.84
-9.70 -2.84 1.83
-9.68 -3.05 1.84
-9.67 -3.26 1.86
-9.66 -3.47 1.87
-9.64 -3.69 1.88
-9.63 -3.90 1.89
-9.62 -4.12 1.91
-9.60 -4.35 1.92
-9.59 -4.58 1.94
-9.58 -4.81 1.96
-9.58 -5.05 1.98
-9.57 -5.30 2.00
-9.56 -5.55 2.03
-9.56 -5.80 2.05
-9.55 -6.06 2.08
-9.54 -6.33 2.11
-9.54 -6.61 2.14
-9.53 -6.89 2.17
-9.52 -7.18 2.20
-9.52 -7.48 2.23
-7.36 -6.03 1.76
-7.20 -6.14 1.75
-7.12 -6.33 1.76
-9.47 -8.76 2.39
-9.29 -8.94 2.39
-9.10 -9.11 2.39
-8.90 -9.29 2.39
-8.71 -9.45 2.39
-8.51 -9.62 2.39
-8.31 -9.78 2.39
-8.10 -9.93 2.39
-7.89 -10.08 2.39
-7.68 -10.23 2.39
-7.47 -10.37 2.39
-7.25 -10.51 2.39
-7.03 -10.64 2.39
-6.81 -10.77 2.39
-6.58 -10.89 2.39
-6.36 -11.01 2.39
-6.13 -11.13 2.39
-5.90 -11.24 2.39
-5.67 -11.34 2.39
-5.55 -11.70 2.44
-5.42 -12.03 2.49
-5.17 -12.13 2.49
-4.92 -12.22 2.49
-4.67 -12.30 2.49
-4.42 -12.38 2.49
-4.17 -12.46 2.49
-3.91 -12.53 2.49
-3.66 -12.59 2.49
-3.40 -12.65 2.49
-3.14 -12.70 2.49
-2.88 -12.75 2.49
-2.62 -12.79 2.49
-2.36 -12.83 2.49
-2.10 -12.87 2.49
-1.84 -12.89 2.49
-1.58 -12.92 2.49
-1.32 -12.93 2.49
-1.06 -12.95 2.49
-0.80 -12.95 2.49
-0.54 -12.96 2.49
-0.28 -12.95 2.49
-0.02 -11.54 2.49
0.21 -11.53 2.49
0.44 -11.51 2.49
0.67 -11.50 2.49
0.91 -11.47 2.49
1.13 -11.44 2.49
1.36 -11.41 2.49
1.59 -11.37 2.49
1.82 -11.33 2.49
2.04 -11.28 2.49
2.27 -11.23 2.49
2.48 -11.12 2.48
2.60 -10.66 2.39
2.82 -10.60 2.39
2.87 -10.00 2.27
3.18 -10.29 2.35
2.67 -8.06 1.85
3.46 -9.79 2.27
3.85 -10.23 2.39
4.06 -10.15 2.39
4.26 -10.06 2.39
4.46 -9.97 2.39
4.65 -9.87 2.39
4.85 -9.77 2.39
5.04 -9.67 2.39
5.23 -9.56 2.39
5.42 -9.45 2.39
5.61 -9.33 2.39
5.79 -9.21 2.39
5.97 -9.09 2.39
6.15 -8.97 2.39
6.33 -8.84 2.39
7.64 -10.22 2.81
15.06 -19.34 5.39
6.45 -7.95 2.25
6.45 -7.63 2.20
19.58 -22.23 6.52
20.15 -21.97 6.57
20.96 -21.95 6.69
6.40 -5.94 1.93
24.84 -22.14 7.34
25.52 -21.84 7.41
37.82 -29.83 10.63
30.02 -22.70 8.30
30.00 -21.76 8.18
6.35 -4.42 1.71
35.09 -22.35 9.18
35.46 -21.60 9.16
40.07 -22.24 10.11
6.32 -3.35 1.58
6.32 -3.18 1.56
6.31 -3.02 1.54
44.94 -17.23 10.62
46.15 -8.64 10.34
45.87 -7.63 10.23
43.49 -6.34 9.67
43.28 -5.42 9.59
45.03 -4.73 9.96
44.85 -3.80 9.90
44.65 -2.88 9.83
44.58 -1.97 9.80
44.63 -1.08 9.80
44.87 -0.18 9.85
45.61 0.73 10.01
46.63 1.69 10.23
46.72 2.63 10.26
47.18 3.61 10.37
46.65 4.51 10.26
46.75 5.48 10.30
46.72 6.43 10.32
46.76 7.39 10.35
46.70 8.35 10.37
46.66 9.31 10.39
46.55 10.27 10.40
46.48 11.24 10.43
46.41 12.21 10.46
46.24 13.17 10.47
18.14 5.56 4.13
16.99 5.59 3.89
16.49 5.79 3.80
16.00 5.98 3.71
15.53 6.16 3.63
15.04 6.33 3.54
14.60 6.49 3.47
14.20 6.66 3.40
13.81 6.81 3.34
13.45 6.97 3.28
13.20 7.18 3.25
6.18 3.53 1.54
6.15 3.68 1.55
6.15 3.84 1.56
12.24 8.00 3.15
12.03 8.21 3.14
11.82 8.42 3.12
11.61 8.63 3.11
6.12 4.74 1.66
11.18 9.03 3.09
10.94 9.20 3.07
10.70 9.37 3.05
10.45 9.53 3.03
10.20 9.69 3.01
10.00 9.88 3.01
6.09 6.26 1.87
9.64 10.33 3.02
9.46 10.55 3.02
9.27 10.77 3.03
8.88 10.75 2.97
8.33 10.50 2.85
7.80 10.26 2.74
7.31 10.02 2.63
7.02 10.03 2.60
6.81 10.16 2.59
6.59 10.28 2.59
5.90 9.63 2.39
5.72 9.75 2.39
5.52 9.87 2.39
5.33 9.99 2.39
5.13 10.11 2.39
4.93 10.22 2.39
4.73 10.32 2.39
4.53 10.42 2.39
4.32 10.52 2.39
4.11 10.62 2.39
3.90 10.71 2.39
3.69 10.79 2.39
3.47 10.87 2.39
3.26 10.95 2.39
3.04 11.02 2.39
2.82 11.09 2.39
2.60 11.15 2.39
2.38 11.21 2.39
2.15 11.27 2.39
1.94 11.38 2.40
1.78 11.86 2.49
1.54 11.90 2.49
1.30 11.94 2.49
1.06 11.97 2.49
0.82 12.00 2.49
0.58 12.02 2.49
0.34 12.04 2.49
0.10 12.06 2.49
-0.14 12.07 2.49
-0.38 12.07 2.49
-0.63 12.07 2.49
-0.87 12.06 2.49
-1.11 12.05 2.49
-1.35 12.04 2.49
-1.59 12.02 2.49
-1.84 11.99 2.49
-2.08 11.96 2.49
-2.32 11.92 2.49
-2.56 11.88 2.49
-2.80 11.84 2.49
-3.04 11.79 2.49
-3.28 11.73 2.49
-3.51 11.67 2.49
-3.75 11.60 2.49
-3.98 11.53 2.49
-4.21 11.46 2.49
-4.45 11.38 2.49
-4.68 11.29 2.49
-4.90 11.20 2.49
-5.13 11.11 2.49
-5.35 11.01 2.49
-5.58 10.90 2.49
-5.80 10.80 2.49
-6.02 10.68 2.49
-6.09 10.33 2.44
-6.18 10.01 2.39
-6.38 9.89 2.39
-6.58 9.76 2.39
-6.78 9.63 2.39
-6.97 9.50 2.39
-7.16 9.36 2.39
-7.35 9.22 2.39
-7.54 9.07 2.39
-7.72 8.92 2.39
-7.90 8.77 2.39
-8.07 8.61 2.39
-6.21 6.36 1.80
-8.42 8.28 2.39
-8.58 8.12 2.39
-8.75 7.94 2.39
-8.91 7.77 2.39
-9.06 7.59 2.39
-9.21 7.41 2.39
-9.36 7.22 2.39
-9.50 7.03 2.39
-9.64 6.84 2.39
-9.78 6.65 2.39
-9.91 6.45 2.39
-9.99 6.22 2.38
-10.08 6.00 2.37
-10.17 5.78 2.36
-10.25 5.56 2.36
-10.33 5.34 2.35
-10.40 5.11 2.34
-10.48 4.89 2.34
-10.54 4.67 2.33
-10.61 4.44 2.32
-10.67 4.22 2.32
-10.05 3.74 2.17
-10.46 3.66 2.24
-11.22 3.67 2.39
-11.37 3.47 2.41
-11.44 3.25 2.41
-11.50 3.01 2.41
-11.55 2.78 2.41
-11.60 2.55 2.41
-11.65 2.32 2.41
-11.69 2.08 2.41
-11.73 1.85 2.41
-11.76 1.61 2.41
-11.78 1.37 2.41
-11.80 1.14 2.41
-11.82 0.90 2.41
-11.83 0.66 2.41
-11.40 0.41 2.32
-11.40 0.18 2.32
-11.40 -0.05 2.32
-11.39 -0.27 2.32
-11.38 -0.50 2.32
-11.36 -0.73 2.32
-11.34 -0.96 2.32
-11.32 -1.19 2.32
-11.29 -1.41 2.32
-11.67 -1.70 2.41
-11.62 -1.93 2.41
-11.58 -2.16 2.41
-11.52 -2.39 2.41
-11.20 -2.56 2.35
-10.27 -2.56 2.17
-9.81 -2.66 2.08
-9.70 -2.84 2.07
-9.68 -3.05 2.08
-9.67 -3.26 2.09
-9.66 -3.47 2.11
-9.64 -3.68 2.12
-9.63 -3.90 2.14
-9.62 -4.12 2.15
-9.60 -4.35 2.17
-9.59 -4.57 2.19
-9.58 -4.81 2.21
-9.58 -5.05 2.23
-9.57 -5.29 2.26
-9.56 -5.54 2.29
-9.56 -5.80 2.31
-9.55 -6.06 2.34
-9.54 -6.33 2.37
-9.47 -6.56 2.39
-9.33 -6.74 2.39
-9.19 -6.92 2.39
-9.04 -7.10 2.39
-7.36 -6.03 1.98
-7.20 -6.14 1.97
-7.12 -6.32 1.99
-8.41 -7.77 2.39
-8.25 -7.94 2.39
-8.08 -8.09 2.39
-7.91 -8.25 2.39
-7.74 -8.40 2.39
-7.56 -8.54 2.39
-7.38 -8.68 2.39
-7.20 -8.82 2.39
-7.01 -8.96 2.39
-6.83 -9.09 2.39
-6.64 -9.21 2.39
-6.44 -9.34 2.39
-6.25 -9.46 2.39
-6.05 -9.57 2.39
-5.86 -9.68 2.39
-5.65 -9.79 2.39
-5.59 -10.14 2.45
-5.47 -10.42 2.49
-5.26 -10.52 2.49
-5.04 -10.62 2.49
-4.82 -10.71 2.49
-4.60 -10.79 2.49
-4.38 -10.87 2.49
-4.16 -10.95 2.49
-3.94 -11.02 2.49
-3.71 -11.09 2.49
-3.48 -11.15 2.49
-3.26 -11.21 2.49
-3.03 -11.26 2.49
-2.80 -11.31 2.49
-2.57 -11.35 2.49
-2.34 -11.39 2.49
-2.11 -11.43 2.49
-1.88 -11.46 2.49
-1.65 -11.49 2.49
-1.41 -11.51 2.49
-1.18 -11.52 2.49
-0.95 -11.54 2.49
-0.72 -11.54 2.49
-0.48 -11.55 2.49
-0.25 -11.55 2.49
-0.02 -10.40 2.49
0.19 -10.39 2.49
0.40 -10.38 2.49
0.61 -10.36 2.49
0.81 -10.34 2.49
1.02 -10.32 2.49
1.23 -10.29 2.49
1.43 -10.25 2.49
1.64 -10.22 2.49
1.84 -10.17 2.49
2.04 -10.13 2.49
2.25 -10.08 2.49
2.45 -10.03 2.49
2.54 -9.56 2.39
2.73 -9.50 2.39
2.79 -9.02 2.28
2.67 -8.06 2.05
3.24 -9.15 2.35
3.37 -8.96 2.32
3.47 -8.69 2.27
3.84 -9.08 2.39
4.02 -8.99 2.39
4.20 -8.91 2.39
4.37 -8.82 2.39
4.55 -8.72 2.39
4.72 -8.63 2.39
4.89 -8.53 2.39
5.06 -8.42 2.39
5.23 -8.32 2.39
5.39 -8.21 2.39
5.55 -8.09 2.39
5.71 -7.98 2.39
5.87 -7.86 2.39
6.02 -7.74 2.39
6.18 -7.61 2.39
6.33 -7.48 2.39
7.58 -8.61 2.80
20.15 -21.97 7.28
6.41 -6.71 2.27
6.40 -6.18 2.17
6.40 -5.94 2.13
24.84 -22.15 8.13
25.52 -21.84 8.21
34.54 -28.39 10.92
6.38 -5.03 1.98
30.01 -22.70 9.20
30.00 -21.76 9.06
6.35 -4.42 1.89
37.34 -24.85 10.96
35.08 -22.35 10.17
6.34 -3.86 1.82
38.44 -22.37 10.87
39.85 -22.13 11.14
6.33 -3.35 1.75
43.66 -20.90 11.83
43.95 -19.96 11.80
44.24 -19.03 11.77
44.48 -18.08 11.73
44.63 -17.11 11.68
44.75 -16.13 11.62
44.87 -15.16 11.57
44.93 -14.18 11.51
44.97 -13.20 11.44
44.94 -12.22 11.37
44.84 -11.22 11.28
6.27 -1.44 1.57
6.27 -1.30 1.56
6.27 -1.17 1.56
6.27 -1.04 1.55
6.26 -0.91 1.54
6.26 -0.78 1.54
6.27 -0.66 1.54
43.37 -3.67 10.60
43.35 -2.79 10.58
43.38 -1.92 10.57
43.40 -1.04 10.56
43.60 -0.17 10.60
43.86 0.71 10.66
44.36 1.61 10.79
44.94 2.54 10.93
45.58 3.49 11.10
45.89 4.45 11.19
46.01 5.39 11.24
46.06 6.34 11.27
46.10 7.30 11.31
46.09 8.25 11.34
6.23 1.24 1.54
6.21 1.37 1.54
6.20 1.50 1.54
6.20 1.63 1.55
6.20 1.77 1.56
6.19 1.90 1.56
6.19 2.04 1.57
15.01 5.27 3.84
14.56 5.45 3.75
14.12 5.61 3.66
13.75 5.79 3.59
13.40 5.96 3.53
13.01 6.10 3.45
12.64 6.24 3.39
6.16 3.20 1.67
12.15 6.61 3.32
6.16 3.52 1.70
11.67 6.98 3.26
11.46 7.17 3.24
11.26 7.36 3.22
6.14 4.20 1.78
10.69 7.62 3.14
10.41 7.74 3.10
6.12 4.75 1.85
9.93 8.02 3.04
9.71 8.17 3.02
6.12 5.36 1.94
6.11 5.58 1.97
8.80 8.36 2.88
8.38 8.29 2.80
6.09 6.27 2.07
6.09 6.53 2.12
7.24 8.08 2.57
7.12 8.28 2.59
6.07 7.34 2.25
6.83 8.62 2.60
6.59 8.66 2.57
5.97 8.18 2.39
5.81 8.31 2.39
5.64 8.43 2.39
5.48 8.55 2.39
5.31 8.66 2.39
5.14 8.77 2.39
4.97 8.88 2.39
4.79 8.99 2.39
4.61 9.09 2.39
4.43 9.19 2.39
4.25 9.28 2.39
4.07 9.37 2.39
3.88 9.46 2.39
3.69 9.54 2.39
3.50 9.62 2.39
3.31 9.70 2.39
2.96 9.27 2.27
2.78 9.34 2.27
2.73 9.90 2.39
2.53 9.96 2.39
2.33 10.02 2.39
2.15 10.15 2.41
1.96 10.27 2.43
1.81 10.61 2.49
1.59 10.65 2.49
1.38 10.69 2.49
1.17 10.72 2.49
0.95 10.75 2.49
0.74 10.77 2.49
0.52 10.79 2.49
0.31 10.81 2.49
0.09 10.82 2.49
-0.13 10.83 2.49
-0.35 10.83 2.49
-0.56 10.83 2.49
-0.78 10.82 2.49
-1.00 10.81 2.49
-1.22 10.80 2.49
-1.43 10.78 2.49
-1.65 10.75 2.49
-1.87 10.73 2.49
-2.08 10.69 2.49
-2.30 10.66 2.49
-2.51 10.61 2.49
-2.73 10.57 2.49
-2.94 10.52 2.49
-3.15 10.46 2.49
-3.36 10.40 2.49
-3.57 10.34 2.49
-3.78 10.27 2.49
-3.99 10.20 2.49
-4.19 10.12 2.49
-4.40 10.04 2.49
-4.60 9.96 2.49
-4.80 9.87 2.49
-5.00 9.77 2.49
-5.20 9.67 2.49
-5.39 9.57 2.49
-5.58 9.47 2.49
-5.78 9.36 2.49
-5.96 9.24 2.49
-6.06 8.99 2.46
-6.07 8.63 2.39
-6.26 8.53 2.40
-6.42 8.39 2.39
-6.59 8.26 2.39
-6.75 8.13 2.39
-6.92 7.99 2.39
-7.08 7.85 2.39
-7.23 7.71 2.39
-6.21 6.36 2.01
-7.54 7.42 2.39
-7.69 7.27 2.39
-7.83 7.11 2.39
-7.98 6.96 2.39
-8.12 6.80 2.39
-8.25 6.63 2.39
-8.38 6.47 2.39
-8.51 6.30 2.39
-8.64 6.13 2.39
-8.76 5.95 2.39
-8.88 5.78 2.39
-8.99 5.60 2.39
-9.10 5.42 2.39
-9.21 5.23 2.39
-9.31 5.05 2.39
-9.41 4.86 2.39
-9.51 4.67 2.39
-9.60 4.48 2.39
-9.68 4.29 2.39
-9.77 4.09 2.39
-9.85 3.89 2.39
-9.92 3.70 2.39
-10.06 3.52 2.41
-10.12 3.32 2.41
-10.19 3.11 2.41
-10.25 2.91 2.41
-10.30 2.70 2.41
-10.35 2.49 2.41
-10.39 2.29 2.41
-10.44 2.08 2.41
-10.47 1.87 2.41
-10.50 1.66 2.41
-10.53 1.44 2.41
-10.56 1.23 2.41
-10.57 1.02 2.41
-10.59 0.81 2.41
-10.60 0.60 2.41
-10.43 0.38 2.37
-10.43 0.17 2.37
-10.43 -0.04 2.37
-10.42 -0.25 2.37
-10.41 -0.46 2.37
-10.40 -0.67 2.37
-10.38 -0.88 2.37
-10.36 -1.08 2.37
-10.34 -1.29 2.37
-10.31 -1.50 2.37
-10.42 -1.73 2.41
-10.38 -1.94 2.41
-10.33 -2.14 2.41
-10.28 -2.35 2.41
-10.23 -2.55 2.41
-9.81 -2.66 2.32
-9.70 -2.84 2.31
-9.68 -3.04 2.32
-9.67 -3.25 2.33
-9.66 -3.47 2.35
-9.64 -3.68 2.37
-9.66 -3.91 2.39
-9.58 -4.10 2.39
-9.49 -4.29 2.39
-9.39 -4.48 2.39
-9.29 -4.66 2.39
-9.19 -4.84 2.39
-9.09 -5.02 2.39
-8.98 -5.20 2.39
-8.86 -5.38 2.39
-8.75 -5.55 2.39
-8.63 -5.72 2.39
-8.51 -5.89 2.39
-8.38 -6.05 2.39
-8.25 -6.21 2.39
-8.12 -6.37 2.39
-7.43 -6.08 2.22
