ply
format ascii 1.0
element vertex 2902
property float32 x
property float32 y
property float32 z
end_header
6.96 32.47 2.39
6.30 32.57 2.39
5.64 32.65 2.39
4.97 32.72 2.39
4.24 32.23 2.35
3.65 32.81 2.39
3.11 34.26 2.49
2.42 34.27 2.49
1.73 34.28 2.49
1.04 34.26 2.49
0.35 34.24 2.49
-0.33 34.20 2.49
-1.02 34.14 2.49
-1.37 27.37 2.00
-1.91 27.33 2.01
-2.50 27.69 2.04
-3.01 27.23 2.01
-4.41 33.67 2.49
-4.87 32.15 2.39
-5.50 32.01 2.39
-6.14 31.85 2.39
-6.77 31.69 2.39
-7.40 31.51 2.39
-8.02 31.32 2.39
-6.72 24.20 1.86
-9.20 30.74 2.38
-9.89 30.80 2.40
-10.53 30.64 2.41
-8.79 24.02 1.90
-8.79 22.60 1.81
-8.83 21.42 1.73
-8.87 20.34 1.66
-8.91 19.36 1.59
-8.94 18.45 1.53
-8.97 17.60 1.48
-9.00 16.82 1.43
-9.03 16.08 1.38
-9.06 15.40 1.34
-9.08 14.75 1.30
-9.10 14.14 1.27
-9.12 13.57 1.23
-9.14 13.03 1.20
-9.16 12.51 1.17
-17.97 23.53 2.24
-9.30 11.69 1.13
-18.42 22.21 2.18
-9.23 10.69 1.07
-9.35 10.40 1.06
-20.19 21.56 2.24
-11.05 11.34 1.20
-11.41 11.24 1.22
-11.71 11.09 1.23
-9.31 8.47 0.96
-18.65 16.29 1.89
-19.14 16.05 1.91
-9.45 7.61 0.93
-23.22 17.94 2.24
-9.48 7.02 0.90
-9.38 6.66 0.88
-9.47 6.45 0.88
-7.44 4.84 0.68
-7.41 4.62 0.67
-7.52 4.48 0.67
-11.46 6.51 1.01
-11.50 6.24 1.01
-9.56 4.94 0.83
-9.46 4.65 0.81
-9.52 4.45 0.81
-25.56 11.31 2.15
-25.54 10.70 2.13
-9.60 3.79 0.80
-27.24 10.14 2.24
-9.61 3.36 0.79
-9.62 3.15 0.78
-9.62 2.94 0.78
-9.53 2.70 0.77
-9.54 2.50 0.76
-9.63 2.31 0.77
-9.64 2.11 0.76
-9.65 1.91 0.76
-6.02 1.07 0.47
-9.68 1.52 0.76
-11.58 1.58 0.91
-11.36 1.32 0.89
-11.51 1.10 0.90
-9.60 0.72 0.75
-9.61 0.53 0.75
-28.89 1.02 2.24
-21.74 0.33 1.69
-21.76 -0.11 1.69
-21.77 -0.55 1.69
-21.79 -0.98 1.69
-21.81 -1.42 1.70
-21.82 -1.87 1.70
-21.84 -2.31 1.70
-21.86 -2.76 1.71
-21.87 -3.21 1.72
-9.72 -1.63 0.77
-9.73 -1.83 0.77
-11.60 -2.42 0.92
-11.65 -2.68 0.93
-9.87 -2.48 0.79
-9.87 -2.69 0.79
-9.87 -2.90 0.80
-9.89 -3.13 0.80
-21.54 -7.29 1.76
-9.90 -3.57 0.82
-9.81 -3.76 0.81
-9.92 -4.04 0.83
-11.78 -5.07 0.99
-11.76 -5.34 1.00
-11.71 -5.61 1.00
-18.49 -9.32 1.60
-22.19 -11.75 1.94
-10.09 -5.60 0.89
-9.88 -5.75 0.88
-22.26 -13.56 2.01
-12.26 -7.81 1.12
-12.01 -7.99 1.11
-10.04 -6.98 0.94
-11.81 -8.56 1.12
-10.06 -7.61 0.97
-9.96 -7.85 0.98
-22.54 -18.51 2.24
-10.10 -8.64 1.02
-21.80 -19.43 2.24
-10.13 -9.40 1.06
-10.03 -9.68 1.07
-20.64 -20.75 2.24
-20.23 -21.17 2.24
-19.81 -21.59 2.24
-10.26 -11.64 1.19
-10.07 -11.90 1.19
-10.09 -12.42 1.22
-10.11 -12.97 1.25
-10.14 -13.56 1.29
-10.16 -14.17 1.33
-10.18 -14.82 1.37
-10.21 -15.52 1.41
-10.24 -16.26 1.46
-10.27 -17.06 1.51
-10.30 -17.92 1.57
-10.33 -18.84 1.63
-10.37 -19.84 1.69
-10.41 -20.94 1.77
-10.45 -22.13 1.85
-11.74 -26.19 2.17
-11.95 -28.16 2.31
-11.52 -28.76 2.33
-11.09 -29.37 2.36
-10.64 -29.98 2.39
-10.04 -30.21 2.39
-9.44 -30.44 2.39
-8.84 -30.66 2.39
-8.23 -30.86 2.39
-7.62 -31.05 2.39
-7.00 -31.24 2.39
-6.66 -32.76 2.49
-6.00 -32.92 2.49
-5.35 -33.07 2.49
-4.69 -33.21 2.49
-4.02 -33.34 2.49
-3.36 -33.45 2.49
-2.69 -33.55 2.49
-2.02 -33.63 2.49
-1.34 -33.71 2.49
-0.67 -33.77 2.49
0.01 -25.86 2.49
0.53 -25.88 2.49
1.05 -25.88 2.49
1.51 -24.81 2.39
1.94 -23.93 2.31
2.38 -23.51 2.27
3.00 -24.74 2.39
3.50 -24.70 2.39
4.00 -24.65 2.39
4.50 -24.58 2.39
5.00 -24.51 2.39
6.13 -27.26 2.67
8.48 -34.46 3.39
9.35 -34.95 3.45
5.55 -19.20 1.90
11.26 -36.21 3.61
16.15 -1.71 1.49
20.32 -1.74 1.87
24.51 -1.60 2.25
24.54 -1.11 2.25
24.56 -0.62 2.25
24.57 -0.12 2.25
24.57 0.37 2.25
24.56 0.86 2.25
24.54 1.36 2.25
24.51 1.85 2.25
23.53 2.25 2.17
20.49 2.38 1.89
16.53 2.25 1.53
17.11 2.68 1.59
24.20 4.29 2.25
24.10 4.78 2.25
24.00 5.26 2.25
23.89 5.74 2.25
23.77 6.22 2.25
23.25 6.58 2.22
21.77 6.64 2.09
8.93 2.92 0.86
19.27 6.73 1.87
18.20 6.77 1.78
17.23 6.81 1.70
16.43 6.87 1.64
15.58 6.89 1.57
15.01 7.00 1.52
12.35 7.02 1.31
8.12 5.06 0.88
7.92 5.15 0.87
7.82 5.32 0.87
7.87 5.58 0.89
19.97 33.90 3.68
18.22 32.40 3.48
17.36 32.38 3.44
16.52 32.35 3.40
15.70 32.33 3.37
6.87 14.91 1.54
14.12 32.33 3.31
13.40 32.42 3.30
6.99 17.94 1.81
7.05 19.22 1.93
10.95 31.79 3.17
9.68 30.06 2.98
8.39 27.95 2.75
6.79 24.39 2.39
6.29 24.50 2.39
5.79 24.60 2.39
5.29 24.69 2.39
4.79 24.77 2.39
4.12 23.84 2.29
3.59 23.63 2.27
3.28 24.95 2.39
2.90 26.07 2.49
2.37 26.09 2.49
1.85 26.11 2.49
1.32 26.12 2.49
0.80 26.12 2.49
0.27 26.11 2.49
-0.25 26.08 2.49
-0.77 26.05 2.49
-1.30 26.01 2.49
-1.82 25.95 2.49
-2.33 25.89 2.49
-2.85 25.81 2.49
-3.37 25.73 2.49
-3.88 25.63 2.49
-4.39 25.52 2.49
-4.83 25.09 2.46
-5.18 24.24 2.39
-5.66 24.11 2.39
-6.13 23.97 2.39
-6.61 23.82 2.39
-7.08 23.66 2.39
-7.54 23.49 2.39
-8.01 23.31 2.39
-8.47 23.13 2.39
-8.79 22.61 2.36
-8.83 21.42 2.25
-8.87 20.35 2.16
-8.91 19.36 2.08
-8.94 18.45 2.00
-8.97 17.61 1.93
-9.00 16.82 1.86
-9.03 16.09 1.80
-9.06 15.40 1.75
-9.08 14.75 1.70
-9.10 14.15 1.65
-9.12 13.57 1.60
-9.14 13.03 1.56
-9.16 12.52 1.52
-9.18 12.03 1.49
-9.20 11.56 1.45
-9.22 11.12 1.42
-9.23 10.69 1.39
-9.25 10.28 1.36
-9.26 9.89 1.34
-9.28 9.52 1.31
-9.29 9.16 1.29
-9.30 8.81 1.27
-9.31 8.47 1.24
-9.33 8.15 1.23
-9.34 7.83 1.21
-9.35 7.53 1.19
-9.47 7.32 1.19
-9.48 7.02 1.17
-9.38 6.66 1.14
-9.47 6.45 1.14
-7.28 4.74 0.86
-7.29 4.54 0.85
-7.40 4.41 0.86
-7.62 4.33 0.87
-11.71 6.35 1.33
-9.56 4.94 1.07
-9.46 4.65 1.05
-9.52 4.45 1.05
-20.56 9.10 2.24
-20.73 8.68 2.24
-9.60 3.80 1.03
-21.05 7.84 2.24
-9.61 3.36 1.02
-21.33 6.98 2.24
-9.63 2.94 1.01
-9.53 2.70 0.99
-9.54 2.50 0.99
-21.79 5.24 2.24
-9.64 2.12 0.99
-21.97 4.36 2.24
-6.02 1.07 0.61
-9.67 1.52 0.98
-11.55 1.58 1.17
-11.67 1.35 1.18
-9.70 0.93 0.98
-9.60 0.72 0.97
-9.61 0.53 0.96
-22.35 0.79 2.24
-21.74 0.33 2.18
-9.76 -0.05 0.98
-9.77 -0.24 0.98
-9.78 -0.44 0.98
-9.78 -0.64 0.98
-9.79 -0.84 0.99
-9.81 -1.04 0.99
-21.86 -2.76 2.21
-9.83 -1.44 1.00
-9.72 -1.63 0.99
-9.73 -1.83 0.99
-9.85 -2.06 1.01
-11.71 -2.69 1.20
-9.87 -2.48 1.02
-19.46 -5.30 2.02
-9.88 -2.91 1.03
-18.83 -5.95 1.98
-18.53 -6.27 1.96
-9.90 -3.57 1.05
-9.81 -3.76 1.05
-9.92 -4.04 1.07
-11.89 -5.12 1.30
-11.74 -5.34 1.29
-11.64 -5.57 1.29
-18.29 -9.22 2.05
-18.49 -9.79 2.09
-10.09 -5.60 1.15
-9.88 -5.75 1.14
-16.68 -10.16 1.95
-12.39 -7.89 1.47
-10.10 -6.73 1.21
-9.97 -6.93 1.21
-9.93 -7.21 1.22
-9.95 -7.52 1.24
-9.96 -7.85 1.26
-9.97 -8.19 1.29
-9.98 -8.54 1.31
-10.00 -8.91 1.33
-10.01 -9.29 1.36
-10.03 -9.68 1.39
-17.36 -17.45 2.45
-17.12 -17.92 2.46
-16.88 -18.40 2.48
-10.18 -11.56 1.53
-10.07 -11.90 1.55
-10.09 -12.42 1.59
-10.11 -12.97 1.63
-10.14 -13.56 1.67
-10.16 -14.17 1.72
-10.18 -14.82 1.78
-10.21 -15.52 1.83
-10.24 -16.26 1.90
-10.27 -17.06 1.96
-10.30 -17.92 2.04
-10.33 -18.85 2.12
-10.37 -19.85 2.20
-10.41 -20.94 2.30
-10.39 -22.01 2.39
-9.96 -22.23 2.39
-9.52 -22.44 2.39
-9.07 -22.64 2.39
-8.62 -22.84 2.39
-8.17 -23.03 2.39
-7.71 -23.20 2.39
-7.25 -23.37 2.39
-6.78 -23.53 2.39
-6.59 -24.71 2.49
-6.10 -24.85 2.49
-5.60 -24.99 2.49
-5.10 -25.12 2.49
-4.60 -25.24 2.49
-4.10 -25.35 2.49
-3.59 -25.45 2.49
-3.08 -25.54 2.49
-2.57 -25.62 2.49
-2.06 -25.69 2.49
-1.54 -25.74 2.49
-1.03 -25.79 2.49
-0.51 -25.83 2.49
0.01 -20.92 2.49
0.43 -20.93 2.49
0.85 -20.93 2.49
1.27 -20.92 2.49
1.62 -20.05 2.39
1.94 -19.20 2.29
2.34 -19.22 2.30
2.83 -19.96 2.39
3.24 -19.91 2.39
3.64 -19.85 2.39
4.04 -19.79 2.39
4.44 -19.72 2.39
4.84 -19.64 2.39
5.23 -19.56 2.39
5.55 -19.19 2.36
9.38 -30.14 3.72
10.28 -30.84 3.83
5.68 -15.96 2.00
5.72 -15.12 1.90
13.32 -33.16 4.20
15.19 -35.73 4.56
5.79 -12.90 1.66
5.85 -11.74 1.54
13.21 -1.66 1.53
14.31 -1.51 1.65
19.61 -1.68 2.25
19.64 -1.28 2.25
19.66 -0.89 2.25
19.68 -0.49 2.25
19.69 -0.10 2.25
19.69 0.30 2.25
19.68 0.69 2.25
19.66 1.09 2.25
19.64 1.48 2.25
19.60 1.87 2.25
19.56 2.27 2.25
16.57 2.26 1.91
17.10 2.68 1.98
19.39 3.44 2.25
19.31 3.83 2.25
19.23 4.21 2.25
19.14 4.60 2.25
19.04 4.98 2.25
18.94 5.36 2.25
18.82 5.74 2.25
8.93 2.92 1.08
18.57 6.49 2.25
18.20 6.77 2.23
17.23 6.81 2.12
16.35 6.84 2.03
15.54 6.87 1.95
14.79 6.90 1.87
14.10 6.93 1.80
13.46 6.95 1.74
12.86 6.97 1.68
12.31 7.00 1.63
8.53 5.07 1.14
8.12 5.06 1.10
7.92 5.15 1.09
7.82 5.32 1.09
7.87 5.58 1.11
9.62 7.12 1.38
9.45 7.29 1.37
21.64 32.14 4.50
19.77 30.67 4.24
18.64 30.23 4.13
6.74 11.45 1.54
17.02 30.26 4.04
6.80 12.67 1.67
15.42 30.19 3.95
14.64 30.14 3.90
13.84 30.02 3.85
13.09 29.95 3.81
12.27 29.69 3.75
7.01 17.97 2.25
10.54 28.73 3.58
6.66 19.33 2.39
6.26 19.44 2.39
5.87 19.55 2.39
5.47 19.65 2.39
5.07 19.74 2.39
4.67 19.83 2.39
4.27 19.90 2.39
3.87 19.97 2.39
3.46 20.03 2.39
3.06 20.08 2.39
2.77 20.99 2.49
2.34 21.03 2.49
1.92 21.06 2.49
1.49 21.07 2.49
1.07 21.09 2.49
0.65 21.09 2.49
0.22 21.08 2.49
-0.20 21.07 2.49
-0.62 21.04 2.49
-1.04 21.01 2.49
-1.47 20.97 2.49
-1.88 20.92 2.49
-2.30 20.86 2.49
-2.72 20.80 2.49
-3.13 20.72 2.49
-3.55 20.64 2.49
-3.96 20.55 2.49
-4.37 20.45 2.49
-4.77 20.35 2.49
-5.04 19.69 2.43
-5.35 19.28 2.39
-5.73 19.15 2.39
-6.11 19.02 2.39
-6.48 18.88 2.39
-6.85 18.73 2.39
-7.22 18.58 2.39
-7.59 18.42 2.39
-7.95 18.25 2.39
-8.31 18.07 2.39
-8.67 17.89 2.39
-9.02 17.70 2.39
-9.00 16.82 2.30
-9.03 16.09 2.22
-9.06 15.40 2.15
-9.08 14.76 2.09
-9.10 14.15 2.03
-9.12 13.58 1.98
-9.14 13.03 1.92
-9.16 12.52 1.88
-9.18 12.03 1.83
-9.20 11.56 1.79
-9.22 11.12 1.75
-9.23 10.69 1.71
-9.25 10.28 1.68
-9.26 9.89 1.65
-9.28 9.52 1.61
-9.29 9.16 1.59
-9.30 8.81 1.56
-9.31 8.47 1.53
-9.33 8.15 1.51
-9.34 7.83 1.48
-9.35 7.53 1.46
-9.36 7.23 1.44
-9.37 6.94 1.42
-9.38 6.66 1.40
-9.39 6.39 1.39
-7.26 4.73 1.06
-7.28 4.54 1.05
-7.38 4.40 1.05
-7.60 4.33 1.07
-9.44 5.12 1.31
-9.45 4.88 1.30
-9.46 4.65 1.29
-9.47 4.42 1.28
-9.47 4.19 1.27
-9.48 3.97 1.26
-9.49 3.75 1.25
-9.50 3.54 1.24
-9.51 3.32 1.24
-9.51 3.11 1.23
-9.52 2.91 1.22
-9.53 2.70 1.22
-9.54 2.50 1.21
-9.53 2.29 1.20
-9.54 2.09 1.20
-9.55 1.89 1.20
-6.02 1.07 0.75
-9.56 1.50 1.19
-9.57 1.31 1.19
-9.58 1.11 1.19
-9.59 0.92 1.19
-9.60 0.72 1.18
-9.61 0.53 1.18
-9.75 0.34 1.20
-9.77 0.15 1.20
-9.77 -0.05 1.20
-9.77 -0.24 1.20
-9.78 -0.44 1.20
-9.77 -0.64 1.21
-9.76 -0.84 1.21
-9.76 -1.03 1.21
-9.74 -1.23 1.21
-9.72 -1.42 1.21
-9.72 -1.63 1.21
-9.73 -1.83 1.22
-9.74 -2.03 1.22
-9.75 -2.24 1.23
-9.76 -2.45 1.24
-9.76 -2.66 1.25
-9.77 -2.88 1.25
-9.78 -3.09 1.26
-9.79 -3.31 1.27
-9.80 -3.54 1.28
-9.81 -3.76 1.29
-9.81 -3.99 1.30
-9.82 -4.23 1.31
-9.83 -4.47 1.33
-9.84 -4.72 1.34
-9.85 -4.97 1.35
-9.86 -5.22 1.37
-9.87 -5.48 1.39
-9.88 -5.75 1.40
-9.89 -6.03 1.42
-9.90 -6.31 1.44
-9.91 -6.60 1.46
-9.92 -6.90 1.48
-9.93 -7.21 1.50
-9.95 -7.52 1.53
-9.96 -7.85 1.55
-9.97 -8.19 1.58
-9.73 -8.33 1.57
-9.35 -8.34 1.53
-9.25 -8.58 1.54
-10.03 -9.69 1.70
-11.70 -11.77 2.03
-11.26 -11.79 1.99
-10.83 -11.80 1.95
-10.18 -11.56 1.88
-10.07 -11.91 1.90
-10.09 -12.43 1.95
-10.11 -12.98 2.00
-10.14 -13.56 2.06
-10.16 -14.17 2.12
-10.18 -14.83 2.19
-10.21 -15.52 2.26
-10.24 -16.27 2.33
-10.15 -16.88 2.39
-9.82 -17.09 2.39
-9.48 -17.29 2.39
-9.13 -17.49 2.39
-8.79 -17.68 2.39
-8.44 -17.86 2.39
-8.08 -18.04 2.39
-7.72 -18.21 2.39
-7.36 -18.37 2.39
-6.99 -18.53 2.39
-6.62 -18.68 2.39
-6.50 -19.56 2.48
-6.13 -19.77 2.49
-5.74 -19.90 2.49
-5.34 -20.03 2.49
-4.94 -20.14 2.49
-4.54 -20.25 2.49
-4.13 -20.35 2.49
-3.72 -20.45 2.49
-3.32 -20.53 2.49
-2.90 -20.61 2.49
-2.49 -20.68 2.49
-2.08 -20.74 2.49
-1.66 -20.79 2.49
-1.25 -20.84 2.49
-0.83 -20.87 2.49
-0.41 -20.90 2.49
0.01 -17.55 2.49
0.36 -17.55 2.49
0.72 -17.55 2.49
1.07 -17.55 2.49
1.42 -17.53 2.49
1.70 -16.79 2.39
2.04 -16.76 2.39
2.38 -16.73 2.39
2.71 -16.69 2.39
3.05 -16.64 2.39
3.38 -16.58 2.39
3.72 -16.52 2.39
4.05 -16.45 2.39
4.38 -16.38 2.39
4.72 -16.30 2.39
5.04 -16.21 2.39
5.37 -16.12 2.39
5.70 -16.01 2.39
5.71 -15.08 2.27
11.45 -28.51 4.32
12.34 -29.03 4.43
13.35 -29.72 4.57
5.82 -12.28 1.91
15.89 -31.89 4.99
5.85 -11.17 1.77
5.88 -10.70 1.71
5.92 -9.38 1.55
10.42 -1.53 1.45
11.81 -1.49 1.64
14.32 -1.51 1.98
16.34 -1.40 2.25
16.37 -1.07 2.25
16.39 -0.74 2.25
16.40 -0.41 2.25
16.41 -0.08 2.25
16.41 0.25 2.25
16.40 0.58 2.25
16.39 0.91 2.25
16.36 1.23 2.25
16.34 1.56 2.25
16.30 1.89 2.25
16.26 2.22 2.25
16.21 2.54 2.25
14.03 2.49 1.96
13.92 2.76 1.95
16.03 3.51 2.25
15.95 3.83 2.25
15.87 4.15 2.25
15.78 4.47 2.25
15.69 4.78 2.25
8.90 2.91 1.29
15.48 5.41 2.25
15.37 5.72 2.25
15.25 6.02 2.25
15.12 6.33 2.25
14.99 6.63 2.25
14.79 6.90 2.25
14.10 6.93 2.16
13.46 6.95 2.09
12.87 6.97 2.01
12.31 6.99 1.95
11.78 7.01 1.89
8.12 5.06 1.32
7.92 5.15 1.30
7.82 5.32 1.30
7.87 5.58 1.33
9.59 7.09 1.65
9.22 7.12 1.61
7.32 7.20 1.42
7.04 7.21 1.39
6.89 7.35 1.39
6.65 9.07 1.56
6.68 9.50 1.61
19.36 28.75 4.81
18.43 28.60 4.73
6.72 10.90 1.78
16.88 28.65 4.63
16.09 28.61 4.57
15.31 28.55 4.51
14.55 28.48 4.46
6.85 14.10 2.19
12.97 28.12 4.32
6.86 15.70 2.39
6.54 15.82 2.39
6.22 15.94 2.39
5.89 16.06 2.39
5.57 16.16 2.39
5.24 16.26 2.39
4.91 16.35 2.39
4.58 16.44 2.39
4.24 16.52 2.39
3.83 16.27 2.34
3.51 16.38 2.35
3.24 16.71 2.39
2.92 16.89 2.41
2.67 17.54 2.49
2.32 17.58 2.49
1.96 17.61 2.49
1.61 17.63 2.49
1.25 17.65 2.49
0.90 17.66 2.49
0.54 17.67 2.49
0.19 17.66 2.49
-0.17 17.65 2.49
-0.52 17.63 2.49
-0.87 17.61 2.49
-1.23 17.58 2.49
-1.58 17.54 2.49
-1.93 17.49 2.49
-2.28 17.44 2.49
-2.63 17.38 2.49
-2.97 17.31 2.49
-3.32 17.24 2.49
-3.66 17.16 2.49
-4.00 17.07 2.49
-4.34 16.98 2.49
-4.68 16.88 2.49
-5.01 16.77 2.49
-5.17 16.12 2.41
-5.44 15.85 2.39
-5.75 15.73 2.39
-6.06 15.60 2.39
-6.37 15.47 2.39
-6.68 15.33 2.39
-6.98 15.18 2.39
-7.28 15.03 2.39
-7.58 14.87 2.39
-7.87 14.71 2.39
-8.16 14.54 2.39
-8.44 14.36 2.39
-8.72 14.18 2.39
-9.00 14.00 2.39
-9.12 13.58 2.35
-9.14 13.04 2.29
-9.16 12.52 2.23
-9.18 12.03 2.18
-9.20 11.56 2.13
-9.22 11.12 2.08
-9.23 10.69 2.04
-9.25 10.29 2.00
-9.26 9.90 1.96
-9.28 9.52 1.92
-9.29 9.16 1.88
-9.30 8.81 1.85
-9.31 8.47 1.82
-9.33 8.15 1.79
-9.34 7.83 1.76
-9.35 7.53 1.74
-9.36 7.23 1.71
-9.37 6.94 1.69
-9.38 6.66 1.67
-9.39 6.39 1.65
-7.24 4.72 1.25
-7.28 4.54 1.25
-7.38 4.40 1.25
-7.60 4.33 1.27
-9.44 5.12 1.56
-9.45 4.88 1.55
-9.46 4.65 1.53
-9.47 4.42 1.52
-9.47 4.19 1.51
-9.48 3.97 1.50
-9.49 3.75 1.49
-9.50 3.54 1.48
-9.51 3.33 1.47
-9.51 3.11 1.46
-9.52 2.91 1.45
-9.53 2.70 1.44
-9.54 2.50 1.44
-9.53 2.29 1.43
-9.54 2.09 1.42
-9.55 1.89 1.42
-6.02 1.07 0.89
-9.56 1.50 1.41
-9.57 1.31 1.41
-9.58 1.11 1.41
-9.59 0.92 1.41
-9.60 0.73 1.41
-9.61 0.53 1.41
-9.63 0.34 1.41
-9.64 0.15 1.41
-9.65 -0.05 1.41
-9.66 -0.24 1.41
-9.67 -0.44 1.41
-9.68 -0.63 1.42
-9.69 -0.83 1.42
-9.69 -1.03 1.42
-9.70 -1.22 1.43
-9.71 -1.42 1.43
-9.72 -1.63 1.44
-9.73 -1.83 1.45
-9.74 -2.03 1.45
-9.75 -2.24 1.46
-9.76 -2.45 1.47
-9.76 -2.66 1.48
-9.77 -2.88 1.49
-9.78 -3.09 1.50
-9.79 -3.31 1.51
-9.80 -3.54 1.52
-9.81 -3.76 1.53
-9.81 -4.00 1.55
-9.82 -4.23 1.56
-9.83 -4.47 1.57
-9.84 -4.72 1.59
-9.85 -4.97 1.61
-9.86 -5.22 1.63
-9.87 -5.48 1.64
-9.88 -5.75 1.67
-9.89 -6.03 1.69
-9.90 -6.31 1.71
-9.91 -6.60 1.73
-9.92 -6.90 1.76
-9.93 -7.21 1.79
-9.95 -7.52 1.81
-9.96 -7.85 1.84
-9.97 -8.19 1.88
-9.98 -8.55 1.91
-9.37 -8.35 1.82
-9.26 -8.60 1.83
-10.03 -9.69 2.02
-11.31 -11.38 2.33
-9.25 -9.69 1.94
-9.07 -9.89 1.95
-10.18 -11.56 2.23
-6.49 -7.67 1.46
-10.09 -12.43 2.32
-9.09 -11.67 2.14
-8.84 -11.83 2.14
-9.63 -13.44 2.39
-9.37 -13.64 2.39
-9.09 -13.83 2.39
-8.82 -14.02 2.39
-8.54 -14.20 2.39
-8.26 -14.37 2.39
-7.97 -14.54 2.39
-7.68 -14.71 2.39
-7.39 -14.87 2.39
-7.09 -15.02 2.39
-6.79 -15.17 2.39
-6.49 -15.31 2.39
-6.36 -15.88 2.46
-6.13 -16.25 2.49
-5.81 -16.37 2.49
-5.48 -16.50 2.49
-5.15 -16.61 2.49
-4.82 -16.72 2.49
-4.48 -16.82 2.49
-4.15 -16.92 2.49
-3.81 -17.01 2.49
-3.47 -17.09 2.49
-3.13 -17.17 2.49
-2.78 -17.24 2.49
-2.44 -17.30 2.49
-2.09 -17.36 2.49
-1.74 -17.41 2.49
-1.39 -17.45 2.49
-1.04 -17.48 2.49
-0.69 -17.51 2.49
-0.34 -17.53 2.49
0.01 -15.10 2.49
0.31 -15.10 2.49
0.62 -15.10 2.49
0.92 -15.09 2.49
1.22 -15.08 2.49
1.53 -15.06 2.49
1.76 -14.43 2.39
2.04 -14.38 2.39
2.22 -13.62 2.27
2.58 -14.07 2.35
2.76 -13.53 2.27
3.20 -14.20 2.39
3.48 -14.14 2.39
3.77 -14.08 2.39
4.05 -14.01 2.39
4.34 -13.93 2.39
4.62 -13.85 2.39
4.90 -13.76 2.39
5.18 -13.67 2.39
5.45 -13.57 2.39
5.73 -13.46 2.39
11.80 -26.27 4.70
12.64 -26.70 4.82
13.59 -27.27 4.97
5.85 -11.17 2.06
15.77 -28.70 5.34
5.91 -10.26 1.93
18.99 -31.50 5.99
5.98 -7.66 1.58
5.99 -7.36 1.54
7.85 -1.31 1.28
10.07 -1.47 1.63
11.04 -1.39 1.79
13.97 -1.48 2.25
14.00 -1.20 2.25
14.02 -0.91 2.25
14.04 -0.63 2.25
14.05 -0.35 2.25
14.05 -0.07 2.25
14.05 0.21 2.25
14.05 0.49 2.25
14.03 0.78 2.25
14.02 1.06 2.25
13.99 1.34 2.25
13.96 1.62 2.25
13.93 1.90 2.25
13.89 2.18 2.25
13.84 2.46 2.25
13.79 2.73 2.25
11.75 2.58 1.93
11.46 2.75 1.89
11.41 2.98 1.89
13.52 3.83 2.25
13.44 4.10 2.25
8.89 2.91 1.50
13.26 4.63 2.25
13.16 4.90 2.25
13.06 5.16 2.25
12.95 5.42 2.25
12.84 5.68 2.25
12.72 5.93 2.25
12.60 6.18 2.25
12.47 6.43 2.25
12.33 6.68 2.25
12.19 6.93 2.25
11.79 7.01 2.20
8.12 5.06 1.54
7.92 5.15 1.52
7.82 5.32 1.52
7.87 5.58 1.55
9.59 7.09 1.92
9.21 7.11 1.87
8.86 7.12 1.83
8.52 7.13 1.79
8.19 7.15 1.75
7.88 7.16 1.72
7.58 7.17 1.68
7.29 7.18 1.65
7.02 7.19 1.62
6.76 7.21 1.60
6.66 7.40 1.61
22.67 28.44 5.88
20.83 27.23 5.55
19.88 27.10 5.44
18.99 27.02 5.35
18.18 27.00 5.27
17.43 27.04 5.21
6.72 10.90 2.08
15.87 26.94 5.07
15.06 26.78 4.98
14.30 26.66 4.91
6.70 13.11 2.39
6.43 13.24 2.39
6.16 13.36 2.39
5.89 13.47 2.39
5.62 13.58 2.39
5.34 13.69 2.39
5.06 13.78 2.39
4.78 13.88 2.39
4.50 13.96 2.39
4.22 14.04 2.39
3.74 13.42 2.27
3.59 13.95 2.35
3.19 13.52 2.27
3.07 14.31 2.39
2.83 14.61 2.43
2.60 15.03 2.49
2.30 15.07 2.49
1.99 15.10 2.49
1.69 15.13 2.49
1.38 15.15 2.49
1.08 15.17 2.49
0.77 15.18 2.49
0.47 15.19 2.49
0.16 15.18 2.49
-0.14 15.18 2.49
-0.45 15.16 2.49
-0.75 15.14 2.49
-1.05 15.12 2.49
-1.36 15.08 2.49
-1.66 15.04 2.49
-1.96 15.00 2.49
-2.26 14.95 2.49
-2.56 14.89 2.49
-2.85 14.83 2.49
-3.15 14.76 2.49
-3.44 14.69 2.49
-3.73 14.61 2.49
-4.02 14.52 2.49
-4.31 14.43 2.49
-4.60 14.34 2.49
-4.88 14.23 2.49
-5.17 14.13 2.49
-5.27 13.56 2.41
-5.49 13.32 2.39
-5.75 13.20 2.39
-6.01 13.07 2.39
-6.27 12.94 2.39
-6.52 12.81 2.39
-6.78 12.67 2.39
-7.03 12.52 2.39
-7.27 12.37 2.39
-7.52 12.22 2.39
-7.76 12.06 2.39
-7.99 11.90 2.39
-8.23 11.73 2.39
-8.46 11.56 2.39
-8.68 11.38 2.39
-8.91 11.20 2.39
-9.12 11.01 2.39
-9.23 10.70 2.36
-9.25 10.29 2.31
-9.26 9.90 2.27
-9.27 9.52 2.23
-9.29 9.16 2.19
-9.30 8.81 2.15
-9.31 8.47 2.11
-9.33 8.15 2.08
-9.34 7.83 2.05
-9.35 7.53 2.01
-9.36 7.23 1.99
-9.37 6.95 1.96
-9.38 6.67 1.93
-9.39 6.39 1.91
-7.26 4.73 1.46
-7.28 4.54 1.44
-7.38 4.40 1.45
-7.60 4.33 1.47
-9.44 5.12 1.81
-9.45 4.88 1.79
-9.46 4.65 1.78
-9.47 4.42 1.76
-9.47 4.20 1.75
-9.48 3.97 1.73
-9.49 3.75 1.72
-9.50 3.54 1.71
-9.51 3.33 1.70
-9.51 3.12 1.69
-9.52 2.91 1.68
-9.53 2.70 1.67
-9.54 2.50 1.66
-9.53 2.29 1.65
-9.54 2.09 1.65
-9.55 1.89 1.64
-6.01 1.07 1.03
-9.56 1.50 1.64
-9.57 1.31 1.63
-9.58 1.11 1.63
-9.59 0.92 1.63
-9.60 0.73 1.63
-9.61 0.53 1.63
-9.63 0.34 1.63
-9.64 0.15 1.63
-9.65 -0.05 1.63
-9.66 -0.24 1.63
-9.67 -0.44 1.64
-9.68 -0.63 1.64
-9.69 -0.83 1.64
-9.69 -1.03 1.65
-9.70 -1.22 1.65
-9.71 -1.42 1.66
-9.72 -1.63 1.67
-9.73 -1.83 1.67
-9.74 -2.03 1.68
-9.75 -2.24 1.69
-9.76 -2.45 1.70
-9.76 -2.66 1.71
-9.77 -2.88 1.72
-9.78 -3.09 1.73
-9.79 -3.31 1.75
-9.80 -3.54 1.76
-9.81 -3.76 1.77
-9.81 -4.00 1.79
-9.82 -4.23 1.81
-9.83 -4.47 1.82
-9.84 -4.72 1.84
-9.85 -4.97 1.86
-9.86 -5.22 1.88
-9.87 -5.48 1.91
-9.88 -5.75 1.93
-9.89 -6.03 1.95
-9.90 -6.31 1.98
-9.91 -6.60 2.01
-9.92 -6.90 2.04
-9.93 -7.21 2.07
-9.95 -7.53 2.10
-9.96 -7.85 2.14
-9.97 -8.19 2.17
-9.98 -8.55 2.21
-9.38 -8.36 2.11
-9.28 -8.61 2.13
-10.03 -9.69 2.34
-10.02 -10.08 2.39
-8.99 -9.41 2.19
-8.76 -9.55 2.18
-6.42 -7.29 1.63
-6.28 -7.42 1.63
-8.98 -11.06 2.39
-8.76 -11.24 2.39
-8.53 -11.42 2.39
-8.31 -11.59 2.39
-8.08 -11.76 2.39
-7.84 -11.93 2.39
-7.60 -12.09 2.39
-7.36 -12.24 2.39
-7.12 -12.39 2.39
-6.87 -12.54 2.39
-6.62 -12.68 2.39
-6.37 -12.81 2.39
-6.26 -13.27 2.45
-6.10 -13.64 2.49
-5.83 -13.76 2.49
-5.56 -13.88 2.49
-5.28 -14.00 2.49
-5.00 -14.11 2.49
-4.72 -14.21 2.49
-4.43 -14.31 2.49
-4.15 -14.40 2.49
-3.86 -14.49 2.49
-3.57 -14.57 2.49
-3.28 -14.65 2.49
-2.98 -14.72 2.49
-2.69 -14.78 2.49
-2.39 -14.84 2.49
-2.10 -14.90 2.49
-1.80 -14.94 2.49
-1.50 -14.98 2.49
-1.20 -15.02 2.49
-0.90 -15.05 2.49
-0.59 -15.07 2.49
-0.29 -15.09 2.49
0.01 -13.24 2.49
0.28 -13.24 2.49
0.54 -13.24 2.49
0.81 -13.23 2.49
1.07 -13.22 2.49
1.34 -13.20 2.49
1.61 -13.18 2.49
1.81 -12.75 2.42
2.05 -12.57 2.39
2.19 -11.96 2.28
2.51 -12.29 2.35
2.76 -12.24 2.35
2.90 -11.76 2.27
3.30 -12.33 2.39
3.55 -12.27 2.39
3.80 -12.20 2.39
4.05 -12.13 2.39
4.29 -12.05 2.39
4.53 -11.97 2.39
4.77 -11.88 2.39
5.01 -11.79 2.39
5.25 -11.69 2.39
5.49 -11.59 2.39
5.72 -11.48 2.39
5.85 -11.17 2.35
5.87 -10.69 2.27
14.76 -25.62 5.50
15.89 -26.35 5.73
17.11 -27.12 5.96
18.44 -27.97 6.23
20.01 -29.06 6.56
21.84 -30.40 6.95
21.56 -28.77 6.68
21.70 -27.79 6.54
22.10 -27.15 6.50
22.93 -27.05 6.58
6.02 -6.82 1.69
6.05 -5.83 1.56
7.85 -1.31 1.46
8.97 -1.31 1.67
11.04 -1.39 2.04
12.21 -1.29 2.25
12.23 -1.04 2.25
12.25 -0.80 2.25
12.26 -0.55 2.25
12.27 -0.31 2.25
12.28 -0.06 2.25
12.28 0.19 2.25
12.27 0.43 2.25
12.26 0.68 2.25
12.24 0.92 2.25
12.22 1.17 2.25
12.20 1.41 2.25
12.17 1.66 2.25
12.13 1.90 2.25
12.09 2.14 2.25
12.04 2.39 2.25
11.99 2.63 2.25
10.86 2.61 2.05
10.72 2.80 2.03
10.73 3.04 2.05
11.74 3.58 2.25
8.89 2.91 1.72
11.59 4.05 2.25
11.50 4.28 2.25
11.41 4.51 2.25
11.32 4.73 2.25
11.22 4.96 2.25
11.11 5.18 2.25
11.01 5.40 2.25
10.89 5.62 2.25
10.78 5.84 2.25
10.66 6.05 2.25
10.53 6.26 2.25
8.12 5.06 1.76
7.92 5.15 1.74
7.82 5.31 1.74
7.86 5.58 1.78
9.59 7.09 2.20
9.21 7.11 2.14
8.86 7.12 2.09
8.52 7.13 2.05
8.19 7.15 2.00
7.88 7.16 1.96
7.58 7.17 1.92
7.30 7.18 1.89
7.02 7.19 1.85
6.75 7.20 1.82
6.52 7.24 1.80
23.11 26.72 6.53
21.45 25.82 6.20
20.23 25.38 6.00
19.35 25.29 5.89
18.54 25.27 5.80
17.77 25.27 5.72
17.06 25.32 5.65
16.30 25.29 5.57
6.72 10.90 2.37
6.55 11.11 2.39
6.32 11.24 2.39
6.09 11.36 2.39
5.86 11.47 2.39
5.63 11.58 2.39
5.39 11.69 2.39
5.16 11.79 2.39
4.92 11.89 2.39
4.67 11.98 2.39
4.43 12.06 2.39
4.19 12.15 2.39
3.74 11.60 2.27
3.63 12.09 2.35
3.39 12.16 2.35
3.09 12.01 2.31
2.94 12.48 2.39
2.76 12.87 2.46
2.54 13.12 2.49
2.28 13.16 2.49
2.01 13.19 2.49
1.75 13.23 2.49
1.48 13.25 2.49
1.21 13.27 2.49
0.95 13.29 2.49
0.68 13.30 2.49
0.41 13.30 2.49
0.14 13.30 2.49
-0.12 13.30 2.49
-0.39 13.29 2.49
-0.66 13.27 2.49
-0.92 13.25 2.49
-1.19 13.22 2.49
-1.45 13.19 2.49
-1.71 13.15 2.49
-1.98 13.11 2.49
-2.24 13.06 2.49
-2.50 13.00 2.49
-2.76 12.94 2.49
-3.02 12.88 2.49
-3.27 12.81 2.49
-3.53 12.74 2.49
-3.78 12.66 2.49
-4.03 12.57 2.49
-4.28 12.48 2.49
-4.53 12.39 2.49
-4.78 12.29 2.49
-5.02 12.19 2.49
-5.26 12.08 2.49
-5.34 11.62 2.42
-5.50 11.36 2.39
-5.72 11.24 2.39
-5.94 11.12 2.39
-6.16 10.99 2.39
-6.38 10.86 2.39
-6.60 10.73 2.39
-6.81 10.59 2.39
-7.01 10.44 2.39
-7.22 10.30 2.39
-7.42 10.14 2.39
-7.62 9.99 2.39
-7.82 9.83 2.39
-8.01 9.67 2.39
-8.20 9.50 2.39
-8.39 9.33 2.39
-8.57 9.16 2.39
-8.75 8.98 2.39
-8.92 8.80 2.39
-9.09 8.62 2.39
-9.26 8.43 2.39
-9.33 8.15 2.37
-9.34 7.84 2.33
-9.35 7.53 2.29
-9.36 7.23 2.26
-9.37 6.95 2.23
-9.38 6.67 2.20
-9.39 6.39 2.17
-7.26 4.73 1.66
-7.28 4.54 1.64
-7.38 4.40 1.65
-7.60 4.33 1.68
-9.44 5.12 2.06
-9.45 4.89 2.04
-9.46 4.65 2.02
-9.47 4.42 2.00
-9.47 4.20 1.99
-9.48 3.97 1.97
-9.49 3.75 1.96
-9.50 3.54 1.95
-9.51 3.33 1.93
-9.51 3.12 1.92
-9.52 2.91 1.91
-9.53 2.70 1.90
-9.54 2.50 1.89
-9.53 2.29 1.88
-9.54 2.09 1.88
-9.55 1.89 1.87
-6.01 1.07 1.17
-9.56 1.50 1.86
-9.57 1.31 1.86
-9.58 1.11 1.85
-9.59 0.92 1.85
-9.60 0.73 1.85
-9.61 0.53 1.85
-9.63 0.34 1.85
-9.64 0.15 1.85
-9.65 -0.05 1.86
-9.66 -0.24 1.86
-9.67 -0.44 1.86
-9.68 -0.63 1.87
-9.69 -0.83 1.87
-9.69 -1.03 1.88
-9.70 -1.22 1.88
-9.71 -1.42 1.89
-9.72 -1.63 1.90
-9.73 -1.83 1.90
-9.74 -2.03 1.91
-9.75 -2.24 1.92
-9.76 -2.45 1.93
-9.76 -2.66 1.95
-9.77 -2.88 1.96
-9.78 -3.09 1.97
-9.79 -3.31 1.99
-9.80 -3.54 2.00
-9.81 -3.76 2.02
-9.81 -4.00 2.04
-9.82 -4.23 2.06
-9.83 -4.47 2.08
-9.84 -4.72 2.10
-9.85 -4.97 2.12
-9.86 -5.22 2.14
-9.87 -5.48 2.17
-9.88 -5.75 2.19
-9.89 -6.03 2.22
-9.90 -6.31 2.25
-9.91 -6.60 2.28
-9.92 -6.90 2.32
-9.93 -7.21 2.35
-9.94 -7.52 2.39
-9.79 -7.72 2.39
-9.64 -7.92 2.39
-9.48 -8.12 2.39
-9.32 -8.31 2.39
-9.15 -8.49 2.39
-8.98 -8.68 2.39
-8.81 -8.86 2.39
-8.63 -9.04 2.39
-8.45 -9.21 2.39
-6.42 -7.29 1.86
-6.26 -7.40 1.85
-7.89 -9.71 2.39
-7.69 -9.87 2.39
-7.49 -10.03 2.39
-7.29 -10.18 2.39
-7.09 -10.33 2.39
-6.88 -10.47 2.39
-6.67 -10.61 2.39
-6.46 -10.75 2.39
-6.25 -10.88 2.39
-6.19 -11.30 2.45
-6.06 -11.61 2.49
-5.83 -11.74 2.49
-5.59 -11.86 2.49
-5.36 -11.97 2.49
-5.12 -12.08 2.49
-4.88 -12.19 2.49
-4.63 -12.29 2.49
-4.39 -12.38 2.49
-4.14 -12.47 2.49
-3.89 -12.56 2.49
-3.64 -12.64 2.49
-3.39 -12.72 2.49
-3.13 -12.79 2.49
-2.87 -12.85 2.49
-2.62 -12.91 2.49
-2.36 -12.97 2.49
-2.10 -13.02 2.49
-1.84 -13.07 2.49
-1.58 -13.11 2.49
-1.31 -13.14 2.49
-1.05 -13.17 2.49
-0.79 -13.19 2.49
-0.52 -13.21 2.49
-0.26 -13.23 2.49
0.01 -11.77 2.49
0.25 -11.78 2.49
0.48 -11.77 2.49
0.72 -11.77 2.49
0.96 -11.75 2.49
1.19 -11.74 2.49
1.43 -11.72 2.49
1.66 -11.69 2.49
1.86 -11.41 2.44
2.06 -11.20 2.40
2.23 -10.93 2.35
2.37 -10.50 2.27
2.58 -10.45 2.27
2.79 -10.40 2.27
3.16 -10.91 2.39
3.38 -10.84 2.39
3.60 -10.78 2.39
3.81 -10.71 2.39
4.03 -10.63 2.39
4.24 -10.56 2.39
4.46 -10.47 2.39
4.67 -10.39 2.39
4.88 -10.29 2.39
5.08 -10.20 2.39
5.29 -10.10 2.39
5.49 -9.99 2.39
5.70 -9.89 2.39
5.90 -9.77 2.39
14.88 -23.58 5.84
5.94 -9.00 2.26
17.10 -24.84 6.31
18.37 -25.56 6.58
19.76 -26.37 6.89
21.25 -27.20 7.22
22.10 -27.15 7.32
23.09 -27.23 7.46
26.00 -29.44 8.20
27.65 -30.07 8.53
29.42 -30.74 8.88
6.07 -5.19 1.66
6.10 -4.42 1.57
6.11 -4.24 1.55
7.62 -1.43 1.61
7.64 -1.28 1.60
8.98 -1.31 1.88
10.80 -1.36 2.25
10.83 -1.14 2.25
10.85 -0.93 2.25
10.87 -0.71 2.25
10.88 -0.49 2.25
10.89 -0.27 2.25
10.89 -0.05 2.25
10.89 0.16 2.25
10.89 0.38 2.25
10.88 0.60 2.25
10.86 0.82 2.25
10.84 1.04 2.25
10.82 1.25 2.25
10.79 1.47 2.25
10.76 1.69 2.25
10.72 1.90 2.25
10.68 2.12 2.25
10.64 2.33 2.25
10.59 2.54 2.25
10.54 2.76 2.25
10.48 2.97 2.25
10.41 3.18 2.25
8.88 2.90 1.93
10.28 3.59 2.25
10.20 3.79 2.25
10.12 4.00 2.25
10.04 4.20 2.25
9.95 4.40 2.25
9.86 4.60 2.25
9.76 4.79 2.25
9.67 4.99 2.25
9.56 5.18 2.25
9.45 5.37 2.25
9.34 5.56 2.25
8.15 5.07 1.99
7.92 5.15 1.96
7.83 5.32 1.96
8.86 6.28 2.25
8.73 6.46 2.25
8.60 6.63 2.25
8.46 6.80 2.25
8.32 6.97 2.25
8.18 7.13 2.25
7.88 7.16 2.21
7.58 7.17 2.17
7.30 7.18 2.13
7.02 7.19 2.09
6.75 7.20 2.05
6.52 7.24 2.03
20.63 23.85 6.56
19.67 23.68 6.41
18.79 23.57 6.28
6.65 8.69 2.28
7.83 10.67 2.76
6.60 9.38 2.39
6.41 9.51 2.39
6.21 9.63 2.39
6.02 9.75 2.39
5.82 9.87 2.39
5.62 9.98 2.39
5.41 10.09 2.39
5.21 10.19 2.39
5.00 10.29 2.39
4.79 10.38 2.39
4.58 10.47 2.39
4.37 10.56 2.39
4.15 10.64 2.39
3.74 10.17 2.27
3.62 10.50 2.33
3.44 10.68 2.35
3.11 10.36 2.27
3.05 10.94 2.38
2.84 11.03 2.39
2.71 11.49 2.48
2.49 11.61 2.49
2.26 11.65 2.49
2.03 11.69 2.49
1.79 11.73 2.49
1.55 11.75 2.49
1.32 11.78 2.49
1.08 11.80 2.49
0.84 11.81 2.49
0.60 11.82 2.49
0.37 11.83 2.49
0.13 11.83 2.49
-0.11 11.82 2.49
-0.35 11.81 2.49
-0.58 11.80 2.49
-0.82 11.78 2.49
-1.05 11.75 2.49
-1.29 11.73 2.49
-1.52 11.69 2.49
-1.76 11.65 2.49
-1.99 11.61 2.49
-2.22 11.57 2.49
-2.45 11.51 2.49
-2.68 11.46 2.49
-2.91 11.40 2.49
-3.14 11.33 2.49
-3.36 11.26 2.49
-3.59 11.19 2.49
-3.81 11.11 2.49
-4.03 11.02 2.49
-4.25 10.94 2.49
-4.47 10.84 2.49
-4.68 10.75 2.49
-4.89 10.65 2.49
-5.10 10.54 2.49
-5.31 10.43 2.49
-5.39 10.09 2.44
-5.49 9.78 2.39
-5.68 9.67 2.39
-5.87 9.55 2.39
-6.06 9.42 2.39
-6.24 9.30 2.39
-6.43 9.17 2.39
-6.61 9.03 2.39
-6.78 8.89 2.39
-6.96 8.75 2.39
-7.13 8.61 2.39
-7.30 8.46 2.39
-7.47 8.31 2.39
-7.63 8.16 2.39
-7.79 8.00 2.39
-7.95 7.84 2.39
-8.10 7.67 2.39
-8.25 7.51 2.39
-8.39 7.34 2.39
-8.54 7.17 2.39
-8.68 6.99 2.39
-8.81 6.81 2.39
-8.95 6.63 2.39
-9.07 6.45 2.39
-9.20 6.26 2.39
-7.26 4.73 1.86
-7.28 4.54 1.84
-7.38 4.40 1.85
-7.60 4.33 1.88
-9.44 5.12 2.31
-9.45 4.89 2.29
-9.46 4.65 2.27
-9.47 4.42 2.25
-9.47 4.20 2.23
-9.48 3.97 2.21
-9.49 3.76 2.20
-9.50 3.54 2.18
-9.51 3.33 2.17
-9.51 3.12 2.16
-9.52 2.91 2.15
-9.53 2.70 2.13
-9.54 2.50 2.13
-9.53 2.29 2.11
-9.54 2.09 2.11
-6.06 1.20 1.33
-6.01 1.07 1.32
-9.56 1.50 2.09
-9.57 1.31 2.08
-9.58 1.11 2.08
-9.59 0.92 2.08
-9.60 0.73 2.08
-9.61 0.53 2.08
-9.63 0.34 2.08
-9.64 0.15 2.08
-9.65 -0.05 2.08
-9.66 -0.24 2.09
-9.67 -0.44 2.09
-9.68 -0.63 2.09
-9.69 -0.83 2.10
-9.69 -1.03 2.10
-9.70 -1.22 2.11
-9.71 -1.42 2.12
-9.72 -1.63 2.13
-9.73 -1.83 2.14
-9.74 -2.03 2.15
-9.75 -2.24 2.16
-9.76 -2.45 2.17
-9.76 -2.66 2.18
-9.77 -2.88 2.20
-9.78 -3.09 2.21
-9.79 -3.31 2.23
-9.80 -3.54 2.25
-9.81 -3.76 2.27
-9.81 -4.00 2.29
-9.82 -4.23 2.31
-9.83 -4.47 2.33
-9.84 -4.72 2.35
-9.85 -4.97 2.38
-9.80 -5.19 2.39
-9.70 -5.39 2.39
-9.59 -5.58 2.39
-9.48 -5.78 2.39
-9.36 -5.97 2.39
-9.24 -6.15 2.39
-9.12 -6.34 2.39
-8.99 -6.52 2.39
-8.86 -6.70 2.39
-8.72 -6.88 2.39
-8.59 -7.06 2.39
-8.44 -7.23 2.39
-8.30 -7.40 2.39
-8.15 -7.57 2.39
-8.00 -7.73 2.39
-7.84 -7.89 2.39
-7.69 -8.05 2.39
-7.53 -8.21 2.39
-6.42 -7.29 2.08
-7.19 -8.51 2.39
-7.02 -8.65 2.39
-6.85 -8.79 2.39
-6.67 -8.93 2.39
-6.50 -9.07 2.39
-6.32 -9.21 2.39
-6.13 -9.33 2.39
-6.13 -9.75 2.47
-6.00 -9.99 2.49
-5.80 -10.11 2.49
-5.60 -10.23 2.49
-5.40 -10.34 2.49
-5.19 -10.45 2.49
-4.98 -10.56 2.49
-4.77 -10.66 2.49
-4.56 -10.75 2.49
-4.34 -10.85 2.49
-4.12 -10.94 2.49
-3.90 -11.02 2.49
-3.68 -11.10 2.49
-3.46 -11.18 2.49
-3.24 -11.25 2.49
-3.01 -11.32 2.49
-2.79 -11.38 2.49
-2.56 -11.44 2.49
-2.33 -11.49 2.49
-2.10 -11.54 2.49
-1.87 -11.58 2.49
-1.63 -11.62 2.49
-1.40 -11.66 2.49
-1.17 -11.69 2.49
-0.93 -11.72 2.49
-0.70 -11.74 2.49
-0.46 -11.75 2.49
-0.23 -11.77 2.49
0.01 -10.59 2.49
0.22 -10.59 2.49
0.44 -10.59 2.49
0.65 -10.58 2.49
0.86 -10.57 2.49
1.07 -10.56 2.49
1.29 -10.54 2.49
1.50 -10.51 2.49
1.71 -10.48 2.49
1.90 -10.33 2.47
2.04 -9.99 2.39
2.24 -9.95 2.39
2.44 -9.90 2.39
2.64 -9.86 2.39
2.84 -9.80 2.39
3.04 -9.75 2.39
3.23 -9.69 2.39
3.43 -9.63 2.39
3.62 -9.56 2.39
3.82 -9.49 2.39
4.01 -9.41 2.39
4.20 -9.33 2.39
4.38 -9.25 2.39
4.57 -9.17 2.39
4.76 -9.07 2.39
4.94 -8.98 2.39
5.12 -8.88 2.39
5.30 -8.78 2.39
5.48 -8.68 2.39
5.65 -8.57 2.39
5.82 -8.46 2.39
5.99 -8.34 2.39
14.40 -19.21 5.59
5.99 -7.66 2.26
6.00 -7.37 2.21
15.74 -18.56 5.66
22.42 -25.39 7.87
22.25 -24.19 7.64
22.75 -23.76 7.64
27.13 -27.23 8.92
28.91 -27.87 9.32
6.07 -5.19 1.85
6.10 -4.61 1.77
6.15 -3.41 1.63
6.14 -3.25 1.61
6.16 -3.10 1.59
6.16 -2.94 1.58
6.16 -2.80 1.56
6.17 -2.65 1.55
6.17 -2.51 1.54
46.70 -13.72 11.24
46.95 -12.77 11.23
6.94 -1.45 1.64
6.97 -1.31 1.64
7.55 -1.26 1.77
8.98 -1.31 2.09
9.70 -1.22 2.25
9.72 -1.03 2.25
9.74 -0.83 2.25
9.75 -0.64 2.25
9.77 -0.44 2.25
9.77 -0.24 2.25
9.78 -0.05 2.25
9.78 0.15 2.25
9.77 0.34 2.25
9.76 0.54 2.25
9.75 0.74 2.25
9.73 0.93 2.25
9.71 1.13 2.25
9.69 1.32 2.25
9.66 1.51 2.25
9.63 1.71 2.25
9.59 1.90 2.25
9.55 2.09 2.25
9.51 2.28 2.25
9.46 2.47 2.25
9.40 2.66 2.25
9.35 2.85 2.25
8.88 2.90 2.15
9.23 3.22 2.25
9.16 3.41 2.25
9.09 3.59 2.25
9.01 3.77 2.25
8.93 3.95 2.25
8.85 4.13 2.25
8.77 4.30 2.25
8.68 4.48 2.25
8.58 4.65 2.25
8.49 4.82 2.25
8.39 4.99 2.25
8.29 5.16 2.25
8.18 5.32 2.25
8.07 5.48 2.25
7.96 5.64 2.25
7.84 5.80 2.25
7.72 5.95 2.25
7.60 6.11 2.25
7.47 6.26 2.25
7.34 6.40 2.25
7.21 6.55 2.25
7.08 6.69 2.25
6.94 6.83 2.25
6.80 6.96 2.25
6.66 7.10 2.25
6.52 7.24 2.26
7.69 8.89 2.72
6.59 7.93 2.39
6.43 8.06 2.39
6.26 8.19 2.39
6.10 8.31 2.39
5.93 8.43 2.39
5.76 8.54 2.39
5.58 8.65 2.39
5.40 8.76 2.39
5.23 8.86 2.39
5.05 8.96 2.39
4.86 9.06 2.39
4.68 9.15 2.39
4.49 9.24 2.39
4.31 9.33 2.39
4.12 9.41 2.39
3.93 9.49 2.39
3.57 9.14 2.29
3.48 9.47 2.35
3.29 9.54 2.35
2.99 9.28 2.27
2.95 9.81 2.39
2.75 9.87 2.39
2.66 10.35 2.49
2.45 10.39 2.49
2.24 10.44 2.49
2.03 10.48 2.49
1.82 10.51 2.49
1.61 10.54 2.49
1.40 10.57 2.49
1.18 10.59 2.49
0.97 10.61 2.49
0.76 10.62 2.49
0.54 10.63 2.49
0.33 10.63 2.49
0.12 10.63 2.49
-0.10 10.63 2.49
-0.31 10.62 2.49
-0.52 10.61 2.49
-0.73 10.59 2.49
-0.95 10.57 2.49
-1.16 10.55 2.49
-1.37 10.52 2.49
-1.58 10.48 2.49
-1.79 10.45 2.49
-2.00 10.40 2.49
-2.21 10.36 2.49
-2.41 10.31 2.49
-2.62 10.25 2.49
-2.82 10.19 2.49
-3.02 10.13 2.49
-3.23 10.07 2.49
-3.43 9.99 2.49
-3.62 9.92 2.49
-3.82 9.84 2.49
-4.02 9.76 2.49
-4.21 9.67 2.49
-4.40 9.58 2.49
-4.59 9.49 2.49
-4.78 9.39 2.49
-4.97 9.29 2.49
-5.15 9.19 2.49
-5.33 9.08 2.49
-5.44 8.85 2.46
-5.46 8.50 2.40
-5.62 8.37 2.39
-5.78 8.25 2.39
-5.95 8.13 2.39
-6.11 8.01 2.39
-6.27 7.88 2.39
-6.42 7.75 2.39
-6.57 7.62 2.39
-6.72 7.48 2.39
-6.87 7.34 2.39
-7.01 7.20 2.39
-7.15 7.06 2.39
-7.29 6.91 2.39
-7.43 6.76 2.39
-7.56 6.61 2.39
-7.69 6.45 2.39
-7.81 6.30 2.39
-7.94 6.14 2.39
-8.06 5.97 2.39
-8.17 5.81 2.39
-8.29 5.64 2.39
-7.27 4.74 2.07
-7.28 4.54 2.05
-7.38 4.40 2.05
-7.61 4.33 2.09
-8.80 4.78 2.39
-8.89 4.60 2.39
-8.98 4.42 2.39
-9.07 4.24 2.39
-9.15 4.05 2.39
-9.23 3.87 2.39
-9.30 3.68 2.39
-9.37 3.49 2.39
-9.44 3.30 2.39
-9.50 3.11 2.39
-9.56 2.92 2.39
-9.53 2.70 2.37
-9.54 2.50 2.36
-9.53 2.29 2.34
-9.54 2.09 2.34
-6.02 1.20 1.47
-5.99 1.06 1.46
-9.56 1.50 2.32
-9.57 1.31 2.31
-9.58 1.11 2.31
-9.59 0.92 2.31
-9.60 0.73 2.31
-9.61 0.53 2.30
-9.63 0.34 2.31
-9.64 0.15 2.31
-9.65 -0.05 2.31
-9.66 -0.24 2.31
-9.67 -0.44 2.32
-9.68 -0.63 2.32
-9.69 -0.83 2.33
-9.69 -1.03 2.34
-9.70 -1.22 2.34
-9.71 -1.42 2.35
-9.72 -1.63 2.36
-9.73 -1.83 2.37
-9.74 -2.03 2.38
-9.73 -2.24 2.39
-9.68 -2.43 2.39
-9.63 -2.63 2.39
-9.58 -2.82 2.39
-9.52 -3.01 2.39
-9.46 -3.20 2.39
-9.39 -3.39 2.39
-9.32 -3.58 2.39
-9.25 -3.77 2.39
-9.17 -3.95 2.39
-9.09 -4.14 2.39
-9.01 -4.32 2.39
-8.92 -4.50 2.39
-8.83 -4.68 2.39
-8.74 -4.86 2.39
-8.64 -5.03 2.39
-8.54 -5.20 2.39
-8.43 -5.38 2.39
-8.32 -5.55 2.39
-8.21 -5.71 2.39
-8.10 -5.88 2.39
-7.98 -6.04 2.39
-7.86 -6.20 2.39
-7.73 -6.36 2.39
-7.61 -6.51 2.39
-7.48 -6.67 2.39
-7.34 -6.82 2.39
-7.21 -6.96 2.39
-7.07 -7.11 2.39
-6.92 -7.25 2.39
-6.78 -7.39 2.39
-6.42 -7.29 2.31
-6.48 -7.66 2.39
-6.32 -7.79 2.39
-6.17 -7.92 2.39
-6.08 -8.13 2.42
-6.08 -8.50 2.49
-5.93 -8.64 2.49
-5.76 -8.76 2.49
-5.58 -8.88 2.49
-5.40 -8.99 2.49
-5.22 -9.10 2.49
-5.04 -9.21 2.49
-4.86 -9.31 2.49
-4.67 -9.41 2.49
-4.48 -9.50 2.49
-4.29 -9.59 2.49
-4.10 -9.68 2.49
-3.91 -9.77 2.49
-3.71 -9.85 2.49
-3.51 -9.92 2.49
-3.31 -9.99 2.49
-3.11 -10.06 2.49
-2.91 -10.13 2.49
-2.71 -10.19 2.49
-2.51 -10.24 2.49
-2.30 -10.29 2.49
-2.09 -10.34 2.49
-1.89 -10.39 2.49
-1.68 -10.42 2.49
-1.47 -10.46 2.49
-1.26 -10.49 2.49
-1.05 -10.52 2.49
-0.84 -10.54 2.49
-0.63 -10.56 2.49
-0.41 -10.57 2.49
-0.20 -10.58 2.49
0.01 -9.61 2.49
0.20 -9.62 2.49
0.40 -9.61 2.49
0.59 -9.61 2.49
0.78 -9.60 2.49
0.98 -9.58 2.49
1.17 -9.56 2.49
1.36 -9.54 2.49
1.55 -9.52 2.49
1.74 -9.49 2.49
1.93 -9.44 2.49
2.04 -9.03 2.39
2.22 -8.99 2.39
2.40 -8.94 2.39
2.58 -8.90 2.39
2.76 -8.85 2.39
2.94 -8.79 2.39
3.11 -8.73 2.39
3.29 -8.67 2.39
3.46 -8.61 2.39
3.64 -8.54 2.39
3.81 -8.47 2.39
3.98 -8.39 2.39
4.15 -8.31 2.39
4.32 -8.23 2.39
4.48 -8.15 2.39
4.64 -8.06 2.39
4.81 -7.97 2.39
4.97 -7.87 2.39
5.13 -7.77 2.39
5.28 -7.67 2.39
5.44 -7.56 2.39
5.59 -7.46 2.39
5.74 -7.34 2.39
5.89 -7.23 2.39
6.03 -7.11 2.39
6.78 -7.68 2.63
6.95 -7.55 2.63
7.10 -7.42 2.63
23.54 -23.61 8.54
25.07 -24.17 8.91
6.06 -5.61 2.11
23.83 -21.19 8.16
6.07 -5.19 2.04
33.38 -26.26 10.86
29.91 -21.65 9.43
6.12 -4.07 1.88
6.14 -3.25 1.77
38.20 -18.27 10.80
44.48 -19.12 12.34
44.48 -18.07 12.24
39.45 -15.11 10.77
39.99 -14.41 10.83
40.15 -13.56 10.80
45.25 -14.28 12.09
45.51 -13.36 12.08
41.73 -11.35 11.01
6.22 -1.56 1.63
46.05 -10.56 12.03
6.22 -1.30 1.62
6.52 -1.22 1.69
7.56 -1.26 1.95
8.76 -1.28 2.25
8.79 -1.11 2.25
8.81 -0.93 2.25
8.83 -0.75 2.25
8.84 -0.58 2.25
8.85 -0.40 2.25
8.86 -0.22 2.25
8.86 -0.04 2.25
8.86 0.13 2.25
8.85 0.31 2.25
8.85 0.49 2.25
8.84 0.67 2.25
8.82 0.84 2.25
8.80 1.02 2.25
8.78 1.20 2.25
8.75 1.37 2.25
8.72 1.55 2.25
8.69 1.72 2.25
8.65 1.90 2.25
8.61 2.07 2.25
8.57 2.24 2.25
8.52 2.41 2.25
8.47 2.58 2.25
8.42 2.75 2.25
8.36 2.92 2.25
8.30 3.09 2.25
8.24 3.25 2.25
8.17 3.42 2.25
8.10 3.58 2.25
8.02 3.74 2.25
7.95 3.90 2.25
7.86 4.06 2.25
7.78 4.21 2.25
7.69 4.37 2.25
7.60 4.52 2.25
7.51 4.67 2.25
7.41 4.82 2.25
7.31 4.97 2.25
7.21 5.11 2.25
7.11 5.26 2.25
7.00 5.40 2.25
6.89 5.53 2.25
6.77 5.67 2.25
6.66 5.80 2.25
6.54 5.94 2.26
6.55 6.19 2.30
6.56 6.45 2.35
6.54 6.70 2.39
6.40 6.82 2.39
6.26 6.95 2.39
6.12 7.07 2.39
5.98 7.19 2.39
5.83 7.31 2.39
5.68 7.42 2.39
5.53 7.53 2.39
5.38 7.64 2.39
5.22 7.74 2.39
5.06 7.85 2.39
4.90 7.94 2.39
4.74 8.04 2.39
4.58 8.13 2.39
4.41 8.22 2.39
4.24 8.30 2.39
4.08 8.38 2.39
3.91 8.46 2.39
3.54 8.10 2.27
3.50 8.46 2.35
3.33 8.53 2.35
3.05 8.29 2.27
2.96 8.58 2.33
2.86 8.85 2.39
2.68 8.90 2.39
2.60 9.34 2.49
2.42 9.39 2.49
2.23 9.43 2.49
2.04 9.47 2.49
1.85 9.50 2.49
1.65 9.54 2.49
1.46 9.56 2.49
1.27 9.59 2.49
1.08 9.61 2.49
0.88 9.62 2.49
0.69 9.64 2.49
0.50 9.65 2.49
0.30 9.65 2.49
0.11 9.65 2.49
-0.09 9.65 2.49
-0.28 9.64 2.49
-0.47 9.63 2.49
-0.67 9.61 2.49
-0.86 9.60 2.49
-1.05 9.57 2.49
-1.24 9.55 2.49
-1.43 9.52 2.49
-1.62 9.48 2.49
-1.81 9.45 2.49
-2.00 9.40 2.49
-2.19 9.36 2.49
-2.38 9.31 2.49
-2.56 9.26 2.49
-2.75 9.20 2.49
-2.93 9.14 2.49
-3.11 9.08 2.49
-3.29 9.01 2.49
-3.47 8.94 2.49
-3.65 8.86 2.49
-3.82 8.79 2.49
-4.00 8.70 2.49
-4.17 8.62 2.49
-4.34 8.53 2.49
-4.51 8.44 2.49
-4.68 8.34 2.49
-4.84 8.25 2.49
-5.00 8.14 2.49
-5.17 8.04 2.49
-5.32 7.93 2.49
-5.48 7.81 2.49
-5.49 7.51 2.43
-5.55 7.28 2.39
-5.71 7.19 2.40
-5.83 7.04 2.39
-5.97 6.92 2.39
-6.11 6.80 2.39
-6.24 6.67 2.39
-6.37 6.54 2.39
-6.50 6.41 2.39
-6.63 6.28 2.39
-6.75 6.14 2.39
-6.87 6.01 2.39
-6.99 5.86 2.39
-7.10 5.72 2.39
-7.21 5.58 2.39
-7.32 5.43 2.39
-7.43 5.28 2.39
-7.53 5.13 2.39
-7.41 4.83 2.32
-7.38 4.60 2.28
-7.50 4.47 2.29
-7.91 4.50 2.39
-8.00 4.34 2.39
-8.08 4.18 2.39
-8.16 4.02 2.39
-8.24 3.85 2.39
-8.31 3.68 2.39
-8.39 3.52 2.39
-8.45 3.35 2.39
-8.52 3.18 2.39
-8.58 3.00 2.39
-8.64 2.83 2.39
-8.69 2.65 2.39
-8.74 2.48 2.39
-8.79 2.30 2.39
-8.83 2.13 2.39
-8.87 1.95 2.39
-6.02 1.20 1.62
-5.99 1.06 1.60
-8.97 1.41 2.39
-8.99 1.23 2.39
-9.02 1.05 2.39
-9.04 0.87 2.39
-9.05 0.68 2.39
-9.06 0.50 2.39
-9.07 0.32 2.39
-9.07 0.14 2.39
-9.07 -0.04 2.39
-9.07 -0.23 2.39
-9.06 -0.41 2.39
-9.05 -0.59 2.39
-9.04 -0.77 2.39
-9.02 -0.95 2.39
-9.00 -1.14 2.39
-8.98 -1.32 2.39
-8.95 -1.50 2.39
-8.92 -1.68 2.39
-8.88 -1.86 2.39
-8.84 -2.03 2.39
-8.80 -2.21 2.39
-8.76 -2.39 2.39
-8.71 -2.56 2.39
-8.65 -2.74 2.39
-8.60 -2.91 2.39
-8.54 -3.08 2.39
-8.48 -3.25 2.39
-8.41 -3.42 2.39
-8.34 -3.59 2.39
-8.27 -3.76 2.39
-8.19 -3.93 2.39
-8.11 -4.09 2.39
-8.03 -4.25 2.39
-7.94 -4.41 2.39
-7.85 -4.57 2.39
-7.76 -4.73 2.39
-7.67 -4.89 2.39
-7.57 -5.04 2.39
-7.46 -5.19 2.39
-7.36 -5.34 2.39
-7.25 -5.49 2.39
-7.14 -5.64 2.39
-7.03 -5.78 2.39
-6.91 -5.92 2.39
-6.79 -6.06 2.39
-6.67 -6.20 2.39
-6.55 -6.33 2.39
-6.42 -6.46 2.39
-6.29 -6.59 2.39
-6.16 -6.72 2.39
-6.04 -6.85 2.40
-6.03 -7.14 2.45
-6.00 -7.39 2.49
-5.85 -7.51 2.49
-5.70 -7.63 2.49
-5.54 -7.74 2.49
-5.39 -7.85 2.49
-5.23 -7.96 2.49
-5.07 -8.07 2.49
-4.91 -8.17 2.49
-4.75 -8.27 2.49
-4.58 -8.37 2.49
-4.41 -8.46 2.49
-4.24 -8.55 2.49
-4.07 -8.63 2.49
-3.90 -8.72 2.49
-3.72 -8.80 2.49
-3.55 -8.87 2.49
-3.37 -8.94 2.49
-3.19 -9.01 2.49
-3.01 -9.08 2.49
-2.83 -9.14 2.49
-2.64 -9.20 2.49
-2.46 -9.25 2.49
-2.27 -9.30 2.49
-2.09 -9.35 2.49
-1.90 -9.39 2.49
-1.71 -9.43 2.49
-1.52 -9.47 2.49
-1.33 -9.50 2.49
-1.14 -9.53 2.49
-0.95 -9.55 2.49
-0.76 -9.57 2.49
-0.57 -9.59 2.49
-0.38 -9.60 2.49
-0.18 -9.61 2.49
0.01 -8.80 2.49
0.19 -8.80 2.49
0.36 -8.79 2.49
0.54 -8.79 2.49
0.72 -8.78 2.49
0.89 -8.76 2.49
1.07 -8.75 2.49
1.25 -8.73 2.49
1.42 -8.70 2.49
1.60 -8.68 2.49
1.77 -8.64 2.49
1.94 -8.61 2.49
2.03 -8.22 2.39
2.19 -8.18 2.39
2.36 -8.13 2.39
2.39 -7.68 2.27
2.62 -7.84 2.33
2.79 -7.84 2.35
2.94 -7.75 2.34
3.01 -7.47 2.27
3.33 -7.81 2.39
3.48 -7.74 2.39
3.64 -7.67 2.39
3.79 -7.60 2.39
3.95 -7.53 2.39
4.10 -7.45 2.39
4.25 -7.37 2.39
4.39 -7.28 2.39
4.54 -7.19 2.39
4.69 -7.10 2.39
4.83 -7.01 2.39
4.97 -6.91 2.39
5.11 -6.81 2.39
5.25 -6.71 2.39
5.38 -6.61 2.39
5.51 -6.50 2.39
5.65 -6.39 2.39
5.77 -6.28 2.39
5.90 -6.16 2.39
6.02 -6.04 2.39
6.36 -6.13 2.47
6.48 -6.00 2.47
6.07 -5.40 2.27
6.07 -5.19 2.24
6.09 -4.99 2.20
6.95 -5.47 2.47
7.06 -5.33 2.47
7.17 -5.19 2.47
7.27 -5.04 2.47
29.72 -19.74 9.97
31.21 -19.85 10.34
6.14 -3.25 1.94
43.24 -20.68 13.38
42.61 -19.34 13.06
42.64 -18.32 12.95
42.51 -17.27 12.80
6.18 -2.37 1.85
6.19 -2.23 1.84
8.39 -2.83 2.47
8.44 -2.66 2.47
8.50 -2.49 2.47
8.55 -2.32 2.47
8.59 -2.15 2.47
6.20 -1.42 1.77
6.21 -1.29 1.77
6.52 -1.22 1.85
7.56 -1.26 2.14
8.00 -1.17 2.25
8.03 -1.01 2.25
8.05 -0.85 2.25
8.06 -0.69 2.25
8.07 -0.53 2.25
8.08 -0.36 2.25
8.09 -0.20 2.25
8.09 -0.04 2.25
8.09 0.12 2.25
8.09 0.28 2.25
8.08 0.45 2.25
8.07 0.61 2.25
8.06 0.77 2.25
8.04 0.93 2.25
8.02 1.09 2.25
8.00 1.25 2.25
7.97 1.41 2.25
7.94 1.57 2.25
7.91 1.73 2.25
7.87 1.89 2.25
7.83 2.05 2.25
7.79 2.20 2.25
7.74 2.36 2.25
7.69 2.51 2.25
7.64 2.67 2.25
7.58 2.82 2.25
7.52 2.97 2.25
7.46 3.12 2.25
7.40 3.27 2.25
7.33 3.42 2.25
7.26 3.56 2.25
7.18 3.71 2.25
7.11 3.85 2.25
7.03 3.99 2.25
6.95 4.13 2.25
6.86 4.27 2.25
6.77 4.40 2.25
6.68 4.54 2.25
6.59 4.67 2.25
6.50 4.81 2.26
6.51 5.02 2.29
6.52 5.24 2.33
6.52 5.46 2.38
6.45 5.62 2.39
6.34 5.75 2.39
6.22 5.88 2.39
6.10 6.00 2.39
5.98 6.12 2.39
5.85 6.24 2.39
5.72 6.35 2.39
5.59 6.46 2.39
5.46 6.57 2.39
5.33 6.68 2.39
5.19 6.78 2.39
5.05 6.88 2.39
4.91 6.98 2.39
4.77 7.08 2.39
4.63 7.17 2.39
4.48 7.26 2.39
4.33 7.35 2.39
4.18 7.43 2.39
4.03 7.51 2.39
3.88 7.59 2.39
3.73 7.66 2.39
3.47 7.52 2.33
3.29 7.53 2.31
3.12 7.53 2.29
2.95 7.54 2.28
2.94 7.98 2.39
2.78 8.04 2.39
2.61 8.09 2.39
2.55 8.49 2.49
2.38 8.54 2.49
2.21 8.58 2.49
2.04 8.62 2.49
1.86 8.66 2.49
1.69 8.69 2.49
1.51 8.72 2.49
1.34 8.74 2.49
1.16 8.77 2.49
0.98 8.79 2.49
0.81 8.80 2.49
0.63 8.81 2.49
0.45 8.82 2.49
0.28 8.82 2.49
0.10 8.83 2.49
-0.08 8.82 2.49
-0.25 8.82 2.49
-0.43 8.81 2.49
-0.61 8.79 2.49
-0.78 8.78 2.49
-0.96 8.76 2.49
-1.14 8.73 2.49
-1.31 8.70 2.49
-1.48 8.67 2.49
-1.66 8.64 2.49
-1.83 8.60 2.49
-2.00 8.56 2.49
-2.17 8.52 2.49
-2.34 8.47 2.49
-2.51 8.42 2.49
-2.68 8.36 2.49
-2.84 8.30 2.49
-3.01 8.24 2.49
-3.17 8.18 2.49
-3.34 8.11 2.49
-3.50 8.04 2.49
-3.66 7.96 2.49
-3.81 7.89 2.49
-3.97 7.81 2.49
-4.13 7.72 2.49
-4.28 7.64 2.49
-4.43 7.55 2.49
-4.58 7.45 2.49
-4.73 7.36 2.49
-4.87 7.26 2.49
-5.02 7.16 2.49
-5.16 7.05 2.49
-5.30 6.95 2.49
-5.43 6.84 2.49
-5.52 6.67 2.47
-5.53 6.42 2.42
-5.59 6.22 2.39
-5.71 6.11 2.39
-5.83 5.99 2.39
-5.95 5.87 2.39
-6.06 5.75 2.39
-6.18 5.62 2.39
-6.29 5.50 2.39
-6.39 5.37 2.39
-6.50 5.24 2.39
-6.60 5.11 2.39
-6.70 4.97 2.39
-6.80 4.83 2.39
-6.89 4.70 2.39
-6.99 4.56 2.39
-7.07 4.41 2.39
-7.16 4.27 2.39
-7.24 4.12 2.39
-7.32 3.98 2.39
-7.40 3.83 2.39
-7.47 3.68 2.39
-7.55 3.53 2.39
-7.61 3.37 2.39
-7.68 3.22 2.39
-7.74 3.06 2.39
-7.80 2.91 2.39
-7.85 2.75 2.39
-7.91 2.59 2.39
-7.96 2.43 2.39
-8.00 2.27 2.39
-8.05 2.11 2.39
-8.09 1.95 2.39
-8.12 1.78 2.39
-6.02 1.20 1.76
-5.99 1.06 1.75
-8.21 1.29 2.39
-8.24 1.13 2.39
-8.26 0.96 2.39
-8.27 0.79 2.39
-8.29 0.63 2.39
-8.30 0.46 2.39
-8.31 0.29 2.39
-8.31 0.13 2.39
-8.31 -0.04 2.39
-8.31 -0.21 2.39
-8.30 -0.37 2.39
-8.29 -0.54 2.39
-8.28 -0.71 2.39
-8.26 -0.87 2.39
-8.24 -1.04 2.39
-8.22 -1.21 2.39
-8.20 -1.37 2.39
-8.17 -1.54 2.39
-8.13 -1.70 2.39
-8.10 -1.86 2.39
-8.06 -2.02 2.39
-8.02 -2.19 2.39
-7.97 -2.35 2.39
-7.93 -2.51 2.39
-7.87 -2.67 2.39
-7.82 -2.82 2.39
-7.76 -2.98 2.39
-7.70 -3.14 2.39
-7.64 -3.29 2.39
-7.57 -3.44 2.39
-7.50 -3.60 2.39
-7.43 -3.75 2.39
-7.35 -3.90 2.39
-7.27 -4.04 2.39
-7.19 -4.19 2.39
-7.11 -4.33 2.39
-7.02 -4.48 2.39
-6.93 -4.62 2.39
-6.83 -4.75 2.39
-6.74 -4.89 2.39
-6.64 -5.03 2.39
-6.54 -5.16 2.39
-6.44 -5.29 2.39
-6.33 -5.42 2.39
-6.22 -5.55 2.39
-6.11 -5.67 2.39
-6.00 -5.80 2.39
-5.99 -6.03 2.44
-6.00 -6.29 2.49
-5.88 -6.42 2.49
-5.75 -6.53 2.49
-5.62 -6.65 2.49
-5.49 -6.76 2.49
-5.35 -6.87 2.49
-5.21 -6.98 2.49
-5.07 -7.09 2.49
-4.93 -7.19 2.49
-4.79 -7.29 2.49
-4.64 -7.38 2.49
-4.49 -7.48 2.49
-4.34 -7.57 2.49
-4.19 -7.66 2.49
-4.04 -7.74 2.49
-3.88 -7.82 2.49
-3.73 -7.90 2.49
-3.57 -7.98 2.49
-3.41 -8.05 2.49
-3.25 -8.12 2.49
-3.08 -8.18 2.49
-2.92 -8.25 2.49
-2.75 -8.31 2.49
-2.59 -8.36 2.49
-2.42 -8.42 2.49
-2.25 -8.46 2.49
-2.08 -8.51 2.49
-1.91 -8.55 2.49
-1.74 -8.59 2.49
-1.57 -8.63 2.49
-1.39 -8.66 2.49
-1.22 -8.69 2.49
-1.04 -8.72 2.49
-0.87 -8.74 2.49
-0.69 -8.76 2.49
-0.52 -8.77 2.49
-0.34 -8.78 2.49
-0.17 -8.79 2.49
0.01 -8.10 2.49
0.17 -8.10 2.49
0.34 -8.09 2.49
0.50 -8.09 2.49
0.66 -8.08 2.49
0.82 -8.07 2.49
0.99 -8.05 2.49
1.15 -8.03 2.49
1.31 -8.01 2.49
1.47 -7.98 2.49
1.63 -7.96 2.49
1.79 -7.92 2.49
1.95 -7.89 2.49
2.02 -7.53 2.39
2.17 -7.49 2.39
2.32 -7.44 2.39
2.38 -7.11 2.30
2.49 -6.97 2.27
2.72 -7.18 2.35
2.87 -7.12 2.35
2.97 -6.97 2.32
3.04 -6.76 2.27
3.35 -7.06 2.39
3.49 -6.99 2.39
3.63 -6.92 2.39
3.77 -6.85 2.39
3.91 -6.78 2.39
4.04 -6.70 2.39
4.18 -6.62 2.39
4.31 -6.53 2.39
4.44 -6.45 2.39
4.57 -6.36 2.39
4.70 -6.27 2.39
4.83 -6.17 2.39
4.95 -6.08 2.39
5.07 -5.98 2.39
5.19 -5.88 2.39
5.31 -5.77 2.39
5.43 -5.67 2.39
5.54 -5.56 2.39
5.65 -5.45 2.39
5.76 -5.33 2.39
5.87 -5.22 2.39
5.97 -5.10 2.39
6.08 -4.98 2.39
6.38 -5.02 2.47
6.48 -4.89 2.47
6.58 -4.76 2.47
6.11 -4.24 2.26
6.77 -4.50 2.47
6.86 -4.36 2.47
6.94 -4.22 2.47
7.03 -4.08 2.47
7.13 -3.95 2.47
6.14 -3.25 2.11
7.28 -3.66 2.48
7.34 -3.51 2.47
7.41 -3.36 2.47
7.47 -3.21 2.47
7.54 -3.06 2.47
7.60 -2.91 2.47
7.66 -2.76 2.47
7.71 -2.60 2.47
7.76 -2.45 2.47
7.81 -2.29 2.47
7.86 -2.14 2.47
7.90 -1.98 2.47
6.20 -1.42 1.93
6.21 -1.29 1.92
6.52 -1.22 2.01
7.34 -1.22 2.25
7.36 -1.08 2.25
7.38 -0.93 2.25
7.40 -0.78 2.25
7.41 -0.63 2.25
7.42 -0.48 2.25
7.43 -0.33 2.25
7.44 -0.19 2.25
7.44 -0.04 2.25
7.44 0.11 2.25
7.44 0.26 2.25
7.43 0.41 2.25
7.42 0.56 2.25
7.41 0.71 2.25
7.39 0.86 2.25
7.37 1.00 2.25
7.35 1.15 2.25
7.33 1.30 2.25
7.30 1.45 2.25
7.27 1.59 2.25
7.23 1.74 2.25
7.20 1.88 2.25
7.16 2.03 2.25
7.12 2.17 2.25
7.07 2.31 2.25
7.02 2.45 2.25
6.97 2.59 2.25
6.92 2.73 2.25
6.86 2.87 2.25
6.80 3.01 2.25
6.74 3.14 2.25
6.67 3.28 2.25
6.61 3.41 2.25
6.54 3.54 2.25
6.46 3.67 2.25
6.46 3.84 2.28
6.47 4.03 2.31
6.48 4.21 2.34
6.49 4.40 2.38
6.43 4.56 2.39
6.33 4.68 2.39
6.24 4.81 2.39
6.14 4.93 2.39
6.04 5.05 2.39
5.93 5.17 2.39
5.83 5.29 2.39
5.72 5.40 2.39
5.61 5.52 2.39
5.50 5.63 2.39
5.38 5.73 2.39
5.26 5.84 2.39
5.14 5.94 2.39
5.02 6.04 2.39
4.90 6.14 2.39
4.77 6.24 2.39
4.65 6.33 2.39
4.52 6.42 2.39
4.39 6.51 2.39
4.26 6.59 2.39
4.12 6.68 2.39
3.99 6.76 2.39
3.85 6.83 2.39
3.71 6.91 2.39
3.57 6.98 2.39
3.43 7.05 2.39
3.28 7.11 2.39
3.14 7.17 2.39
3.00 7.23 2.39
2.85 7.29 2.39
2.70 7.34 2.39
2.57 7.44 2.41
2.51 7.76 2.49
2.35 7.81 2.49
2.19 7.85 2.49
2.03 7.89 2.49
1.87 7.93 2.49
1.71 7.96 2.49
1.55 7.99 2.49
1.39 8.02 2.49
1.23 8.05 2.49
1.07 8.07 2.49
0.91 8.08 2.49
0.74 8.10 2.49
0.58 8.11 2.49
0.42 8.12 2.49
0.26 8.12 2.49
0.09 8.12 2.49
-0.07 8.12 2.49
-0.23 8.11 2.49
-0.40 8.11 2.49
-0.56 8.09 2.49
-0.72 8.08 2.49
-0.88 8.06 2.49
-1.04 8.04 2.49
-1.20 8.01 2.49
-1.36 7.98 2.49
-1.52 7.95 2.49
-1.68 7.92 2.49
-1.84 7.88 2.49
-2.00 7.84 2.49
-2.15 7.80 2.49
-2.31 7.75 2.49
-2.46 7.70 2.49
-2.62 7.64 2.49
-2.77 7.59 2.49
-2.92 7.53 2.49
-3.07 7.47 2.49
-3.22 7.40 2.49
-3.37 7.33 2.49
-3.51 7.26 2.49
-3.66 7.19 2.49
-3.80 7.11 2.49
-3.94 7.03 2.49
-4.08 6.95 2.49
-4.22 6.86 2.49
-4.35 6.78 2.49
-4.49 6.69 2.49
-4.62 6.59 2.49
-4.75 6.50 2.49
-4.88 6.40 2.49
-5.00 6.30 2.49
-5.13 6.19 2.49
-5.25 6.09 2.49
-5.37 5.98 2.49
-5.49 5.87 2.49
-5.56 5.71 2.47
-5.57 5.49 2.43
-5.59 5.30 2.39
-5.69 5.18 2.39
-5.79 5.07 2.39
-5.89 4.95 2.39
-5.99 4.83 2.39
-6.08 4.70 2.39
-6.17 4.58 2.39
-6.26 4.45 2.39
-6.35 4.33 2.39
-6.43 4.20 2.39
-6.52 4.07 2.39
-6.60 3.93 2.39
-6.67 3.80 2.39
-6.75 3.66 2.39
-6.82 3.53 2.39
-6.89 3.39 2.39
-6.95 3.25 2.39
-7.01 3.11 2.39
-7.07 2.97 2.39
-7.13 2.82 2.39
-7.18 2.68 2.39
-7.24 2.53 2.39
-7.28 2.39 2.39
-7.33 2.24 2.39
-7.37 2.09 2.39
-7.41 1.94 2.39
-7.45 1.79 2.39
-7.48 1.64 2.39
-6.02 1.19 1.91
-5.98 1.06 1.90
-7.57 1.19 2.39
-7.59 1.04 2.39
-7.61 0.88 2.39
-7.62 0.73 2.39
-7.64 0.58 2.39
-7.65 0.42 2.39
-7.65 0.27 2.39
-7.66 0.12 2.39
-7.66 -0.04 2.39
-7.65 -0.19 2.39
-7.65 -0.35 2.39
-7.64 -0.50 2.39
-7.63 -0.65 2.39
-7.61 -0.81 2.39
-7.60 -0.96 2.39
-7.58 -1.11 2.39
-7.55 -1.26 2.39
-7.52 -1.41 2.39
-7.50 -1.57 2.39
-7.46 -1.72 2.39
