ply
format ascii 1.0
element vertex 2910
property float32 x
property float32 y
property float32 z
end_header
-5.49 15.92 2.49
-5.81 15.82 2.49
-6.13 15.71 2.49
-6.18 14.94 2.39
-6.48 14.82 2.39
-6.78 14.70 2.39
-7.08 14.57 2.39
-7.38 14.43 2.39
-7.67 14.29 2.39
-7.96 14.15 2.39
-8.25 13.99 2.39
-8.53 13.83 2.39
-8.82 13.67 2.39
-9.10 13.50 2.39
-9.37 13.32 2.39
-9.65 13.14 2.39
-9.91 12.96 2.39
-9.96 12.48 2.34
-9.95 11.97 2.28
-9.94 11.48 2.22
-9.93 11.01 2.17
-9.92 10.57 2.12
-9.91 10.14 2.07
-9.90 9.73 2.02
-9.89 9.34 1.98
-9.88 8.97 1.94
-9.87 8.60 1.90
-9.57 8.00 1.81
-9.93 7.98 1.85
-10.33 7.96 1.89
-10.75 7.95 1.94
-11.19 7.93 1.98
-11.66 7.91 2.04
-12.15 7.89 2.09
-12.67 7.88 2.15
-13.23 7.86 2.22
-13.84 7.85 2.29
-14.48 7.83 2.37
-14.69 7.57 2.37
-14.81 7.26 2.37
-14.91 6.94 2.36
-14.93 6.59 2.34
-14.95 6.24 2.32
-14.95 5.89 2.30
-14.96 5.55 2.28
-14.95 5.21 2.26
-15.00 4.89 2.25
-15.08 4.58 2.24
-15.19 4.28 2.24
-15.28 3.98 2.24
-15.38 3.68 2.24
-15.46 3.37 2.24
-15.55 3.07 2.24
-15.62 2.76 2.24
-14.83 2.31 2.12
-14.88 2.01 2.12
-14.93 1.72 2.12
-14.97 1.42 2.12
-15.01 1.12 2.12
-15.04 0.82 2.12
-15.07 0.51 2.12
-16.00 0.22 2.24
-16.01 -0.10 2.24
-16.03 -0.42 2.24
-16.03 -0.74 2.24
-16.03 -1.06 2.24
-16.02 -1.39 2.24
-16.01 -1.71 2.24
-15.99 -2.03 2.24
-15.96 -2.35 2.24
-15.92 -2.68 2.24
-15.88 -3.00 2.24
-15.84 -3.32 2.24
-15.78 -3.64 2.24
-15.72 -3.96 2.24
-15.65 -4.28 2.24
-15.58 -4.60 2.24
-15.50 -4.91 2.24
-15.21 -5.16 2.21
-14.20 -5.14 2.08
-13.31 -5.12 1.96
-12.60 -5.14 1.87
-11.87 -5.12 1.78
-11.14 -5.07 1.68
-10.62 -5.10 1.61
-10.02 -5.06 1.54
-9.72 -5.15 1.51
-9.75 -5.42 1.53
-9.75 -5.68 1.54
-5.96 -3.64 0.95
-9.77 -6.23 1.58
-9.73 -6.48 1.59
-9.72 -6.77 1.61
-9.75 -7.08 1.64
-9.74 -7.38 1.66
-9.70 -7.66 1.68
-9.73 -8.00 1.71
-9.72 -8.33 1.74
-9.68 -8.64 1.76
-9.71 -9.01 1.80
-9.70 -9.38 1.83
-9.66 -9.72 1.86
-9.68 -10.14 1.90
-9.64 -10.51 1.93
-9.67 -10.97 1.98
-9.65 -11.41 2.02
-9.65 -11.88 2.07
-9.64 -12.37 2.12
-9.63 -12.88 2.17
-9.61 -13.41 2.22
-9.60 -13.98 2.29
-9.22 -14.02 2.26
-8.84 -14.04 2.23
-9.16 -15.23 2.39
-8.86 -15.41 2.39
-8.55 -15.59 2.39
-8.24 -15.77 2.39
-7.92 -15.93 2.39
-7.60 -16.09 2.39
-7.28 -16.25 2.39
-6.96 -16.39 2.39
-6.63 -16.53 2.39
-6.29 -16.66 2.39
-5.96 -16.79 2.39
-5.62 -16.91 2.39
-5.46 -17.57 2.47
-5.16 -17.86 2.49
-4.80 -17.96 2.49
-4.44 -18.06 2.49
-4.07 -18.14 2.49
-3.71 -18.22 2.49
-3.34 -18.29 2.49
-2.97 -18.35 2.49
-2.61 -18.41 2.49
-2.24 -18.46 2.49
-1.86 -18.50 2.49
-1.49 -18.53 2.49
-1.12 -18.55 2.49
-0.75 -18.57 2.49
-0.38 -18.57 2.49
-0.00 -15.86 2.49
0.31 -15.85 2.49
0.63 -15.84 2.49
0.95 -15.82 2.49
1.27 -15.79 2.49
1.58 -15.76 2.49
1.90 -15.72 2.49
2.21 -15.67 2.49
2.52 -15.62 2.49
2.73 -14.97 2.40
2.88 -14.17 2.28
3.26 -14.54 2.35
3.46 -14.13 2.30
3.90 -14.63 2.39
4.19 -14.54 2.39
4.48 -14.45 2.39
4.76 -14.35 2.39
5.05 -14.24 2.39
5.33 -14.13 2.39
5.61 -14.01 2.39
5.89 -13.89 2.39
6.16 -13.76 2.39
6.43 -13.63 2.39
7.53 -15.15 2.69
7.67 -14.69 2.63
10.02 -18.30 3.32
10.47 -18.24 3.35
10.88 -18.10 3.36
11.29 -17.95 3.38
11.69 -17.79 3.39
12.25 -17.85 3.45
12.94 -18.07 3.55
13.63 -18.25 3.64
15.38 -19.75 4.00
6.37 -7.85 1.62
6.36 -7.52 1.58
6.35 -7.22 1.54
34.95 34.38 8.39
33.81 34.62 8.28
6.05 6.72 1.55
29.65 34.27 7.77
28.73 34.59 7.71
6.04 7.89 1.70
25.07 34.17 7.27
24.01 34.15 7.17
23.56 34.99 7.25
19.15 34.05 6.72
18.32 34.16 6.67
5.96 11.67 2.25
5.96 12.27 2.35
5.82 12.62 2.39
5.56 12.73 2.39
5.30 12.84 2.39
5.04 12.94 2.39
4.78 13.04 2.39
4.52 13.13 2.39
4.25 13.22 2.39
3.99 13.30 2.39
3.72 13.37 2.39
3.45 13.45 2.39
3.18 13.51 2.39
2.90 13.57 2.39
2.63 13.63 2.39
2.36 13.68 2.39
2.08 13.72 2.39
1.88 14.36 2.49
1.59 14.39 2.49
1.30 14.42 2.49
1.01 14.45 2.49
0.72 14.47 2.49
0.43 14.48 2.49
0.14 14.49 2.49
-0.15 14.49 2.49
-0.44 14.49 2.49
-0.73 14.48 2.49
-1.02 14.47 2.49
-1.31 14.45 2.49
-1.60 14.42 2.49
-1.89 14.39 2.49
-2.18 14.35 2.49
-2.47 14.31 2.49
-2.76 14.26 2.49
-3.05 14.21 2.49
-3.33 14.15 2.49
-3.62 14.09 2.49
-3.90 14.02 2.49
-4.19 13.94 2.49
-4.47 13.86 2.49
-4.75 13.77 2.49
-5.02 13.68 2.49
-5.30 13.59 2.49
-5.58 13.48 2.49
-5.85 13.37 2.49
-6.11 13.25 2.49
-6.12 12.60 2.39
-6.38 12.48 2.39
-6.63 12.36 2.39
-6.88 12.23 2.39
-7.13 12.09 2.39
-7.38 11.96 2.39
-7.62 11.81 2.39
-7.86 11.66 2.39
-8.10 11.51 2.39
-8.34 11.35 2.39
-8.57 11.19 2.39
-8.80 11.03 2.39
-9.02 10.85 2.39
-9.25 10.68 2.39
-9.46 10.50 2.39
-9.68 10.31 2.39
-9.89 10.12 2.39
-9.90 9.73 2.34
-9.89 9.34 2.29
-9.88 8.96 2.25
-9.87 8.60 2.21
-9.57 8.00 2.10
-9.94 7.98 2.14
-10.34 7.96 2.19
-10.76 7.95 2.25
-11.20 7.93 2.30
-11.66 7.91 2.36
-10.79 7.01 2.16
-10.79 6.70 2.13
-10.78 6.40 2.10
-10.78 6.11 2.07
-11.17 6.04 2.12
-12.71 6.55 2.38
-12.86 6.30 2.39
-13.01 6.05 2.39
-13.12 5.79 2.39
-13.23 5.52 2.38
-10.88 4.28 1.94
-11.12 4.13 1.97
-11.12 3.87 1.95
-11.11 3.62 1.94
-13.53 4.11 2.34
-13.50 3.80 2.32
-13.45 3.50 2.30
-13.41 3.21 2.27
-13.38 2.92 2.26
-13.44 2.65 2.26
-13.09 2.31 2.19
-13.13 2.04 2.18
-13.16 1.78 2.18
-13.20 1.51 2.18
-13.23 1.25 2.18
-13.25 0.98 2.18
-13.27 0.72 2.17
-13.29 0.45 2.17
-13.74 0.19 2.24
-13.75 -0.09 2.24
-13.76 -0.36 2.24
-13.76 -0.64 2.24
-13.76 -0.91 2.24
-13.75 -1.19 2.24
-13.74 -1.47 2.24
-13.72 -1.75 2.24
-13.71 -2.02 2.25
-13.72 -2.31 2.25
-13.74 -2.60 2.26
-13.74 -2.88 2.27
-13.74 -3.17 2.28
-13.70 -3.45 2.28
-13.64 -3.73 2.28
-13.59 -4.01 2.28
-13.52 -4.29 2.28
-13.46 -4.57 2.29
-13.39 -4.85 2.29
-13.30 -5.12 2.29
-12.59 -5.14 2.18
-11.87 -5.12 2.07
-11.13 -5.07 1.96
-10.61 -5.10 1.89
-10.02 -5.06 1.80
-9.72 -5.16 1.76
-9.75 -5.43 1.78
-9.75 -5.68 1.80
-5.95 -3.63 1.11
-9.77 -6.23 1.85
-9.73 -6.49 1.86
-9.72 -6.77 1.89
-9.75 -7.08 1.92
-9.74 -7.38 1.94
-9.70 -7.66 1.96
-9.73 -8.00 2.00
-9.72 -8.33 2.03
-9.68 -8.64 2.06
-9.71 -9.02 2.10
-9.70 -9.38 2.14
-9.66 -9.72 2.17
-9.68 -10.14 2.22
-9.64 -10.51 2.26
-9.67 -10.97 2.31
-9.65 -11.41 2.36
-9.54 -11.75 2.39
-9.31 -11.94 2.39
-9.07 -12.13 2.39
-8.83 -12.32 2.39
-8.58 -12.50 2.39
-8.33 -12.67 2.39
-8.08 -12.84 2.39
-7.82 -13.00 2.39
-7.56 -13.16 2.39
-7.30 -13.32 2.39
-7.03 -13.46 2.39
-6.76 -13.60 2.39
-6.49 -13.74 2.39
-6.22 -13.87 2.39
-5.94 -14.00 2.39
-5.66 -14.11 2.39
-5.52 -14.61 2.46
-5.31 -14.95 2.49
-5.01 -15.06 2.49
-4.71 -15.16 2.49
-4.40 -15.25 2.49
-4.09 -15.34 2.49
-3.79 -15.42 2.49
-3.48 -15.49 2.49
-3.17 -15.55 2.49
-2.85 -15.62 2.49
-2.54 -15.67 2.49
-2.22 -15.72 2.49
-1.91 -15.76 2.49
-1.59 -15.79 2.49
-1.28 -15.82 2.49
-0.96 -15.84 2.49
-0.64 -15.85 2.49
-0.32 -15.86 2.49
-0.00 -13.82 2.49
0.27 -13.82 2.49
0.55 -13.81 2.49
0.83 -13.79 2.49
1.10 -13.77 2.49
1.38 -13.74 2.49
1.65 -13.70 2.49
1.93 -13.67 2.49
2.20 -13.62 2.49
2.47 -13.57 2.49
2.63 -12.95 2.39
2.85 -12.71 2.36
3.09 -12.62 2.35
3.34 -12.55 2.35
3.47 -12.04 2.27
3.90 -12.60 2.39
4.15 -12.52 2.39
4.40 -12.42 2.39
4.65 -12.33 2.39
4.89 -12.23 2.39
5.13 -12.12 2.39
5.37 -12.01 2.39
5.61 -11.89 2.39
5.85 -11.77 2.39
6.08 -11.65 2.39
6.31 -11.52 2.39
7.37 -12.84 2.70
6.43 -10.71 2.28
7.62 -12.12 2.61
8.43 -12.83 2.80
10.10 -14.72 3.26
6.40 -8.93 2.01
6.39 -8.55 1.95
11.23 -14.43 3.35
11.61 -14.31 3.38
12.10 -14.32 3.44
12.69 -14.43 3.52
13.30 -14.52 3.61
15.12 -15.86 4.02
6.32 -5.64 1.56
6.34 -5.44 1.54
6.09 5.09 1.54
6.08 5.30 1.57
6.09 5.99 1.66
33.81 34.61 9.41
6.06 7.00 1.80
6.06 7.30 1.85
25.07 34.17 8.26
24.01 34.15 8.14
23.56 34.98 8.23
6.00 10.68 2.39
5.79 10.79 2.39
5.57 10.91 2.39
5.35 11.01 2.39
5.12 11.12 2.39
4.90 11.21 2.39
4.67 11.31 2.39
4.44 11.40 2.39
4.21 11.48 2.39
3.98 11.57 2.39
3.75 11.64 2.39
3.51 11.71 2.39
3.27 11.78 2.39
2.92 11.38 2.30
2.75 11.71 2.35
2.43 11.35 2.27
2.32 12.01 2.39
2.08 12.05 2.39
1.91 12.61 2.49
1.66 12.65 2.49
1.40 12.68 2.49
1.15 12.71 2.49
0.89 12.73 2.49
0.64 12.75 2.49
0.38 12.76 2.49
0.12 12.76 2.49
-0.13 12.77 2.49
-0.39 12.76 2.49
-0.65 12.76 2.49
-0.90 12.74 2.49
-1.16 12.72 2.49
-1.41 12.70 2.49
-1.67 12.67 2.49
-1.92 12.64 2.49
-2.18 12.60 2.49
-2.43 12.56 2.49
-2.68 12.51 2.49
-2.94 12.46 2.49
-3.19 12.40 2.49
-3.44 12.34 2.49
-3.69 12.27 2.49
-3.93 12.20 2.49
-4.18 12.13 2.49
-4.42 12.04 2.49
-4.67 11.96 2.49
-4.91 11.87 2.49
-5.15 11.77 2.49
-5.39 11.67 2.49
-5.62 11.57 2.49
-5.86 11.46 2.49
-6.07 11.31 2.49
-6.07 10.78 2.40
-6.28 10.64 2.39
-6.49 10.52 2.39
-6.71 10.39 2.39
-6.92 10.26 2.39
-7.13 10.12 2.39
-7.33 9.99 2.39
-7.54 9.84 2.39
-7.74 9.69 2.39
-7.93 9.54 2.39
-8.13 9.39 2.39
-8.32 9.23 2.39
-8.51 9.06 2.39
-8.70 8.90 2.39
-8.88 8.73 2.39
-9.06 8.55 2.39
-9.24 8.38 2.39
-9.41 8.19 2.39
-9.58 8.01 2.39
-9.74 7.82 2.39
-9.91 7.63 2.39
-10.13 7.48 2.41
-10.29 7.28 2.41
-10.44 7.08 2.41
-10.59 6.87 2.41
-10.73 6.67 2.41
-10.81 6.41 2.39
-10.80 6.12 2.36
-11.14 6.02 2.41
-11.27 5.80 2.41
-11.39 5.58 2.41
-11.51 5.35 2.41
-11.62 5.12 2.41
-11.68 4.87 2.40
-10.74 4.23 2.18
-10.73 3.98 2.16
-10.72 3.73 2.15
-10.72 3.49 2.13
-10.80 3.28 2.13
-11.93 3.36 2.34
-11.98 3.12 2.33
-12.03 2.87 2.33
-12.07 2.63 2.32
-11.80 2.32 2.26
-11.84 2.08 2.26
-11.88 1.85 2.25
-11.91 1.61 2.25
-11.94 1.37 2.25
-11.97 1.13 2.25
-11.99 0.89 2.25
-12.01 0.65 2.25
-12.02 0.41 2.25
-12.30 0.17 2.29
-12.30 -0.08 2.29
-12.31 -0.33 2.29
-12.30 -0.57 2.29
-10.63 -0.71 1.98
-10.63 -0.92 1.98
-10.62 -1.14 1.98
-10.62 -1.35 1.98
-10.61 -1.57 1.99
-12.34 -2.08 2.32
-12.34 -2.33 2.32
-12.34 -2.59 2.33
-12.31 -2.84 2.33
-12.26 -3.09 2.34
-12.22 -3.35 2.34
-12.17 -3.60 2.34
-10.57 -3.36 2.04
-10.57 -3.59 2.05
-10.56 -3.83 2.07
-10.56 -4.06 2.08
-10.55 -4.31 2.09
-11.79 -5.09 2.36
-11.13 -5.07 2.24
-10.61 -5.10 2.16
-10.02 -5.06 2.06
-9.72 -5.16 2.01
-9.75 -5.43 2.04
-9.75 -5.68 2.06
-5.95 -3.63 1.27
-9.77 -6.23 2.12
-9.73 -6.49 2.13
-9.72 -6.77 2.16
-9.75 -7.08 2.20
-9.74 -7.38 2.23
-9.70 -7.66 2.25
-9.73 -8.00 2.29
-9.72 -8.33 2.33
-9.68 -8.64 2.36
-9.64 -8.96 2.39
-9.47 -9.15 2.39
-9.28 -9.34 2.39
-9.10 -9.53 2.39
-8.91 -9.72 2.39
-8.72 -9.90 2.39
-8.52 -10.08 2.39
-8.32 -10.25 2.39
-8.12 -10.42 2.39
-7.91 -10.58 2.39
-7.70 -10.74 2.39
-7.48 -10.90 2.39
-7.27 -11.05 2.39
-7.04 -11.20 2.39
-6.82 -11.34 2.39
-6.59 -11.48 2.39
-6.36 -11.61 2.39
-6.13 -11.74 2.39
-5.90 -11.86 2.39
-5.66 -11.98 2.39
-5.57 -12.42 2.46
-5.40 -12.73 2.49
-5.14 -12.83 2.49
-4.89 -12.94 2.49
-4.63 -13.03 2.49
-4.36 -13.12 2.49
-4.10 -13.21 2.49
-3.84 -13.29 2.49
-3.57 -13.37 2.49
-3.30 -13.44 2.49
-3.03 -13.50 2.49
-2.76 -13.56 2.49
-2.49 -13.61 2.49
-2.21 -13.66 2.49
-1.94 -13.70 2.49
-1.66 -13.73 2.49
-1.39 -13.76 2.49
-1.11 -13.79 2.49
-0.84 -13.80 2.49
-0.56 -13.82 2.49
-0.28 -13.82 2.49
-0.00 -12.24 2.49
0.24 -12.23 2.49
0.49 -12.23 2.49
0.73 -12.21 2.49
0.98 -12.19 2.49
1.22 -12.17 2.49
1.46 -12.14 2.49
1.71 -12.10 2.49
1.95 -12.06 2.49
2.19 -12.02 2.49
2.43 -11.97 2.49
2.56 -11.42 2.39
2.78 -11.36 2.39
2.86 -10.73 2.27
3.18 -11.05 2.35
3.39 -10.95 2.35
3.49 -10.52 2.27
3.90 -11.01 2.39
4.12 -10.92 2.39
4.33 -10.83 2.39
4.55 -10.74 2.39
4.76 -10.64 2.39
4.97 -10.54 2.39
5.18 -10.43 2.39
5.38 -10.32 2.39
5.59 -10.21 2.39
5.79 -10.09 2.39
4.75 -7.91 1.90
4.86 -7.74 1.88
5.02 -7.64 1.88
5.17 -7.53 1.88
6.40 -8.94 2.27
7.59 -10.16 2.62
8.26 -10.61 2.78
9.56 -11.78 3.13
10.02 -11.87 3.21
10.39 -11.81 3.25
10.76 -11.75 3.30
11.13 -11.68 3.34
11.51 -11.59 3.38
11.93 -11.55 3.44
12.43 -11.55 3.52
6.32 -5.64 1.76
13.44 -11.53 3.68
6.32 -5.20 1.70
30.25 -23.91 8.02
32.48 -24.63 8.48
6.29 -4.20 1.58
6.28 -4.01 1.56
6.29 -3.84 1.54
35.92 -16.39 8.28
36.36 -15.72 8.31
36.77 -15.03 8.34
37.17 -14.33 8.37
38.33 -13.90 8.57
43.16 -9.99 9.36
42.71 -8.98 9.23
42.59 -8.07 9.17
43.22 -7.29 9.28
43.89 -6.50 9.40
43.86 -4.71 9.36
6.12 3.63 1.54
6.12 3.80 1.56
6.11 3.97 1.58
6.12 4.15 1.60
6.11 4.32 1.62
6.10 4.70 1.67
36.22 31.55 10.45
35.40 32.11 10.40
33.80 34.60 10.54
6.06 7.00 2.02
28.73 34.57 9.81
6.03 8.22 2.23
24.02 34.15 9.12
23.56 34.97 9.21
5.93 9.20 2.39
5.74 9.31 2.39
5.55 9.42 2.39
5.36 9.53 2.39
5.17 9.63 2.39
4.97 9.73 2.39
4.77 9.83 2.39
4.57 9.92 2.39
4.37 10.01 2.39
4.17 10.10 2.39
3.97 10.18 2.39
3.76 10.25 2.39
3.55 10.33 2.39
3.34 10.39 2.39
2.98 9.93 2.27
2.88 10.35 2.35
2.67 10.40 2.35
2.37 10.09 2.27
2.28 10.68 2.39
2.07 10.72 2.39
1.93 11.22 2.49
1.71 11.26 2.49
1.48 11.29 2.49
1.25 11.32 2.49
1.03 11.34 2.49
0.80 11.36 2.49
0.57 11.38 2.49
0.34 11.39 2.49
0.11 11.39 2.49
-0.12 11.40 2.49
-0.35 11.39 2.49
-0.58 11.39 2.49
-0.81 11.37 2.49
-1.03 11.36 2.49
-1.26 11.34 2.49
-1.49 11.31 2.49
-1.72 11.28 2.49
-1.94 11.25 2.49
-2.17 11.21 2.49
-2.40 11.17 2.49
-2.62 11.12 2.49
-2.85 11.07 2.49
-3.07 11.01 2.49
-3.29 10.95 2.49
-3.51 10.89 2.49
-3.73 10.82 2.49
-3.95 10.75 2.49
-4.17 10.67 2.49
-4.38 10.59 2.49
-4.59 10.50 2.49
-4.81 10.41 2.49
-5.02 10.32 2.49
-5.23 10.22 2.49
-5.43 10.12 2.49
-5.64 10.01 2.49
-5.84 9.90 2.49
-6.04 9.78 2.49
-6.04 9.35 2.41
-6.17 9.15 2.39
-6.36 9.03 2.39
-6.54 8.90 2.39
-6.72 8.77 2.39
-6.90 8.64 2.39
-7.07 8.51 2.39
-7.25 8.37 2.39
-7.42 8.22 2.39
-7.59 8.08 2.39
-7.75 7.93 2.39
-7.92 7.78 2.39
-8.07 7.62 2.39
-8.23 7.46 2.39
-8.38 7.30 2.39
-8.54 7.13 2.39
-8.68 6.97 2.39
-8.83 6.79 2.39
-8.97 6.62 2.39
-9.10 6.44 2.39
-9.24 6.26 2.39
-9.37 6.08 2.39
-9.49 5.89 2.39
-9.62 5.71 2.39
-9.74 5.52 2.39
-9.85 5.32 2.39
-10.03 5.16 2.41
-10.14 4.96 2.41
-10.24 4.76 2.41
-10.35 4.56 2.41
-10.44 4.35 2.41
-10.54 4.15 2.41
-10.62 3.94 2.41
-10.71 3.72 2.41
-10.74 3.50 2.40
-10.87 3.30 2.41
-10.94 3.08 2.41
-10.99 2.86 2.40
-11.03 2.63 2.40
-10.74 2.34 2.32
-10.78 2.12 2.32
-10.82 1.90 2.32
-10.85 1.68 2.32
-10.88 1.47 2.31
-10.91 1.25 2.31
-10.93 1.03 2.31
-10.95 0.81 2.31
-10.97 0.59 2.31
-10.98 0.37 2.31
-11.31 0.15 2.37
-11.31 -0.07 2.37
-11.31 -0.30 2.37
-11.31 -0.53 2.37
-10.63 -0.71 2.23
-10.63 -0.92 2.23
-10.62 -1.14 2.23
-10.62 -1.35 2.24
-10.61 -1.57 2.24
-11.28 -1.90 2.39
-11.25 -2.13 2.39
-11.22 -2.36 2.39
-11.19 -2.59 2.39
-11.15 -2.81 2.39
-11.10 -3.04 2.39
-11.06 -3.27 2.40
-10.60 -3.36 2.31
-10.59 -3.60 2.32
-10.59 -3.84 2.33
-10.58 -4.08 2.35
-10.58 -4.32 2.37
-10.68 -4.61 2.41
-10.59 -4.83 2.41
-10.50 -5.04 2.41
-10.02 -5.06 2.32
-9.72 -5.16 2.27
-9.75 -5.43 2.30
-9.75 -5.68 2.33
-5.92 -3.62 1.43
-5.87 -3.75 1.43
-9.66 -6.45 2.39
-9.54 -6.64 2.39
-9.41 -6.84 2.39
-9.27 -7.03 2.39
-9.13 -7.21 2.39
-8.99 -7.40 2.39
-8.85 -7.58 2.39
-8.70 -7.76 2.39
-8.54 -7.94 2.39
-8.39 -8.11 2.39
-8.23 -8.28 2.39
-8.06 -8.45 2.39
-7.89 -8.61 2.39
-7.72 -8.77 2.39
-7.55 -8.93 2.39
-7.37 -9.08 2.39
-7.19 -9.23 2.39
-7.00 -9.37 2.39
-6.82 -9.51 2.39
-6.63 -9.65 2.39
-6.43 -9.79 2.39
-6.24 -9.92 2.39
-6.04 -10.04 2.39
-5.84 -10.16 2.39
-5.63 -10.28 2.39
-5.60 -10.72 2.47
-5.45 -10.96 2.49
-5.23 -11.06 2.49
-5.00 -11.17 2.49
-4.78 -11.27 2.49
-4.55 -11.36 2.49
-4.33 -11.45 2.49
-4.10 -11.54 2.49
-3.86 -11.62 2.49
-3.63 -11.70 2.49
-3.40 -11.77 2.49
-3.16 -11.83 2.49
-2.92 -11.90 2.49
-2.68 -11.95 2.49
-2.44 -12.00 2.49
-2.20 -12.05 2.49
-1.96 -12.09 2.49
-1.72 -12.13 2.49
-1.47 -12.16 2.49
-1.23 -12.18 2.49
-0.98 -12.21 2.49
-0.74 -12.22 2.49
-0.49 -12.23 2.49
-0.25 -12.24 2.49
-0.00 -10.97 2.49
0.22 -10.97 2.49
0.44 -10.96 2.49
0.65 -10.95 2.49
0.87 -10.93 2.49
1.09 -10.91 2.49
1.31 -10.88 2.49
1.53 -10.85 2.49
1.74 -10.81 2.49
1.96 -10.77 2.49
2.18 -10.73 2.49
2.39 -10.68 2.49
2.49 -10.19 2.39
2.70 -10.13 2.39
2.90 -10.07 2.39
3.10 -10.01 2.39
3.30 -9.94 2.39
3.50 -9.87 2.39
3.69 -9.80 2.39
3.89 -9.72 2.39
4.08 -9.63 2.39
4.27 -9.55 2.39
4.46 -9.45 2.39
4.64 -9.36 2.39
4.83 -9.26 2.39
5.01 -9.16 2.39
5.19 -9.05 2.39
5.37 -8.94 2.39
4.74 -7.54 2.04
4.73 -7.21 1.98
4.72 -6.89 1.92
4.77 -6.66 1.88
4.90 -6.56 1.88
5.03 -6.47 1.88
7.36 -9.08 2.69
6.37 -7.54 2.27
7.54 -8.57 2.63
8.05 -8.79 2.75
9.02 -9.47 3.02
9.78 -9.86 3.20
10.07 -9.75 3.24
10.36 -9.63 3.27
6.32 -5.64 1.96
10.93 -9.37 3.33
11.21 -9.24 3.36
11.50 -9.10 3.40
11.83 -8.97 3.44
12.21 -8.88 3.50
12.59 -8.78 3.56
6.29 -4.20 1.76
13.36 -8.54 3.68
13.86 -8.47 3.78
6.28 -3.67 1.69
28.57 -15.93 7.61
6.28 -3.34 1.66
29.67 -15.01 7.75
30.19 -14.52 7.81
30.79 -14.06 7.90
31.43 -13.59 8.00
6.25 -2.56 1.58
6.25 -2.41 1.57
6.25 -2.27 1.55
6.24 -2.12 1.54
6.26 -1.99 1.54
36.47 -10.79 8.91
37.80 -10.37 9.19
38.64 -9.77 9.35
39.22 -9.08 9.46
39.81 -8.38 9.56
40.41 -7.66 9.67
40.97 -6.92 9.78
41.54 -6.16 9.89
42.54 -5.44 10.11
43.06 -4.63 10.21
43.35 -3.78 10.27
6.17 1.87 1.54
6.15 2.00 1.55
6.15 2.14 1.56
6.15 2.28 1.57
6.15 2.42 1.58
42.28 17.63 10.97
40.01 19.59 10.68
41.99 21.62 11.33
41.44 22.40 11.31
6.12 3.80 1.73
37.72 25.58 10.97
6.11 4.32 1.80
36.45 26.92 10.91
36.03 27.75 10.96
34.01 28.44 10.69
33.37 29.07 10.68
6.09 5.52 1.98
33.85 33.28 11.46
33.57 34.36 11.60
31.20 34.61 11.27
29.46 34.04 10.89
28.53 34.33 10.80
28.47 35.70 11.05
6.01 7.85 2.39
5.84 7.96 2.39
5.68 8.08 2.39
5.52 8.19 2.39
5.35 8.30 2.39
5.18 8.40 2.39
5.01 8.50 2.39
4.84 8.60 2.39
4.66 8.69 2.39
4.49 8.78 2.39
4.31 8.87 2.39
4.13 8.95 2.39
3.95 9.03 2.39
3.76 9.11 2.39
3.58 9.18 2.39
3.39 9.25 2.39
3.04 8.84 2.27
2.96 9.20 2.35
2.78 9.28 2.35
2.50 9.01 2.27
2.38 9.27 2.32
2.25 9.59 2.39
2.06 9.63 2.39
1.95 10.09 2.49
1.74 10.13 2.49
1.54 10.16 2.49
1.34 10.19 2.49
1.13 10.21 2.49
0.93 10.24 2.49
0.72 10.25 2.49
0.51 10.27 2.49
0.31 10.28 2.49
0.10 10.28 2.49
-0.11 10.28 2.49
-0.31 10.28 2.49
-0.52 10.27 2.49
-0.73 10.26 2.49
-0.93 10.25 2.49
-1.14 10.23 2.49
-1.35 10.21 2.49
-1.55 10.18 2.49
-1.76 10.15 2.49
-1.96 10.11 2.49
-2.16 10.07 2.49
-2.37 10.03 2.49
-2.57 9.98 2.49
-2.77 9.93 2.49
-2.97 9.88 2.49
-3.17 9.82 2.49
-3.37 9.76 2.49
-3.56 9.69 2.49
-3.76 9.62 2.49
-3.95 9.55 2.49
-4.14 9.47 2.49
-4.34 9.39 2.49
-4.53 9.30 2.49
-4.71 9.21 2.49
-4.90 9.12 2.49
-5.08 9.02 2.49
-5.27 8.92 2.49
-5.45 8.82 2.49
-5.63 8.71 2.49
-5.80 8.60 2.49
-5.98 8.49 2.49
-6.01 8.18 2.44
-6.06 7.91 2.39
-6.22 7.79 2.39
-6.38 7.67 2.39
-6.53 7.54 2.39
-6.69 7.41 2.39
-6.84 7.28 2.39
-6.99 7.14 2.39
-7.13 7.01 2.39
-7.28 6.86 2.39
-7.42 6.72 2.39
-7.55 6.57 2.39
-7.69 6.42 2.39
-7.82 6.27 2.39
-7.95 6.12 2.39
-8.08 5.96 2.39
-8.20 5.80 2.39
-8.32 5.64 2.39
-8.44 5.47 2.39
-8.55 5.31 2.39
-8.66 5.14 2.39
-8.77 4.96 2.39
-8.87 4.79 2.39
-8.97 4.61 2.39
-9.07 4.44 2.39
-9.16 4.26 2.39
-9.25 4.07 2.39
-9.34 3.89 2.39
-9.42 3.70 2.39
-9.50 3.52 2.39
-9.57 3.33 2.39
-9.64 3.14 2.39
-9.71 2.94 2.39
-9.77 2.75 2.39
-9.83 2.56 2.39
-9.83 2.35 2.38
-9.87 2.15 2.38
-9.91 1.95 2.37
-9.95 1.75 2.37
-9.98 1.55 2.37
-10.01 1.35 2.37
-10.03 1.15 2.37
-10.05 0.94 2.36
-10.07 0.74 2.36
-10.09 0.54 2.36
-10.30 0.34 2.41
-10.31 0.14 2.41
-10.32 -0.07 2.41
-10.32 -0.28 2.41
-10.32 -0.48 2.41
-10.31 -0.69 2.41
-10.30 -0.90 2.41
-10.29 -1.11 2.41
-10.27 -1.31 2.41
-10.25 -1.52 2.41
-10.23 -1.73 2.41
-10.19 -1.93 2.41
-10.16 -2.14 2.41
-10.12 -2.34 2.41
-10.08 -2.55 2.41
-10.03 -2.75 2.41
-9.98 -2.95 2.41
-9.93 -3.15 2.41
-9.87 -3.35 2.41
-9.74 -3.53 2.39
-9.67 -3.73 2.39
-9.60 -3.92 2.39
-9.52 -4.12 2.39
-9.44 -4.31 2.39
-9.36 -4.50 2.39
-9.27 -4.69 2.39
-9.18 -4.88 2.39
-9.09 -5.06 2.39
-8.99 -5.25 2.39
-5.92 -3.62 1.59
-5.87 -3.75 1.60
-8.67 -5.78 2.39
-8.56 -5.96 2.39
-8.44 -6.13 2.39
-8.32 -6.30 2.39
-8.19 -6.47 2.39
-8.07 -6.64 2.39
-7.93 -6.80 2.39
-7.80 -6.96 2.39
-7.66 -7.12 2.39
-7.52 -7.27 2.39
-7.38 -7.43 2.39
-7.23 -7.58 2.39
-7.08 -7.72 2.39
-6.92 -7.86 2.39
-6.77 -8.00 2.39
-6.61 -8.14 2.39
-6.44 -8.27 2.39
-6.28 -8.40 2.39
-6.11 -8.53 2.39
-5.94 -8.65 2.39
-5.77 -8.77 2.39
-5.65 -8.98 2.41
-5.63 -9.36 2.49
-5.46 -9.50 2.49
-5.27 -9.61 2.49
-5.08 -9.72 2.49
-4.88 -9.82 2.49
-4.68 -9.92 2.49
-4.49 -10.01 2.49
-4.28 -10.10 2.49
-4.08 -10.19 2.49
-3.88 -10.27 2.49
-3.67 -10.34 2.49
-3.46 -10.42 2.49
-3.25 -10.48 2.49
-3.04 -10.55 2.49
-2.83 -10.61 2.49
-2.62 -10.66 2.49
-2.40 -10.71 2.49
-2.19 -10.76 2.49
-1.97 -10.80 2.49
-1.76 -10.84 2.49
-1.54 -10.87 2.49
-1.32 -10.90 2.49
-1.10 -10.92 2.49
-0.88 -10.94 2.49
-0.66 -10.95 2.49
-0.44 -10.96 2.49
-0.22 -10.97 2.49
-0.00 -9.93 2.49
0.20 -9.93 2.49
0.39 -9.92 2.49
0.59 -9.91 2.49
0.79 -9.89 2.49
0.99 -9.87 2.49
1.19 -9.85 2.49
1.38 -9.82 2.49
1.58 -9.79 2.49
1.77 -9.75 2.49
1.97 -9.71 2.49
2.16 -9.67 2.49
2.36 -9.62 2.49
2.44 -9.18 2.39
2.62 -9.12 2.39
2.81 -9.07 2.39
2.99 -9.00 2.39
3.17 -8.94 2.39
3.34 -8.87 2.39
3.52 -8.80 2.39
3.69 -8.72 2.39
3.87 -8.65 2.39
4.04 -8.56 2.39
4.21 -8.48 2.39
4.37 -8.39 2.39
4.54 -8.30 2.39
4.70 -8.20 2.39
4.86 -8.10 2.39
4.83 -7.68 2.30
5.03 -7.66 2.32
5.33 -7.78 2.39
4.72 -6.61 2.06
4.81 -6.44 2.04
5.78 -7.44 2.39
5.93 -7.32 2.39
6.07 -7.19 2.39
6.21 -7.07 2.39
6.35 -6.94 2.39
7.25 -7.61 2.67
7.35 -7.41 2.66
7.44 -7.21 2.64
7.54 -7.01 2.62
6.32 -5.65 2.16
9.22 -7.92 3.10
6.32 -5.20 2.09
9.98 -7.89 3.25
10.20 -7.74 3.27
10.42 -7.58 3.30
10.64 -7.42 3.32
10.86 -7.25 3.34
11.07 -7.08 3.36
11.28 -6.89 3.39
6.28 -3.67 1.86
11.69 -6.52 3.44
11.96 -6.36 3.48
12.22 -6.18 3.52
6.27 -3.02 1.79
12.72 -5.81 3.60
12.97 -5.61 3.64
13.21 -5.40 3.67
13.44 -5.19 3.71
13.80 -5.01 3.78
6.25 -2.13 1.70
15.63 -4.97 4.23
32.46 -9.61 8.74
6.23 -1.71 1.67
34.51 -8.73 9.21
35.70 -8.28 9.48
36.87 -7.77 9.76
38.03 -7.22 10.03
38.89 -6.58 10.22
39.85 -5.92 10.45
40.77 -5.22 10.67
40.80 -4.39 10.66
42.69 -3.73 11.14
43.84 -2.95 11.42
6.19 0.33 1.62
6.19 0.58 1.62
23.95 3.22 6.32
23.60 3.66 6.25
23.21 4.08 6.17
22.95 4.51 6.13
22.79 4.95 6.11
46.19 13.00 12.60
45.37 13.76 12.45
44.75 14.56 12.37
44.43 15.45 12.37
6.15 2.28 1.73
38.45 15.13 10.88
42.30 17.63 12.07
40.02 17.63 11.52
39.13 18.18 11.37
39.90 19.53 11.72
42.90 22.08 12.73
6.13 3.31 1.84
6.13 3.47 1.86
38.07 22.59 11.70
40.79 25.32 12.69
39.97 25.95 12.60
37.39 25.35 11.95
6.11 4.32 1.98
36.21 26.74 11.92
33.20 25.56 11.10
6.10 4.90 2.07
33.94 28.37 11.73
33.24 28.94 11.69
34.36 31.16 12.30
33.73 31.85 12.31
6.08 5.97 2.26
32.47 33.23 12.34
7.22 7.69 2.80
6.03 6.69 2.39
5.89 6.80 2.39
5.75 6.92 2.39
5.61 7.03 2.39
5.46 7.14 2.39
5.32 7.25 2.39
5.17 7.35 2.39
5.02 7.45 2.39
4.87 7.55 2.39
4.71 7.64 2.39
4.56 7.74 2.39
4.40 7.82 2.39
4.24 7.91 2.39
4.08 7.99 2.39
3.92 8.07 2.39
3.76 8.15 2.39
3.59 8.22 2.39
3.43 8.29 2.39
3.09 7.93 2.27
2.99 8.15 2.31
2.87 8.34 2.35
2.70 8.39 2.35
2.44 8.15 2.27
2.39 8.60 2.38
2.23 8.68 2.39
2.05 8.73 2.39
1.96 9.14 2.49
1.77 9.18 2.49
1.59 9.22 2.49
1.40 9.25 2.49
1.22 9.27 2.49
1.03 9.30 2.49
0.84 9.32 2.49
0.65 9.33 2.49
0.47 9.34 2.49
0.28 9.35 2.49
0.09 9.36 2.49
-0.10 9.36 2.49
-0.29 9.35 2.49
-0.47 9.35 2.49
-0.66 9.34 2.49
-0.85 9.32 2.49
-1.04 9.31 2.49
-1.22 9.29 2.49
-1.41 9.26 2.49
-1.60 9.23 2.49
-1.78 9.20 2.49
-1.97 9.17 2.49
-2.15 9.13 2.49
-2.34 9.08 2.49
-2.52 9.04 2.49
-2.70 8.99 2.49
-2.88 8.93 2.49
-3.06 8.88 2.49
-3.24 8.82 2.49
-3.42 8.75 2.49
-3.60 8.68 2.49
-3.77 8.61 2.49
-3.94 8.54 2.49
-4.12 8.46 2.49
-4.29 8.38 2.49
-4.46 8.30 2.49
-4.62 8.21 2.49
-4.79 8.12 2.49
-4.95 8.02 2.49
-5.12 7.92 2.49
-5.28 7.82 2.49
-5.44 7.72 2.49
-5.59 7.61 2.49
-5.75 7.50 2.49
-5.90 7.39 2.49
-5.98 7.19 2.47
-5.99 6.91 2.41
-6.08 6.74 2.39
-6.22 6.62 2.39
-6.35 6.49 2.39
-6.48 6.37 2.39
-6.61 6.24 2.39
-6.74 6.11 2.39
-6.87 5.97 2.39
-6.99 5.84 2.39
-7.11 5.70 2.39
-7.23 5.56 2.39
-7.34 5.42 2.39
-7.45 5.27 2.39
-7.56 5.12 2.39
-7.67 4.97 2.39
-7.77 4.82 2.39
-7.87 4.67 2.39
-7.97 4.51 2.39
-8.06 4.35 2.39
-8.15 4.19 2.39
-8.24 4.03 2.39
-8.32 3.86 2.39
-8.40 3.70 2.39
-8.48 3.53 2.39
-8.55 3.36 2.39
-8.62 3.19 2.39
-8.69 3.02 2.39
-8.76 2.85 2.39
-8.82 2.67 2.39
-8.87 2.50 2.39
-8.93 2.32 2.39
-8.98 2.14 2.39
-9.02 1.96 2.39
-9.07 1.78 2.39
-9.11 1.60 2.39
-9.14 1.42 2.39
-9.18 1.23 2.39
-9.20 1.05 2.39
-9.23 0.87 2.39
-9.25 0.68 2.39
-9.27 0.49 2.39
-9.28 0.31 2.39
-9.29 0.12 2.39
-9.30 -0.06 2.39
-9.30 -0.25 2.39
-9.30 -0.44 2.39
-9.29 -0.62 2.39
-9.28 -0.81 2.39
-9.27 -1.00 2.39
-9.25 -1.18 2.39
-9.23 -1.37 2.39
-9.21 -1.56 2.39
-9.18 -1.74 2.39
-9.15 -1.93 2.39
-9.12 -2.11 2.39
-9.08 -2.29 2.39
-9.03 -2.48 2.39
-8.99 -2.66 2.39
-8.94 -2.84 2.39
-8.88 -3.02 2.39
-8.82 -3.20 2.39
-8.76 -3.38 2.39
-8.70 -3.56 2.39
-8.63 -3.73 2.39
-8.56 -3.90 2.39
-8.48 -4.08 2.39
-8.40 -4.25 2.39
-8.32 -4.42 2.39
-8.23 -4.59 2.39
-8.14 -4.75 2.39
-5.92 -3.62 1.76
-5.87 -3.75 1.76
-7.85 -5.24 2.39
-7.75 -5.40 2.39
-7.64 -5.56 2.39
-7.53 -5.71 2.39
-7.42 -5.86 2.39
-7.30 -6.01 2.39
-7.19 -6.16 2.39
-7.06 -6.31 2.39
-6.94 -6.45 2.39
-6.81 -6.59 2.39
-6.68 -6.73 2.39
-6.54 -6.86 2.39
-6.41 -6.99 2.39
-6.27 -7.12 2.39
-6.13 -7.25 2.39
-5.98 -7.37 2.39
-5.83 -7.49 2.39
-5.68 -7.61 2.39
-5.66 -7.91 2.45
-5.61 -8.17 2.49
-5.45 -8.29 2.49
-5.28 -8.40 2.49
-5.11 -8.50 2.49
-4.94 -8.60 2.49
-4.77 -8.70 2.49
-4.59 -8.80 2.49
-4.42 -8.89 2.49
-4.24 -8.98 2.49
-4.06 -9.06 2.49
-3.88 -9.14 2.49
-3.69 -9.22 2.49
-3.51 -9.29 2.49
-3.32 -9.36 2.49
-3.13 -9.43 2.49
-2.95 -9.49 2.49
-2.75 -9.55 2.49
-2.56 -9.60 2.49
-2.37 -9.65 2.49
-2.18 -9.70 2.49
-1.98 -9.74 2.49
-1.79 -9.78 2.49
-1.59 -9.81 2.49
-1.39 -9.84 2.49
-1.20 -9.86 2.49
-1.00 -9.89 2.49
-0.80 -9.90 2.49
-0.60 -9.92 2.49
-0.40 -9.93 2.49
-0.20 -9.93 2.49
-0.00 -9.06 2.49
0.18 -9.06 2.49
0.36 -9.05 2.49
0.54 -9.04 2.49
0.72 -9.03 2.49
0.90 -9.01 2.49
1.08 -8.99 2.49
1.26 -8.96 2.49
1.44 -8.93 2.49
1.62 -8.90 2.49
1.80 -8.87 2.49
1.97 -8.83 2.49
2.15 -8.78 2.49
2.32 -8.74 2.49
2.40 -8.36 2.40
2.56 -8.27 2.39
2.73 -8.22 2.39
2.89 -8.16 2.39
3.05 -8.10 2.39
3.21 -8.03 2.39
3.37 -7.96 2.39
3.53 -7.89 2.39
3.68 -7.82 2.39
3.84 -7.74 2.39
3.99 -7.66 2.39
4.14 -7.57 2.39
4.29 -7.49 2.39
4.44 -7.40 2.39
4.59 -7.30 2.39
4.73 -7.21 2.39
4.87 -7.11 2.39
4.81 -6.72 2.29
4.98 -6.68 2.32
5.28 -6.79 2.39
5.41 -6.68 2.39
5.54 -6.57 2.39
5.67 -6.46 2.39
5.80 -6.34 2.39
5.92 -6.22 2.39
6.04 -6.09 2.39
6.16 -5.97 2.39
6.28 -5.84 2.39
5.03 -4.49 1.88
5.11 -4.39 1.88
7.38 -6.08 2.67
6.32 -5.00 2.25
7.51 -5.70 2.64
8.39 -6.10 2.90
9.05 -6.31 3.09
9.63 -6.43 3.24
9.80 -6.27 3.26
9.97 -6.10 3.28
6.28 -3.67 2.04
10.30 -5.75 3.31
10.46 -5.57 3.33
10.62 -5.38 3.35
10.78 -5.19 3.36
10.93 -4.99 3.38
11.08 -4.80 3.40
6.26 -2.56 1.91
11.37 -4.39 3.43
11.50 -4.18 3.45
11.69 -3.98 3.48
11.91 -3.79 3.53
12.13 -3.59 3.57
6.23 -1.71 1.83
12.55 -3.18 3.66
12.76 -2.96 3.70
12.96 -2.73 3.75
13.17 -2.50 3.80
13.42 -2.27 3.86
13.79 -2.05 3.95
14.32 -1.84 4.10
14.92 -1.61 4.26
15.53 -1.36 4.43
29.02 -1.96 8.27
6.21 -0.29 1.77
28.91 -0.79 8.23
28.72 -0.20 8.18
29.34 0.38 8.36
6.19 0.33 1.77
23.33 2.66 6.71
22.62 3.04 6.52
22.59 3.50 6.54
22.82 4.00 6.63
22.61 4.44 6.59
22.63 4.92 6.63
46.11 10.99 13.58
6.17 1.60 1.83
44.54 12.53 13.27
43.91 13.31 13.17
43.25 14.06 13.06
23.68 8.23 7.20
6.15 2.28 1.88
42.10 16.55 13.00
41.86 17.44 13.04
41.58 18.31 13.07
41.21 19.14 13.08
40.80 19.96 13.08
40.35 20.76 13.07
39.87 21.54 13.06
35.45 20.08 11.75
35.02 20.78 11.75
6.12 3.80 2.08
37.29 24.20 12.83
36.64 24.84 12.79
6.11 4.32 2.16
6.11 4.51 2.19
15.74 12.12 5.75
6.10 4.89 2.26
14.95 12.50 5.64
7.22 6.29 2.77
7.13 6.47 2.79
6.00 5.67 2.39
5.89 5.79 2.39
5.77 5.90 2.39
5.65 6.01 2.39
5.52 6.13 2.39
5.40 6.23 2.39
5.27 6.34 2.39
5.14 6.44 2.39
5.01 6.54 2.39
4.87 6.64 2.39
4.74 6.74 2.39
4.60 6.83 2.39
4.46 6.92 2.39
4.32 7.00 2.39
4.18 7.09 2.39
4.03 7.17 2.39
3.89 7.25 2.39
3.74 7.32 2.39
3.59 7.40 2.39
3.44 7.47 2.39
3.13 7.16 2.27
2.98 7.21 2.27
2.83 7.27 2.27
2.69 7.32 2.27
2.54 7.38 2.27
2.41 7.50 2.29
2.36 7.87 2.39
2.20 7.92 2.39
2.05 8.01 2.41
1.96 8.34 2.49
1.79 8.38 2.49
1.62 8.42 2.49
1.45 8.45 2.49
1.28 8.48 2.49
1.11 8.50 2.49
0.94 8.52 2.49
0.77 8.54 2.49
0.60 8.55 2.49
0.43 8.56 2.49
0.26 8.57 2.49
0.08 8.58 2.49
-0.09 8.58 2.49
-0.26 8.57 2.49
-0.43 8.57 2.49
-0.61 8.56 2.49
-0.78 8.55 2.49
-0.95 8.53 2.49
-1.12 8.51 2.49
-1.29 8.49 2.49
-1.46 8.46 2.49
-1.64 8.43 2.49
-1.80 8.40 2.49
-1.97 8.36 2.49
-2.14 8.32 2.49
-2.31 8.28 2.49
-2.48 8.24 2.49
-2.64 8.19 2.49
-2.81 8.13 2.49
-2.97 8.08 2.49
-3.13 8.02 2.49
-3.30 7.96 2.49
-3.46 7.89 2.49
-3.61 7.82 2.49
-3.77 7.75 2.49
-3.93 7.68 2.49
-4.08 7.60 2.49
-4.24 7.52 2.49
-4.39 7.43 2.49
-4.54 7.35 2.49
-4.69 7.26 2.49
-4.84 7.16 2.49
-4.98 7.07 2.49
-5.12 6.97 2.49
-5.26 6.87 2.49
-5.40 6.76 2.49
-5.54 6.66 2.49
-5.68 6.55 2.49
-5.81 6.43 2.49
-5.94 6.32 2.49
-5.96 6.09 2.45
-5.97 5.86 2.40
-6.06 5.71 2.39
-6.17 5.59 2.39
-6.29 5.47 2.39
-6.40 5.34 2.39
-6.51 5.22 2.39
-6.62 5.09 2.39
-6.72 4.96 2.39
-6.82 4.82 2.39
-6.92 4.69 2.39
-7.02 4.55 2.39
-7.11 4.41 2.39
-7.20 4.27 2.39
-7.29 4.13 2.39
-7.38 3.98 2.39
-7.46 3.83 2.39
-7.54 3.68 2.39
-7.61 3.53 2.39
-7.69 3.38 2.39
-7.76 3.23 2.39
-7.83 3.07 2.39
-7.89 2.92 2.39
-7.95 2.76 2.39
-8.01 2.60 2.39
-8.07 2.44 2.39
-8.12 2.28 2.39
-8.17 2.12 2.39
-8.21 1.96 2.39
-8.25 1.79 2.39
-8.29 1.63 2.39
-8.33 1.46 2.39
-8.36 1.29 2.39
-8.39 1.13 2.39
-8.42 0.96 2.39
-8.44 0.79 2.39
-8.46 0.62 2.39
-8.47 0.45 2.39
-8.48 0.28 2.39
-8.49 0.11 2.39
-8.50 -0.06 2.39
-8.50 -0.23 2.39
-8.50 -0.40 2.39
-8.49 -0.57 2.39
-8.49 -0.74 2.39
-8.47 -0.91 2.39
-8.46 -1.08 2.39
-8.44 -1.25 2.39
-8.42 -1.42 2.39
-8.39 -1.59 2.39
-8.36 -1.76 2.39
-8.33 -1.93 2.39
-8.29 -2.10 2.39
-8.25 -2.26 2.39
-8.21 -2.43 2.39
-8.16 -2.60 2.39
-8.11 -2.76 2.39
-8.06 -2.92 2.39
-8.00 -3.09 2.39
-7.95 -3.25 2.39
-7.88 -3.41 2.39
-7.82 -3.57 2.39
-7.75 -3.73 2.39
-7.67 -3.88 2.39
-7.60 -4.04 2.39
-7.52 -4.19 2.39
-7.44 -4.34 2.39
-5.92 -3.62 1.93
-5.87 -3.75 1.93
-7.17 -4.79 2.39
-7.08 -4.93 2.39
-6.98 -5.07 2.39
-6.88 -5.21 2.39
-6.77 -5.35 2.39
-6.67 -5.49 2.39
-6.56 -5.62 2.39
-6.45 -5.76 2.39
-6.33 -5.89 2.39
-6.22 -6.01 2.39
-6.10 -6.14 2.39
-5.97 -6.26 2.39
-5.85 -6.38 2.39
-5.72 -6.50 2.39
-5.69 -6.73 2.43
-5.68 -7.00 2.49
-5.55 -7.13 2.49
-5.41 -7.25 2.49
-5.27 -7.35 2.49
-5.12 -7.46 2.49
-4.97 -7.56 2.49
-4.82 -7.66 2.49
-4.66 -7.76 2.49
-4.51 -7.85 2.49
-4.35 -7.94 2.49
-4.19 -8.03 2.49
-4.03 -8.11 2.49
-3.87 -8.19 2.49
-3.70 -8.27 2.49
-3.54 -8.34 2.49
-3.37 -8.41 2.49
-3.20 -8.48 2.49
-3.03 -8.54 2.49
-2.86 -8.60 2.49
-2.69 -8.66 2.49
-2.51 -8.71 2.49
-2.34 -8.76 2.49
-2.16 -8.81 2.49
-1.99 -8.85 2.49
-1.81 -8.89 2.49
-1.63 -8.92 2.49
-1.45 -8.95 2.49
-1.27 -8.98 2.49
-1.09 -9.00 2.49
-0.91 -9.02 2.49
-0.73 -9.04 2.49
-0.55 -9.05 2.49
-0.37 -9.06 2.49
-0.19 -9.06 2.49
-0.00 -8.32 2.49
0.16 -8.32 2.49
0.33 -8.32 2.49
0.50 -8.31 2.49
0.66 -8.29 2.49
0.83 -8.28 2.49
0.99 -8.26 2.49
1.16 -8.24 2.49
1.32 -8.21 2.49
1.49 -8.18 2.49
1.65 -8.15 2.49
1.81 -8.11 2.49
1.97 -8.07 2.49
2.13 -8.03 2.49
2.29 -7.98 2.49
2.39 -7.71 2.43
2.50 -7.55 2.39
2.65 -7.50 2.39
2.80 -7.44 2.39
2.95 -7.38 2.39
3.10 -7.32 2.39
3.24 -7.25 2.39
3.38 -7.18 2.39
3.53 -7.11 2.39
3.67 -7.04 2.39
3.81 -6.96 2.39
3.94 -6.88 2.39
4.08 -6.80 2.39
4.21 -6.71 2.39
4.35 -6.62 2.39
4.48 -6.53 2.39
4.60 -6.44 2.39
4.73 -6.34 2.39
4.85 -6.25 2.39
4.98 -6.14 2.39
5.10 -6.04 2.39
5.21 -5.94 2.39
5.33 -5.83 2.39
5.44 -5.72 2.39
5.55 -5.60 2.39
4.67 -4.53 1.97
4.67 -4.35 1.94
4.67 -4.18 1.90
4.70 -4.04 1.88
4.78 -3.94 1.88
4.86 -3.84 1.88
4.93 -3.74 1.88
5.00 -3.64 1.88
5.07 -3.54 1.88
7.34 -4.91 2.69
6.29 -4.02 2.28
7.44 -4.55 2.66
6.28 -3.67 2.22
6.28 -3.50 2.19
9.57 -5.09 3.31
9.71 -4.92 3.33
9.85 -4.74 3.34
9.98 -4.56 3.36
10.11 -4.38 3.37
10.24 -4.19 3.39
10.37 -4.00 3.40
6.25 -2.27 2.04
10.61 -3.61 3.44
10.72 -3.41 3.45
10.81 -3.21 3.46
6.23 -1.71 1.99
11.00 -2.79 3.49
11.09 -2.57 3.50
11.22 -2.37 3.53
11.34 -2.16 3.55
11.46 -1.94 3.58
11.61 -1.73 3.62
11.79 -1.51 3.66
11.97 -1.29 3.71
12.14 -1.07 3.76
12.31 -0.83 3.81
12.46 -0.59 3.85
12.66 -0.35 3.91
12.86 -0.09 3.98
13.05 0.17 4.04
13.24 0.44 4.10
6.19 0.33 1.92
13.66 1.00 4.24
13.97 1.31 4.35
14.32 1.63 4.47
14.81 1.99 4.64
15.31 2.37 4.81
16.57 2.90 5.23
6.18 1.21 1.96
22.62 4.91 7.19
33.93 8.08 10.85
6.18 1.60 1.99
43.25 12.16 13.99
42.61 12.90 13.87
23.21 7.54 7.61
23.08 8.02 7.62
6.15 2.28 2.04
30.91 12.15 10.36
30.02 12.50 10.15
24.49 10.78 8.36
24.13 11.20 8.31
23.87 11.67 8.30
37.65 19.36 13.24
37.11 20.04 13.19
36.55 20.69 13.14
35.98 21.34 13.10
6.12 3.80 2.26
7.24 4.70 2.70
7.13 4.84 2.70
6.11 4.32 2.34
6.14 4.53 2.39
6.04 4.65 2.39
5.95 4.77 2.39
5.85 4.89 2.39
5.74 5.00 2.39
5.64 5.11 2.39
5.54 5.22 2.39
5.43 5.33 2.39
5.32 5.44 2.39
5.21 5.54 2.39
5.09 5.65 2.39
4.98 5.75 2.39
4.86 5.84 2.39
4.74 5.94 2.39
4.62 6.03 2.39
4.49 6.12 2.39
4.37 6.21 2.39
4.24 6.30 2.39
4.11 6.38 2.39
3.98 6.46 2.39
3.85 6.54 2.39
3.72 6.61 2.39
3.59 6.68 2.39
3.45 6.75 2.39
3.31 6.82 2.39
3.18 6.89 2.39
3.04 6.95 2.39
2.90 7.01 2.39
2.75 7.06 2.39
2.61 7.12 2.39
2.46 7.13 2.38
2.32 7.21 2.39
2.18 7.26 2.39
2.06 7.42 2.43
1.96 7.66 2.49
1.81 7.69 2.49
1.65 7.73 2.49
1.50 7.76 2.49
1.34 7.79 2.49
1.18 7.81 2.49
1.03 7.84 2.49
0.87 7.86 2.49
0.71 7.87 2.49
0.55 7.89 2.49
0.39 7.90 2.49
0.23 7.90 2.49
0.08 7.91 2.49
-0.08 7.91 2.49
-0.24 7.91 2.49
-0.40 7.90 2.49
-0.56 7.89 2.49
-0.72 7.88 2.49
-0.88 7.87 2.49
-1.04 7.85 2.49
-1.19 7.83 2.49
-1.35 7.80 2.49
-1.51 7.77 2.49
-1.66 7.74 2.49
-1.82 7.71 2.49
-1.98 7.67 2.49
-2.13 7.64 2.49
-2.28 7.59 2.49
-2.44 7.55 2.49
-2.59 7.50 2.49
-2.74 7.45 2.49
-2.89 7.39 2.49
-3.04 7.33 2.49
-3.19 7.27 2.49
-3.33 7.21 2.49
-3.48 7.14 2.49
-3.62 7.08 2.49
-3.77 7.00 2.49
-3.91 6.93 2.49
-4.05 6.85 2.49
-4.18 6.77 2.49
-4.32 6.69 2.49
-4.46 6.60 2.49
-4.59 6.51 2.49
-4.72 6.42 2.49
-4.85 6.33 2.49
-4.98 6.23 2.49
-5.11 6.13 2.49
-5.23 6.03 2.49
-5.35 5.93 2.49
-5.47 5.82 2.49
-5.59 5.71 2.49
-5.71 5.60 2.49
-5.82 5.49 2.49
-5.93 5.37 2.49
-5.94 5.17 2.45
-5.94 4.96 2.41
-6.00 4.80 2.39
-6.10 4.69 2.39
-6.19 4.56 2.39
-6.28 4.44 2.39
-6.38 4.32 2.39
-6.46 4.19 2.39
-6.55 4.06 2.39
-6.63 3.93 2.39
-6.71 3.80 2.39
-6.79 3.66 2.39
-6.87 3.53 2.39
-6.94 3.39 2.39
-7.01 3.25 2.39
-7.08 3.11 2.39
-7.14 2.97 2.39
-7.21 2.83 2.39
-7.27 2.69 2.39
-7.32 2.54 2.39
-7.38 2.39 2.39
-7.43 2.25 2.39
-7.47 2.10 2.39
-7.52 1.95 2.39
-7.56 1.80 2.39
-7.60 1.65 2.39
-7.63 1.50 2.39
-7.67 1.34 2.39
-7.70 1.19 2.39
-7.72 1.04 2.39
-7.74 0.88 2.39
-7.77 0.73 2.39
-7.78 0.57 2.39
-7.80 0.41 2.39
-7.81 0.26 2.39
-7.81 0.10 2.39
-7.82 -0.06 2.39
-7.82 -0.21 2.39
-7.82 -0.37 2.39
-7.81 -0.53 2.39
-7.81 -0.68 2.39
-7.79 -0.84 2.39
-7.78 -1.00 2.39
-7.76 -1.15 2.39
-7.74 -1.31 2.39
-7.72 -1.47 2.39
-7.69 -1.62 2.39
-7.66 -1.78 2.39
-7.63 -1.93 2.39
-7.59 -2.08 2.39
-7.55 -2.24 2.39
-7.51 -2.39 2.39
-7.46 -2.54 2.39
-7.41 -2.69 2.39
-7.36 -2.84 2.39
-7.30 -2.99 2.39
-7.25 -3.14 2.39
-7.18 -3.28 2.39
-7.12 -3.43 2.39
-7.05 -3.57 2.39
-6.98 -3.71 2.39
-6.91 -3.85 2.39
-6.83 -3.99 2.39
-5.92 -3.62 2.09
-5.86 -3.75 2.10
-6.59 -4.40 2.39
-6.50 -4.53 2.39
-6.41 -4.66 2.39
-6.32 -4.79 2.39
-6.23 -4.92 2.39
-6.13 -5.05 2.39
-6.03 -5.17 2.39
-5.93 -5.30 2.39
-5.82 -5.41 2.39
-5.72 -5.54 2.40
-5.71 -5.75 2.44
-5.70 -5.98 2.49
-5.61 -6.12 2.49
-5.48 -6.23 2.49
-5.36 -6.34 2.49
-5.23 -6.45 2.49
-5.10 -6.55 2.49
-4.97 -6.66 2.49
-4.84 -6.76 2.49
-4.70 -6.85 2.49
-4.57 -6.95 2.49
-4.43 -7.04 2.49
-4.29 -7.13 2.49
-4.14 -7.21 2.49
-4.00 -7.30 2.49
-3.85 -7.38 2.49
-3.70 -7.45 2.49
-3.55 -7.53 2.49
-3.40 -7.60 2.49
-3.25 -7.66 2.49
-3.10 -7.73 2.49
-2.94 -7.79 2.49
-2.78 -7.85 2.49
-2.63 -7.90 2.49
-2.47 -7.95 2.49
-2.31 -8.00 2.49
-2.15 -8.05 2.49
-1.99 -8.09 2.49
-1.82 -8.13 2.49
-1.66 -8.16 2.49
-1.50 -8.19 2.49
-1.33 -8.22 2.49
-1.17 -8.25 2.49
-1.00 -8.27 2.49
-0.84 -8.29 2.49
-0.67 -8.30 2.49
-0.50 -8.31 2.49
-0.34 -8.32 2.49
-0.17 -8.32 2.49
-0.00 -7.69 2.49
0.15 -7.69 2.49
0.30 -7.68 2.49
0.46 -7.67 2.49
0.61 -7.66 2.49
0.76 -7.65 2.49
0.92 -7.63 2.49
1.07 -7.61 2.49
1.22 -7.58 2.49
1.37 -7.56 2.49
1.52 -7.53 2.49
1.67 -7.49 2.49
1.82 -7.46 2.49
1.97 -7.42 2.49
2.12 -7.37 2.49
2.27 -7.33 2.49
2.37 -7.15 2.45
2.45 -6.93 2.39
2.59 -6.88 2.39
2.73 -6.82 2.39
2.86 -6.76 2.39
2.99 -6.70 2.39
3.13 -6.64 2.39
3.26 -6.57 2.39
3.39 -6.51 2.39
3.52 -6.43 2.39
3.64 -6.36 2.39
3.77 -6.28 2.39
3.89 -6.20 2.39
4.02 -6.12 2.39
4.14 -6.04 2.39
4.25 -5.95 2.39
4.37 -5.86 2.39
4.49 -5.77 2.39
4.60 -5.68 2.39
4.71 -5.58 2.39
4.82 -5.49 2.39
4.93 -5.39 2.39
5.03 -5.29 2.39
5.13 -5.18 2.39
5.23 -5.08 2.39
5.33 -4.97 2.39
4.67 -4.18 2.06
4.66 -4.01 2.02
4.66 -3.84 1.98
4.66 -3.69 1.95
4.65 -3.53 1.92
4.66 -3.39 1.90
4.69 -3.27 1.88
4.75 -3.18 1.88
4.81 -3.08 1.88
4.97 -3.04 1.92
6.26 -3.66 2.39
7.19 -4.02 2.72
7.23 -3.85 2.71
7.27 -3.69 2.69
7.31 -3.52 2.68
6.27 -2.87 2.28
6.26 -2.71 2.26
7.41 -3.03 2.65
7.43 -2.87 2.64
7.46 -2.71 2.63
9.61 -3.28 3.36
9.70 -3.09 3.38
9.78 -2.90 3.39
6.23 -1.71 2.15
9.97 -2.53 3.41
10.08 -2.34 3.44
10.19 -2.15 3.46
6.23 -1.19 2.11
10.40 -1.76 3.51
10.48 -1.56 3.53
10.54 -1.36 3.54
10.59 -1.15 3.55
10.63 -0.94 3.56
10.67 -0.72 3.57
10.74 -0.51 3.59
6.21 -0.17 2.07
10.98 -0.08 3.67
11.09 0.14 3.71
11.20 0.37 3.75
6.19 0.33 2.07
11.40 0.83 3.83
11.50 1.07 3.87
11.60 1.32 3.91
6.19 0.83 2.09
11.87 1.83 4.03
12.01 2.10 4.09
12.12 2.38 4.15
12.23 2.65 4.20
12.32 2.93 4.25
12.40 3.21 4.30
12.46 3.50 4.35
12.60 3.81 4.43
12.73 4.14 4.51
6.16 2.14 2.19
6.15 2.27 2.21
6.15 2.42 2.23
7.32 3.05 2.67
6.15 2.70 2.26
7.19 3.34 2.68
7.03 3.44 2.64
6.96 3.58 2.64
6.88 3.71 2.64
6.16 3.49 2.39
6.09 3.61 2.39
6.01 3.73 2.39
5.93 3.85 2.39
5.85 3.97 2.39
5.77 4.08 2.39
5.69 4.19 2.39
5.60 4.31 2.39
5.51 4.42 2.39
5.42 4.53 2.39
5.32 4.63 2.39
5.23 4.74 2.39
5.13 4.84 2.39
5.03 4.94 2.39
4.93 5.04 2.39
4.82 5.14 2.39
4.72 5.23 2.39
4.61 5.32 2.39
4.50 5.41 2.39
4.39 5.50 2.39
4.28 5.59 2.39
4.17 5.67 2.39
4.05 5.75 2.39
3.93 5.83 2.39
3.81 5.91 2.39
3.69 5.98 2.39
3.57 6.06 2.39
3.45 6.13 2.39
3.15 5.88 2.27
3.04 5.95 2.27
2.91 6.00 2.27
2.79 6.06 2.27
2.67 6.11 2.27
2.68 6.49 2.39
2.55 6.54 2.39
2.42 6.59 2.39
2.29 6.64 2.39
2.15 6.69 2.39
2.07 6.90 2.45
1.96 7.06 2.49
1.82 7.10 2.49
1.68 7.13 2.49
1.53 7.16 2.49
1.39 7.19 2.49
1.24 7.22 2.49
1.10 7.24 2.49
0.95 7.26 2.49
0.81 7.28 2.49
0.66 7.30 2.49
0.51 7.31 2.49
0.36 7.32 2.49
0.22 7.32 2.49
0.07 7.33 2.49
-0.08 7.33 2.49
-0.22 7.33 2.49
-0.37 7.32 2.49
-0.52 7.31 2.49
-0.67 7.30 2.49
-0.81 7.29 2.49
-0.96 7.27 2.49
-1.11 7.25 2.49
-1.25 7.23 2.49
-1.40 7.20 2.49
-1.54 7.18 2.49
-1.69 7.15 2.49
-1.83 7.11 2.49
-1.97 7.07 2.49
-2.12 7.03 2.49
-2.26 6.99 2.49
-2.40 6.95 2.49
-2.54 6.90 2.49
-2.68 6.85 2.49
-2.82 6.80 2.49
-2.95 6.74 2.49
-3.09 6.68 2.49
-3.22 6.62 2.49
-3.36 6.55 2.49
-3.49 6.49 2.49
-3.62 6.42 2.49
-3.75 6.35 2.49
-3.88 6.27 2.49
-4.00 6.19 2.49
-4.13 6.12 2.49
-4.25 6.03 2.49
-4.38 5.95 2.49
-4.50 5.86 2.49
-4.61 5.77 2.49
-4.73 5.68 2.49
-4.85 5.59 2.49
-4.96 5.49 2.49
-5.07 5.39 2.49
-5.18 5.29 2.49
-5.29 5.19 2.49
-5.39 5.08 2.49
-5.50 4.97 2.49
-5.60 4.87 2.49
-5.70 4.75 2.49
-5.79 4.64 2.49
-5.89 4.52 2.49
-5.92 4.37 2.47
-5.92 4.18 2.43
-5.93 4.01 2.40
-5.99 3.88 2.39
-6.06 3.76 2.39
-6.14 3.64 2.39
-6.22 3.51 2.39
-6.29 3.39 2.39
-6.36 3.27 2.39
-6.43 3.14 2.39
-6.49 3.01 2.39
-6.55 2.88 2.39
-6.61 2.75 2.39
-6.67 2.62 2.39
-6.72 2.48 2.39
-6.78 2.35 2.39
-6.83 2.21 2.39
-6.87 2.08 2.39
-6.92 1.94 2.39
-6.96 1.80 2.39
-7.00 1.66 2.39
-7.03 1.52 2.39
-7.06 1.38 2.39
-7.09 1.24 2.39
-7.12 1.10 2.39
-7.14 0.96 2.39
-7.17 0.81 2.39
-7.18 0.67 2.39
-7.20 0.53 2.39
-7.21 0.38 2.39
-7.22 0.24 2.39
-7.23 0.09 2.39
-7.23 -0.05 2.39
-7.23 -0.20 2.39
-7.23 -0.34 2.39
-7.23 -0.49 2.39
-7.22 -0.63 2.39
-7.21 -0.78 2.39
-7.19 -0.92 2.39
-7.18 -1.07 2.39
-7.16 -1.21 2.39
-7.14 -1.36 2.39
-7.11 -1.50 2.39
-7.08 -1.64 2.39
-7.05 -1.79 2.39
-7.02 -1.93 2.39
-6.98 -2.07 2.39
-6.94 -2.21 2.39
-6.90 -2.35 2.39
-6.85 -2.49 2.39
-6.80 -2.63 2.39
-6.75 -2.76 2.39
-6.70 -2.90 2.39
-6.64 -3.03 2.39
-6.58 -3.17 2.39
-6.52 -3.30 2.39
-6.45 -3.43 2.39
-6.39 -3.56 2.39
-6.32 -3.69 2.39
-5.91 -3.62 2.27
-5.86 -3.75 2.27
-6.09 -4.07 2.39
-6.01 -4.19 2.39
-5.95 -4.33 2.40
-5.84 -4.43 2.39
-5.75 -4.55 2.39
-5.73 -4.72 2.42
-5.73 -4.91 2.46
-5.71 -5.10 2.49
-5.61 -5.22 2.49
-5.50 -5.33 2.49
-5.40 -5.44 2.49
-5.29 -5.55 2.49
-5.18 -5.65 2.49
-5.07 -5.76 2.49
-4.95 -5.86 2.49
-4.83 -5.96 2.49
-4.71 -6.06 2.49
-4.59 -6.15 2.49
-4.47 -6.24 2.49
-4.34 -6.33 2.49
-4.22 -6.42 2.49
-4.09 -6.50 2.49
-3.96 -6.59 2.49
-3.83 -6.66 2.49
-3.69 -6.74 2.49
-3.56 -6.81 2.49
-3.42 -6.89 2.49
-3.28 -6.95 2.49
-3.14 -7.02 2.49
-3.00 -7.08 2.49
-2.86 -7.14 2.49
-2.72 -7.20 2.49
-2.57 -7.25 2.49
-2.43 -7.30 2.49
-2.28 -7.35 2.49
-2.13 -7.39 2.49
-1.98 -7.43 2.49
-1.84 -7.47 2.49
-1.69 -7.51 2.49
-1.53 -7.54 2.49
-1.38 -7.57 2.49
-1.23 -7.60 2.49
-1.08 -7.62 2.49
-0.93 -7.64 2.49
-0.77 -7.65 2.49
-0.62 -7.67 2.49
-0.47 -7.68 2.49
-0.31 -7.69 2.49
-0.16 -7.69 2.49
-0.00 -7.14 2.49
0.14 -7.14 2.49
0.28 -7.13 2.49
0.42 -7.12 2.49
0.57 -7.11 2.49
0.71 -7.10 2.49
0.85 -7.08 2.49
0.99 -7.06 2.49
1.13 -7.04 2.49
1.27 -7.02 2.49
1.41 -6.99 2.49
1.55 -6.96 2.49
1.69 -6.92 2.49
1.83 -6.89 2.49
1.97 -6.85 2.49
2.10 -6.80 2.49
2.24 -6.76 2.49
2.36 -6.67 2.48
2.40 -6.38 2.39
2.54 -6.37 2.40
2.66 -6.28 2.39
2.78 -6.22 2.39
2.90 -6.17 2.39
3.02 -6.10 2.39
3.15 -6.04 2.39
3.27 -5.97 2.39
3.38 -5.91 2.39
3.50 -5.84 2.39
3.61 -5.76 2.39
3.73 -5.69 2.39
3.84 -5.61 2.39
3.95 -5.53 2.39
4.06 -5.45 2.39
4.17 -5.36 2.39
4.27 -5.28 2.39
4.37 -5.19 2.39
4.48 -5.10 2.39
4.57 -5.00 2.39
4.67 -4.91 2.39
4.77 -4.81 2.39
4.86 -4.71 2.39
4.95 -4.61 2.39
4.77 -4.27 2.26
4.96 -4.26 2.31
5.22 -4.30 2.39
5.30 -4.20 2.39
5.38 -4.09 2.39
4.65 -3.39 2.04
4.65 -3.24 2.01
4.64 -3.11 1.98
4.75 -3.04 2.00
5.75 -3.52 2.39
5.82 -3.40 2.39
5.88 -3.28 2.39
5.94 -3.16 2.39
6.00 -3.04 2.39
6.06 -2.92 2.39
6.11 -2.80 2.39
6.17 -2.67 2.39
6.21 -2.55 2.39
6.26 -2.42 2.39
7.16 -2.60 2.72
7.19 -2.45 2.71
7.21 -2.30 2.70
7.23 -2.15 2.69
6.23 -1.72 2.31
7.27 -1.85 2.68
7.29 -1.70 2.68
6.23 -1.32 2.28
6.23 -1.19 2.27
6.23 -1.06 2.26
6.23 -0.93 2.25
7.35 -0.95 2.66
7.36 -0.80 2.65
7.29 -0.64 2.62
7.31 -0.50 2.63
7.32 -0.35 2.63
7.33 -0.20 2.63
7.33 -0.06 2.64
7.34 0.09 2.64
6.20 0.20 2.23
6.19 0.33 2.23
6.20 0.45 2.24
7.31 0.68 2.64
7.29 0.83 2.64
6.20 0.83 2.25
6.18 0.95 2.26
6.18 1.08 2.26
6.18 1.21 2.27
6.18 1.34 2.28
7.25 1.72 2.69
7.23 1.87 2.70
7.20 2.02 2.70
7.18 2.17 2.71
7.15 2.32 2.72
7.12 2.47 2.73
6.15 2.27 2.37
6.15 2.41 2.39
6.09 2.54 2.39
6.04 2.66 2.39
5.98 2.78 2.39
5.92 2.90 2.39
5.86 3.01 2.39
5.80 3.13 2.39
5.73 3.24 2.39
5.66 3.36 2.39
5.59 3.47 2.39
5.52 3.58 2.39
5.45 3.69 2.39
5.37 3.80 2.39
5.29 3.90 2.39
5.21 4.01 2.39
5.13 4.11 2.39
5.04 4.21 2.39
4.95 4.31 2.39
4.86 4.41 2.39
4.77 4.50 2.39
4.68 4.60 2.39
4.59 4.69 2.39
4.49 4.78 2.39
4.39 4.87 2.39
4.29 4.95 2.39
4.19 5.04 2.39
4.09 5.12 2.39
3.98 5.20 2.39
3.88 5.28 2.39
3.77 5.35 2.39
3.66 5.43 2.39
3.55 5.50 2.39
3.44 5.57 2.39
3.15 5.35 2.27
3.05 5.42 2.27
3.04 5.66 2.35
2.93 5.73 2.35
2.81 5.79 2.35
2.69 5.84 2.35
2.49 5.69 2.27
2.45 5.92 2.34
2.38 6.09 2.39
2.25 6.14 2.39
2.13 6.18 2.39
2.08 6.46 2.48
1.96 6.53 2.49
1.83 6.57 2.49
1.69 6.60 2.49
1.56 6.64 2.49
1.43 6.67 2.49
1.29 6.69 2.49
1.16 6.72 2.49
1.02 6.74 2.49
0.89 6.76 2.49
0.75 6.78 2.49
0.61 6.79 2.49
0.48 6.80 2.49
0.34 6.81 2.49
0.20 6.82 2.49
0.06 6.82 2.49
-0.07 6.82 2.49
-0.21 6.82 2.49
-0.35 6.81 2.49
-0.48 6.81 2.49
-0.62 6.80 2.49
-0.76 6.78 2.49
-0.89 6.77 2.49
-1.03 6.75 2.49
-1.17 6.73 2.49
-1.30 6.70 2.49
-1.44 6.68 2.49
-1.57 6.65 2.49
-1.70 6.62 2.49
-1.84 6.58 2.49
-1.97 6.55 2.49
-2.10 6.51 2.49
-2.23 6.47 2.49
-2.36 6.42 2.49
-2.49 6.37 2.49
-2.62 6.32 2.49
-2.75 6.27 2.49
-2.87 6.22 2.49
-3.00 6.16 2.49
-3.12 6.10 2.49
-3.25 6.04 2.49
-3.37 5.97 2.49
-3.49 5.90 2.49
-3.61 5.84 2.49
-3.73 5.76 2.49
-3.84 5.69 2.49
-3.96 5.61 2.49
-4.07 5.53 2.49
-4.18 5.45 2.49
-4.29 5.37 2.49
-4.40 5.28 2.49
-4.51 5.20 2.49
-4.61 5.11 2.49
-4.72 5.01 2.49
-4.82 4.92 2.49
-4.92 4.82 2.49
-5.02 4.73 2.49
-5.11 4.63 2.49
-5.21 4.52 2.49
-5.30 4.42 2.49
-5.39 4.32 2.49
-5.48 4.21 2.49
-5.56 4.10 2.49
-5.65 3.99 2.49
-5.73 3.87 2.49
-5.81 3.76 2.49
-5.88 3.64 2.49
-5.91 3.50 2.47
-5.90 3.34 2.44
-5.91 3.18 2.41
-5.91 3.04 2.39
-5.98 2.92 2.39
-6.04 2.80 2.39
-6.10 2.68 2.39
-6.15 2.56 2.39
-6.20 2.43 2.39
-6.25 2.31 2.39
-6.30 2.18 2.39
-6.35 2.06 2.39
-6.39 1.93 2.39
-6.43 1.80 2.39
-6.47 1.67 2.39
-6.50 1.54 2.39
-6.54 1.41 2.39
-6.57 1.28 2.39
-6.59 1.15 2.39
-6.62 1.02 2.39
-6.64 0.89 2.39
-6.66 0.75 2.39
-6.68 0.62 2.39
-6.69 0.49 2.39
-6.70 0.35 2.39
-6.71 0.22 2.39
-6.72 0.08 2.39
-6.72 -0.05 2.39
-6.72 -0.19 2.39
-6.72 -0.32 2.39
-6.71 -0.46 2.39
-6.71 -0.59 2.39
-6.70 -0.73 2.39
-6.68 -0.86 2.39
-6.67 -0.99 2.39
-6.65 -1.13 2.39
-6.63 -1.26 2.39
-6.61 -1.40 2.39
-6.58 -1.53 2.39
-6.55 -1.66 2.39
-6.52 -1.79 2.39
-6.48 -1.92 2.39
-6.45 -2.05 2.39
-6.41 -2.18 2.39
-6.36 -2.31 2.39
-6.32 -2.44 2.39
-6.27 -2.57 2.39
-6.22 -2.69 2.39
-6.17 -2.82 2.39
-6.11 -2.94 2.39
-6.05 -3.07 2.39
-5.99 -3.19 2.39
-5.93 -3.31 2.39
-5.87 -3.43 2.39
-5.80 -3.55 2.39
-5.76 -3.68 2.41
-5.75 -3.84 2.43
-5.75 -4.01 2.46
-5.74 -4.18 2.49
-5.66 -4.29 2.49
-5.57 -4.41 2.49
-5.48 -4.52 2.49
-5.39 -4.63 2.49
-5.30 -4.74 2.49
-5.21 -4.84 2.49
-5.11 -4.95 2.49
-5.01 -5.05 2.49
-4.91 -5.15 2.49
-4.81 -5.25 2.49
-4.70 -5.35 2.49
-4.60 -5.44 2.49
-4.49 -5.53 2.49
-4.38 -5.62 2.49
-4.26 -5.71 2.49
-4.15 -5.80 2.49
-4.03 -5.88 2.49
-3.91 -5.96 2.49
-3.80 -6.04 2.49
-3.67 -6.11 2.49
-3.55 -6.19 2.49
-3.43 -6.26 2.49
-3.30 -6.33 2.49
-3.18 -6.39 2.49
-3.05 -6.45 2.49
-2.92 -6.52 2.49
-2.79 -6.57 2.49
-2.65 -6.63 2.49
-2.52 -6.68 2.49
-2.39 -6.73 2.49
-2.25 -6.78 2.49
-2.12 -6.82 2.49
-1.98 -6.86 2.49
-1.84 -6.90 2.49
-1.70 -6.94 2.49
-1.56 -6.97 2.49
-1.42 -7.00 2.49
-1.28 -7.03 2.49
-1.14 -7.05 2.49
-1.00 -7.07 2.49
-0.86 -7.09 2.49
-0.72 -7.11 2.49
-0.58 -7.12 2.49
-0.43 -7.13 2.49
-0.29 -7.13 2.49
-0.15 -7.14 2.49
-0.00 -6.65 2.49
0.13 -6.65 2.49
0.26 -6.65 2.49
0.40 -6.64 2.49
0.53 -6.63 2.49
0.66 -6.62 2.49
0.79 -6.60 2.49
0.92 -6.58 2.49
1.06 -6.56 2.49
1.19 -6.54 2.49
1.32 -6.51 2.49
1.45 -6.48 2.49
1.58 -6.45 2.49
1.71 -6.42 2.49
1.83 -6.38 2.49
1.96 -6.34 2.49
2.09 -6.30 2.49
2.21 -6.26 2.49
2.34 -6.21 2.49
2.36 -5.90 2.39
2.47 -5.85 2.39
2.59 -5.80 2.39
2.71 -5.75 2.39
2.82 -5.69 2.39
2.93 -5.63 2.39
3.04 -5.57 2.39
3.15 -5.51 2.39
3.26 -5.44 2.39
3.37 -5.37 2.39
3.48 -5.30 2.39
3.58 -5.23 2.39
3.68 -5.16 2.39
3.78 -5.08 2.39
3.88 -5.00 2.39
3.98 -4.92 2.39
4.08 -4.84 2.39
4.17 -4.75 2.39
4.27 -4.67 2.39
4.36 -4.58 2.39
4.45 -4.49 2.39
4.53 -4.40 2.39
4.62 -4.30 2.39
4.70 -4.21 2.39
4.78 -4.11 2.39
4.86 -4.01 2.39
4.94 -3.91 2.39
5.02 -3.81 2.39
5.09 -3.71 2.39
4.73 -3.31 2.19
4.90 -3.28 2.24
5.30 -3.39 2.39
5.36 -3.28 2.39
5.42 -3.18 2.39
5.48 -3.06 2.39
5.54 -2.95 2.39
5.60 -2.84 2.39
5.65 -2.73 2.39
5.70 -2.61 2.39
5.75 -2.49 2.39
5.80 -2.38 2.39
5.84 -2.26 2.39
5.88 -2.14 2.39
5.92 -2.02 2.39
5.96 -1.90 2.39
5.99 -1.78 2.39
6.03 -1.66 2.39
6.05 -1.54 2.39
4.79 -1.11 1.88
4.81 -1.02 1.88
4.82 -0.92 1.88
4.84 -0.82 1.88
4.85 -0.73 1.88
4.86 -0.63 1.88
4.87 -0.53 1.88
4.88 -0.43 1.88
4.89 -0.33 1.88
4.89 -0.23 1.88
4.89 -0.14 1.88
4.89 -0.04 1.88
4.89 0.06 1.88
4.88 0.16 1.88
4.88 0.26 1.88
4.87 0.35 1.88
6.17 0.57 2.39
6.16 0.70 2.39
6.14 0.82 2.39
6.12 0.94 2.39
6.10 1.07 2.39
6.07 1.19 2.39
6.05 1.31 2.39
6.02 1.43 2.39
5.98 1.55 2.39
5.95 1.67 2.39
5.91 1.79 2.39
5.87 1.90 2.39
5.83 2.02 2.39
5.79 2.14 2.39
5.74 2.25 2.39
5.69 2.37 2.39
5.64 2.48 2.39
5.59 2.59 2.39
5.53 2.70 2.39
5.48 2.81 2.39
5.42 2.92 2.39
5.35 3.03 2.39
5.29 3.13 2.39
5.22 3.24 2.39
5.16 3.34 2.39
5.09 3.44 2.39
5.02 3.55 2.39
4.94 3.64 2.39
4.87 3.74 2.39
4.79 3.84 2.39
4.71 3.93 2.39
4.63 4.03 2.39
4.54 4.12 2.39
4.46 4.21 2.39
4.37 4.29 2.39
4.28 4.38 2.39
4.19 4.46 2.39
4.10 4.55 2.39
4.01 4.63 2.39
3.92 4.71 2.39
3.82 4.78 2.39
3.72 4.86 2.39
3.62 4.93 2.39
3.52 5.00 2.39
3.42 5.07 2.39
3.15 4.88 2.27
3.06 4.95 2.28
3.05 5.17 2.35
2.95 5.24 2.35
2.84 5.30 2.35
2.74 5.35 2.35
2.53 5.22 2.27
2.46 5.33 2.30
2.45 5.60 2.39
2.33 5.65 2.39
2.22 5.69 2.39
2.11 5.74 2.39
2.07 6.02 2.49
1.95 6.06 2.49
1.83 6.10 2.49
1.71 6.14 2.49
1.58 6.17 2.49
1.46 6.20 2.49
1.33 6.23 2.49
1.21 6.25 2.49
1.08 6.28 2.49
0.95 6.30 2.49
0.83 6.32 2.49
0.70 6.33 2.49
0.57 6.34 2.49
0.44 6.36 2.49
0.32 6.36 2.49
0.19 6.37 2.49
0.06 6.37 2.49
-0.07 6.37 2.49
-0.20 6.37 2.49
-0.32 6.37 2.49
-0.45 6.36 2.49
-0.58 6.35 2.49
-0.71 6.34 2.49
-0.84 6.32 2.49
-0.96 6.31 2.49
-1.09 6.29 2.49
-1.22 6.26 2.49
-1.34 6.24 2.49
-1.47 6.21 2.49
-1.59 6.18 2.49
-1.72 6.15 2.49
-1.84 6.12 2.49
-1.96 6.08 2.49
-2.09 6.04 2.49
-2.21 6.00 2.49
-2.33 5.95 2.49
-2.45 5.91 2.49
-2.57 5.86 2.49
-2.69 5.81 2.49
-2.80 5.75 2.49
-2.92 5.70 2.49
-3.03 5.64 2.49
-3.15 5.58 2.49
-3.26 5.51 2.49
-3.37 5.45 2.49
-3.48 5.38 2.49
-3.59 5.31 2.49
-3.70 5.24 2.49
-3.80 5.17 2.49
-3.91 5.09 2.49
-4.01 5.01 2.49
-4.11 4.93 2.49
-4.21 4.85 2.49
-4.31 4.77 2.49
-4.41 4.68 2.49
-4.50 4.59 2.49
-4.59 4.50 2.49
-4.69 4.41 2.49
-4.78 4.32 2.49
-4.86 4.22 2.49
-4.95 4.13 2.49
-5.03 4.03 2.49
-5.11 3.93 2.49
-5.19 3.83 2.49
-5.27 3.72 2.49
-5.35 3.62 2.49
-5.42 3.51 2.49
-5.49 3.40 2.49
-5.56 3.29 2.49
-5.63 3.18 2.49
