ply
format ascii 1.0
element vertex 2938
property float32 x
property float32 y
property float32 z
end_header
-12.63 -3.49 1.73
-12.63 -3.77 1.74
-12.36 -3.96 1.70
-12.33 -4.22 1.70
-12.64 -4.62 1.75
-12.65 -4.91 1.76
-12.65 -5.20 1.76
-9.87 -4.29 1.38
-11.05 -5.07 1.56
-10.98 -5.30 1.55
-12.67 -6.44 1.80
-11.08 -5.91 1.59
-11.04 -6.18 1.59
-11.05 -6.48 1.60
-11.28 -6.92 1.65
-11.08 -7.11 1.64
-11.06 -7.41 1.65
-11.49 -8.03 1.73
-11.03 -8.05 1.68
-9.92 -7.55 1.53
-9.92 -7.87 1.54
-9.93 -8.21 1.57
-12.11 -10.42 1.93
-9.94 -8.90 1.61
-9.95 -9.27 1.63
-9.97 -9.68 1.66
-9.95 -10.06 1.69
-9.98 -10.50 1.72
-12.78 -13.99 2.25
-9.97 -11.36 1.79
-12.61 -14.96 2.31
-12.35 -15.26 2.31
-12.08 -15.55 2.31
-11.80 -15.84 2.31
-11.51 -16.12 2.31
-11.22 -16.39 2.31
-10.92 -16.65 2.31
-10.61 -16.91 2.31
-10.29 -17.16 2.31
-10.07 -17.58 2.33
-10.02 -18.32 2.39
-9.67 -18.56 2.39
-9.32 -18.79 2.39
-8.96 -19.02 2.39
-8.59 -19.23 2.39
-8.22 -19.43 2.39
-7.84 -19.63 2.39
-7.46 -19.82 2.39
-7.08 -19.99 2.39
-6.69 -20.16 2.39
-6.29 -20.32 2.39
-6.12 -21.27 2.49
-5.72 -21.49 2.50
-5.30 -21.63 2.50
-4.87 -21.75 2.50
-4.44 -21.86 2.50
-4.00 -21.97 2.50
-3.56 -22.06 2.50
-3.12 -22.14 2.50
-2.68 -22.20 2.50
-2.24 -22.26 2.50
-1.79 -22.31 2.50
-1.23 -20.48 2.29
-0.83 -20.63 2.30
-0.45 -22.38 2.50
-0.00 -18.57 2.50
0.37 -18.56 2.50
0.74 -18.55 2.50
1.11 -18.52 2.50
1.48 -18.48 2.50
1.84 -18.44 2.50
2.12 -17.63 2.39
2.47 -17.57 2.39
2.82 -17.50 2.39
3.16 -17.42 2.39
3.51 -17.34 2.39
3.85 -17.25 2.39
4.19 -17.14 2.39
4.52 -17.04 2.39
4.86 -16.92 2.39
5.19 -16.79 2.39
5.51 -16.66 2.39
5.84 -16.52 2.39
6.25 -16.64 2.43
6.53 -16.37 2.42
6.82 -16.16 2.41
7.13 -15.99 2.41
7.43 -15.81 2.41
7.73 -15.63 2.41
8.03 -15.44 2.41
8.32 -15.24 2.41
8.60 -15.04 2.41
8.84 -14.76 2.40
9.04 -14.44 2.38
9.23 -14.10 2.36
9.42 -13.79 2.35
9.60 -13.47 2.33
9.78 -13.15 2.32
9.95 -12.83 2.30
10.11 -12.52 2.29
10.27 -12.21 2.27
10.42 -11.90 2.26
10.58 -11.60 2.25
10.73 -11.30 2.24
10.93 -11.05 2.24
11.13 -10.82 2.24
11.31 -10.57 2.25
11.49 -10.31 2.25
11.66 -10.05 2.25
11.56 -9.56 2.20
11.71 -9.30 2.20
6.22 -4.74 1.15
6.40 -4.68 1.17
6.63 -4.65 1.20
6.93 -4.65 1.24
7.30 -4.69 1.30
7.64 -4.69 1.35
7.94 -4.67 1.39
8.39 -4.71 1.45
8.81 -4.71 1.52
9.20 -4.68 1.57
9.76 -4.73 1.66
10.22 -4.70 1.72
10.88 -4.74 1.83
11.53 -4.75 1.93
12.15 -4.73 2.02
12.94 -4.74 2.15
13.44 -4.62 2.22
13.48 -4.33 2.22
13.52 -4.04 2.22
13.54 -3.76 2.22
13.56 -3.47 2.22
13.58 -3.19 2.22
13.59 -2.90 2.22
13.59 -2.62 2.22
13.65 -2.35 2.23
13.64 -2.07 2.23
13.65 -1.79 2.23
13.66 -1.51 2.24
13.66 -1.24 2.24
13.66 -0.96 2.25
13.66 -0.68 2.25
13.66 -0.41 2.26
13.66 -0.14 2.27
13.61 0.14 2.27
13.56 0.41 2.27
13.49 0.68 2.27
13.42 0.95 2.27
13.35 1.21 2.26
13.27 1.47 2.26
12.95 1.70 2.22
12.65 1.92 2.18
12.58 2.17 2.19
12.50 2.42 2.19
12.42 2.66 2.19
12.34 2.90 2.19
12.25 3.14 2.20
12.16 3.38 2.20
12.58 3.77 2.30
12.48 4.02 2.30
12.35 4.25 2.30
12.22 4.48 2.30
11.94 4.66 2.27
11.29 4.67 2.17
10.70 4.67 2.08
10.10 4.66 1.99
11.38 5.53 2.27
11.13 5.69 2.25
11.01 5.91 2.25
8.45 4.75 1.75
10.76 6.34 2.27
10.62 6.55 2.27
10.49 6.77 2.28
10.35 6.98 2.28
7.06 4.97 1.58
6.95 5.11 1.59
9.93 7.60 2.31
6.96 5.55 1.65
9.58 7.97 2.31
6.39 5.54 1.57
9.29 8.38 2.33
9.14 8.59 2.34
9.00 8.80 2.35
8.83 8.99 2.36
8.65 9.17 2.37
8.48 9.36 2.38
8.29 9.54 2.38
6.27 7.51 1.85
6.27 7.83 1.90
6.28 8.17 1.96
6.28 8.53 2.01
7.30 10.33 2.41
6.30 9.31 2.15
6.86 10.58 2.41
6.31 10.18 2.29
6.36 10.75 2.39
6.13 10.86 2.39
5.90 10.96 2.39
5.67 11.06 2.39
5.44 11.16 2.39
5.21 11.25 2.39
4.98 11.34 2.39
4.74 11.43 2.39
4.51 11.51 2.39
2.58 6.99 1.45
4.03 11.66 2.39
3.79 11.73 2.39
3.55 11.79 2.39
3.31 11.85 2.39
3.07 11.91 2.39
2.82 11.96 2.39
2.60 12.08 2.41
2.39 12.35 2.45
2.18 12.61 2.50
1.93 12.65 2.50
1.67 12.68 2.50
1.41 12.71 2.50
1.16 12.73 2.50
0.90 12.75 2.50
0.64 12.77 2.50
0.38 12.78 2.50
0.13 12.79 2.50
-0.13 12.79 2.50
-0.39 12.78 2.50
-0.65 12.78 2.50
-0.91 12.77 2.50
-1.16 12.75 2.50
-1.42 12.73 2.50
-1.68 12.71 2.50
-1.94 12.68 2.50
-2.19 12.64 2.50
-2.45 12.61 2.50
-2.71 12.56 2.50
-2.96 12.52 2.50
-3.22 12.47 2.50
-3.47 12.41 2.50
-3.72 12.35 2.50
-3.98 12.29 2.50
-4.23 12.22 2.50
-4.48 12.14 2.50
-4.73 12.07 2.50
-4.98 11.98 2.50
-5.23 11.90 2.50
-5.47 11.81 2.50
-5.72 11.71 2.50
-5.96 11.61 2.50
-6.21 11.51 2.50
-6.45 11.40 2.50
-6.41 10.82 2.39
-6.64 10.71 2.39
-6.87 10.59 2.39
-7.09 10.47 2.39
-7.32 10.35 2.39
-7.54 10.22 2.39
-7.76 10.09 2.39
-7.98 9.95 2.39
-8.20 9.81 2.39
-8.41 9.66 2.39
-8.62 9.51 2.39
-8.83 9.36 2.39
-9.04 9.20 2.39
-9.25 9.04 2.39
-9.45 8.87 2.39
-9.65 8.70 2.39
-9.92 8.59 2.41
-10.12 8.41 2.41
-10.31 8.23 2.41
-10.50 8.04 2.41
-10.69 7.85 2.41
-10.88 7.65 2.41
-11.06 7.45 2.41
-11.24 7.25 2.41
-11.42 7.04 2.41
-11.59 6.83 2.41
-11.76 6.61 2.41
-11.91 6.39 2.41
-12.07 6.16 2.40
-12.22 5.94 2.40
-12.37 5.70 2.40
-12.52 5.47 2.40
-12.59 5.20 2.39
-12.54 4.89 2.35
-12.44 4.56 2.31
-12.52 4.31 2.30
-12.52 4.03 2.27
-12.52 3.75 2.25
-12.53 3.48 2.23
-12.53 3.21 2.21
-12.54 2.95 2.20
-12.54 2.69 2.18
-12.54 2.42 2.16
-12.55 2.16 2.15
-12.55 1.91 2.13
-12.56 1.65 2.12
-12.56 1.39 2.11
-12.56 1.14 2.10
-12.57 0.89 2.09
-12.57 0.63 2.08
-12.57 0.38 2.07
-12.58 0.13 2.06
-12.58 -0.12 2.05
-12.58 -0.38 2.05
-12.59 -0.63 2.04
-12.59 -0.88 2.04
-12.03 -1.09 1.94
-10.08 -1.11 1.62
-9.83 -1.29 1.58
-9.83 -1.49 1.58
-9.84 -1.69 1.58
-9.84 -1.90 1.58
-9.84 -2.10 1.58
-12.62 -2.96 2.03
-12.62 -3.23 2.03
-9.85 -2.73 1.59
-9.85 -2.95 1.59
-12.64 -4.06 2.05
-11.67 -4.00 1.90
-11.53 -4.22 1.88
-9.88 -3.84 1.62
-9.87 -4.06 1.62
-9.87 -4.30 1.63
-9.88 -4.54 1.64
-11.02 -5.33 1.84
-11.03 -5.61 1.85
-11.02 -5.89 1.87
-11.00 -6.17 1.88
-11.01 -6.46 1.89
-11.26 -6.92 1.95
-11.05 -7.09 1.93
-11.05 -7.41 1.95
-11.47 -8.03 2.05
-11.03 -8.06 1.99
-9.92 -7.55 1.81
-9.92 -7.88 1.84
-9.93 -8.21 1.86
-12.10 -10.42 2.30
-9.94 -8.91 1.92
-9.94 -9.28 1.95
-11.14 -10.83 2.22
-9.95 -10.07 2.01
-10.84 -11.40 2.23
-10.99 -12.04 2.31
-9.97 -11.37 2.13
-10.55 -12.53 2.31
-10.33 -12.78 2.31
-10.10 -13.01 2.31
-10.01 -13.45 2.34
-9.98 -13.99 2.39
-9.72 -14.22 2.39
-9.46 -14.44 2.39
-9.19 -14.66 2.39
-8.91 -14.87 2.39
-8.63 -15.08 2.39
-8.34 -15.28 2.39
-8.05 -15.47 2.39
-7.76 -15.66 2.39
-7.45 -15.84 2.39
-7.15 -16.01 2.39
-6.84 -16.18 2.39
-6.52 -16.33 2.39
-6.20 -16.48 2.39
-6.06 -17.14 2.47
-5.79 -17.48 2.50
-5.45 -17.62 2.50
-5.10 -17.74 2.50
-4.75 -17.86 2.50
-4.40 -17.97 2.50
-4.04 -18.07 2.50
-3.68 -18.16 2.50
-3.32 -18.24 2.50
-2.96 -18.31 2.50
-2.59 -18.37 2.50
-2.22 -18.43 2.50
-1.86 -18.48 2.50
-1.49 -18.51 2.50
-1.12 -18.54 2.50
-0.75 -18.56 2.50
-0.38 -18.57 2.50
-0.00 -15.86 2.50
0.31 -15.85 2.50
0.63 -15.84 2.50
0.94 -15.82 2.50
1.26 -15.79 2.50
1.57 -15.75 2.50
1.89 -15.71 2.50
2.11 -15.01 2.39
2.41 -14.95 2.39
2.70 -14.89 2.39
3.00 -14.82 2.39
3.29 -14.74 2.39
3.58 -14.66 2.39
3.87 -14.57 2.39
4.15 -14.47 2.39
4.43 -14.37 2.39
4.71 -14.26 2.39
4.99 -14.14 2.39
5.26 -14.02 2.39
5.53 -13.89 2.39
5.80 -13.75 2.39
6.18 -13.87 2.44
6.41 -13.64 2.43
6.63 -13.41 2.41
6.88 -13.24 2.41
7.13 -13.07 2.41
7.37 -12.90 2.41
7.61 -12.73 2.41
7.85 -12.55 2.41
8.08 -12.36 2.41
8.31 -12.17 2.41
8.53 -11.97 2.41
8.74 -11.77 2.41
8.90 -11.50 2.39
9.06 -11.22 2.38
9.21 -10.95 2.37
9.36 -10.69 2.36
8.94 -9.81 2.21
9.07 -9.56 2.20
9.23 -9.35 2.20
9.39 -9.14 2.20
9.55 -8.92 2.20
9.69 -8.71 2.20
9.88 -8.53 2.21
10.02 -8.30 2.21
5.99 -4.76 1.30
6.11 -4.66 1.31
6.39 -4.68 1.35
6.62 -4.65 1.39
6.92 -4.65 1.44
7.29 -4.69 1.50
7.63 -4.69 1.55
7.93 -4.67 1.60
8.38 -4.71 1.67
8.80 -4.71 1.74
9.18 -4.68 1.81
9.74 -4.72 1.90
10.20 -4.70 1.98
10.86 -4.74 2.10
11.51 -4.75 2.21
11.61 -4.52 2.22
11.66 -4.28 2.22
11.71 -4.03 2.22
11.75 -3.78 2.22
11.78 -3.53 2.22
11.81 -3.29 2.22
11.83 -3.04 2.22
11.85 -2.79 2.22
11.87 -2.54 2.22
11.96 -2.32 2.24
11.95 -2.06 2.23
11.92 -1.81 2.23
11.88 -1.57 2.22
11.84 -1.32 2.22
11.80 -1.08 2.21
11.77 -0.83 2.21
11.76 -0.60 2.21
11.75 -0.36 2.22
11.73 -0.12 2.22
11.75 0.11 2.23
11.77 0.35 2.24
11.79 0.59 2.25
11.80 0.82 2.27
11.81 1.06 2.28
11.76 1.30 2.28
11.70 1.53 2.28
11.34 1.71 2.22
11.28 1.94 2.23
11.21 2.16 2.23
11.19 2.39 2.24
11.14 2.61 2.25
11.07 2.83 2.25
10.99 3.05 2.25
10.91 3.27 2.26
10.83 3.48 2.26
11.01 3.78 2.32
10.93 4.00 2.33
10.83 4.21 2.33
10.72 4.42 2.33
10.61 4.63 2.33
10.17 4.68 2.26
9.67 4.69 2.18
9.20 4.70 2.10
8.73 4.68 2.02
6.92 3.89 1.62
7.02 4.13 1.67
6.41 3.95 1.55
6.94 4.47 1.70
6.52 4.39 1.62
6.36 4.47 1.61
6.81 4.99 1.75
6.51 4.98 1.70
6.38 5.08 1.70
6.39 5.31 1.73
6.39 5.53 1.77
8.38 7.55 2.37
8.23 7.72 2.37
8.07 7.88 2.37
7.90 8.04 2.38
7.74 8.20 2.38
7.58 8.36 2.39
7.42 8.52 2.40
6.28 7.51 2.08
6.28 7.83 2.14
6.28 8.16 2.20
6.28 8.52 2.26
6.31 8.93 2.34
6.27 9.25 2.39
6.07 9.36 2.39
5.87 9.47 2.39
5.67 9.57 2.39
5.47 9.67 2.39
5.27 9.77 2.39
5.06 9.86 2.39
4.86 9.95 2.39
4.65 10.03 2.39
4.44 10.11 2.39
4.23 10.19 2.39
4.02 10.27 2.39
2.58 6.99 1.62
3.60 10.40 2.39
3.38 10.46 2.39
3.17 10.52 2.39
2.95 10.58 2.39
2.74 10.63 2.39
2.52 10.67 2.39
2.38 11.05 2.47
2.18 11.22 2.50
1.95 11.26 2.50
1.72 11.29 2.50
1.49 11.32 2.50
1.26 11.35 2.50
1.03 11.37 2.50
0.80 11.39 2.50
0.57 11.40 2.50
0.34 11.41 2.50
0.11 11.41 2.50
-0.12 11.41 2.50
-0.35 11.41 2.50
-0.58 11.41 2.50
-0.81 11.39 2.50
-1.04 11.38 2.50
-1.27 11.36 2.50
-1.50 11.34 2.50
-1.73 11.31 2.50
-1.96 11.28 2.50
-2.19 11.25 2.50
-2.42 11.21 2.50
-2.64 11.17 2.50
-2.87 11.12 2.50
-3.10 11.07 2.50
-3.32 11.01 2.50
-3.55 10.96 2.50
-3.77 10.89 2.50
-4.00 10.83 2.50
-4.22 10.76 2.50
-4.44 10.68 2.50
-4.66 10.60 2.50
-4.88 10.52 2.50
-5.10 10.43 2.50
-5.32 10.34 2.50
-5.53 10.25 2.50
-5.75 10.15 2.50
-5.96 10.05 2.50
-5.95 9.59 2.41
-6.12 9.43 2.39
-6.32 9.32 2.39
-6.51 9.20 2.39
-6.71 9.09 2.39
-6.91 8.97 2.39
-7.10 8.84 2.39
-7.29 8.72 2.39
-7.48 8.58 2.39
-7.67 8.45 2.39
-7.85 8.31 2.39
-8.03 8.17 2.39
-8.22 8.02 2.39
-8.39 7.87 2.39
-8.57 7.72 2.39
-8.74 7.56 2.39
-8.92 7.40 2.39
-9.09 7.24 2.39
-9.25 7.07 2.39
-9.42 6.90 2.39
-9.58 6.73 2.39
-9.74 6.55 2.39
-9.96 6.41 2.41
-10.11 6.23 2.41
-10.26 6.04 2.41
-10.41 5.85 2.41
-10.36 5.55 2.36
-10.39 5.30 2.34
-10.41 5.05 2.32
-10.44 4.80 2.29
-10.45 4.56 2.27
-10.74 4.43 2.31
-10.86 4.22 2.31
-10.97 4.02 2.31
-11.09 3.81 2.31
-11.19 3.59 2.31
-11.30 3.38 2.31
-11.40 3.16 2.31
-11.50 2.94 2.31
-11.59 2.72 2.31
-11.68 2.49 2.31
-11.76 2.26 2.31
-11.84 2.03 2.31
-11.92 1.80 2.31
-11.99 1.57 2.31
-12.06 1.33 2.31
-12.12 1.09 2.31
-12.18 0.85 2.31
-12.24 0.61 2.31
-12.29 0.36 2.31
-12.33 0.12 2.31
-12.37 -0.13 2.31
-12.41 -0.38 2.31
-12.44 -0.63 2.31
-12.47 -0.88 2.31
-11.85 -1.08 2.19
-9.94 -1.11 1.83
-9.83 -1.29 1.81
-9.83 -1.50 1.81
-9.84 -1.70 1.81
-9.84 -1.90 1.81
-9.84 -2.11 1.81
-12.49 -2.94 2.31
-11.01 -2.82 2.03
-11.16 -3.10 2.07
-9.85 -2.95 1.83
-12.12 -3.90 2.26
-11.87 -4.08 2.22
-12.29 -4.50 2.31
-9.87 -3.84 1.86
-9.87 -4.07 1.87
-9.87 -4.31 1.88
-9.88 -4.55 1.89
-11.02 -5.34 2.12
-11.49 -5.86 2.23
-11.01 -5.89 2.15
-11.00 -6.17 2.17
-11.00 -6.47 2.19
-11.20 -6.89 2.25
-11.02 -7.08 2.23
-11.02 -7.40 2.25
-11.15 -7.82 2.31
-11.00 -8.05 2.30
-9.92 -7.56 2.10
-9.92 -7.89 2.13
-9.93 -8.22 2.16
-10.46 -9.01 2.31
-9.94 -8.92 2.22
-9.94 -9.29 2.26
-9.97 -9.70 2.31
-9.95 -10.08 2.34
-9.97 -10.50 2.39
-9.81 -10.75 2.39
-9.61 -10.97 2.39
-9.41 -11.19 2.39
-9.21 -11.40 2.39
-9.00 -11.61 2.39
-8.78 -11.81 2.39
-8.56 -12.01 2.39
-8.34 -12.20 2.39
-8.11 -12.39 2.39
-7.87 -12.57 2.39
-7.64 -12.75 2.39
-7.39 -12.92 2.39
-7.14 -13.09 2.39
-6.89 -13.25 2.39
-6.64 -13.41 2.39
-6.38 -13.56 2.39
-6.11 -13.70 2.39
-6.02 -14.25 2.46
-5.82 -14.58 2.50
-5.53 -14.71 2.50
-5.24 -14.83 2.50
-4.95 -14.95 2.50
-4.66 -15.06 2.50
-4.36 -15.16 2.50
-4.06 -15.26 2.50
-3.76 -15.35 2.50
-3.45 -15.43 2.50
-3.14 -15.51 2.50
-2.83 -15.58 2.50
-2.52 -15.64 2.50
-2.21 -15.69 2.50
-1.90 -15.74 2.50
-1.58 -15.78 2.50
-1.27 -15.81 2.50
-0.95 -15.83 2.50
-0.64 -15.85 2.50
-0.32 -15.86 2.50
-0.00 -13.83 2.50
0.27 -13.82 2.50
0.55 -13.81 2.50
0.82 -13.79 2.50
1.10 -13.77 2.50
1.37 -13.73 2.50
1.64 -13.70 2.50
1.92 -13.65 2.50
2.10 -13.04 2.39
2.35 -12.99 2.39
2.61 -12.93 2.39
2.87 -12.86 2.39
3.12 -12.79 2.39
3.37 -12.71 2.39
3.62 -12.63 2.39
3.87 -12.54 2.39
4.11 -12.45 2.39
4.35 -12.35 2.39
4.59 -12.24 2.39
4.83 -12.13 2.39
5.07 -12.02 2.39
5.30 -11.90 2.39
5.52 -11.77 2.39
5.75 -11.64 2.39
5.97 -11.50 2.39
6.29 -11.56 2.43
6.48 -11.35 2.42
6.66 -11.15 2.41
6.87 -10.98 2.41
7.07 -10.82 2.41
6.63 -9.72 2.20
6.81 -9.57 2.20
6.98 -9.41 2.20
7.16 -9.25 2.20
7.36 -9.12 2.21
7.52 -8.96 2.21
7.68 -8.78 2.21
7.84 -8.61 2.21
7.99 -8.43 2.21
8.14 -8.25 2.21
8.28 -8.07 2.21
8.42 -7.88 2.21
8.55 -7.69 2.21
8.68 -7.50 2.21
8.81 -7.31 2.21
5.94 -4.73 1.47
6.08 -4.65 1.48
6.38 -4.68 1.54
6.61 -4.65 1.58
6.91 -4.65 1.63
7.28 -4.69 1.70
6.14 -3.79 1.42
7.92 -4.67 1.81
8.37 -4.71 1.90
8.78 -4.71 1.97
9.17 -4.68 2.05
9.72 -4.72 2.15
10.18 -4.70 2.24
10.34 -4.52 2.26
10.39 -4.30 2.26
6.18 -2.41 1.34
10.48 -3.85 2.26
10.52 -3.63 2.26
10.56 -3.41 2.26
10.59 -3.18 2.25
10.61 -2.96 2.25
10.64 -2.74 2.25
10.66 -2.52 2.25
10.71 -2.30 2.26
10.68 -2.07 2.25
10.70 -1.86 2.25
10.68 -1.63 2.25
10.67 -1.41 2.25
10.65 -1.19 2.24
10.63 -0.98 2.24
10.60 -0.76 2.24
10.57 -0.54 2.24
10.54 -0.33 2.24
10.51 -0.12 2.23
10.50 0.09 2.24
10.48 0.30 2.24
10.48 0.51 2.25
10.49 0.72 2.26
10.49 0.94 2.27
10.49 1.15 2.28
10.48 1.36 2.29
10.48 1.58 2.30
10.31 1.76 2.28
10.26 1.97 2.28
10.20 2.17 2.29
10.14 2.37 2.29
10.08 2.57 2.29
10.01 2.77 2.30
9.94 2.97 2.30
9.86 3.16 2.30
9.79 3.36 2.31
9.71 3.55 2.31
9.87 3.84 2.37
9.80 4.03 2.38
9.70 4.22 2.38
9.59 4.41 2.38
9.49 4.59 2.38
9.22 4.70 2.35
8.79 4.70 2.27
6.90 3.87 1.80
6.59 3.88 1.75
6.36 3.91 1.71
6.38 4.10 1.74
6.38 4.29 1.77
6.37 4.47 1.79
6.82 4.99 1.95
6.51 4.98 1.90
6.38 5.08 1.89
6.39 5.31 1.93
6.39 5.53 1.97
7.60 6.84 2.38
7.45 6.99 2.39
7.31 7.13 2.39
7.16 7.27 2.39
7.00 7.41 2.40
6.85 7.55 2.40
6.75 7.74 2.42
6.28 7.51 2.31
6.34 7.89 2.39
6.17 8.01 2.39
5.99 8.12 2.39
5.82 8.23 2.39
5.65 8.33 2.39
5.47 8.43 2.39
5.29 8.53 2.39
5.11 8.62 2.39
4.93 8.71 2.39
4.75 8.80 2.39
4.56 8.88 2.39
4.38 8.97 2.39
4.19 9.04 2.39
4.01 9.12 2.39
3.82 9.19 2.39
3.63 9.25 2.39
2.58 6.99 1.80
3.25 9.38 2.39
3.05 9.44 2.39
2.86 9.49 2.39
2.67 9.54 2.39
2.47 9.59 2.39
2.36 9.99 2.48
2.17 10.08 2.50
1.96 10.12 2.50
1.76 10.16 2.50
1.55 10.19 2.50
1.35 10.21 2.50
1.14 10.24 2.50
0.93 10.26 2.50
0.72 10.27 2.50
0.52 10.28 2.50
0.31 10.29 2.50
0.10 10.30 2.50
-0.11 10.30 2.50
-0.32 10.30 2.50
-0.52 10.29 2.50
-0.73 10.28 2.50
-0.94 10.27 2.50
-1.15 10.25 2.50
-1.35 10.23 2.50
-1.56 10.20 2.50
-1.77 10.18 2.50
-1.97 10.14 2.50
-2.18 10.11 2.50
-2.39 10.07 2.50
-2.59 10.03 2.50
-2.79 9.98 2.50
-3.00 9.93 2.50
-3.20 9.88 2.50
-3.40 9.82 2.50
-3.60 9.76 2.50
-3.80 9.69 2.50
-4.00 9.62 2.50
-4.20 9.55 2.50
-4.40 9.48 2.50
-4.60 9.40 2.50
-4.79 9.31 2.50
-4.98 9.23 2.50
-5.18 9.14 2.50
-5.37 9.05 2.50
-5.56 8.95 2.50
-5.75 8.85 2.50
-5.75 8.47 2.42
-5.86 8.28 2.39
-6.04 8.17 2.39
-6.21 8.06 2.39
-6.39 7.95 2.39
-6.56 7.83 2.39
-6.73 7.71 2.39
-6.89 7.59 2.39
-7.06 7.46 2.39
-7.22 7.34 2.39
-7.38 7.20 2.39
-7.54 7.07 2.39
-7.70 6.93 2.39
-7.80 6.74 2.38
-7.95 6.59 2.38
-8.10 6.45 2.38
-8.24 6.29 2.38
-8.39 6.14 2.38
-8.59 6.03 2.39
-8.73 5.87 2.39
-8.87 5.70 2.39
-9.00 5.54 2.39
-9.13 5.37 2.39
-9.26 5.20 2.39
-9.39 5.02 2.39
-9.51 4.84 2.39
-9.63 4.66 2.39
-9.75 4.48 2.39
-9.76 4.25 2.37
-9.76 4.02 2.34
-9.77 3.79 2.32
-9.81 3.58 2.31
-9.91 3.39 2.31
-10.00 3.20 2.31
-10.09 3.01 2.31
-10.18 2.81 2.31
-10.26 2.62 2.31
-10.34 2.42 2.31
-10.41 2.21 2.31
-10.49 2.01 2.31
-10.55 1.81 2.31
-10.62 1.60 2.31
-10.68 1.39 2.31
-10.74 1.18 2.31
-10.79 0.96 2.31
-10.84 0.75 2.31
-10.88 0.53 2.31
-10.92 0.32 2.31
-10.96 0.10 2.31
-10.99 -0.12 2.31
-11.02 -0.34 2.31
-11.04 -0.57 2.31
-11.06 -0.79 2.31
-11.08 -1.02 2.31
-9.90 -1.11 2.06
-9.83 -1.30 2.04
-9.83 -1.50 2.04
-9.84 -1.70 2.04
-9.84 -1.91 2.05
-9.84 -2.11 2.05
-11.05 -2.61 2.31
-11.03 -2.84 2.31
-10.98 -3.06 2.30
-10.88 -3.27 2.29
-10.75 -3.46 2.27
-10.89 -3.75 2.31
-10.85 -3.98 2.31
-9.87 -3.85 2.11
-9.87 -4.08 2.12
-9.87 -4.31 2.13
-9.88 -4.55 2.15
-10.54 -5.12 2.31
-10.47 -5.34 2.31
-10.39 -5.57 2.31
-10.30 -5.79 2.31
-10.21 -6.01 2.31
-10.11 -6.23 2.31
-10.01 -6.45 2.31
-9.92 -6.67 2.31
-9.92 -6.96 2.33
-9.92 -7.26 2.36
-9.92 -7.57 2.39
-9.80 -7.80 2.39
-9.67 -8.01 2.39
-9.53 -8.22 2.39
-9.38 -8.43 2.39
-9.23 -8.63 2.39
-9.08 -8.84 2.39
-8.92 -9.04 2.39
-8.76 -9.23 2.39
-8.59 -9.43 2.39
-8.42 -9.62 2.39
-8.24 -9.80 2.39
-8.06 -9.98 2.39
-7.87 -10.16 2.39
-7.68 -10.34 2.39
-7.49 -10.51 2.39
-7.29 -10.67 2.39
-7.09 -10.84 2.39
-6.88 -10.99 2.39
-6.67 -11.15 2.39
-6.46 -11.30 2.39
-6.24 -11.44 2.39
-6.02 -11.58 2.39
-5.99 -12.11 2.47
-5.81 -12.35 2.50
-5.57 -12.48 2.50
-5.32 -12.61 2.50
-5.07 -12.72 2.50
-4.82 -12.84 2.50
-4.57 -12.94 2.50
-4.32 -13.04 2.50
-4.06 -13.14 2.50
-3.80 -13.23 2.50
-3.54 -13.31 2.50
-3.27 -13.39 2.50
-3.01 -13.46 2.50
-2.74 -13.52 2.50
-2.47 -13.58 2.50
-2.20 -13.64 2.50
-1.93 -13.68 2.50
-1.65 -13.72 2.50
-1.38 -13.75 2.50
-1.11 -13.78 2.50
-0.83 -13.80 2.50
-0.56 -13.82 2.50
-0.28 -13.82 2.50
-0.00 -12.24 2.50
0.24 -12.24 2.50
0.48 -12.23 2.50
0.73 -12.21 2.50
0.97 -12.19 2.50
1.21 -12.16 2.50
1.45 -12.13 2.50
1.70 -12.09 2.50
1.94 -12.05 2.50
2.08 -11.51 2.39
2.31 -11.45 2.39
2.54 -11.40 2.39
2.76 -11.34 2.39
2.99 -11.27 2.39
3.21 -11.20 2.39
3.43 -11.12 2.39
3.64 -11.04 2.39
2.37 -6.73 1.47
4.07 -10.86 2.39
4.28 -10.76 2.39
4.49 -10.66 2.39
4.70 -10.56 2.39
4.90 -10.45 2.39
5.10 -10.33 2.39
5.30 -10.21 2.39
5.49 -10.09 2.39
5.68 -9.96 2.39
5.87 -9.83 2.39
6.06 -9.70 2.39
6.05 -9.27 2.32
6.05 -8.88 2.26
6.08 -8.54 2.21
6.23 -8.40 2.21
6.36 -8.23 2.20
6.51 -8.08 2.20
6.66 -7.93 2.20
6.80 -7.78 2.20
6.94 -7.63 2.20
7.08 -7.48 2.20
7.21 -7.32 2.20
7.37 -7.19 2.21
7.50 -7.02 2.21
7.62 -6.86 2.21
7.74 -6.69 2.21
7.85 -6.52 2.21
5.96 -4.75 1.65
6.08 -4.65 1.66
6.12 -4.49 1.65
6.13 -4.31 1.64
6.13 -4.13 1.62
7.27 -4.69 1.90
6.14 -3.79 1.59
6.15 -3.63 1.57
6.15 -3.46 1.56
8.77 -4.71 2.21
9.15 -4.68 2.28
9.32 -4.54 2.31
9.39 -4.34 2.31
9.44 -4.14 2.31
6.16 -2.55 1.50
6.16 -2.41 1.49
6.17 -2.27 1.48
6.17 -2.13 1.48
9.68 -3.13 2.31
9.72 -2.93 2.31
6.17 -1.73 1.46
6.18 -1.59 1.46
6.18 -1.46 1.46
9.79 -2.11 2.30
9.81 -1.91 2.30
6.18 -1.08 1.45
6.19 -0.95 1.45
9.87 -1.31 2.31
9.88 -1.11 2.32
6.19 -0.57 1.45
6.19 -0.45 1.45
9.83 -0.51 2.31
9.80 -0.31 2.31
6.20 -0.07 1.46
5.69 0.05 1.35
5.71 0.16 1.36
5.69 0.27 1.36
5.68 0.39 1.36
5.79 0.51 1.39
9.68 1.05 2.34
9.65 1.25 2.34
9.64 1.44 2.35
9.63 1.64 2.36
9.40 1.80 2.32
9.35 1.98 2.32
9.30 2.17 2.33
9.28 2.36 2.34
9.22 2.54 2.34
9.15 2.72 2.34
9.08 2.90 2.34
9.00 3.08 2.35
8.93 3.26 2.35
8.85 3.43 2.35
8.77 3.60 2.35
8.91 3.87 2.42
8.81 4.04 2.42
8.71 4.21 2.42
8.61 4.38 2.42
8.51 4.54 2.42
6.91 3.87 1.99
6.60 3.88 1.93
6.36 3.91 1.89
6.38 4.10 1.92
6.38 4.28 1.95
6.37 4.46 1.98
6.61 4.83 2.09
6.52 4.98 2.09
6.38 5.07 2.08
6.39 5.30 2.13
6.40 5.52 2.17
6.93 6.23 2.40
6.80 6.37 2.40
6.66 6.50 2.40
6.53 6.63 2.40
6.39 6.76 2.41
6.21 6.84 2.39
6.06 6.95 2.39
5.91 7.06 2.39
5.76 7.17 2.39
5.60 7.27 2.39
5.45 7.37 2.39
5.29 7.47 2.39
5.13 7.57 2.39
4.97 7.66 2.39
4.81 7.75 2.39
4.65 7.84 2.39
4.48 7.92 2.39
4.32 8.00 2.39
4.15 8.08 2.39
3.98 8.15 2.39
3.81 8.22 2.39
3.64 8.29 2.39
3.47 8.35 2.39
3.30 8.42 2.39
2.58 6.99 1.97
2.95 8.53 2.39
2.78 8.58 2.39
2.60 8.63 2.39
2.43 8.68 2.39
2.35 9.10 2.50
2.16 9.14 2.50
1.98 9.18 2.50
1.79 9.21 2.50
1.60 9.24 2.50
1.41 9.27 2.50
1.23 9.29 2.50
1.04 9.32 2.50
0.85 9.33 2.50
0.66 9.35 2.50
0.47 9.36 2.50
0.28 9.37 2.50
0.09 9.37 2.50
-0.10 9.37 2.50
-0.29 9.37 2.50
-0.48 9.36 2.50
-0.67 9.35 2.50
-0.86 9.34 2.50
-1.04 9.33 2.50
-1.23 9.31 2.50
-1.42 9.28 2.50
-1.61 9.26 2.50
-1.80 9.23 2.50
-1.99 9.20 2.50
-2.17 9.16 2.50
-2.36 9.12 2.50
-2.54 9.08 2.50
-2.73 9.03 2.50
-2.91 8.98 2.50
-3.10 8.93 2.50
-3.28 8.87 2.50
-3.46 8.81 2.50
-3.64 8.75 2.50
-3.82 8.68 2.50
-4.00 8.61 2.50
-4.18 8.54 2.50
-4.36 8.46 2.50
-4.53 8.38 2.50
-4.71 8.30 2.50
-4.88 8.22 2.50
-5.05 8.13 2.50
-5.22 8.03 2.50
-5.39 7.94 2.50
-5.56 7.84 2.50
-5.71 7.72 2.49
-5.72 7.42 2.43
-5.80 7.21 2.39
-5.95 7.11 2.39
-6.11 7.00 2.39
-6.26 6.88 2.39
-6.41 6.77 2.39
-6.55 6.65 2.39
-6.70 6.53 2.39
-6.84 6.40 2.39
-6.98 6.28 2.39
-7.12 6.15 2.39
-7.26 6.01 2.39
-7.39 5.88 2.39
-7.53 5.74 2.39
-7.65 5.60 2.39
-7.78 5.45 2.39
-7.91 5.31 2.39
-8.03 5.16 2.39
-8.15 5.01 2.39
-8.27 4.85 2.39
-8.38 4.69 2.39
-8.49 4.54 2.39
-8.60 4.37 2.39
-8.71 4.21 2.39
-8.81 4.04 2.39
-8.92 3.87 2.39
-9.01 3.70 2.39
-9.11 3.53 2.39
-9.20 3.35 2.39
-9.29 3.18 2.39
-9.37 3.00 2.39
-9.45 2.81 2.39
-9.53 2.63 2.39
-9.61 2.44 2.39
-9.68 2.26 2.39
-9.75 2.07 2.39
-9.79 1.87 2.39
-9.79 1.67 2.37
-9.80 1.47 2.36
-9.80 1.27 2.35
-9.80 1.07 2.34
-9.81 0.87 2.33
-9.81 0.67 2.32
-9.82 0.47 2.31
-9.83 0.28 2.31
-9.85 0.08 2.31
-9.88 -0.12 2.31
-9.90 -0.32 2.31
-9.92 -0.52 2.31
-9.93 -0.72 2.31
-9.95 -0.92 2.31
-9.83 -1.11 2.28
-9.83 -1.31 2.28
-9.83 -1.51 2.28
-9.84 -1.71 2.28
-9.84 -1.92 2.28
-9.84 -2.12 2.29
-9.90 -2.34 2.31
-9.88 -2.55 2.31
-9.87 -2.76 2.31
-9.87 -2.97 2.32
-9.86 -3.19 2.32
-9.87 -3.41 2.33
-9.87 -3.63 2.35
-9.87 -3.86 2.36
-9.87 -4.09 2.37
-9.87 -4.32 2.39
-9.85 -4.55 2.39
-9.78 -4.75 2.39
-9.70 -4.96 2.39
-9.63 -5.17 2.39
-9.54 -5.37 2.39
-9.46 -5.57 2.39
-9.37 -5.78 2.39
-9.27 -5.98 2.39
-9.17 -6.17 2.39
-9.07 -6.37 2.39
-8.96 -6.57 2.39
-8.84 -6.76 2.39
-8.73 -6.95 2.39
-8.60 -7.14 2.39
-8.48 -7.32 2.39
-8.35 -7.51 2.39
-8.21 -7.69 2.39
-8.07 -7.87 2.39
-7.93 -8.04 2.39
-7.78 -8.21 2.39
-7.63 -8.38 2.39
-7.48 -8.55 2.39
-7.32 -8.71 2.39
-7.16 -8.87 2.39
-6.99 -9.03 2.39
-6.82 -9.18 2.39
-6.65 -9.33 2.39
-6.47 -9.48 2.39
-6.29 -9.62 2.39
-6.10 -9.76 2.39
-5.97 -9.98 2.41
-5.97 -10.44 2.49
-5.77 -10.59 2.50
-5.57 -10.71 2.50
-5.36 -10.84 2.50
-5.15 -10.95 2.50
-4.93 -11.07 2.50
-4.71 -11.18 2.50
-4.50 -11.28 2.50
-4.27 -11.38 2.50
-4.05 -11.47 2.50
-3.82 -11.56 2.50
-3.59 -11.64 2.50
-3.36 -11.72 2.50
-3.13 -11.79 2.50
-2.90 -11.86 2.50
-2.66 -11.92 2.50
-2.43 -11.98 2.50
-2.19 -12.03 2.50
-1.95 -12.08 2.50
-1.71 -12.12 2.50
-1.46 -12.15 2.50
-1.22 -12.18 2.50
-0.98 -12.20 2.50
-0.74 -12.22 2.50
-0.49 -12.23 2.50
-0.25 -12.24 2.50
-0.00 -10.97 2.50
0.21 -10.97 2.50
0.43 -10.96 2.50
0.65 -10.95 2.50
0.87 -10.93 2.50
1.09 -10.91 2.50
1.30 -10.88 2.50
1.52 -10.84 2.50
1.73 -10.81 2.50
1.95 -10.76 2.50
2.09 -10.36 2.41
2.28 -10.23 2.40
2.48 -10.17 2.39
2.68 -10.11 2.39
2.87 -10.04 2.39
3.07 -9.98 2.39
3.27 -9.90 2.39
3.46 -9.83 2.39
3.65 -9.75 2.39
3.84 -9.66 2.39
4.03 -9.57 2.39
4.21 -9.48 2.39
4.40 -9.38 2.39
4.58 -9.28 2.39
4.75 -9.17 2.39
4.93 -9.06 2.39
5.10 -8.95 2.39
5.27 -8.83 2.39
5.44 -8.71 2.39
5.60 -8.59 2.39
5.76 -8.46 2.39
5.92 -8.33 2.39
6.08 -8.20 2.39
6.08 -7.88 2.34
6.09 -7.56 2.29
6.09 -7.27 2.24
6.14 -7.04 2.21
6.24 -6.87 2.20
6.37 -6.73 2.20
6.49 -6.59 2.20
6.61 -6.45 2.20
6.72 -6.30 2.20
6.83 -6.15 2.20
6.94 -6.00 2.20
7.04 -5.85 2.20
5.96 -4.75 1.83
6.07 -4.65 1.84
6.37 -4.68 1.91
6.60 -4.65 1.95
6.89 -4.65 2.02
7.26 -4.69 2.10
7.60 -4.69 2.18
7.90 -4.66 2.24
6.15 -3.47 1.73
8.65 -4.65 2.41
8.72 -4.47 2.41
6.14 -3.00 1.68
6.15 -2.85 1.67
6.15 -2.70 1.66
6.15 -2.55 1.65
6.15 -2.41 1.64
6.15 -2.27 1.64
6.16 -2.13 1.63
6.16 -2.00 1.62
6.16 -1.86 1.62
6.17 -1.73 1.61
6.18 -1.60 1.61
6.18 -1.47 1.61
8.97 -1.94 2.33
8.98 -1.76 2.33
6.18 -1.08 1.60
6.19 -0.95 1.60
8.93 -1.20 2.31
8.92 -1.01 2.31
6.19 -0.58 1.60
6.19 -0.45 1.60
8.87 -0.47 2.30
8.85 -0.29 2.30
6.20 -0.08 1.61
5.45 0.04 1.42
5.49 0.15 1.44
5.48 0.26 1.44
5.50 0.37 1.45
5.49 0.48 1.45
8.75 0.95 2.32
8.73 1.12 2.33
8.71 1.30 2.33
8.69 1.47 2.34
8.66 1.65 2.35
8.63 1.82 2.36
8.58 1.99 2.36
8.52 2.16 2.36
8.47 2.33 2.36
8.40 2.50 2.36
8.34 2.66 2.36
8.27 2.82 2.37
8.20 2.99 2.37
8.13 3.15 2.37
8.06 3.31 2.37
7.98 3.46 2.37
7.90 3.62 2.38
7.93 3.83 2.41
7.84 3.98 2.41
7.74 4.13 2.41
6.92 3.87 2.19
6.61 3.88 2.12
6.36 3.90 2.07
6.38 4.09 2.10
6.38 4.28 2.13
6.37 4.46 2.16
6.48 4.73 2.24
6.26 4.78 2.20
6.38 5.07 2.28
6.39 5.29 2.33
6.40 5.52 2.37
6.37 5.72 2.41
6.21 5.81 2.39
6.08 5.92 2.39
5.95 6.03 2.39
5.82 6.14 2.39
5.68 6.25 2.39
5.55 6.35 2.39
5.41 6.46 2.39
5.27 6.56 2.39
5.13 6.65 2.39
4.95 6.70 2.38
4.81 6.79 2.38
4.67 6.87 2.38
4.55 7.01 2.39
4.41 7.09 2.39
4.26 7.17 2.39
4.11 7.25 2.39
3.96 7.32 2.39
3.80 7.40 2.39
3.65 7.46 2.39
3.50 7.53 2.39
3.34 7.59 2.39
3.18 7.65 2.39
3.03 7.71 2.39
2.58 6.99 2.16
2.71 7.82 2.39
2.55 7.86 2.39
2.39 7.91 2.39
2.32 8.29 2.50
2.15 8.34 2.50
1.98 8.37 2.50
1.81 8.41 2.50
1.64 8.44 2.50
1.47 8.47 2.50
1.30 8.50 2.50
1.12 8.52 2.50
0.95 8.54 2.50
0.78 8.55 2.50
0.60 8.57 2.50
0.43 8.58 2.50
0.26 8.58 2.50
0.08 8.59 2.50
-0.09 8.59 2.50
-0.26 8.59 2.50
-0.44 8.58 2.50
-0.61 8.57 2.50
-0.78 8.56 2.50
-0.96 8.55 2.50
-1.13 8.53 2.50
-1.30 8.51 2.50
-1.48 8.48 2.50
-1.65 8.46 2.50
-1.82 8.42 2.50
-1.99 8.39 2.50
-2.16 8.35 2.50
-2.33 8.31 2.50
-2.50 8.27 2.50
-2.67 8.23 2.50
-2.84 8.18 2.50
-3.01 8.12 2.50
-3.17 8.07 2.50
-3.34 8.01 2.50
-3.50 7.95 2.50
-3.67 7.89 2.50
-3.83 7.82 2.50
-3.99 7.75 2.50
-4.15 7.67 2.50
-4.31 7.60 2.50
-4.47 7.52 2.50
-4.63 7.44 2.50
-4.78 7.35 2.50
-4.94 7.26 2.50
-5.09 7.17 2.50
-5.24 7.08 2.50
-5.39 6.98 2.50
-5.54 6.88 2.50
-5.68 6.78 2.50
-5.72 6.55 2.45
-5.74 6.31 2.40
-5.86 6.18 2.39
-5.99 6.07 2.39
-6.12 5.96 2.39
-6.25 5.85 2.39
-6.38 5.73 2.39
-6.51 5.61 2.39
-6.63 5.49 2.39
-6.75 5.36 2.39
-6.87 5.24 2.39
-6.99 5.11 2.39
-7.11 4.97 2.39
-7.22 4.84 2.39
-7.33 4.70 2.39
-7.44 4.56 2.39
-7.54 4.42 2.39
-7.65 4.28 2.39
-7.75 4.13 2.39
-7.85 3.98 2.39
-7.94 3.83 2.39
-8.04 3.68 2.39
-8.13 3.52 2.39
-8.21 3.37 2.39
-8.30 3.21 2.39
-8.38 3.05 2.39
-8.46 2.89 2.39
-8.53 2.72 2.39
-8.61 2.55 2.39
-8.68 2.39 2.39
-8.74 2.22 2.39
-8.81 2.05 2.39
-8.87 1.87 2.39
-8.92 1.70 2.39
-8.98 1.52 2.39
-9.03 1.35 2.39
-9.08 1.17 2.39
-9.12 0.99 2.39
-9.16 0.81 2.39
-9.20 0.62 2.39
-9.23 0.44 2.39
-9.26 0.25 2.39
-9.28 0.07 2.39
-9.20 -0.12 2.37
-9.18 -0.30 2.36
-9.15 -0.48 2.35
-9.28 -0.68 2.38
-9.28 -0.86 2.37
-9.36 -1.06 2.39
-9.36 -1.25 2.39
-9.36 -1.44 2.39
-9.35 -1.63 2.39
-9.34 -1.83 2.39
-9.32 -2.02 2.39
-9.30 -2.21 2.39
-9.28 -2.40 2.39
-9.25 -2.59 2.39
-9.22 -2.78 2.39
-9.19 -2.97 2.39
-9.15 -3.17 2.39
-9.10 -3.36 2.39
-9.05 -3.55 2.39
-9.00 -3.73 2.39
-8.95 -3.92 2.39
-8.89 -4.11 2.39
-8.82 -4.30 2.39
-8.76 -4.48 2.39
-8.68 -4.67 2.39
-8.61 -4.85 2.39
-8.53 -5.03 2.39
-8.44 -5.21 2.39
-8.36 -5.39 2.39
-8.26 -5.57 2.39
-8.17 -5.75 2.39
-8.07 -5.92 2.39
-7.96 -6.09 2.39
-7.86 -6.26 2.39
-7.75 -6.43 2.39
-7.63 -6.60 2.39
-7.51 -6.76 2.39
-7.39 -6.92 2.39
-7.26 -7.08 2.39
-7.13 -7.24 2.39
-7.00 -7.39 2.39
-6.86 -7.54 2.39
-6.72 -7.69 2.39
-6.58 -7.84 2.39
-6.43 -7.98 2.39
-6.28 -8.12 2.39
-6.15 -8.28 2.40
-5.97 -8.39 2.39
-5.94 -8.71 2.45
-5.89 -9.02 2.50
-5.71 -9.15 2.50
-5.54 -9.27 2.50
-5.36 -9.39 2.50
-5.18 -9.51 2.50
-4.99 -9.62 2.50
-4.80 -9.73 2.50
-4.62 -9.83 2.50
-4.42 -9.93 2.50
-4.23 -10.03 2.50
-4.03 -10.12 2.50
-3.83 -10.21 2.50
-3.63 -10.29 2.50
-3.43 -10.37 2.50
-3.22 -10.44 2.50
-3.02 -10.51 2.50
-2.81 -10.58 2.50
-2.60 -10.63 2.50
-2.39 -10.69 2.50
-2.17 -10.74 2.50
-1.96 -10.79 2.50
-1.74 -10.83 2.50
-1.53 -10.86 2.50
-1.31 -10.89 2.50
-1.10 -10.92 2.50
-0.88 -10.94 2.50
-0.66 -10.96 2.50
-0.44 -10.97 2.50
-0.22 -10.97 2.50
-0.00 -9.93 2.50
0.19 -9.93 2.50
0.39 -9.92 2.50
0.59 -9.91 2.50
0.79 -9.90 2.50
0.98 -9.87 2.50
1.18 -9.85 2.50
1.37 -9.82 2.50
1.57 -9.79 2.50
1.76 -9.75 2.50
1.95 -9.70 2.50
2.10 -9.43 2.44
2.24 -9.21 2.39
2.42 -9.16 2.39
2.60 -9.10 2.39
2.78 -9.04 2.39
2.96 -8.97 2.39
3.13 -8.90 2.39
3.31 -8.83 2.39
3.48 -8.76 2.39
3.65 -8.68 2.39
2.38 -5.35 1.49
3.98 -8.50 2.39
4.15 -8.41 2.39
4.31 -8.32 2.39
4.47 -8.22 2.39
4.62 -8.12 2.39
4.78 -8.02 2.39
4.93 -7.91 2.39
5.08 -7.80 2.39
5.23 -7.68 2.39
5.37 -7.57 2.39
5.51 -7.45 2.39
5.65 -7.32 2.39
5.79 -7.20 2.39
5.92 -7.07 2.39
6.05 -6.94 2.39
6.10 -6.72 2.36
6.10 -6.46 2.32
6.11 -6.21 2.28
6.11 -5.97 2.24
6.13 -5.76 2.21
6.23 -5.62 2.21
6.33 -5.49 2.21
6.43 -5.35 2.21
5.96 -4.76 2.02
6.06 -4.65 2.02
6.36 -4.68 2.10
6.59 -4.65 2.14
6.88 -4.65 2.21
7.25 -4.69 2.31
7.58 -4.69 2.39
7.73 -4.58 2.41
7.81 -4.41 2.41
7.88 -4.24 2.41
7.94 -4.08 2.41
8.01 -3.91 2.41
7.81 -3.62 2.33
7.86 -3.46 2.33
6.16 -2.56 1.82
6.16 -2.42 1.81
6.17 -2.28 1.80
6.17 -2.14 1.79
8.07 -2.62 2.33
8.09 -2.45 2.33
6.17 -1.74 1.77
6.18 -1.60 1.76
6.18 -1.47 1.76
8.16 -1.77 2.32
8.16 -1.60 2.32
6.18 -1.09 1.75
6.19 -0.96 1.75
8.15 -1.10 2.31
8.14 -0.93 2.30
6.19 -0.58 1.75
6.19 -0.46 1.75
8.11 -0.43 2.30
8.09 -0.27 2.30
6.20 -0.08 1.76
5.49 0.04 1.56
5.50 0.15 1.57
5.49 0.26 1.57
5.50 0.37 1.58
5.50 0.48 1.59
8.01 0.86 2.32
7.99 1.02 2.33
7.97 1.18 2.33
7.95 1.34 2.34
7.92 1.50 2.34
7.89 1.66 2.35
7.92 1.84 2.37
7.87 1.99 2.38
7.82 2.15 2.38
7.77 2.30 2.38
7.71 2.45 2.38
7.65 2.60 2.38
7.58 2.75 2.38
7.51 2.90 2.39
7.44 3.05 2.39
7.37 3.19 2.39
7.30 3.34 2.39
7.22 3.48 2.39
7.14 3.62 2.39
7.11 3.79 2.41
6.98 3.90 2.40
6.62 3.88 2.31
6.36 3.90 2.25
6.38 4.09 2.29
6.38 4.27 2.32
6.37 4.45 2.35
6.42 4.69 2.41
6.27 4.77 2.39
6.16 4.89 2.39
6.05 5.01 2.39
5.94 5.12 2.39
5.83 5.23 2.39
5.71 5.34 2.39
5.60 5.45 2.39
5.48 5.55 2.39
5.36 5.65 2.39
5.23 5.75 2.39
5.11 5.85 2.39
4.98 5.94 2.39
4.82 5.99 2.38
4.69 6.08 2.38
4.56 6.17 2.38
4.43 6.25 2.38
4.30 6.33 2.38
4.17 6.41 2.38
4.06 6.53 2.39
3.93 6.61 2.39
3.79 6.68 2.39
3.65 6.75 2.39
3.51 6.81 2.39
3.37 6.88 2.39
3.22 6.94 2.39
3.08 7.00 2.39
2.94 7.05 2.39
2.79 7.11 2.39
2.58 6.99 2.34
2.50 7.20 2.39
2.35 7.25 2.39
2.30 7.60 2.50
2.14 7.65 2.50
1.98 7.68 2.50
1.83 7.72 2.50
1.67 7.75 2.50
1.51 7.78 2.50
1.35 7.81 2.50
1.20 7.83 2.50
1.04 7.85 2.50
0.88 7.87 2.50
0.72 7.89 2.50
0.56 7.90 2.50
0.40 7.91 2.50
0.24 7.92 2.50
0.08 7.92 2.50
-0.08 7.92 2.50
-0.24 7.92 2.50
-0.40 7.91 2.50
-0.56 7.90 2.50
-0.72 7.89 2.50
-0.88 7.88 2.50
-1.04 7.86 2.50
-1.20 7.84 2.50
-1.36 7.82 2.50
-1.52 7.79 2.50
-1.68 7.77 2.50
-1.84 7.73 2.50
-1.99 7.70 2.50
-2.15 7.66 2.50
-2.31 7.62 2.50
-2.46 7.58 2.50
-2.62 7.53 2.50
-2.77 7.49 2.50
-2.93 7.43 2.50
-3.08 7.38 2.50
-3.23 7.32 2.50
-3.38 7.26 2.50
-3.53 7.20 2.50
-3.68 7.13 2.50
-3.83 7.07 2.50
-3.97 7.00 2.50
-4.12 6.92 2.50
-4.26 6.84 2.50
-4.41 6.77 2.50
-4.55 6.68 2.50
-4.69 6.60 2.50
-4.83 6.51 2.50
-4.96 6.42 2.50
-5.10 6.33 2.50
-5.23 6.23 2.50
-5.37 6.13 2.50
-5.50 6.03 2.50
-5.63 5.93 2.50
-5.73 5.80 2.49
-5.74 5.58 2.44
-5.76 5.37 2.39
-5.87 5.27 2.39
-5.99 5.15 2.39
-6.10 5.04 2.39
-6.21 4.93 2.39
-6.32 4.81 2.39
-6.43 4.69 2.39
-6.53 4.57 2.39
-6.64 4.44 2.39
-6.74 4.31 2.39
-6.83 4.19 2.39
-6.93 4.06 2.39
-7.02 3.92 2.39
-7.12 3.79 2.39
-7.21 3.65 2.39
-7.29 3.51 2.39
-7.38 3.37 2.39
-7.46 3.23 2.39
-7.54 3.08 2.39
-7.61 2.94 2.39
-7.69 2.79 2.39
-7.76 2.64 2.39
-7.83 2.49 2.39
-7.89 2.34 2.39
-7.95 2.18 2.39
-8.01 2.03 2.39
-8.07 1.87 2.39
-8.12 1.71 2.39
-8.17 1.55 2.39
-8.22 1.39 2.39
-8.27 1.23 2.39
-8.31 1.06 2.39
-8.35 0.90 2.39
-8.38 0.73 2.39
-8.41 0.56 2.39
-8.44 0.40 2.39
-8.47 0.23 2.39
-8.49 0.06 2.39
-8.51 -0.11 2.39
-8.52 -0.28 2.39
-8.54 -0.46 2.39
-8.54 -0.63 2.39
-8.55 -0.80 2.39
-8.55 -0.98 2.39
-8.55 -1.15 2.39
-8.54 -1.32 2.39
-8.54 -1.50 2.39
-8.52 -1.67 2.39
-8.51 -1.85 2.39
-8.49 -2.02 2.39
-8.46 -2.20 2.39
-8.44 -2.37 2.39
-8.41 -2.54 2.39
-8.37 -2.72 2.39
-8.33 -2.89 2.39
-8.29 -3.06 2.39
-8.25 -3.24 2.39
-8.20 -3.41 2.39
-8.15 -3.58 2.39
-8.09 -3.75 2.39
-8.03 -3.92 2.39
-7.97 -4.09 2.39
-7.90 -4.25 2.39
-7.83 -4.42 2.39
-7.76 -4.58 2.39
-7.68 -4.75 2.39
-7.60 -4.91 2.39
-7.51 -5.07 2.39
-7.42 -5.23 2.39
-7.33 -5.39 2.39
-7.24 -5.54 2.39
-7.14 -5.70 2.39
-7.03 -5.85 2.39
-6.93 -6.00 2.39
-6.82 -6.14 2.39
-6.71 -6.29 2.39
-6.59 -6.43 2.39
-6.47 -6.58 2.39
-6.35 -6.71 2.39
-6.22 -6.85 2.39
-6.10 -6.98 2.39
-5.96 -7.11 2.39
-5.92 -7.36 2.43
-5.93 -7.67 2.49
-5.79 -7.81 2.50
-5.64 -7.94 2.50
-5.49 -8.06 2.50
-5.34 -8.18 2.50
-5.18 -8.29 2.50
-5.02 -8.40 2.50
-4.85 -8.51 2.50
-4.69 -8.62 2.50
-4.52 -8.72 2.50
-4.35 -8.82 2.50
-4.18 -8.91 2.50
-4.00 -9.00 2.50
-3.83 -9.09 2.50
-3.65 -9.17 2.50
-3.47 -9.25 2.50
-3.29 -9.32 2.50
-3.10 -9.39 2.50
-2.92 -9.46 2.50
-2.73 -9.52 2.50
-2.54 -9.58 2.50
-2.35 -9.63 2.50
-2.16 -9.68 2.50
-1.97 -9.72 2.50
-1.77 -9.76 2.50
-1.58 -9.80 2.50
-1.38 -9.83 2.50
-1.19 -9.86 2.50
-0.99 -9.88 2.50
-0.79 -9.90 2.50
-0.60 -9.92 2.50
-0.40 -9.93 2.50
-0.20 -9.93 2.50
-0.00 -9.07 2.50
0.18 -9.06 2.50
0.36 -9.06 2.50
0.54 -9.05 2.50
0.72 -9.03 2.50
0.90 -9.01 2.50
1.07 -8.99 2.50
1.25 -8.96 2.50
1.43 -8.93 2.50
1.61 -8.90 2.50
1.78 -8.86 2.50
1.96 -8.82 2.50
2.11 -8.67 2.47
2.21 -8.36 2.39
2.37 -8.31 2.39
2.54 -8.25 2.39
2.70 -8.19 2.39
2.37 -6.73 1.98
3.02 -8.07 2.39
3.17 -8.00 2.39
3.33 -7.93 2.39
3.48 -7.85 2.39
3.63 -7.77 2.39
3.78 -7.69 2.39
3.93 -7.60 2.39
4.08 -7.51 2.39
4.22 -7.42 2.39
4.36 -7.33 2.39
4.50 -7.23 2.39
4.64 -7.13 2.39
4.78 -7.03 2.39
4.91 -6.92 2.39
5.04 -6.81 2.39
5.16 -6.70 2.39
5.29 -6.59 2.39
5.41 -6.47 2.39
5.53 -6.35 2.39
5.65 -6.23 2.39
5.76 -6.10 2.39
5.87 -5.98 2.39
5.98 -5.85 2.39
6.09 -5.72 2.39
6.12 -5.52 2.37
6.12 -5.31 2.33
6.12 -5.10 2.30
5.96 -4.77 2.20
6.06 -4.65 2.21
6.35 -4.68 2.29
6.58 -4.65 2.34
6.86 -4.64 2.41
6.94 -4.50 2.41
7.02 -4.35 2.41
7.09 -4.20 2.41
7.16 -4.05 2.41
7.22 -3.90 2.41
7.28 -3.75 2.41
7.34 -3.59 2.41
7.40 -3.44 2.41
6.18 -2.72 2.00
6.16 -2.57 1.98
6.16 -2.43 1.97
6.17 -2.28 1.96
7.36 -2.56 2.33
7.39 -2.41 2.33
7.42 -2.25 2.32
6.17 -1.74 1.93
6.18 -1.61 1.92
6.18 -1.48 1.92
7.49 -1.63 2.32
7.49 -1.48 2.31
6.18 -1.09 1.91
6.19 -0.96 1.90
7.49 -1.01 2.30
7.49 -0.86 2.30
6.19 -0.59 1.90
6.19 -0.46 1.90
7.46 -0.41 2.30
7.45 -0.26 2.30
6.20 -0.09 1.91
5.51 0.03 1.71
5.50 0.14 1.71
5.49 0.25 1.71
5.50 0.36 1.72
5.51 0.48 1.73
7.37 0.79 2.32
7.36 0.94 2.32
7.34 1.08 2.33
7.32 1.23 2.34
7.30 1.38 2.34
7.27 1.53 2.35
7.24 1.67 2.35
7.30 1.84 2.39
7.25 1.99 2.39
7.20 2.13 2.39
7.15 2.27 2.39
7.09 2.41 2.39
7.03 2.55 2.39
6.97 2.69 2.40
6.90 2.82 2.40
6.84 2.96 2.40
6.77 3.09 2.40
6.69 3.22 2.40
6.62 3.35 2.40
6.54 3.48 2.40
6.47 3.61 2.41
6.38 3.73 2.41
6.27 3.83 2.39
6.18 3.95 2.39
6.09 4.07 2.39
5.99 4.19 2.39
5.90 4.30 2.39
5.80 4.41 2.39
5.70 4.52 2.39
5.60 4.63 2.39
5.50 4.73 2.39
5.39 4.84 2.39
5.29 4.94 2.39
5.18 5.04 2.39
5.07 5.13 2.39
4.96 5.23 2.39
4.84 5.32 2.39
4.73 5.41 2.39
4.61 5.50 2.39
4.50 5.58 2.39
4.38 5.67 2.39
4.26 5.75 2.39
4.14 5.83 2.39
4.01 5.90 2.39
3.89 5.98 2.39
3.76 6.05 2.39
3.64 6.12 2.39
3.51 6.18 2.39
3.38 6.25 2.39
3.25 6.31 2.39
3.12 6.37 2.39
2.99 6.43 2.39
2.85 6.48 2.39
2.72 6.53 2.39
2.59 6.58 2.39
2.45 6.63 2.39
2.32 6.69 2.40
2.27 7.00 2.50
2.13 7.05 2.50
1.98 7.08 2.50
1.84 7.12 2.50
1.69 7.15 2.50
1.55 7.18 2.50
1.40 7.21 2.50
1.26 7.24 2.50
1.11 7.26 2.50
0.96 7.28 2.50
0.81 7.29 2.50
0.67 7.31 2.50
0.52 7.32 2.50
0.37 7.33 2.50
0.22 7.33 2.50
0.07 7.34 2.50
-0.08 7.34 2.50
-0.23 7.34 2.50
-0.37 7.33 2.50
-0.52 7.32 2.50
-0.67 7.31 2.50
-0.82 7.30 2.50
-0.97 7.29 2.50
-1.12 7.27 2.50
-1.26 7.25 2.50
-1.41 7.22 2.50
-1.56 7.20 2.50
-1.70 7.17 2.50
-1.85 7.13 2.50
-2.00 7.10 2.50
-2.14 7.06 2.50
-2.28 7.02 2.50
-2.43 6.98 2.50
-2.57 6.93 2.50
-2.71 6.89 2.50
-2.85 6.83 2.50
-2.99 6.78 2.50
-3.13 6.73 2.50
-3.27 6.67 2.50
-3.41 6.61 2.50
-3.55 6.54 2.50
-3.68 6.48 2.50
-3.82 6.41 2.50
-3.95 6.33 2.50
-4.08 6.26 2.50
-4.21 6.18 2.50
-4.34 6.11 2.50
-4.47 6.02 2.50
-4.60 5.94 2.50
-4.72 5.85 2.50
-4.84 5.76 2.50
-4.97 5.67 2.50
-5.09 5.58 2.50
-5.21 5.48 2.50
-5.32 5.38 2.50
-5.44 5.28 2.50
-5.55 5.18 2.50
-5.67 5.08 2.50
-5.74 4.94 2.48
-5.75 4.75 2.44
-5.76 4.56 2.40
-5.84 4.44 2.39
-5.96 4.34 2.40
-6.04 4.22 2.39
-6.13 4.10 2.39
-6.23 3.98 2.39
-6.32 3.86 2.39
-6.40 3.74 2.39
-6.49 3.62 2.39
-6.57 3.49 2.39
-6.65 3.37 2.39
-6.73 3.24 2.39
-6.81 3.11 2.39
-6.88 2.97 2.39
-6.96 2.84 2.39
-7.03 2.71 2.39
-7.09 2.57 2.39
-7.16 2.43 2.39
-7.22 2.29 2.39
-7.28 2.15 2.39
-7.33 2.01 2.39
-7.39 1.86 2.39
-7.44 1.72 2.39
-7.49 1.57 2.39
-7.53 1.42 2.39
-7.58 1.27 2.39
-7.62 1.12 2.39
-7.65 0.97 2.39
-7.69 0.82 2.39
-7.72 0.67 2.39
-7.75 0.51 2.39
-7.77 0.36 2.39
-7.79 0.20 2.39
-7.81 0.05 2.39
-7.83 -0.11 2.39
-7.84 -0.27 2.39
-7.85 -0.43 2.39
-7.86 -0.58 2.39
-7.86 -0.74 2.39
-7.86 -0.90 2.39
-7.86 -1.06 2.39
-7.85 -1.22 2.39
-7.84 -1.38 2.39
-7.83 -1.54 2.39
-7.81 -1.70 2.39
-7.79 -1.86 2.39
-7.77 -2.02 2.39
-7.75 -2.18 2.39
-7.72 -2.34 2.39
-7.68 -2.50 2.39
-7.65 -2.66 2.39
-7.61 -2.82 2.39
-7.57 -2.97 2.39
-7.52 -3.13 2.39
-7.47 -3.29 2.39
-7.42 -3.44 2.39
-7.36 -3.60 2.39
-7.30 -3.75 2.39
-7.24 -3.90 2.39
-7.17 -4.05 2.39
-7.10 -4.20 2.39
-7.03 -4.35 2.39
-6.96 -4.50 2.39
-6.88 -4.65 2.39
-6.80 -4.79 2.39
-6.71 -4.94 2.39
-6.62 -5.08 2.39
-6.53 -5.22 2.39
-6.44 -5.36 2.39
-6.34 -5.49 2.39
-6.24 -5.63 2.39
-6.13 -5.76 2.39
-6.03 -5.89 2.39
-5.92 -6.02 2.39
-5.91 -6.25 2.44
-5.91 -6.51 2.49
-5.81 -6.66 2.50
-5.69 -6.79 2.50
-5.56 -6.91 2.50
-5.43 -7.03 2.50
-5.29 -7.14 2.50
-5.15 -7.26 2.50
-5.02 -7.37 2.50
-4.87 -7.47 2.50
-4.73 -7.58 2.50
-4.58 -7.68 2.50
-4.43 -7.78 2.50
-4.28 -7.87 2.50
-4.13 -7.96 2.50
-3.97 -8.05 2.50
-3.81 -8.14 2.50
-3.65 -8.22 2.50
-3.49 -8.30 2.50
-3.33 -8.37 2.50
-3.16 -8.44 2.50
-3.00 -8.51 2.50
-2.83 -8.57 2.50
-2.66 -8.63 2.50
-2.49 -8.69 2.50
-2.32 -8.74 2.50
-2.14 -8.79 2.50
-1.97 -8.83 2.50
-1.79 -8.88 2.50
-1.62 -8.91 2.50
-1.44 -8.95 2.50
-1.26 -8.97 2.50
-1.08 -9.00 2.50
-0.90 -9.02 2.50
-0.72 -9.04 2.50
-0.54 -9.05 2.50
-0.36 -9.06 2.50
-0.18 -9.06 2.50
-0.00 -8.33 2.50
0.16 -8.33 2.50
0.33 -8.32 2.50
0.49 -8.31 2.50
0.66 -8.30 2.50
0.82 -8.28 2.50
0.99 -8.26 2.50
1.15 -8.23 2.50
1.31 -8.21 2.50
1.48 -8.18 2.50
1.64 -8.14 2.50
1.80 -8.10 2.50
1.96 -8.06 2.50
2.12 -8.01 2.50
2.18 -7.64 2.39
2.33 -7.59 2.39
2.48 -7.53 2.39
2.63 -7.48 2.39
2.77 -7.42 2.39
2.92 -7.35 2.39
3.06 -7.29 2.39
3.20 -7.22 2.39
3.34 -7.15 2.39
3.48 -7.07 2.39
3.61 -6.99 2.39
3.75 -6.91 2.39
3.88 -6.83 2.39
4.01 -6.74 2.39
4.14 -6.65 2.39
4.27 -6.56 2.39
4.39 -6.47 2.39
4.51 -6.37 2.39
4.63 -6.27 2.39
4.75 -6.17 2.39
4.87 -6.06 2.39
4.98 -5.96 2.39
5.09 -5.85 2.39
5.20 -5.74 2.39
5.30 -5.62 2.39
5.41 -5.51 2.39
5.51 -5.39 2.39
5.60 -5.27 2.39
5.70 -5.15 2.39
5.62 -4.88 2.32
5.70 -4.76 2.32
5.79 -4.63 2.32
5.99 -4.60 2.37
6.13 -4.52 2.39
6.33 -4.47 2.44
6.13 -4.15 2.33
6.13 -3.98 2.31
6.14 -3.81 2.29
6.58 -3.90 2.42
6.63 -3.76 2.42
6.68 -3.61 2.42
6.73 -3.47 2.42
6.78 -3.32 2.41
6.83 -3.18 2.41
6.16 -2.72 2.16
6.16 -2.57 2.15
6.16 -2.43 2.13
6.17 -2.29 2.12
6.86 -2.39 2.35
6.82 -2.23 2.32
6.84 -2.08 2.32
6.17 -1.75 2.09
6.18 -1.61 2.08
6.18 -1.48 2.07
6.91 -1.51 2.31
6.92 -1.37 2.31
6.18 -1.10 2.06
6.19 -0.97 2.06
6.92 -0.94 2.30
6.19 -0.72 2.06
6.19 -0.59 2.06
6.19 -0.47 2.06
6.90 -0.38 2.30
6.89 -0.24 2.30
6.20 -0.09 2.07
6.20 0.03 2.07
5.51 0.14 1.84
5.50 0.25 1.85
5.51 0.36 1.86
5.53 0.47 1.87
6.83 0.72 2.32
6.81 0.86 2.32
6.80 1.00 2.33
6.78 1.13 2.33
6.75 1.27 2.34
6.73 1.41 2.34
6.70 1.54 2.35
6.67 1.68 2.35
6.75 1.84 2.40
6.71 1.98 2.40
6.65 2.11 2.40
6.60 2.24 2.40
6.55 2.37 2.40
6.49 2.50 2.40
6.43 2.62 2.41
6.37 2.75 2.41
6.27 2.86 2.39
6.20 2.98 2.39
6.13 3.10 2.39
6.05 3.21 2.39
5.98 3.33 2.39
5.90 3.44 2.39
5.82 3.56 2.39
5.74 3.67 2.39
5.65 3.78 2.39
5.57 3.88 2.39
5.48 3.99 2.39
5.39 4.09 2.39
5.30 4.20 2.39
5.21 4.30 2.39
5.11 4.39 2.39
5.01 4.49 2.39
4.92 4.59 2.39
4.82 4.68 2.39
4.71 4.77 2.39
4.61 4.86 2.39
4.51 4.94 2.39
4.40 5.03 2.39
4.29 5.11 2.39
4.18 5.19 2.39
4.07 5.27 2.39
3.96 5.34 2.39
3.85 5.42 2.39
3.73 5.49 2.39
3.62 5.56 2.39
3.50 5.62 2.39
3.39 5.69 2.39
3.27 5.75 2.39
3.15 5.81 2.39
3.03 5.87 2.39
2.90 5.92 2.39
2.78 5.98 2.39
2.66 6.03 2.39
2.53 6.08 2.39
2.41 6.12 2.39
2.31 6.23 2.42
2.25 6.48 2.50
2.12 6.52 2.50
1.98 6.56 2.50
1.85 6.59 2.50
1.71 6.63 2.50
1.58 6.66 2.50
1.44 6.68 2.50
1.31 6.71 2.50
1.17 6.73 2.50
1.03 6.75 2.50
0.90 6.77 2.50
0.76 6.79 2.50
0.62 6.80 2.50
0.48 6.81 2.50
0.34 6.82 2.50
0.20 6.83 2.50
0.07 6.83 2.50
-0.07 6.83 2.50
-0.21 6.83 2.50
-0.35 6.82 2.50
-0.49 6.82 2.50
-0.63 6.81 2.50
-0.76 6.79 2.50
-0.90 6.78 2.50
-1.04 6.76 2.50
-1.18 6.74 2.50
-1.31 6.72 2.50
-1.45 6.70 2.50
-1.59 6.67 2.50
-1.72 6.64 2.50
-1.86 6.61 2.50
-1.99 6.57 2.50
-2.13 6.53 2.50
-2.26 6.49 2.50
-2.39 6.45 2.50
-2.53 6.40 2.50
-2.66 6.36 2.50
-2.79 6.31 2.50
-2.92 6.25 2.50
-3.05 6.20 2.50
-3.17 6.14 2.50
-3.30 6.08 2.50
-3.43 6.02 2.50
-3.55 5.96 2.50
-3.67 5.89 2.50
-3.80 5.82 2.50
-3.92 5.75 2.50
-4.04 5.67 2.50
-4.16 5.60 2.50
-4.27 5.52 2.50
-4.39 5.44 2.50
-4.51 5.35 2.50
-4.62 5.27 2.50
-4.73 5.18 2.50
-4.84 5.09 2.50
-4.95 5.00 2.50
-5.06 4.91 2.50
-5.16 4.81 2.50
-5.27 4.71 2.50
-5.37 4.61 2.50
-5.47 4.51 2.50
-5.57 4.40 2.50
-5.66 4.30 2.50
-5.76 4.19 2.50
-5.76 4.01 2.46
-5.77 3.85 2.42
-5.78 3.69 2.39
-5.86 3.58 2.39
-5.94 3.47 2.39
-6.02 3.35 2.39
-6.10 3.24 2.39
-6.18 3.12 2.39
-6.25 3.00 2.39
-6.32 2.88 2.39
-6.39 2.75 2.39
-6.45 2.63 2.39
-6.52 2.50 2.39
-6.58 2.38 2.39
-6.64 2.25 2.39
-6.69 2.12 2.39
-6.75 1.99 2.39
-6.80 1.85 2.39
-6.85 1.72 2.39
-6.89 1.59 2.39
-6.94 1.45 2.39
-6.98 1.31 2.39
-7.02 1.17 2.39
-7.05 1.04 2.39
-7.09 0.90 2.39
-7.12 0.75 2.39
-7.14 0.61 2.39
-7.17 0.47 2.39
-7.19 0.33 2.39
-7.21 0.18 2.39
-7.23 0.04 2.39
-7.24 -0.11 2.39
-7.25 -0.25 2.39
-7.26 -0.40 2.39
-7.27 -0.55 2.39
-7.27 -0.69 2.39
-7.27 -0.84 2.39
-7.26 -0.99 2.39
-7.26 -1.13 2.39
-7.25 -1.28 2.39
-7.23 -1.43 2.39
-7.22 -1.58 2.39
-7.20 -1.72 2.39
-7.18 -1.87 2.39
-7.15 -2.02 2.39
-7.12 -2.17 2.39
-7.09 -2.31 2.39
-7.06 -2.46 2.39
-7.02 -2.60 2.39
-6.98 -2.75 2.39
-6.94 -2.89 2.39
-6.89 -3.04 2.39
-6.84 -3.18 2.39
-6.79 -3.32 2.39
-6.73 -3.46 2.39
-6.67 -3.60 2.39
-6.61 -3.74 2.39
-6.55 -3.88 2.39
-6.48 -4.02 2.39
-6.41 -4.15 2.39
-6.34 -4.29 2.39
-6.26 -4.42 2.39
-6.18 -4.55 2.39
-6.10 -4.68 2.39
-6.01 -4.81 2.39
-5.93 -4.94 2.39
-5.90 -5.11 2.42
-5.89 -5.32 2.46
-5.89 -5.53 2.50
-5.79 -5.66 2.50
-5.68 -5.78 2.50
-5.57 -5.90 2.50
-5.46 -6.02 2.50
-5.35 -6.14 2.50
-5.23 -6.25 2.50
-5.11 -6.36 2.50
-4.99 -6.47 2.50
-4.87 -6.57 2.50
-4.74 -6.68 2.50
-4.61 -6.78 2.50
-4.48 -6.88 2.50
-4.35 -6.97 2.50
-4.21 -7.06 2.50
-4.07 -7.15 2.50
-3.93 -7.24 2.50
-3.79 -7.32 2.50
-3.65 -7.40 2.50
-3.50 -7.48 2.50
-3.36 -7.56 2.50
-3.21 -7.63 2.50
-3.06 -7.69 2.50
-2.91 -7.76 2.50
-2.75 -7.82 2.50
-2.60 -7.88 2.50
-2.44 -7.93 2.50
-2.29 -7.98 2.50
-2.13 -8.03 2.50
-1.97 -8.08 2.50
-1.81 -8.12 2.50
-1.65 -8.15 2.50
-1.49 -8.19 2.50
-1.32 -8.22 2.50
-1.16 -8.24 2.50
-0.99 -8.27 2.50
-0.83 -8.29 2.50
-0.67 -8.30 2.50
-0.50 -8.31 2.50
-0.33 -8.32 2.50
-0.17 -8.33 2.50
-0.00 -7.69 2.50
0.15 -7.69 2.50
0.30 -7.69 2.50
0.45 -7.68 2.50
0.61 -7.67 2.50
0.76 -7.65 2.50
0.91 -7.63 2.50
1.06 -7.61 2.50
1.21 -7.58 2.50
1.36 -7.55 2.50
1.51 -7.52 2.50
1.66 -7.49 2.50
1.81 -7.45 2.50
1.95 -7.41 2.50
2.10 -7.36 2.50
2.15 -7.01 2.39
2.29 -6.96 2.39
2.42 -6.91 2.39
2.56 -6.86 2.39
2.69 -6.80 2.39
2.83 -6.74 2.39
2.96 -6.67 2.39
3.09 -6.61 2.39
3.21 -6.54 2.39
3.34 -6.47 2.39
3.46 -6.39 2.39
2.41 -4.24 1.61
3.71 -6.24 2.39
3.83 -6.16 2.39
3.94 -6.07 2.39
4.06 -5.98 2.39
4.17 -5.89 2.39
4.28 -5.80 2.39
4.39 -5.71 2.39
4.50 -5.61 2.39
4.60 -5.52 2.39
4.71 -5.42 2.39
4.81 -5.31 2.39
4.91 -5.21 2.39
5.00 -5.10 2.39
5.09 -5.00 2.39
5.19 -4.89 2.39
5.27 -4.77 2.39
5.36 -4.66 2.39
5.44 -4.55 2.39
5.52 -4.43 2.39
5.60 -4.31 2.39
5.68 -4.19 2.39
5.75 -4.07 2.39
5.82 -3.95 2.39
5.89 -3.83 2.39
5.95 -3.70 2.39
6.02 -3.58 2.39
6.08 -3.45 2.39
6.13 -3.32 2.39
6.19 -3.19 2.39
6.36 -3.12 2.44
6.15 -2.87 2.34
6.15 -2.72 2.32
6.15 -2.57 2.31
6.15 -2.43 2.30
6.16 -2.29 2.29
6.58 -2.30 2.43
6.60 -2.16 2.42
6.19 -1.89 2.26
6.17 -1.75 2.25
6.18 -1.62 2.24
6.70 -1.61 2.42
6.70 -1.47 2.41
6.19 -1.23 2.23
6.18 -1.10 2.22
6.18 -0.97 2.22
6.67 -0.91 2.39
6.19 -0.72 2.21
6.19 -0.60 2.21
6.19 -0.47 2.22
6.66 -0.37 2.38
6.66 -0.24 2.39
6.20 -0.10 2.22
6.20 0.03 2.23
5.51 0.14 1.99
5.51 0.25 1.99
5.51 0.36 2.00
6.63 0.56 2.41
6.62 0.70 2.41
6.61 0.83 2.42
6.58 0.96 2.42
6.55 1.09 2.42
6.52 1.22 2.42
6.48 1.35 2.42
6.44 1.48 2.42
6.40 1.61 2.42
6.36 1.73 2.43
6.23 1.83 2.39
6.18 1.95 2.39
6.13 2.07 2.39
6.08 2.19 2.39
6.02 2.31 2.39
5.96 2.43 2.39
5.90 2.54 2.39
5.84 2.66 2.39
5.78 2.77 2.39
5.71 2.88 2.39
5.64 2.99 2.39
5.57 3.10 2.39
5.50 3.21 2.39
5.43 3.31 2.39
5.35 3.42 2.39
5.27 3.52 2.39
5.19 3.62 2.39
5.11 3.72 2.39
5.03 3.82 2.39
4.94 3.91 2.39
4.86 4.01 2.39
4.77 4.10 2.39
4.68 4.19 2.39
4.59 4.28 2.39
4.50 4.36 2.39
4.40 4.45 2.39
4.30 4.53 2.39
4.21 4.61 2.39
4.11 4.69 2.39
4.01 4.77 2.39
3.91 4.84 2.39
3.80 4.91 2.39
3.70 4.99 2.39
3.60 5.05 2.39
3.49 5.12 2.39
3.38 5.19 2.39
3.27 5.25 2.39
3.16 5.31 2.39
3.05 5.37 2.39
2.94 5.43 2.39
2.83 5.48 2.39
2.71 5.53 2.39
2.60 5.58 2.39
2.48 5.63 2.39
2.37 5.68 2.39
2.30 5.84 2.45
2.22 6.01 2.50
2.10 6.05 2.50
1.98 6.09 2.50
1.85 6.12 2.50
1.73 6.16 2.50
1.60 6.19 2.50
1.48 6.22 2.50
1.35 6.24 2.50
1.22 6.27 2.50
1.09 6.29 2.50
0.97 6.31 2.50
0.84 6.33 2.50
0.71 6.34 2.50
0.58 6.35 2.50
0.45 6.36 2.50
0.32 6.37 2.50
0.19 6.38 2.50
0.06 6.38 2.50
-0.07 6.38 2.50
-0.20 6.38 2.50
-0.33 6.37 2.50
-0.46 6.37 2.50
-0.59 6.36 2.50
-0.71 6.35 2.50
-0.84 6.33 2.50
-0.97 6.32 2.50
-1.10 6.30 2.50
-1.23 6.28 2.50
-1.36 6.25 2.50
-1.48 6.23 2.50
-1.61 6.20 2.50
-1.74 6.17 2.50
-1.86 6.14 2.50
-1.99 6.10 2.50
-2.11 6.06 2.50
-2.24 6.02 2.50
-2.36 5.98 2.50
-2.48 5.94 2.50
-2.60 5.89 2.50
-2.73 5.84 2.50
-2.85 5.79 2.50
-2.96 5.73 2.50
-3.08 5.68 2.50
-3.20 5.62 2.50
-3.32 5.56 2.50
-3.43 5.50 2.50
-3.55 5.43 2.50
-3.66 5.36 2.50
-3.77 5.29 2.50
-3.88 5.22 2.50
-3.99 5.15 2.50
-4.10 5.07 2.50
-4.21 4.99 2.50
-4.31 4.91 2.50
-4.42 4.83 2.50
-4.52 4.75 2.50
-4.62 4.66 2.50
-4.72 4.57 2.50
-4.82 4.48 2.50
-4.91 4.39 2.50
-5.01 4.30 2.50
-5.10 4.20 2.50
-5.19 4.10 2.50
-5.28 4.00 2.50
-5.37 3.90 2.50
-5.46 3.80 2.50
-5.54 3.69 2.50
-5.62 3.59 2.50
-5.70 3.48 2.50
-5.77 3.36 2.49
-5.77 3.21 2.46
-5.77 3.06 2.43
-5.78 2.92 2.41
-5.82 2.79 2.39
-5.89 2.68 2.39
-5.95 2.56 2.39
-6.01 2.45 2.39
-6.07 2.33 2.39
-6.13 2.21 2.39
-6.18 2.09 2.39
-6.23 1.97 2.39
-6.28 1.84 2.39
-6.33 1.72 2.39
-6.37 1.60 2.39
-6.42 1.47 2.39
-6.46 1.34 2.39
-6.49 1.22 2.39
-6.53 1.09 2.39
-6.56 0.96 2.39
-6.59 0.83 2.39
-6.62 0.70 2.39
-6.64 0.56 2.39
-6.67 0.43 2.39
-6.69 0.30 2.39
-6.70 0.16 2.39
-6.72 0.03 2.39
-6.73 -0.10 2.39
-6.74 -0.24 2.39
-6.74 -0.38 2.39
-6.75 -0.51 2.39
-6.75 -0.65 2.39
-6.75 -0.78 2.39
-6.74 -0.92 2.39
-6.74 -1.06 2.39
-6.73 -1.20 2.39
-6.71 -1.33 2.39
-6.70 -1.47 2.39
-6.68 -1.61 2.39
-6.66 -1.74 2.39
-6.63 -1.88 2.39
-6.61 -2.01 2.39
-6.58 -2.15 2.39
-6.54 -2.28 2.39
-6.51 -2.42 2.39
-6.47 -2.55 2.39
-6.43 -2.69 2.39
-6.39 -2.82 2.39
-6.34 -2.95 2.39
-6.29 -3.08 2.39
-6.24 -3.21 2.39
-6.18 -3.34 2.39
-6.13 -3.47 2.39
-6.08 -3.61 2.40
-6.00 -3.73 2.39
-5.94 -3.85 2.39
-5.88 -3.99 2.40
-5.88 -4.16 2.43
-5.88 -4.33 2.46
-5.88 -4.52 2.49
-5.81 -4.65 2.50
-5.72 -4.77 2.50
-5.63 -4.89 2.50
-5.54 -5.01 2.50
-5.45 -5.13 2.50
-5.35 -5.24 2.50
-5.25 -5.35 2.50
-5.15 -5.46 2.50
-5.05 -5.57 2.50
-4.94 -5.68 2.50
-4.84 -5.78 2.50
-4.72 -5.88 2.50
-4.61 -5.98 2.50
-4.50 -6.08 2.50
-4.38 -6.18 2.50
-4.26 -6.27 2.50
-4.14 -6.36 2.50
-4.02 -6.45 2.50
-3.89 -6.53 2.50
-3.76 -6.61 2.50
-3.63 -6.69 2.50
-3.50 -6.77 2.50
-3.37 -6.84 2.50
-3.24 -6.92 2.50
-3.10 -6.98 2.50
-2.96 -7.05 2.50
-2.82 -7.11 2.50
-2.68 -7.17 2.50
-2.54 -7.23 2.50
-2.40 -7.28 2.50
-2.26 -7.33 2.50
-2.11 -7.38 2.50
-1.97 -7.42 2.50
-1.82 -7.46 2.50
-1.67 -7.50 2.50
-1.52 -7.53 2.50
-1.37 -7.56 2.50
-1.22 -7.59 2.50
-1.07 -7.62 2.50
-0.92 -7.64 2.50
-0.77 -7.66 2.50
-0.61 -7.67 2.50
-0.46 -7.68 2.50
-0.31 -7.69 2.50
-0.16 -7.69 2.50
-0.00 -7.14 2.50
0.14 -7.14 2.50
0.28 -7.14 2.50
0.42 -7.13 2.50
0.56 -7.12 2.50
0.70 -7.10 2.50
0.84 -7.08 2.50
0.98 -7.06 2.50
1.12 -7.04 2.50
1.26 -7.01 2.50
1.40 -6.98 2.50
1.54 -6.95 2.50
1.68 -6.92 2.50
1.81 -6.88 2.50
1.95 -6.84 2.50
2.08 -6.79 2.50
2.14 -6.53 2.42
2.25 -6.42 2.39
2.38 -6.37 2.39
2.50 -6.31 2.39
2.62 -6.26 2.39
2.74 -6.20 2.39
2.38 -5.11 1.99
2.98 -6.08 2.39
3.10 -6.01 2.39
3.22 -5.94 2.39
2.41 -4.24 1.73
3.44 -5.80 2.39
3.55 -5.72 2.39
3.66 -5.64 2.39
3.77 -5.56 2.39
3.88 -5.48 2.39
3.98 -5.40 2.39
4.08 -5.31 2.39
4.18 -5.22 2.39
4.28 -5.13 2.39
4.37 -5.04 2.39
4.47 -4.94 2.39
4.56 -4.85 2.39
4.65 -4.75 2.39
4.74 -4.65 2.39
4.82 -4.55 2.39
4.90 -4.44 2.39
4.98 -4.34 2.39
5.06 -4.23 2.39
5.14 -4.12 2.39
5.21 -4.02 2.39
5.28 -3.90 2.39
5.35 -3.79 2.39
5.42 -3.68 2.39
5.48 -3.56 2.39
5.54 -3.45 2.39
5.60 -3.33 2.39
5.66 -3.21 2.39
5.71 -3.10 2.39
5.76 -2.98 2.39
