ply
format ascii 1.0
element vertex 2996
property float32 x
property float32 y
property float32 z
end_header
-2.17 -10.57 2.50
-1.95 -10.60 2.50
-1.74 -10.63 2.50
-1.53 -10.66 2.50
-1.31 -10.68 2.50
-1.10 -10.70 2.50
-0.89 -10.71 2.50
-0.67 -10.72 2.50
-0.46 -10.72 2.50
-0.24 -10.72 2.50
-0.03 -9.72 2.50
0.17 -9.71 2.50
0.36 -9.69 2.50
0.55 -9.67 2.50
0.74 -9.65 2.50
0.94 -9.63 2.50
1.13 -9.59 2.50
1.32 -9.56 2.50
1.50 -9.52 2.50
1.69 -9.48 2.50
1.88 -9.43 2.50
2.06 -9.38 2.50
2.25 -9.32 2.50
2.33 -8.88 2.39
2.50 -8.82 2.39
2.67 -8.76 2.39
2.85 -8.69 2.39
2.51 -7.17 1.99
3.18 -8.55 2.39
3.35 -8.47 2.39
3.51 -8.39 2.39
3.67 -8.30 2.39
2.49 -5.35 1.56
3.99 -8.12 2.39
4.14 -8.03 2.39
4.29 -7.93 2.39
4.44 -7.83 2.39
4.59 -7.73 2.39
4.74 -7.62 2.39
4.88 -7.51 2.39
5.02 -7.40 2.39
5.16 -7.29 2.39
5.29 -7.17 2.39
5.42 -7.05 2.39
5.55 -6.93 2.39
5.68 -6.80 2.39
5.80 -6.67 2.39
5.93 -6.54 2.39
6.04 -6.41 2.39
6.16 -6.28 2.39
6.24 -6.11 2.38
6.24 -5.87 2.34
6.23 -5.63 2.30
6.23 -5.41 2.26
6.23 -5.19 2.23
6.26 -5.00 2.21
6.34 -4.87 2.21
6.43 -4.73 2.21
6.51 -4.59 2.21
6.58 -4.45 2.21
6.05 -3.92 2.01
6.12 -3.79 2.01
6.22 -3.68 2.02
6.22 -3.52 2.00
6.22 -3.35 1.98
6.22 -3.19 1.96
6.22 -3.04 1.95
6.22 -2.88 1.93
6.22 -2.73 1.92
6.21 -2.58 1.91
6.21 -2.44 1.90
7.95 -2.94 2.41
7.74 -2.69 2.34
7.77 -2.52 2.33
6.21 -1.88 1.86
6.21 -1.74 1.85
7.85 -2.03 2.33
7.87 -1.87 2.33
7.89 -1.71 2.33
6.20 -1.21 1.83
6.20 -1.08 1.82
6.20 -0.96 1.82
7.92 -1.06 2.32
6.20 -0.70 1.82
6.20 -0.58 1.82
6.20 -0.45 1.82
7.87 -0.41 2.31
6.21 -0.20 1.82
6.20 -0.08 1.82
7.81 0.06 2.30
7.79 0.22 2.30
6.19 0.30 1.83
6.19 0.42 1.84
6.19 0.55 1.84
7.69 0.84 2.30
7.66 0.99 2.30
5.93 0.89 1.79
5.49 0.94 1.66
5.48 1.05 1.67
5.48 1.16 1.68
5.50 1.28 1.69
7.50 1.91 2.33
7.47 2.07 2.33
7.43 2.22 2.34
7.39 2.37 2.34
7.35 2.52 2.35
7.40 2.71 2.39
7.34 2.85 2.39
7.27 3.00 2.39
7.21 3.14 2.39
7.14 3.28 2.39
7.06 3.42 2.39
6.99 3.56 2.39
6.91 3.70 2.39
6.83 3.84 2.40
6.75 3.97 2.40
6.66 4.11 2.40
6.58 4.24 2.40
6.49 4.37 2.40
6.40 4.50 2.40
6.32 4.64 2.41
6.17 4.72 2.39
6.07 4.84 2.39
5.96 4.96 2.39
5.86 5.08 2.39
5.75 5.19 2.39
5.64 5.30 2.39
5.52 5.41 2.39
5.41 5.51 2.39
5.29 5.62 2.39
5.18 5.72 2.39
5.06 5.82 2.39
4.94 5.92 2.39
4.81 6.01 2.39
4.69 6.11 2.39
4.56 6.20 2.39
4.43 6.29 2.39
4.30 6.37 2.39
4.17 6.46 2.39
4.04 6.54 2.39
3.90 6.62 2.39
3.77 6.69 2.39
3.63 6.77 2.39
3.49 6.84 2.39
3.35 6.91 2.39
3.21 6.97 2.39
3.07 7.03 2.39
2.93 7.09 2.39
2.78 7.15 2.39
2.64 7.21 2.39
2.49 7.26 2.39
2.35 7.31 2.39
2.20 7.36 2.39
2.14 7.72 2.50
1.98 7.77 2.50
1.83 7.81 2.50
1.67 7.84 2.50
1.51 7.88 2.50
1.35 7.91 2.50
1.19 7.94 2.50
1.03 7.97 2.50
0.87 7.99 2.50
0.71 8.01 2.50
0.55 8.03 2.50
0.38 8.04 2.50
0.22 8.05 2.50
0.06 8.06 2.50
-0.11 8.07 2.50
-0.27 8.07 2.50
-0.43 8.07 2.50
-0.60 8.07 2.50
-0.76 8.06 2.50
-0.92 8.05 2.50
-1.09 8.04 2.50
-1.25 8.02 2.50
-1.41 8.00 2.50
-1.58 7.98 2.50
-1.74 7.96 2.50
-1.90 7.93 2.50
-2.06 7.90 2.50
-2.22 7.86 2.50
-2.39 7.83 2.50
-2.55 7.79 2.50
-2.71 7.74 2.50
-2.87 7.70 2.50
-3.02 7.65 2.50
-3.18 7.59 2.50
-3.34 7.54 2.50
-3.50 7.48 2.50
-3.65 7.42 2.50
-3.81 7.35 2.50
-3.96 7.29 2.50
-4.11 7.22 2.50
-4.26 7.14 2.50
-4.41 7.07 2.50
-4.56 6.99 2.50
-4.71 6.91 2.50
-4.85 6.82 2.50
-5.00 6.73 2.50
-5.14 6.64 2.50
-5.28 6.55 2.50
-5.42 6.45 2.50
-5.56 6.35 2.50
-5.70 6.25 2.50
-5.84 6.14 2.50
-5.86 5.93 2.45
-5.87 5.70 2.40
-5.97 5.57 2.39
-6.09 5.46 2.39
-6.21 5.35 2.39
-6.33 5.23 2.39
-6.45 5.11 2.39
-6.56 4.99 2.39
-6.67 4.87 2.39
-6.78 4.74 2.39
-6.89 4.61 2.39
-7.00 4.48 2.39
-7.10 4.35 2.39
-7.20 4.21 2.39
-7.30 4.08 2.39
-7.39 3.94 2.39
-7.48 3.80 2.39
-7.57 3.65 2.39
-7.66 3.51 2.39
-7.75 3.36 2.39
-7.83 3.21 2.39
-7.91 3.06 2.39
-7.98 2.90 2.39
-8.05 2.75 2.39
-8.12 2.59 2.39
-8.19 2.43 2.39
-8.26 2.27 2.39
-8.32 2.11 2.39
-8.37 1.95 2.39
-8.43 1.78 2.39
-8.48 1.62 2.39
-8.53 1.45 2.39
-8.57 1.28 2.39
-8.61 1.11 2.39
-8.65 0.94 2.39
-8.69 0.77 2.39
-8.72 0.60 2.39
-8.74 0.42 2.39
-8.77 0.25 2.39
-8.79 0.07 2.39
-8.80 -0.10 2.39
-8.82 -0.28 2.39
-8.83 -0.46 2.39
-8.83 -0.63 2.39
-8.83 -0.81 2.39
-8.83 -0.99 2.39
-8.83 -1.17 2.39
-8.82 -1.35 2.39
-8.81 -1.53 2.39
-8.79 -1.70 2.39
-8.77 -1.88 2.39
-8.74 -2.06 2.39
-8.72 -2.24 2.39
-8.68 -2.42 2.39
-8.65 -2.60 2.39
-8.61 -2.77 2.39
-8.57 -2.95 2.39
-8.52 -3.12 2.39
-8.47 -3.30 2.39
-8.41 -3.47 2.39
-8.35 -3.64 2.39
-8.29 -3.82 2.39
-8.23 -3.99 2.39
-8.16 -4.16 2.39
-8.08 -4.32 2.39
-8.01 -4.49 2.39
-7.93 -4.66 2.39
-7.84 -4.82 2.39
-7.75 -4.98 2.39
-7.66 -5.14 2.39
-7.57 -5.30 2.39
-7.47 -5.45 2.39
-7.37 -5.61 2.39
-7.26 -5.76 2.39
-7.15 -5.91 2.39
-7.04 -6.06 2.39
-6.92 -6.20 2.39
-6.80 -6.35 2.39
-6.68 -6.49 2.39
-6.56 -6.62 2.39
-6.43 -6.76 2.39
-6.30 -6.89 2.39
-6.16 -7.02 2.39
-6.03 -7.15 2.39
-5.89 -7.27 2.39
-5.77 -7.43 2.41
-5.76 -7.73 2.46
-5.69 -7.95 2.50
-5.53 -8.06 2.50
-5.37 -8.18 2.50
-5.21 -8.29 2.50
-5.04 -8.39 2.50
-4.88 -8.49 2.50
-4.71 -8.59 2.50
-4.54 -8.68 2.50
-4.36 -8.77 2.50
-4.19 -8.86 2.50
-4.01 -8.94 2.50
-3.83 -9.02 2.50
-3.65 -9.09 2.50
-3.47 -9.16 2.50
-3.28 -9.23 2.50
-3.10 -9.29 2.50
-2.91 -9.35 2.50
-2.72 -9.41 2.50
-2.54 -9.46 2.50
-2.35 -9.50 2.50
-2.16 -9.54 2.50
-1.96 -9.58 2.50
-1.77 -9.61 2.50
-1.58 -9.64 2.50
-1.39 -9.67 2.50
-1.19 -9.69 2.50
-1.00 -9.70 2.50
-0.80 -9.71 2.50
-0.61 -9.72 2.50
-0.42 -9.72 2.50
-0.22 -9.72 2.50
-0.03 -8.88 2.50
0.15 -8.87 2.50
0.33 -8.86 2.50
0.50 -8.85 2.50
0.68 -8.83 2.50
0.85 -8.80 2.50
1.03 -8.77 2.50
1.20 -8.74 2.50
1.37 -8.71 2.50
1.54 -8.67 2.50
1.72 -8.63 2.50
1.88 -8.58 2.50
2.05 -8.53 2.50
2.22 -8.48 2.50
2.30 -8.11 2.40
2.44 -8.02 2.39
2.60 -7.96 2.39
2.51 -7.18 2.18
2.91 -7.83 2.39
3.06 -7.76 2.39
3.21 -7.68 2.39
3.36 -7.61 2.39
3.50 -7.53 2.39
3.65 -7.44 2.39
3.79 -7.36 2.39
3.93 -7.27 2.39
2.50 -4.41 1.47
4.20 -7.09 2.39
4.34 -6.99 2.39
4.47 -6.89 2.39
4.60 -6.79 2.39
4.73 -6.68 2.39
4.85 -6.58 2.39
4.97 -6.47 2.39
5.09 -6.36 2.39
5.21 -6.24 2.39
5.32 -6.13 2.39
5.43 -6.01 2.39
5.54 -5.89 2.39
5.65 -5.76 2.39
5.75 -5.64 2.39
5.86 -5.51 2.39
5.95 -5.39 2.39
6.05 -5.26 2.39
6.14 -5.12 2.39
6.23 -4.99 2.39
6.23 -4.79 2.36
6.23 -4.59 2.33
6.23 -4.40 2.30
6.22 -4.21 2.27
6.05 -3.92 2.18
6.12 -3.79 2.18
6.22 -3.69 2.20
6.22 -3.52 2.18
6.22 -3.36 2.16
6.22 -3.20 2.14
6.22 -3.04 2.12
6.22 -2.89 2.10
6.22 -2.74 2.09
6.21 -2.59 2.07
7.27 -2.86 2.41
7.31 -2.71 2.41
7.35 -2.56 2.41
7.39 -2.40 2.41
6.21 -1.88 2.02
6.21 -1.75 2.01
7.22 -1.87 2.33
7.24 -1.73 2.32
6.22 -1.35 1.99
6.20 -1.22 1.98
6.20 -1.09 1.98
7.29 -1.13 2.32
7.29 -0.98 2.32
6.20 -0.71 1.97
6.20 -0.58 1.97
6.20 -0.45 1.97
7.26 -0.39 2.31
6.20 -0.20 1.97
6.20 -0.08 1.97
7.21 0.05 2.30
7.19 0.20 2.30
6.19 0.30 1.99
6.19 0.42 1.99
6.19 0.55 2.00
7.10 0.77 2.30
7.07 0.91 2.30
6.19 0.92 2.02
5.50 0.94 1.80
5.49 1.05 1.81
5.49 1.16 1.82
5.50 1.28 1.83
6.92 1.76 2.32
6.89 1.90 2.33
6.86 2.04 2.33
6.82 2.18 2.34
6.78 2.32 2.34
6.74 2.46 2.35
6.81 2.64 2.40
6.75 2.78 2.40
6.69 2.91 2.40
6.63 3.05 2.40
6.56 3.18 2.40
6.49 3.31 2.40
6.42 3.43 2.40
6.34 3.56 2.41
6.27 3.69 2.41
6.15 3.79 2.39
6.07 3.91 2.39
5.98 4.03 2.39
5.89 4.14 2.39
5.80 4.26 2.39
5.71 4.37 2.39
5.62 4.48 2.39
5.52 4.59 2.39
5.42 4.70 2.39
5.32 4.80 2.39
5.22 4.90 2.39
5.12 5.01 2.39
5.01 5.10 2.39
4.90 5.20 2.39
4.79 5.30 2.39
4.68 5.39 2.39
4.57 5.48 2.39
4.46 5.57 2.39
4.34 5.65 2.39
4.22 5.74 2.39
4.10 5.82 2.39
3.98 5.90 2.39
3.86 5.98 2.39
3.74 6.05 2.39
3.62 6.13 2.39
3.49 6.20 2.39
3.36 6.27 2.39
3.24 6.33 2.39
3.11 6.39 2.39
2.98 6.46 2.39
2.84 6.51 2.39
2.71 6.57 2.39
2.58 6.62 2.39
2.44 6.68 2.39
2.31 6.72 2.39
2.17 6.78 2.40
2.12 7.11 2.50
1.98 7.15 2.50
1.83 7.19 2.50
1.69 7.23 2.50
1.54 7.26 2.50
1.40 7.30 2.50
1.25 7.33 2.50
1.10 7.35 2.50
0.95 7.38 2.50
0.80 7.40 2.50
0.65 7.42 2.50
0.50 7.43 2.50
0.35 7.45 2.50
0.20 7.46 2.50
0.05 7.46 2.50
-0.10 7.47 2.50
-0.25 7.47 2.50
-0.40 7.47 2.50
-0.55 7.46 2.50
-0.70 7.46 2.50
-0.86 7.45 2.50
-1.01 7.44 2.50
-1.16 7.42 2.50
-1.31 7.40 2.50
-1.46 7.38 2.50
-1.61 7.36 2.50
-1.76 7.33 2.50
-1.91 7.30 2.50
-2.06 7.27 2.50
-2.21 7.24 2.50
-2.36 7.20 2.50
-2.51 7.16 2.50
-2.65 7.11 2.50
-2.80 7.07 2.50
-2.95 7.02 2.50
-3.09 6.97 2.50
-3.23 6.91 2.50
-3.38 6.86 2.50
-3.52 6.79 2.50
-3.66 6.73 2.50
-3.80 6.67 2.50
-3.94 6.60 2.50
-4.08 6.53 2.50
-4.22 6.45 2.50
-4.35 6.38 2.50
-4.49 6.30 2.50
-4.62 6.21 2.50
-4.75 6.13 2.50
-4.88 6.04 2.50
-5.01 5.95 2.50
-5.14 5.86 2.50
-5.26 5.76 2.50
-5.39 5.67 2.50
-5.51 5.57 2.50
-5.63 5.46 2.50
-5.75 5.36 2.50
-5.86 5.24 2.49
-5.86 5.03 2.44
-5.86 4.84 2.40
-5.95 4.71 2.39
-6.06 4.61 2.40
-6.16 4.48 2.39
-6.26 4.37 2.39
-6.35 4.25 2.39
-6.45 4.13 2.39
-6.54 4.00 2.39
-6.63 3.88 2.39
-6.72 3.75 2.39
-6.81 3.62 2.39
-6.89 3.49 2.39
-6.98 3.36 2.39
-7.06 3.22 2.39
-7.13 3.09 2.39
-7.21 2.95 2.39
-7.28 2.81 2.39
-7.35 2.67 2.39
-7.41 2.52 2.39
-7.48 2.38 2.39
-7.54 2.23 2.39
-7.59 2.09 2.39
-7.65 1.94 2.39
-7.70 1.79 2.39
-7.75 1.64 2.39
-7.79 1.48 2.39
-7.84 1.33 2.39
-7.88 1.17 2.39
-7.91 1.02 2.39
-7.95 0.86 2.39
-7.98 0.70 2.39
-8.00 0.54 2.39
-8.03 0.38 2.39
-8.05 0.22 2.39
-8.07 0.06 2.39
-8.08 -0.10 2.39
-8.09 -0.26 2.39
-8.10 -0.42 2.39
-8.10 -0.59 2.39
-8.10 -0.75 2.39
-8.10 -0.91 2.39
-8.10 -1.08 2.39
-8.09 -1.24 2.39
-8.07 -1.40 2.39
-8.06 -1.57 2.39
-8.04 -1.73 2.39
-8.01 -1.89 2.39
-7.99 -2.06 2.39
-7.96 -2.22 2.39
-7.92 -2.38 2.39
-7.89 -2.54 2.39
-7.84 -2.70 2.39
-7.80 -2.86 2.39
-7.75 -3.02 2.39
-7.70 -3.18 2.39
-7.65 -3.34 2.39
-7.59 -3.50 2.39
-7.53 -3.65 2.39
-7.46 -3.81 2.39
-7.40 -3.96 2.39
-7.32 -4.11 2.39
-7.25 -4.26 2.39
-7.17 -4.41 2.39
-7.09 -4.56 2.39
-7.01 -4.70 2.39
-6.92 -4.85 2.39
-6.83 -4.99 2.39
-6.73 -5.13 2.39
-6.64 -5.27 2.39
-6.54 -5.41 2.39
-6.43 -5.54 2.39
-6.33 -5.67 2.39
-6.22 -5.80 2.39
-6.11 -5.93 2.39
-5.99 -6.06 2.39
-5.87 -6.18 2.39
-5.78 -6.33 2.40
-5.77 -6.57 2.45
-5.74 -6.81 2.50
-5.61 -6.93 2.50
-5.47 -7.04 2.50
-5.33 -7.16 2.50
-5.19 -7.26 2.50
-5.05 -7.37 2.50
-4.90 -7.47 2.50
-4.76 -7.57 2.50
-4.61 -7.67 2.50
-4.45 -7.76 2.50
-4.30 -7.85 2.50
-4.14 -7.93 2.50
-3.98 -8.01 2.50
-3.82 -8.09 2.50
-3.66 -8.17 2.50
-3.50 -8.24 2.50
-3.33 -8.31 2.50
-3.17 -8.37 2.50
-3.00 -8.43 2.50
-2.83 -8.49 2.50
-2.66 -8.54 2.50
-2.49 -8.59 2.50
-2.32 -8.64 2.50
-2.14 -8.68 2.50
-1.97 -8.72 2.50
-1.80 -8.75 2.50
-1.62 -8.78 2.50
-1.44 -8.81 2.50
-1.27 -8.83 2.50
-1.09 -8.85 2.50
-0.91 -8.87 2.50
-0.74 -8.88 2.50
-0.56 -8.88 2.50
-0.38 -8.89 2.50
-0.20 -8.89 2.50
-0.03 -8.17 2.50
0.14 -8.16 2.50
0.30 -8.15 2.50
0.46 -8.14 2.50
0.62 -8.12 2.50
0.78 -8.10 2.50
0.94 -8.08 2.50
1.10 -8.05 2.50
1.26 -8.02 2.50
1.42 -7.98 2.50
1.58 -7.94 2.50
1.73 -7.90 2.50
1.89 -7.86 2.50
2.04 -7.81 2.50
2.19 -7.76 2.50
2.29 -7.51 2.43
2.39 -7.33 2.39
2.51 -7.20 2.37
2.68 -7.21 2.39
2.82 -7.15 2.39
2.95 -7.08 2.39
3.09 -7.01 2.39
3.23 -6.94 2.39
3.36 -6.86 2.39
3.49 -6.78 2.39
3.62 -6.70 2.39
3.75 -6.62 2.39
3.87 -6.53 2.39
2.48 -4.00 1.49
4.12 -6.36 2.39
4.24 -6.26 2.39
4.36 -6.17 2.39
4.47 -6.07 2.39
4.58 -5.97 2.39
4.69 -5.87 2.39
4.80 -5.76 2.39
4.91 -5.66 2.39
5.01 -5.55 2.39
5.11 -5.44 2.39
5.21 -5.33 2.39
5.31 -5.21 2.39
5.40 -5.10 2.39
5.50 -4.98 2.39
5.58 -4.86 2.39
5.67 -4.74 2.39
5.75 -4.61 2.39
5.84 -4.49 2.39
5.91 -4.37 2.39
5.99 -4.24 2.39
5.88 -3.99 2.32
5.95 -3.86 2.32
6.04 -3.75 2.33
6.27 -3.72 2.39
6.21 -3.52 2.35
6.21 -3.36 2.33
6.21 -3.20 2.31
6.21 -3.04 2.29
6.22 -2.89 2.27
6.22 -2.74 2.26
6.21 -2.59 2.24
6.75 -2.66 2.42
6.78 -2.52 2.42
6.82 -2.37 2.41
6.22 -2.03 2.19
6.21 -1.89 2.18
6.21 -1.75 2.17
6.92 -1.80 2.41
6.95 -1.66 2.41
6.21 -1.35 2.15
6.20 -1.22 2.14
6.20 -1.09 2.14
6.77 -1.05 2.33
6.75 -0.91 2.32
6.20 -0.71 2.13
6.20 -0.58 2.13
6.20 -0.46 2.13
6.73 -0.36 2.31
6.20 -0.21 2.13
6.20 -0.08 2.13
6.69 0.05 2.30
6.68 0.18 2.30
6.19 0.29 2.14
6.19 0.42 2.15
6.19 0.54 2.15
6.65 0.72 2.32
6.64 0.85 2.33
6.19 0.92 2.18
5.50 0.93 1.94
5.49 1.05 1.95
5.49 1.16 1.96
5.50 1.28 1.98
6.59 1.67 2.38
6.58 1.81 2.39
6.57 1.95 2.41
6.56 2.09 2.42
6.51 2.23 2.42
6.46 2.36 2.42
6.41 2.48 2.42
6.33 2.60 2.42
6.20 2.70 2.39
6.14 2.82 2.39
6.08 2.94 2.39
6.01 3.06 2.39
5.94 3.18 2.39
5.87 3.29 2.39
5.79 3.41 2.39
5.72 3.52 2.39
5.64 3.63 2.39
5.56 3.74 2.39
5.48 3.85 2.39
5.40 3.96 2.39
5.31 4.06 2.39
5.22 4.16 2.39
5.13 4.26 2.39
5.04 4.36 2.39
4.95 4.46 2.39
4.85 4.56 2.39
4.76 4.65 2.39
4.66 4.75 2.39
4.56 4.84 2.39
4.46 4.92 2.39
4.36 5.01 2.39
4.25 5.10 2.39
4.15 5.18 2.39
4.04 5.26 2.39
3.93 5.34 2.39
3.82 5.41 2.39
3.71 5.49 2.39
3.59 5.56 2.39
3.48 5.63 2.39
3.36 5.70 2.39
3.25 5.76 2.39
3.13 5.83 2.39
3.01 5.89 2.39
2.89 5.95 2.39
2.77 6.00 2.39
2.65 6.06 2.39
2.52 6.11 2.39
2.40 6.16 2.39
2.27 6.21 2.39
2.17 6.31 2.41
2.11 6.57 2.50
1.97 6.61 2.50
1.84 6.65 2.50
1.71 6.69 2.50
1.57 6.72 2.50
1.43 6.76 2.50
1.30 6.79 2.50
1.16 6.81 2.50
1.02 6.84 2.50
0.88 6.86 2.50
0.75 6.88 2.50
0.61 6.90 2.50
0.47 6.91 2.50
0.33 6.92 2.50
0.19 6.93 2.50
0.05 6.94 2.50
-0.09 6.94 2.50
-0.23 6.95 2.50
-0.38 6.94 2.50
-0.52 6.94 2.50
-0.66 6.93 2.50
-0.80 6.92 2.50
-0.94 6.91 2.50
-1.08 6.90 2.50
-1.22 6.88 2.50
-1.36 6.86 2.50
-1.50 6.84 2.50
-1.64 6.81 2.50
-1.78 6.79 2.50
-1.92 6.76 2.50
-2.06 6.72 2.50
-2.19 6.69 2.50
-2.33 6.65 2.50
-2.47 6.61 2.50
-2.60 6.56 2.50
-2.74 6.52 2.50
-2.87 6.47 2.50
-3.01 6.42 2.50
-3.14 6.36 2.50
-3.27 6.31 2.50
-3.40 6.25 2.50
-3.53 6.19 2.50
-3.66 6.12 2.50
-3.79 6.06 2.50
-3.92 5.99 2.50
-4.04 5.91 2.50
-4.17 5.84 2.50
-4.29 5.76 2.50
-4.41 5.68 2.50
-4.53 5.60 2.50
-4.65 5.52 2.50
-4.77 5.43 2.50
-4.89 5.34 2.50
-5.00 5.25 2.50
-5.11 5.16 2.50
-5.22 5.06 2.50
-5.33 4.96 2.50
-5.44 4.86 2.50
-5.55 4.76 2.50
-5.65 4.66 2.50
-5.75 4.55 2.50
-5.85 4.44 2.50
-5.85 4.25 2.45
-5.86 4.08 2.42
-5.89 3.93 2.39
-5.98 3.82 2.39
-6.06 3.70 2.39
-6.15 3.59 2.39
-6.23 3.47 2.39
-6.31 3.35 2.39
-6.38 3.23 2.39
-6.46 3.10 2.39
-6.53 2.98 2.39
-6.60 2.85 2.39
-6.67 2.72 2.39
-6.73 2.59 2.39
-6.80 2.46 2.39
-6.86 2.33 2.39
-6.92 2.20 2.39
-6.97 2.06 2.39
-7.02 1.92 2.39
-7.07 1.79 2.39
-7.12 1.65 2.39
-7.16 1.51 2.39
-7.21 1.37 2.39
-7.24 1.22 2.39
-7.28 1.08 2.39
-7.31 0.94 2.39
-7.34 0.79 2.39
-7.37 0.64 2.39
-7.39 0.50 2.39
-7.41 0.35 2.39
-7.43 0.20 2.39
-7.45 0.05 2.39
-7.46 -0.10 2.39
-7.47 -0.25 2.39
-7.47 -0.40 2.39
-7.48 -0.55 2.39
-7.48 -0.70 2.39
-7.47 -0.85 2.39
-7.47 -1.00 2.39
-7.46 -1.15 2.39
-7.45 -1.30 2.39
-7.43 -1.45 2.39
-7.41 -1.60 2.39
-7.39 -1.75 2.39
-7.36 -1.90 2.39
-7.33 -2.05 2.39
-7.30 -2.20 2.39
-7.27 -2.35 2.39
-7.23 -2.50 2.39
-7.19 -2.64 2.39
-7.14 -2.79 2.39
-7.09 -2.94 2.39
-7.04 -3.08 2.39
-6.99 -3.22 2.39
-6.93 -3.37 2.39
-6.87 -3.51 2.39
-6.81 -3.65 2.39
-6.74 -3.79 2.39
-6.67 -3.93 2.39
-6.60 -4.06 2.39
-6.53 -4.20 2.39
-6.45 -4.33 2.39
-6.37 -4.47 2.39
-6.28 -4.60 2.39
-6.20 -4.72 2.39
-6.11 -4.85 2.39
-6.01 -4.98 2.39
-5.92 -5.10 2.39
-5.82 -5.22 2.39
-5.78 -5.40 2.42
-5.78 -5.61 2.46
-5.75 -5.81 2.50
-5.64 -5.93 2.50
-5.52 -6.04 2.50
-5.40 -6.16 2.50
-5.28 -6.27 2.50
-5.16 -6.37 2.50
-5.03 -6.48 2.50
-4.90 -6.58 2.50
-4.78 -6.68 2.50
-4.64 -6.78 2.50
-4.51 -6.87 2.50
-4.37 -6.96 2.50
-4.23 -7.05 2.50
-4.09 -7.13 2.50
-3.95 -7.22 2.50
-3.81 -7.29 2.50
-3.66 -7.37 2.50
-3.52 -7.44 2.50
-3.37 -7.51 2.50
-3.22 -7.58 2.50
-3.07 -7.64 2.50
-2.91 -7.70 2.50
-2.76 -7.75 2.50
-2.60 -7.81 2.50
-2.45 -7.86 2.50
-2.29 -7.90 2.50
-2.13 -7.94 2.50
-1.97 -7.98 2.50
-1.81 -8.02 2.50
-1.65 -8.05 2.50
-1.49 -8.08 2.50
-1.33 -8.10 2.50
-1.17 -8.12 2.50
-1.01 -8.14 2.50
-0.84 -8.15 2.50
-0.68 -8.16 2.50
-0.52 -8.17 2.50
-0.35 -8.17 2.50
-0.19 -8.17 2.50
-0.03 -7.56 2.50
0.12 -7.55 2.50
0.27 -7.54 2.50
0.42 -7.53 2.50
0.57 -7.51 2.50
0.72 -7.49 2.50
0.87 -7.47 2.50
1.02 -7.45 2.50
1.16 -7.42 2.50
1.31 -7.39 2.50
1.46 -7.35 2.50
1.60 -7.31 2.50
1.74 -7.27 2.50
1.89 -7.23 2.50
2.03 -7.18 2.50
2.17 -7.13 2.50
2.28 -6.99 2.47
2.34 -6.73 2.39
2.48 -6.68 2.39
2.60 -6.62 2.39
2.73 -6.56 2.39
2.86 -6.49 2.39
2.51 -5.40 2.01
3.11 -6.36 2.39
3.23 -6.29 2.39
3.35 -6.21 2.39
3.47 -6.14 2.39
3.59 -6.06 2.39
3.70 -5.98 2.39
3.81 -5.89 2.39
3.92 -5.81 2.39
2.50 -3.54 1.48
4.14 -5.63 2.39
4.25 -5.54 2.39
4.35 -5.44 2.39
4.45 -5.35 2.39
4.55 -5.25 2.39
4.65 -5.15 2.39
4.74 -5.05 2.39
4.83 -4.94 2.39
4.92 -4.84 2.39
5.01 -4.73 2.39
5.10 -4.62 2.39
5.18 -4.51 2.39
5.26 -4.40 2.39
5.34 -4.29 2.39
5.41 -4.17 2.39
5.49 -4.06 2.39
5.56 -3.94 2.39
5.63 -3.82 2.39
5.69 -3.70 2.39
5.76 -3.58 2.39
5.82 -3.46 2.39
5.88 -3.34 2.39
5.93 -3.21 2.39
5.99 -3.09 2.39
6.04 -2.96 2.39
6.08 -2.84 2.39
6.13 -2.71 2.39
6.17 -2.58 2.39
6.21 -2.45 2.39
6.25 -2.32 2.39
6.40 -2.23 2.44
6.20 -2.02 2.35
6.20 -1.89 2.34
6.20 -1.75 2.33
6.20 -1.62 2.32
6.19 -1.49 2.31
6.19 -1.35 2.30
6.19 -1.22 2.30
6.19 -1.09 2.29
6.19 -0.97 2.29
6.20 -0.84 2.29
6.20 -0.71 2.29
6.20 -0.59 2.28
6.20 -0.46 2.28
6.59 -0.36 2.43
6.20 -0.21 2.28
6.19 -0.09 2.29
6.18 0.04 2.29
6.18 0.16 2.29
6.18 0.29 2.29
6.18 0.41 2.30
6.18 0.54 2.31
6.18 0.66 2.31
6.18 0.79 2.32
5.90 0.88 2.23
5.51 0.93 2.09
5.50 1.04 2.10
5.50 1.16 2.11
5.51 1.28 2.12
6.18 1.56 2.39
6.13 1.69 2.39
6.09 1.81 2.39
6.05 1.93 2.39
6.00 2.05 2.39
5.95 2.17 2.39
5.90 2.28 2.39
5.84 2.40 2.39
5.79 2.51 2.39
5.73 2.63 2.39
5.67 2.74 2.39
5.61 2.85 2.39
5.54 2.96 2.39
5.48 3.07 2.39
5.41 3.18 2.39
5.34 3.28 2.39
5.26 3.39 2.39
5.19 3.49 2.39
5.11 3.59 2.39
5.04 3.69 2.39
4.96 3.79 2.39
4.88 3.88 2.39
4.79 3.98 2.39
4.71 4.07 2.39
4.62 4.16 2.39
4.53 4.25 2.39
4.44 4.34 2.39
4.35 4.43 2.39
4.26 4.51 2.39
4.16 4.60 2.39
4.07 4.68 2.39
3.97 4.76 2.39
3.87 4.83 2.39
3.77 4.91 2.39
3.67 4.98 2.39
3.57 5.05 2.39
3.46 5.12 2.39
3.36 5.19 2.39
3.25 5.26 2.39
3.14 5.32 2.39
3.03 5.38 2.39
2.92 5.44 2.39
2.81 5.50 2.39
2.70 5.55 2.39
2.59 5.61 2.39
2.47 5.66 2.39
2.36 5.71 2.39
2.24 5.75 2.39
2.17 5.92 2.44
2.09 6.09 2.50
1.97 6.13 2.50
1.84 6.17 2.50
1.72 6.21 2.50
1.59 6.25 2.50
1.47 6.28 2.50
1.34 6.31 2.50
1.21 6.34 2.50
1.08 6.36 2.50
0.95 6.38 2.50
0.82 6.41 2.50
0.69 6.42 2.50
0.56 6.44 2.50
0.43 6.45 2.50
0.30 6.46 2.50
0.17 6.47 2.50
0.04 6.48 2.50
-0.09 6.48 2.50
-0.22 6.48 2.50
-0.35 6.48 2.50
-0.48 6.48 2.50
-0.62 6.47 2.50
-0.75 6.46 2.50
-0.88 6.45 2.50
-1.01 6.44 2.50
-1.14 6.42 2.50
-1.27 6.40 2.50
-1.40 6.38 2.50
-1.53 6.36 2.50
-1.66 6.33 2.50
-1.79 6.30 2.50
-1.92 6.27 2.50
-2.05 6.24 2.50
-2.18 6.20 2.50
-2.30 6.16 2.50
-2.43 6.12 2.50
-2.56 6.08 2.50
-2.68 6.03 2.50
-2.81 5.98 2.50
-2.93 5.93 2.50
-3.05 5.88 2.50
-3.18 5.82 2.50
-3.30 5.77 2.50
-3.42 5.71 2.50
-3.54 5.64 2.50
-3.65 5.58 2.50
-3.77 5.51 2.50
-3.89 5.44 2.50
-4.00 5.37 2.50
-4.11 5.29 2.50
-4.23 5.22 2.50
-4.34 5.14 2.50
-4.45 5.06 2.50
-4.55 4.97 2.50
-4.66 4.89 2.50
-4.76 4.80 2.50
-4.87 4.71 2.50
-4.97 4.62 2.50
-5.07 4.53 2.50
-5.17 4.43 2.50
-5.26 4.33 2.50
-5.36 4.23 2.50
-5.45 4.13 2.50
-5.54 4.03 2.50
-5.63 3.92 2.50
-5.72 3.81 2.50
-5.80 3.70 2.50
-5.84 3.57 2.48
-5.84 3.41 2.45
-5.85 3.25 2.42
-5.87 3.11 2.39
-5.94 3.00 2.39
-6.01 2.88 2.39
-6.07 2.77 2.39
-6.14 2.65 2.39
-6.20 2.53 2.39
-6.26 2.41 2.39
-6.32 2.29 2.39
-6.37 2.16 2.39
-6.43 2.04 2.39
-6.48 1.91 2.39
-6.53 1.78 2.39
-6.57 1.66 2.39
-6.61 1.53 2.39
-6.65 1.40 2.39
-6.69 1.26 2.39
-6.73 1.13 2.39
-6.76 1.00 2.39
-6.79 0.86 2.39
-6.82 0.73 2.39
-6.84 0.59 2.39
-6.86 0.46 2.39
-6.88 0.32 2.39
-6.90 0.18 2.39
-6.91 0.05 2.39
-6.92 -0.09 2.39
-6.93 -0.23 2.39
-6.93 -0.37 2.39
-6.93 -0.51 2.39
-6.93 -0.65 2.39
-6.93 -0.79 2.39
-6.92 -0.93 2.39
-6.91 -1.07 2.39
-6.90 -1.21 2.39
-6.89 -1.35 2.39
-6.87 -1.49 2.39
-6.85 -1.63 2.39
-6.82 -1.76 2.39
-6.79 -1.90 2.39
-6.76 -2.04 2.39
-6.73 -2.18 2.39
-6.69 -2.31 2.39
-6.66 -2.45 2.39
-6.61 -2.59 2.39
-6.57 -2.72 2.39
-6.52 -2.86 2.39
-6.47 -2.99 2.39
-6.42 -3.12 2.39
-6.36 -3.25 2.39
-6.30 -3.38 2.39
-6.24 -3.51 2.39
-6.18 -3.64 2.39
-6.11 -3.76 2.39
-6.04 -3.89 2.39
-5.97 -4.01 2.39
-5.89 -4.13 2.39
-5.81 -4.25 2.39
-5.79 -4.42 2.42
-5.78 -4.60 2.45
-5.78 -4.79 2.49
-5.71 -4.92 2.50
-5.61 -5.04 2.50
-5.52 -5.15 2.50
-5.42 -5.27 2.50
-5.32 -5.38 2.50
-5.21 -5.49 2.50
-5.10 -5.59 2.50
-4.99 -5.70 2.50
-4.88 -5.80 2.50
-4.77 -5.90 2.50
-4.65 -5.99 2.50
-4.53 -6.09 2.50
-4.41 -6.18 2.50
-4.29 -6.27 2.50
-4.17 -6.35 2.50
-4.04 -6.44 2.50
-3.91 -6.52 2.50
-3.78 -6.60 2.50
-3.65 -6.67 2.50
-3.52 -6.74 2.50
-3.39 -6.81 2.50
-3.25 -6.88 2.50
-3.11 -6.94 2.50
-2.97 -7.00 2.50
-2.83 -7.06 2.50
-2.69 -7.12 2.50
-2.55 -7.17 2.50
-2.41 -7.22 2.50
-2.26 -7.26 2.50
-2.12 -7.30 2.50
-1.97 -7.34 2.50
-1.82 -7.38 2.50
-1.68 -7.41 2.50
-1.53 -7.44 2.50
-1.38 -7.47 2.50
-1.23 -7.49 2.50
-1.08 -7.51 2.50
-0.93 -7.53 2.50
-0.78 -7.54 2.50
-0.63 -7.55 2.50
-0.48 -7.56 2.50
-0.33 -7.56 2.50
-0.18 -7.56 2.50
-0.03 -7.02 2.50
0.11 -7.02 2.50
0.25 -7.01 2.50
0.39 -7.00 2.50
0.53 -6.98 2.50
0.67 -6.97 2.50
0.81 -6.95 2.50
0.94 -6.92 2.50
1.08 -6.90 2.50
1.22 -6.87 2.50
1.35 -6.83 2.50
1.49 -6.80 2.50
1.62 -6.76 2.50
1.75 -6.72 2.50
1.88 -6.68 2.50
2.01 -6.63 2.50
2.14 -6.59 2.50
2.27 -6.53 2.50
2.30 -6.21 2.39
2.42 -6.16 2.39
2.54 -6.10 2.39
2.66 -6.04 2.39
2.49 -5.37 2.15
2.89 -5.92 2.39
3.00 -5.85 2.39
3.11 -5.78 2.39
3.23 -5.71 2.39
3.33 -5.64 2.39
3.44 -5.56 2.39
3.55 -5.49 2.39
3.65 -5.41 2.39
3.75 -5.33 2.39
3.85 -5.24 2.39
3.95 -5.16 2.39
4.05 -5.07 2.39
4.14 -4.98 2.39
4.23 -4.89 2.39
4.33 -4.80 2.39
4.41 -4.70 2.39
4.50 -4.61 2.39
4.58 -4.51 2.39
4.67 -4.41 2.39
4.75 -4.31 2.39
4.82 -4.21 2.39
4.90 -4.10 2.39
4.97 -4.00 2.39
5.04 -3.89 2.39
5.11 -3.79 2.39
5.18 -3.68 2.39
5.24 -3.57 2.39
5.31 -3.46 2.39
5.37 -3.34 2.39
5.42 -3.23 2.39
5.48 -3.12 2.39
5.53 -3.00 2.39
5.58 -2.88 2.39
5.63 -2.77 2.39
5.67 -2.65 2.39
5.72 -2.53 2.39
5.76 -2.41 2.39
5.80 -2.29 2.39
5.83 -2.17 2.39
5.86 -2.05 2.39
5.90 -1.93 2.39
5.92 -1.81 2.39
5.95 -1.69 2.39
5.97 -1.56 2.39
5.99 -1.44 2.39
6.01 -1.32 2.39
6.03 -1.20 2.39
6.04 -1.07 2.39
6.05 -0.95 2.39
6.06 -0.83 2.39
6.07 -0.70 2.39
6.07 -0.58 2.39
6.07 -0.46 2.39
6.07 -0.33 2.39
6.07 -0.21 2.39
6.06 -0.09 2.39
6.06 0.03 2.39
6.04 0.16 2.39
6.03 0.28 2.39
6.02 0.40 2.39
6.00 0.52 2.39
5.98 0.64 2.39
5.96 0.76 2.39
5.93 0.88 2.39
5.52 0.93 2.24
5.51 1.04 2.24
5.51 1.16 2.26
5.51 1.28 2.27
5.78 1.46 2.39
5.74 1.57 2.39
5.70 1.69 2.39
5.66 1.80 2.39
5.61 1.91 2.39
5.57 2.02 2.39
5.52 2.13 2.39
5.47 2.24 2.39
5.42 2.35 2.39
5.36 2.46 2.39
5.31 2.56 2.39
5.25 2.67 2.39
5.19 2.77 2.39
5.13 2.87 2.39
5.06 2.97 2.39
5.00 3.07 2.39
4.93 3.17 2.39
4.86 3.26 2.39
4.79 3.36 2.39
4.72 3.45 2.39
4.64 3.54 2.39
4.57 3.64 2.39
4.49 3.72 2.39
4.41 3.81 2.39
4.33 3.90 2.39
4.25 3.98 2.39
4.16 4.07 2.39
4.08 4.15 2.39
3.99 4.23 2.39
3.90 4.30 2.39
3.81 4.38 2.39
3.72 4.45 2.39
3.63 4.53 2.39
3.53 4.60 2.39
3.44 4.67 2.39
3.34 4.73 2.39
3.24 4.80 2.39
3.14 4.86 2.39
3.04 4.92 2.39
2.94 4.98 2.39
2.84 5.04 2.39
2.74 5.10 2.39
2.63 5.15 2.39
2.53 5.20 2.39
2.42 5.25 2.39
2.32 5.30 2.39
2.21 5.35 2.39
2.17 5.58 2.48
2.07 5.67 2.50
1.96 5.71 2.50
1.84 5.75 2.50
1.73 5.78 2.50
1.61 5.82 2.50
1.49 5.85 2.50
1.37 5.88 2.50
1.25 5.91 2.50
1.13 5.94 2.50
1.01 5.96 2.50
0.89 5.98 2.50
0.77 6.00 2.50
0.65 6.02 2.50
0.53 6.03 2.50
0.41 6.04 2.50
0.28 6.05 2.50
0.16 6.06 2.50
0.04 6.07 2.50
-0.09 6.07 2.50
-0.21 6.07 2.50
-0.33 6.07 2.50
-0.46 6.07 2.50
-0.58 6.06 2.50
-0.70 6.05 2.50
-0.82 6.04 2.50
-0.95 6.03 2.50
-1.07 6.01 2.50
-1.19 5.99 2.50
-1.31 5.97 2.50
-1.44 5.95 2.50
-1.56 5.93 2.50
-1.68 5.90 2.50
-1.80 5.87 2.50
-1.92 5.84 2.50
-2.04 5.80 2.50
-2.16 5.77 2.50
-2.28 5.73 2.50
-2.40 5.69 2.50
-2.51 5.64 2.50
-2.63 5.60 2.50
-2.75 5.55 2.50
-2.86 5.50 2.50
-2.97 5.45 2.50
-3.09 5.39 2.50
-3.20 5.34 2.50
-3.31 5.28 2.50
-3.42 5.21 2.50
-3.53 5.15 2.50
-3.64 5.09 2.50
-3.74 5.02 2.50
-3.85 4.95 2.50
-3.95 4.88 2.50
-4.06 4.80 2.50
-4.16 4.73 2.50
-4.26 4.65 2.50
-4.36 4.57 2.50
-4.46 4.48 2.50
-4.55 4.40 2.50
-4.65 4.31 2.50
-4.74 4.23 2.50
-4.83 4.14 2.50
-4.92 4.04 2.50
-5.01 3.95 2.50
-5.09 3.85 2.50
-5.18 3.76 2.50
-5.26 3.66 2.50
-5.34 3.56 2.50
-5.42 3.45 2.50
-5.50 3.35 2.50
-5.57 3.24 2.50
-5.65 3.13 2.50
-5.72 3.03 2.50
-5.78 2.91 2.50
-5.84 2.80 2.49
-5.84 2.65 2.46
-5.84 2.51 2.44
-5.84 2.38 2.42
-5.85 2.24 2.39
-5.90 2.13 2.39
-5.95 2.01 2.39
-6.00 1.90 2.39
-6.04 1.78 2.39
-6.09 1.66 2.39
-6.13 1.54 2.39
-6.17 1.42 2.39
-6.21 1.30 2.39
-6.24 1.17 2.39
-6.27 1.05 2.39
-6.30 0.93 2.39
-6.33 0.80 2.39
-6.35 0.68 2.39
-6.38 0.55 2.39
-6.39 0.42 2.39
-6.41 0.29 2.39
-6.43 0.17 2.39
-6.44 0.04 2.39
-6.45 -0.09 2.39
-6.45 -0.22 2.39
-6.46 -0.35 2.39
-6.46 -0.48 2.39
-6.46 -0.61 2.39
-6.45 -0.74 2.39
-6.45 -0.87 2.39
-6.44 -1.00 2.39
-6.42 -1.13 2.39
-6.41 -1.26 2.39
-6.39 -1.39 2.39
-6.37 -1.52 2.39
-6.35 -1.65 2.39
-6.32 -1.77 2.39
-6.29 -1.90 2.39
-6.26 -2.03 2.39
-6.23 -2.16 2.39
-6.19 -2.28 2.39
-6.15 -2.41 2.39
-6.11 -2.53 2.39
-6.06 -2.66 2.39
-6.02 -2.78 2.39
-5.97 -2.90 2.39
-5.91 -3.03 2.39
-5.86 -3.15 2.39
-5.81 -3.27 2.40
-5.80 -3.42 2.42
-5.79 -3.57 2.44
-5.79 -3.73 2.47
-5.78 -3.89 2.50
-5.71 -4.01 2.50
-5.63 -4.13 2.50
-5.56 -4.24 2.50
-5.47 -4.36 2.50
-5.39 -4.47 2.50
-5.30 -4.58 2.50
-5.22 -4.68 2.50
-5.13 -4.79 2.50
-5.03 -4.90 2.50
-4.94 -5.00 2.50
-4.84 -5.10 2.50
-4.74 -5.20 2.50
-4.64 -5.29 2.50
-4.54 -5.39 2.50
-4.43 -5.48 2.50
-4.32 -5.57 2.50
-4.21 -5.65 2.50
-4.10 -5.74 2.50
-3.99 -5.82 2.50
-3.87 -5.90 2.50
-3.75 -5.98 2.50
-3.64 -6.05 2.50
-3.52 -6.13 2.50
-3.39 -6.20 2.50
-3.27 -6.26 2.50
-3.15 -6.33 2.50
-3.02 -6.39 2.50
-2.89 -6.45 2.50
-2.76 -6.51 2.50
-2.63 -6.56 2.50
-2.50 -6.61 2.50
-2.37 -6.66 2.50
-2.24 -6.70 2.50
-2.10 -6.75 2.50
-1.97 -6.78 2.50
-1.83 -6.82 2.50
-1.70 -6.85 2.50
-1.56 -6.88 2.50
-1.42 -6.91 2.50
-1.28 -6.94 2.50
-1.14 -6.96 2.50
-1.01 -6.98 2.50
-0.87 -6.99 2.50
-0.73 -7.00 2.50
-0.59 -7.01 2.50
-0.45 -7.02 2.50
-0.31 -7.02 2.50
-0.17 -7.02 2.50
-0.03 -6.55 2.50
0.10 -6.55 2.50
0.23 -6.54 2.50
0.36 -6.53 2.50
0.49 -6.52 2.50
0.62 -6.50 2.50
0.75 -6.48 2.50
0.88 -6.46 2.50
1.01 -6.44 2.50
1.13 -6.41 2.50
1.26 -6.38 2.50
1.38 -6.35 2.50
1.51 -6.31 2.50
1.63 -6.28 2.50
1.75 -6.24 2.50
1.88 -6.19 2.50
2.00 -6.15 2.50
2.12 -6.10 2.50
2.24 -6.05 2.50
2.28 -5.80 2.42
2.37 -5.70 2.39
2.48 -5.64 2.39
2.49 -5.38 2.30
2.70 -5.53 2.39
2.80 -5.47 2.39
2.91 -5.40 2.39
2.49 -4.42 1.98
3.11 -5.27 2.39
3.21 -5.20 2.39
3.31 -5.13 2.39
3.41 -5.06 2.39
3.50 -4.98 2.39
3.60 -4.90 2.39
3.69 -4.82 2.39
3.78 -4.74 2.39
3.87 -4.66 2.39
3.96 -4.57 2.39
4.04 -4.49 2.39
4.12 -4.40 2.39
4.20 -4.31 2.39
4.28 -4.22 2.39
4.36 -4.13 2.39
4.44 -4.03 2.39
4.51 -3.94 2.39
4.58 -3.84 2.39
4.65 -3.74 2.39
4.72 -3.64 2.39
4.78 -3.54 2.39
4.84 -3.44 2.39
4.91 -3.34 2.39
4.96 -3.24 2.39
5.02 -3.13 2.39
5.07 -3.03 2.39
5.13 -2.92 2.39
5.18 -2.81 2.39
5.22 -2.70 2.39
5.27 -2.59 2.39
5.31 -2.48 2.39
5.35 -2.37 2.39
5.39 -2.26 2.39
5.43 -2.15 2.39
5.46 -2.04 2.39
5.49 -1.92 2.39
5.52 -1.81 2.39
5.55 -1.70 2.39
5.57 -1.58 2.39
5.59 -1.47 2.39
5.61 -1.35 2.39
5.63 -1.24 2.39
5.65 -1.12 2.39
5.66 -1.01 2.39
5.67 -0.89 2.39
5.68 -0.78 2.39
5.69 -0.66 2.39
5.69 -0.55 2.39
5.69 -0.43 2.39
5.69 -0.32 2.39
5.69 -0.20 2.39
5.68 -0.09 2.39
5.68 0.03 2.39
5.67 0.14 2.39
5.66 0.26 2.39
5.64 0.37 2.39
5.63 0.48 2.39
5.61 0.59 2.39
5.59 0.71 2.39
5.57 0.82 2.39
5.52 0.93 2.38
5.51 1.04 2.39
5.49 1.15 2.39
5.46 1.26 2.39
5.42 1.37 2.39
5.39 1.47 2.39
5.35 1.58 2.39
5.31 1.69 2.39
5.27 1.79 2.39
5.23 1.90 2.39
5.18 2.00 2.39
5.14 2.10 2.39
5.09 2.20 2.39
5.04 2.30 2.39
4.98 2.40 2.39
4.93 2.50 2.39
4.87 2.60 2.39
4.81 2.69 2.39
4.76 2.79 2.39
4.69 2.88 2.39
4.63 2.97 2.39
4.57 3.06 2.39
4.50 3.15 2.39
4.43 3.24 2.39
4.36 3.33 2.39
4.29 3.41 2.39
4.22 3.50 2.39
4.14 3.58 2.39
4.07 3.66 2.39
3.99 3.74 2.39
3.91 3.82 2.39
3.83 3.89 2.39
3.75 3.97 2.39
3.67 4.04 2.39
3.58 4.11 2.39
3.49 4.18 2.39
3.41 4.25 2.39
3.32 4.32 2.39
3.23 4.38 2.39
3.14 4.45 2.39
3.05 4.51 2.39
2.95 4.57 2.39
2.86 4.63 2.39
2.77 4.68 2.39
2.67 4.74 2.39
2.57 4.79 2.39
2.47 4.84 2.39
2.38 4.90 2.40
2.28 4.94 2.39
2.18 5.00 2.40
2.16 5.24 2.50
2.06 5.28 2.50
1.95 5.32 2.50
1.84 5.36 2.50
1.73 5.40 2.50
1.62 5.43 2.50
1.51 5.47 2.50
1.40 5.50 2.50
1.29 5.53 2.50
1.18 5.55 2.50
1.06 5.58 2.50
0.95 5.60 2.50
0.84 5.62 2.50
0.72 5.64 2.50
0.61 5.65 2.50
0.49 5.67 2.50
0.38 5.68 2.50
0.26 5.69 2.50
0.15 5.69 2.50
0.03 5.70 2.50
-0.08 5.70 2.50
-0.20 5.70 2.50
-0.31 5.70 2.50
-0.43 5.70 2.50
-0.55 5.69 2.50
-0.66 5.68 2.50
-0.78 5.67 2.50
-0.89 5.66 2.50
-1.01 5.64 2.50
-1.12 5.63 2.50
-1.24 5.61 2.50
-1.35 5.59 2.50
-1.47 5.56 2.50
-1.58 5.54 2.50
-1.69 5.51 2.50
-1.81 5.48 2.50
-1.92 5.45 2.50
-2.03 5.41 2.50
-2.14 5.38 2.50
-2.25 5.34 2.50
-2.36 5.30 2.50
-2.47 5.25 2.50
-2.58 5.21 2.50
-2.69 5.16 2.50
-2.79 5.11 2.50
-2.90 5.06 2.50
-3.00 5.00 2.50
-3.11 4.95 2.50
-3.21 4.89 2.50
-3.31 4.83 2.50
-3.42 4.77 2.50
-3.52 4.71 2.50
-3.61 4.64 2.50
-3.71 4.57 2.50
-3.81 4.50 2.50
-3.90 4.43 2.50
-4.00 4.36 2.50
-4.09 4.28 2.50
-4.18 4.20 2.50
-4.27 4.12 2.50
-4.36 4.04 2.50
-4.45 3.96 2.50
-4.53 3.87 2.50
-4.61 3.79 2.50
-4.70 3.70 2.50
-4.78 3.61 2.50
-4.86 3.52 2.50
-4.93 3.42 2.50
-5.01 3.33 2.50
-5.08 3.23 2.50
-5.15 3.13 2.50
-5.22 3.03 2.50
-5.29 2.93 2.50
-5.36 2.83 2.50
-5.42 2.73 2.50
-5.48 2.62 2.50
-5.54 2.51 2.50
-5.60 2.41 2.50
-5.66 2.30 2.50
-5.71 2.19 2.50
-5.76 2.07 2.50
-5.81 1.96 2.50
-5.83 1.84 2.49
-5.83 1.71 2.47
-5.83 1.59 2.45
-5.83 1.46 2.43
-5.83 1.34 2.42
-5.84 1.22 2.41
-5.84 1.09 2.39
-5.87 0.98 2.39
-5.90 0.86 2.39
-5.92 0.75 2.39
-5.94 0.63 2.39
-5.96 0.51 2.39
-5.98 0.39 2.39
-6.00 0.27 2.39
-6.03 0.15 2.40
-6.03 0.03 2.40
-6.03 -0.09 2.39
-6.03 -0.21 2.39
-6.04 -0.33 2.39
-6.04 -0.45 2.39
-6.03 -0.57 2.39
-6.03 -0.69 2.39
-6.03 -0.82 2.39
-6.02 -0.94 2.40
-6.02 -1.06 2.40
-5.99 -1.18 2.39
-5.97 -1.30 2.39
-5.95 -1.42 2.39
-5.93 -1.54 2.39
-5.90 -1.66 2.39
-5.88 -1.78 2.39
-5.85 -1.90 2.39
-5.82 -2.02 2.39
-5.81 -2.15 2.41
-5.81 -2.28 2.42
-5.80 -2.41 2.44
-5.80 -2.55 2.45
-5.80 -2.68 2.47
-5.80 -2.83 2.49
-5.76 -2.95 2.50
-5.70 -3.07 2.50
-5.65 -3.18 2.50
-5.59 -3.30 2.50
-5.53 -3.41 2.50
-5.46 -3.52 2.50
-5.40 -3.63 2.50
-5.33 -3.74 2.50
-5.26 -3.85 2.50
-5.18 -3.96 2.50
-5.11 -4.07 2.50
-5.03 -4.17 2.50
-4.95 -4.27 2.50
-4.87 -4.37 2.50
-4.78 -4.47 2.50
-4.69 -4.57 2.50
-4.61 -4.66 2.50
-4.51 -4.76 2.50
-4.42 -4.85 2.50
-4.33 -4.94 2.50
-4.23 -5.03 2.50
-4.13 -5.11 2.50
-4.03 -5.19 2.50
-3.93 -5.27 2.50
-3.82 -5.35 2.50
-3.72 -5.43 2.50
-3.61 -5.51 2.50
-3.50 -5.58 2.50
-3.39 -5.65 2.50
-3.28 -5.71 2.50
-3.16 -5.78 2.50
-3.05 -5.84 2.50
-2.93 -5.90 2.50
-2.82 -5.96 2.50
-2.70 -6.01 2.50
-2.58 -6.07 2.50
-2.46 -6.12 2.50
-2.33 -6.16 2.50
-2.21 -6.21 2.50
-2.09 -6.25 2.50
-1.96 -6.29 2.50
-1.84 -6.33 2.50
-1.71 -6.36 2.50
-1.58 -6.39 2.50
-1.45 -6.42 2.50
-1.33 -6.45 2.50
-1.20 -6.47 2.50
-1.07 -6.49 2.50
-0.94 -6.51 2.50
-0.81 -6.52 2.50
-0.68 -6.53 2.50
-0.55 -6.54 2.50
-0.42 -6.55 2.50
-0.29 -6.55 2.50
-0.16 -6.55 2.50
-0.03 -6.13 2.50
0.09 -6.13 2.50
0.22 -6.12 2.50
0.34 -6.11 2.50
0.46 -6.10 2.50
0.58 -6.09 2.50
0.70 -6.07 2.50
0.82 -6.05 2.50
0.94 -6.03 2.50
1.06 -6.00 2.50
1.18 -5.97 2.50
1.29 -5.94 2.50
1.41 -5.91 2.50
1.53 -5.88 2.50
1.64 -5.84 2.50
1.76 -5.80 2.50
1.87 -5.76 2.50
1.98 -5.72 2.50
2.09 -5.67 2.50
2.20 -5.62 2.50
2.27 -5.47 2.45
2.32 -5.29 2.39
2.42 -5.24 2.39
2.52 -5.18 2.39
2.62 -5.12 2.39
2.72 -5.07 2.39
2.82 -5.00 2.39
2.91 -4.94 2.39
2.49 -4.03 1.98
3.10 -4.81 2.39
3.19 -4.74 2.39
3.28 -4.67 2.39
3.37 -4.60 2.39
3.46 -4.52 2.39
3.54 -4.45 2.39
3.63 -4.37 2.39
3.71 -4.29 2.39
3.79 -4.21 2.39
3.86 -4.13 2.39
3.94 -4.05 2.39
4.02 -3.96 2.39
4.09 -3.87 2.39
4.16 -3.79 2.39
4.23 -3.70 2.39
4.30 -3.61 2.39
4.36 -3.52 2.39
4.42 -3.42 2.39
4.49 -3.33 2.39
4.54 -3.23 2.39
4.60 -3.14 2.39
4.66 -3.04 2.39
4.71 -2.94 2.39
4.76 -2.84 2.39
4.81 -2.74 2.39
4.86 -2.64 2.39
4.90 -2.54 2.39
4.94 -2.44 2.39
4.99 -2.34 2.39
5.02 -2.23 2.39
5.06 -2.13 2.39
5.09 -2.02 2.39
5.13 -1.92 2.39
5.16 -1.81 2.39
5.19 -1.71 2.39
5.21 -1.60 2.39
5.23 -1.49 2.39
5.26 -1.38 2.39
5.27 -1.28 2.39
5.29 -1.17 2.39
5.31 -1.06 2.39
5.32 -0.95 2.39
5.33 -0.84 2.39
5.34 -0.73 2.39
5.35 -0.63 2.39
5.35 -0.52 2.39
5.35 -0.41 2.39
5.35 -0.30 2.39
5.35 -0.19 2.39
5.35 -0.09 2.39
5.34 0.02 2.39
5.33 0.13 2.39
5.32 0.24 2.39
5.31 0.34 2.39
5.29 0.45 2.39
5.28 0.56 2.39
5.26 0.66 2.39
5.24 0.77 2.39
5.21 0.87 2.39
5.19 0.98 2.39
5.16 1.08 2.39
5.13 1.18 2.39
5.10 1.28 2.39
5.07 1.38 2.39
5.03 1.49 2.39
5.00 1.59 2.39
4.96 1.68 2.39
4.92 1.78 2.39
4.88 1.88 2.39
4.83 1.98 2.39
4.79 2.07 2.39
4.74 2.17 2.39
4.69 2.26 2.39
4.64 2.35 2.39
4.59 2.44 2.39
4.53 2.53 2.39
4.48 2.62 2.39
4.42 2.71 2.39
4.36 2.80 2.39
4.30 2.88 2.39
4.24 2.97 2.39
4.17 3.05 2.39
4.11 3.13 2.39
4.04 3.21 2.39
3.97 3.29 2.39
3.90 3.37 2.39
3.83 3.45 2.39
3.76 3.52 2.39
3.68 3.59 2.39
3.61 3.67 2.39
3.53 3.74 2.39
3.45 3.81 2.39
3.37 3.87 2.39
3.29 3.94 2.39
3.21 4.00 2.39
3.13 4.07 2.39
3.04 4.13 2.39
2.96 4.19 2.39
2.87 4.25 2.39
2.78 4.30 2.39
2.70 4.36 2.39
2.61 4.41 2.39
2.52 4.46 2.39
2.42 4.51 2.39
2.33 4.56 2.39
2.24 4.60 2.39
2.18 4.72 2.43
2.14 4.89 2.50
2.04 4.94 2.50
1.94 4.98 2.50
1.84 5.01 2.50
1.73 5.05 2.50
1.63 5.09 2.50
1.53 5.12 2.50
1.42 5.15 2.50
1.32 5.18 2.50
1.21 5.20 2.50
1.11 5.23 2.50
1.00 5.25 2.50
0.89 5.27 2.50
0.79 5.29 2.50
0.68 5.31 2.50
0.57 5.32 2.50
0.46 5.34 2.50
0.36 5.35 2.50
0.25 5.36 2.50
0.14 5.36 2.50
0.03 5.37 2.50
-0.08 5.37 2.50
-0.19 5.37 2.50
-0.30 5.37 2.50
-0.41 5.36 2.50
-0.51 5.36 2.50
-0.62 5.35 2.50
-0.73 5.34 2.50
-0.84 5.33 2.50
-0.95 5.31 2.50
-1.06 5.30 2.50
-1.17 5.28 2.50
-1.27 5.26 2.50
-1.38 5.24 2.50
-1.49 5.21 2.50
-1.60 5.19 2.50
-1.70 5.16 2.50
-1.81 5.13 2.50
-1.91 5.09 2.50
-2.02 5.06 2.50
-2.12 5.02 2.50
-2.22 4.98 2.50
-2.33 4.94 2.50
-2.43 4.90 2.50
-2.53 4.85 2.50
-2.63 4.81 2.50
-2.73 4.76 2.50
-2.83 4.71 2.50
-2.93 4.65 2.50
-3.02 4.60 2.50
-3.12 4.54 2.50
-3.22 4.48 2.50
-3.31 4.42 2.50
-3.40 4.36 2.50
-3.49 4.30 2.50
-3.58 4.23 2.50
-3.67 4.16 2.50
-3.76 4.09 2.50
-3.85 4.02 2.50
-3.93 3.95 2.50
-4.02 3.87 2.50
-4.10 3.80 2.50
-4.18 3.72 2.50
-4.26 3.64 2.50
-4.34 3.56 2.50
-4.42 3.47 2.50
-4.49 3.39 2.50
-4.57 3.30 2.50
-4.64 3.21 2.50
-4.71 3.12 2.50
-4.78 3.03 2.50
-4.84 2.94 2.50
-4.91 2.85 2.50
-4.97 2.75 2.50
-5.03 2.66 2.50
-5.09 2.56 2.50
-5.15 2.46 2.50
-5.21 2.36 2.50
-5.26 2.26 2.50
-5.31 2.15 2.50
-5.36 2.05 2.50
-5.41 1.94 2.50
-5.46 1.84 2.50
-5.50 1.73 2.50
-5.54 1.62 2.50
-5.58 1.51 2.50
-5.62 1.40 2.50
-5.65 1.29 2.50
-5.69 1.18 2.50
-5.72 1.07 2.50
-5.74 0.95 2.50
-5.77 0.84 2.50
-5.79 0.73 2.50
-5.82 0.61 2.50
-5.82 0.49 2.49
-5.82 0.38 2.48
-5.82 0.26 2.48
-5.82 0.14 2.47
-5.82 0.03 2.47
-5.82 -0.09 2.46
-5.82 -0.21 2.46
-5.82 -0.32 2.46
-5.81 -0.44 2.46
-5.81 -0.56 2.46
-5.81 -0.67 2.46
-5.81 -0.79 2.46
-5.81 -0.91 2.47
-5.81 -1.03 2.47
-5.81 -1.15 2.48
-5.81 -1.27 2.48
-5.81 -1.39 2.49
-5.79 -1.51 2.50
-5.77 -1.63 2.50
-5.74 -1.74 2.50
-5.71 -1.86 2.50
-5.68 -1.97 2.50
-5.65 -2.09 2.50
-5.61 -2.20 2.50
-5.57 -2.32 2.50
-5.53 -2.43 2.50
-5.49 -2.54 2.50
-5.44 -2.65 2.50
-5.39 -2.76 2.50
-5.34 -2.87 2.50
-5.29 -2.98 2.50
-5.23 -3.09 2.50
-5.17 -3.20 2.50
-5.11 -3.30 2.50
-5.05 -3.41 2.50
-4.99 -3.51 2.50
-4.92 -3.61 2.50
-4.85 -3.71 2.50
-4.78 -3.81 2.50
-4.71 -3.90 2.50
-4.63 -4.00 2.50
-4.55 -4.09 2.50
-4.47 -4.19 2.50
-4.39 -4.28 2.50
-4.31 -4.37 2.50
-4.22 -4.45 2.50
-4.14 -4.54 2.50
-4.05 -4.62 2.50
-3.96 -4.70 2.50
-3.86 -4.78 2.50
-3.77 -4.86 2.50
-3.67 -4.94 2.50
-3.58 -5.01 2.50
-3.48 -5.08 2.50
-3.38 -5.15 2.50
-3.28 -5.22 2.50
-3.17 -5.29 2.50
-3.07 -5.35 2.50
-2.96 -5.41 2.50
-2.85 -5.47 2.50
-2.74 -5.52 2.50
-2.63 -5.58 2.50
-2.52 -5.63 2.50
-2.41 -5.68 2.50
-2.30 -5.72 2.50
-2.18 -5.77 2.50
-2.07 -5.81 2.50
-1.95 -5.85 2.50
-1.84 -5.89 2.50
-1.72 -5.92 2.50
-1.60 -5.95 2.50
-1.48 -5.98 2.50
-1.36 -6.01 2.50
-1.24 -6.03 2.50
-1.12 -6.05 2.50
-1.00 -6.07 2.50
-0.88 -6.09 2.50
-0.76 -6.10 2.50
-0.64 -6.12 2.50
-0.51 -6.12 2.50
-0.39 -6.13 2.50
-0.27 -6.13 2.50
-0.15 -6.13 2.50
-0.03 -5.76 2.50
0.09 -5.75 2.50
0.20 -5.75 2.50
0.32 -5.74 2.50
0.43 -5.73 2.50
0.54 -5.71 2.50
0.66 -5.70 2.50
0.77 -5.68 2.50
0.88 -5.66 2.50
0.99 -5.64 2.50
1.10 -5.61 2.50
1.21 -5.58 2.50
1.32 -5.55 2.50
1.43 -5.52 2.50
1.54 -5.49 2.50
1.65 -5.45 2.50
1.75 -5.41 2.50
1.86 -5.37 2.50
1.96 -5.33 2.50
2.07 -5.28 2.50
2.17 -5.23 2.50
2.27 -5.17 2.49
2.28 -4.93 2.40
2.37 -4.87 2.39
2.46 -4.82 2.39
2.55 -4.76 2.39
2.65 -4.70 2.39
2.74 -4.65 2.39
2.82 -4.58 2.39
2.91 -4.52 2.39
2.48 -3.69 1.98
3.08 -4.39 2.39
3.17 -4.32 2.39
3.25 -4.26 2.39
3.33 -4.18 2.39
3.41 -4.11 2.39
3.48 -4.04 2.39
3.56 -3.96 2.39
3.63 -3.89 2.39
3.70 -3.81 2.39
3.77 -3.73 2.39
3.84 -3.65 2.39
3.91 -3.56 2.39
3.98 -3.48 2.39
4.04 -3.40 2.39
4.10 -3.31 2.39
4.16 -3.22 2.39
4.22 -3.14 2.39
4.27 -3.05 2.39
4.33 -2.96 2.39
4.38 -2.86 2.39
4.43 -2.77 2.39
4.48 -2.68 2.39
4.53 -2.59 2.39
4.57 -2.49 2.39
4.61 -2.40 2.39
4.65 -2.30 2.39
4.69 -2.20 2.39
4.73 -2.11 2.39
4.76 -2.01 2.39
4.80 -1.91 2.39
4.83 -1.81 2.39
4.86 -1.71 2.39
4.88 -1.61 2.39
4.91 -1.51 2.39
4.93 -1.41 2.39
4.95 -1.31 2.39
4.97 -1.21 2.39
4.98 -1.10 2.39
5.00 -1.00 2.39
5.01 -0.90 2.39
5.02 -0.80 2.39
5.03 -0.70 2.39
5.04 -0.59 2.39
5.04 -0.49 2.39
5.04 -0.39 2.39
5.04 -0.29 2.39
5.04 -0.19 2.39
5.04 -0.08 2.39
5.03 0.02 2.39
5.02 0.12 2.39
5.01 0.22 2.39
5.00 0.32 2.39
4.99 0.42 2.39
4.97 0.52 2.39
4.96 0.62 2.39
4.94 0.72 2.39
4.92 0.82 2.39
4.89 0.92 2.39
4.87 1.01 2.39
4.84 1.11 2.39
4.81 1.21 2.39
4.78 1.30 2.39
4.75 1.40 2.39
4.72 1.49 2.39
4.68 1.59 2.39
4.64 1.68 2.39
4.60 1.77 2.39
4.56 1.86 2.39
4.52 1.95 2.39
4.47 2.04 2.39
4.43 2.13 2.39
4.38 2.22 2.39
4.33 2.30 2.39
4.28 2.39 2.39
4.23 2.47 2.39
4.17 2.56 2.39
4.12 2.64 2.39
4.06 2.72 2.39
4.00 2.80 2.39
3.94 2.88 2.39
3.88 2.95 2.39
3.81 3.03 2.39
3.75 3.11 2.39
3.68 3.18 2.39
3.62 3.25 2.39
3.55 3.32 2.39
3.48 3.39 2.39
3.41 3.46 2.39
3.33 3.53 2.39
3.26 3.59 2.39
3.18 3.66 2.39
3.11 3.72 2.39
3.03 3.78 2.39
2.95 3.84 2.39
2.87 3.90 2.39
2.79 3.95 2.39
2.71 4.01 2.39
2.63 4.06 2.39
2.54 4.11 2.39
2.46 4.16 2.39
2.39 4.23 2.40
2.29 4.26 2.39
2.20 4.30 2.39
2.18 4.48 2.47
2.11 4.58 2.50
2.02 4.62 2.50
1.92 4.66 2.50
1.83 4.70 2.50
1.73 4.73 2.50
1.64 4.77 2.50
1.54 4.80 2.50
1.44 4.83 2.50
1.34 4.86 2.50
1.24 4.89 2.50
1.14 4.91 2.50
1.04 4.94 2.50
0.94 4.96 2.50
0.84 4.98 2.50
0.74 5.00 2.50
0.64 5.01 2.50
0.54 5.03 2.50
0.44 5.04 2.50
0.34 5.05 2.50
0.23 5.06 2.50
0.13 5.06 2.50
0.03 5.07 2.50
-0.08 5.07 2.50
-0.18 5.07 2.50
-0.28 5.07 2.50
-0.38 5.06 2.50
-0.49 5.06 2.50
-0.59 5.05 2.50
-0.69 5.04 2.50
-0.80 5.03 2.50
-0.90 5.01 2.50
-1.00 5.00 2.50
-1.10 4.98 2.50
-1.20 4.96 2.50
-1.31 4.94 2.50
-1.41 4.92 2.50
-1.51 4.89 2.50
-1.61 4.86 2.50
-1.71 4.83 2.50
-1.81 4.80 2.50
-1.91 4.77 2.50
-2.00 4.74 2.50
-2.10 4.70 2.50
-2.20 4.66 2.50
-2.29 4.62 2.50
-2.39 4.58 2.50
-2.48 4.53 2.50
-2.58 4.49 2.50
-2.67 4.44 2.50
-2.76 4.39 2.50
-2.85 4.34 2.50
-2.95 4.28 2.50
-3.03 4.23 2.50
-3.12 4.17 2.50
-3.21 4.11 2.50
-3.30 4.05 2.50
-3.38 3.99 2.50
-3.47 3.92 2.50
-3.55 3.86 2.50
-3.63 3.79 2.50
-3.71 3.72 2.50
-3.79 3.65 2.50
-3.87 3.58 2.50
-3.94 3.50 2.50
-4.02 3.43 2.50
-4.09 3.35 2.50
-4.16 3.27 2.50
-4.23 3.19 2.50
-4.30 3.11 2.50
-4.37 3.02 2.50
-4.44 2.94 2.50
-4.50 2.85 2.50
-4.56 2.77 2.50
-4.63 2.68 2.50
-4.68 2.59 2.50
-4.74 2.50 2.50
-4.80 2.40 2.50
-4.85 2.31 2.50
-4.90 2.22 2.50
-4.95 2.12 2.50
-5.00 2.02 2.50
-5.05 1.93 2.50
-5.09 1.83 2.50
-5.14 1.73 2.50
-5.18 1.63 2.50
-5.22 1.52 2.50
-5.25 1.42 2.50
-5.29 1.32 2.50
-5.32 1.21 2.50
-5.35 1.11 2.50
-5.38 1.00 2.50
-5.41 0.89 2.50
-5.43 0.79 2.50
-5.45 0.68 2.50
-5.47 0.57 2.50
-5.49 0.46 2.50
-5.51 0.35 2.50
-5.52 0.24 2.50
-5.53 0.13 2.50
-5.54 0.02 2.50
-5.55 -0.09 2.50
-5.55 -0.20 2.50
-5.55 -0.31 2.50
-5.55 -0.42 2.50
-5.55 -0.53 2.50
-5.54 -0.64 2.50
-5.54 -0.76 2.50
-5.53 -0.87 2.50
-5.52 -0.98 2.50
-5.50 -1.09 2.50
-5.48 -1.20 2.50
-5.47 -1.31 2.50
-5.45 -1.42 2.50
-5.42 -1.53 2.50
-5.40 -1.64 2.50
-5.37 -1.75 2.50
-5.34 -1.86 2.50
-5.31 -1.97 2.50
-5.27 -2.07 2.50
-5.23 -2.18 2.50
-5.19 -2.29 2.50
-5.15 -2.39 2.50
-5.11 -2.50 2.50
-5.06 -2.60 2.50
-5.02 -2.70 2.50
-4.97 -2.80 2.50
-4.91 -2.90 2.50
-4.86 -3.00 2.50
-4.80 -3.10 2.50
-4.74 -3.20 2.50
-4.68 -3.30 2.50
-4.62 -3.39 2.50
-4.55 -3.49 2.50
-4.49 -3.58 2.50
-4.42 -3.67 2.50
-4.35 -3.76 2.50
-4.27 -3.85 2.50
-4.20 -3.93 2.50
-4.12 -4.02 2.50
-4.05 -4.10 2.50
-3.97 -4.18 2.50
-3.88 -4.26 2.50
-3.80 -4.34 2.50
-3.71 -4.42 2.50
-3.63 -4.49 2.50
-3.54 -4.56 2.50
-3.45 -4.64 2.50
-3.36 -4.70 2.50
-3.26 -4.77 2.50
-3.17 -4.84 2.50
-3.07 -4.90 2.50
-2.98 -4.96 2.50
-2.88 -5.02 2.50
-2.78 -5.08 2.50
-2.68 -5.13 2.50
-2.58 -5.18 2.50
-2.47 -5.24 2.50
-2.37 -5.28 2.50
-2.26 -5.33 2.50
-2.16 -5.37 2.50
-2.05 -5.41 2.50
-1.94 -5.45 2.50
-1.83 -5.49 2.50
-1.72 -5.53 2.50
-1.61 -5.56 2.50
-1.50 -5.59 2.50
-1.39 -5.62 2.50
-1.28 -5.64 2.50
-1.17 -5.66 2.50
-1.05 -5.68 2.50
-0.94 -5.70 2.50
-0.83 -5.72 2.50
-0.71 -5.73 2.50
-0.60 -5.74 2.50
-0.48 -5.75 2.50
-0.37 -5.75 2.50
-0.26 -5.76 2.50
-0.14 -5.76 2.50
-0.03 -5.42 2.50
0.08 -5.42 2.50
0.19 -5.41 2.50
0.30 -5.40 2.50
0.40 -5.39 2.50
0.51 -5.38 2.50
0.61 -5.37 2.50
0.72 -5.35 2.50
0.83 -5.33 2.50
0.93 -5.31 2.50
1.04 -5.28 2.50
1.14 -5.26 2.50
1.24 -5.23 2.50
1.35 -5.20 2.50
1.45 -5.17 2.50
1.55 -5.13 2.50
1.65 -5.10 2.50
1.75 -5.06 2.50
1.85 -5.02 2.50
1.94 -4.98 2.50
2.04 -4.93 2.50
2.14 -4.89 2.50
2.23 -4.84 2.50
2.26 -4.66 2.43
2.32 -4.54 2.39
2.40 -4.49 2.39
2.49 -4.43 2.39
2.58 -4.38 2.39
2.66 -4.32 2.39
2.74 -4.26 2.39
2.82 -4.20 2.39
2.48 -3.54 2.04
2.98 -4.08 2.39
3.06 -4.01 2.39
3.13 -3.95 2.39
3.21 -3.88 2.39
3.28 -3.81 2.39
3.35 -3.74 2.39
3.42 -3.67 2.39
3.49 -3.59 2.39
3.56 -3.52 2.39
3.62 -3.44 2.39
3.68 -3.36 2.39
3.75 -3.29 2.39
3.81 -3.21 2.39
3.86 -3.12 2.39
3.92 -3.04 2.39
3.98 -2.96 2.39
4.03 -2.88 2.39
4.08 -2.79 2.39
4.13 -2.71 2.39
4.18 -2.62 2.39
4.22 -2.53 2.39
4.27 -2.44 2.39
4.31 -2.35 2.39
4.35 -2.26 2.39
4.39 -2.17 2.39
4.43 -2.08 2.39
4.46 -1.99 2.39
4.49 -1.90 2.39
4.52 -1.80 2.39
4.55 -1.71 2.39
4.58 -1.62 2.39
4.61 -1.52 2.39
4.63 -1.43 2.39
4.65 -1.33 2.39
4.67 -1.24 2.39
4.69 -1.14 2.39
4.71 -1.05 2.39
4.72 -0.95 2.39
4.73 -0.85 2.39
4.74 -0.76 2.39
4.75 -0.66 2.39
4.76 -0.56 2.39
4.76 -0.47 2.39
4.76 -0.37 2.39
4.76 -0.27 2.39
4.76 -0.18 2.39
4.76 -0.08 2.39
4.75 0.01 2.39
4.75 0.11 2.39
4.74 0.20 2.39
4.73 0.30 2.39
4.71 0.40 2.39
4.70 0.49 2.39
4.68 0.58 2.39
4.67 0.68 2.39
4.65 0.77 2.39
4.62 0.86 2.39
4.60 0.96 2.39
4.58 1.05 2.39
4.55 1.14 2.39
4.52 1.23 2.39
4.49 1.32 2.39
4.46 1.41 2.39
4.42 1.50 2.39
4.39 1.58 2.39
4.35 1.67 2.39
4.31 1.76 2.39
4.27 1.84 2.39
4.23 1.93 2.39
4.19 2.01 2.39
4.14 2.09 2.39
4.09 2.18 2.39
4.05 2.26 2.39
4.00 2.34 2.39
3.95 2.41 2.39
3.89 2.49 2.39
3.84 2.57 2.39
3.78 2.64 2.39
3.73 2.72 2.39
3.67 2.79 2.39
3.61 2.86 2.39
3.55 2.93 2.39
3.48 3.00 2.39
3.42 3.07 2.39
3.36 3.14 2.39
3.29 3.21 2.39
3.22 3.27 2.39
3.15 3.33 2.39
3.08 3.40 2.39
3.01 3.46 2.39
2.94 3.52 2.39
2.87 3.57 2.39
2.79 3.63 2.39
2.72 3.68 2.39
2.64 3.74 2.39
2.56 3.79 2.39
2.49 3.84 2.39
2.41 3.89 2.39
2.33 3.94 2.39
2.25 3.98 2.39
2.18 4.06 2.41
2.17 4.24 2.50
2.08 4.29 2.50
2.00 4.33 2.50
1.91 4.37 2.50
1.82 4.41 2.50
1.73 4.44 2.50
1.64 4.48 2.50
1.55 4.51 2.50
1.46 4.54 2.50
1.36 4.57 2.50
1.27 4.60 2.50
1.18 4.62 2.50
1.08 4.65 2.50
0.99 4.67 2.50
0.89 4.69 2.50
0.80 4.71 2.50
0.70 4.72 2.50
0.61 4.74 2.50
0.51 4.75 2.50
0.41 4.76 2.50
0.32 4.77 2.50
0.22 4.78 2.50
0.12 4.79 2.50
0.02 4.79 2.50
-0.07 4.79 2.50
-0.17 4.79 2.50
-0.27 4.79 2.50
-0.37 4.79 2.50
-0.46 4.78 2.50
-0.56 4.77 2.50
-0.66 4.76 2.50
-0.75 4.75 2.50
-0.85 4.74 2.50
-0.95 4.73 2.50
-1.04 4.71 2.50
-1.14 4.69 2.50
-1.24 4.67 2.50
-1.33 4.65 2.50
-1.43 4.62 2.50
-1.52 4.60 2.50
-1.62 4.57 2.50
-1.71 4.54 2.50
-1.80 4.51 2.50
-1.90 4.48 2.50
-1.99 4.44 2.50
-2.08 4.40 2.50
-2.17 4.36 2.50
-2.26 4.32 2.50
-2.35 4.28 2.50
-2.44 4.24 2.50
-2.53 4.19 2.50
-2.61 4.14 2.50
-2.70 4.09 2.50
-2.79 4.04 2.50
-2.87 3.99 2.50
-2.95 3.94 2.50
-3.04 3.88 2.50
-3.12 3.82 2.50
-3.20 3.76 2.50
-3.28 3.70 2.50
-3.35 3.64 2.50
-3.43 3.58 2.50
-3.51 3.51 2.50
-3.58 3.44 2.50
-3.65 3.37 2.50
-3.73 3.30 2.50
-3.80 3.23 2.50
-3.87 3.16 2.50
-3.93 3.09 2.50
-4.00 3.01 2.50
-4.07 2.93 2.50
-4.13 2.85 2.50
-4.19 2.77 2.50
-4.25 2.69 2.50
-4.31 2.61 2.50
-4.37 2.53 2.50
-4.42 2.44 2.50
-4.48 2.35 2.50
-4.53 2.27 2.50
-4.58 2.18 2.50
-4.63 2.09 2.50
-4.68 2.00 2.50
-4.72 1.91 2.50
-4.77 1.81 2.50
-4.81 1.72 2.50
-4.85 1.63 2.50
-4.89 1.53 2.50
-4.92 1.43 2.50
-4.96 1.34 2.50
-4.99 1.24 2.50
-5.02 1.14 2.50
-5.05 1.04 2.50
-5.07 0.94 2.50
-5.10 0.84 2.50
-5.12 0.74 2.50
-5.14 0.64 2.50
-5.16 0.53 2.50
-5.18 0.43 2.50
-5.19 0.33 2.50
-5.20 0.23 2.50
-5.21 0.12 2.50
-5.22 0.02 2.50
-5.23 -0.09 2.50
-5.23 -0.19 2.50
-5.23 -0.30 2.50
-5.23 -0.40 2.50
-5.23 -0.51 2.50
-5.22 -0.61 2.50
-5.22 -0.72 2.50
-5.21 -0.82 2.50
-5.20 -0.93 2.50
-5.18 -1.03 2.50
-5.17 -1.13 2.50
-5.15 -1.24 2.50
-5.13 -1.34 2.50
-5.11 -1.45 2.50
-5.08 -1.55 2.50
-5.06 -1.65 2.50
-5.03 -1.75 2.50
-5.00 -1.85 2.50
-4.96 -1.96 2.50
-4.93 -2.06 2.50
-4.89 -2.16 2.50
-4.85 -2.25 2.50
-4.81 -2.35 2.50
-4.77 -2.45 2.50
-4.72 -2.55 2.50
-4.67 -2.64 2.50
-4.63 -2.74 2.50
-4.57 -2.83 2.50
-4.52 -2.92 2.50
-4.46 -3.02 2.50
-4.41 -3.11 2.50
-4.35 -3.19 2.50
-4.29 -3.28 2.50
-4.22 -3.37 2.50
-4.16 -3.45 2.50
-4.09 -3.54 2.50
-4.02 -3.62 2.50
-3.95 -3.70 2.50
-3.88 -3.78 2.50
-3.81 -3.86 2.50
-3.73 -3.94 2.50
-3.65 -4.01 2.50
-3.58 -4.09 2.50
-3.50 -4.16 2.50
-3.41 -4.23 2.50
-3.33 -4.30 2.50
-3.25 -4.36 2.50
-3.16 -4.43 2.50
-3.07 -4.49 2.50
-2.98 -4.55 2.50
-2.89 -4.61 2.50
-2.80 -4.67 2.50
-2.71 -4.73 2.50
-2.61 -4.78 2.50
-2.52 -4.83 2.50
-2.42 -4.88 2.50
-2.33 -4.93 2.50
-2.23 -4.97 2.50
-2.13 -5.02 2.50
-2.03 -5.06 2.50
-1.93 -5.10 2.50
-1.83 -5.13 2.50
-1.73 -5.17 2.50
-1.62 -5.20 2.50
-1.52 -5.23 2.50
-1.41 -5.26 2.50
-1.31 -5.28 2.50
-1.20 -5.31 2.50
-1.10 -5.33 2.50
-0.99 -5.35 2.50
-0.89 -5.37 2.50
-0.78 -5.38 2.50
-0.67 -5.39 2.50
-0.56 -5.40 2.50
-0.46 -5.41 2.50
-0.35 -5.42 2.50
-0.24 -5.42 2.50
-0.13 -5.42 2.50
-0.03 -5.11 2.50
0.07 -5.11 2.50
0.18 -5.11 2.50
0.28 -5.10 2.50
0.38 -5.09 2.50
0.48 -5.08 2.50
0.58 -5.06 2.50
0.68 -5.05 2.50
0.78 -5.03 2.50
0.88 -5.01 2.50
0.98 -4.99 2.50
1.07 -4.96 2.50
1.17 -4.94 2.50
1.27 -4.91 2.50
1.36 -4.88 2.50
1.46 -4.85 2.50
1.55 -4.81 2.50
1.65 -4.78 2.50
1.74 -4.74 2.50
1.83 -4.70 2.50
1.92 -4.66 2.50
2.01 -4.61 2.50
2.10 -4.57 2.50
2.19 -4.52 2.50
2.26 -4.44 2.48
2.27 -4.24 2.40
2.35 -4.19 2.39
2.45 -4.17 2.41
2.51 -4.08 2.39
2.59 -4.03 2.39
2.66 -3.97 2.39
2.74 -3.91 2.39
2.81 -3.85 2.39
2.89 -3.79 2.39
2.96 -3.73 2.39
3.03 -3.66 2.39
3.10 -3.60 2.39
3.16 -3.53 2.39
3.23 -3.46 2.39
3.29 -3.40 2.39
3.36 -3.33 2.39
3.42 -3.25 2.39
3.48 -3.18 2.39
3.54 -3.11 2.39
3.59 -3.03 2.39
3.65 -2.96 2.39
3.70 -2.88 2.39
3.76 -2.80 2.39
3.81 -2.72 2.39
3.85 -2.64 2.39
3.90 -2.56 2.39
3.95 -2.48 2.39
3.99 -2.40 2.39
4.03 -2.31 2.39
4.07 -2.23 2.39
4.11 -2.14 2.39
4.15 -2.06 2.39
4.18 -1.97 2.39
4.22 -1.88 2.39
4.25 -1.80 2.39
4.28 -1.71 2.39
4.31 -1.62 2.39
4.33 -1.53 2.39
4.36 -1.44 2.39
4.38 -1.35 2.39
4.40 -1.26 2.39
4.42 -1.17 2.39
4.43 -1.08 2.39
4.45 -0.99 2.39
4.46 -0.90 2.39
4.48 -0.81 2.39
4.48 -0.72 2.39
4.49 -0.63 2.39
4.50 -0.54 2.39
4.50 -0.45 2.39
4.51 -0.35 2.39
4.51 -0.26 2.39
4.51 -0.17 2.39
4.50 -0.08 2.39
4.50 0.01 2.39
4.49 0.10 2.39
4.48 0.19 2.39
4.47 0.28 2.39
4.46 0.37 2.39
4.45 0.46 2.39
4.43 0.55 2.39
4.42 0.64 2.39
4.40 0.73 2.39
4.38 0.81 2.39
4.36 0.90 2.39
4.33 0.99 2.39
4.31 1.08 2.39
4.28 1.16 2.39
4.25 1.25 2.39
4.22 1.33 2.39
4.19 1.41 2.39
4.16 1.50 2.39
4.12 1.58 2.39
4.08 1.66 2.39
4.05 1.74 2.39
4.01 1.82 2.39
3.97 1.90 2.39
3.92 1.98 2.39
3.88 2.06 2.39
3.83 2.13 2.39
3.79 2.21 2.39
3.74 2.29 2.39
3.69 2.36 2.39
3.64 2.43 2.39
3.58 2.50 2.39
3.53 2.57 2.39
3.47 2.64 2.39
3.42 2.71 2.39
3.36 2.78 2.39
3.30 2.85 2.39
3.24 2.91 2.39
3.18 2.97 2.39
3.12 3.04 2.39
3.05 3.10 2.39
2.99 3.16 2.39
2.92 3.22 2.39
2.85 3.27 2.39
2.79 3.33 2.39
2.72 3.38 2.39
2.65 3.44 2.39
2.58 3.49 2.39
2.50 3.54 2.39
2.43 3.59 2.39
2.36 3.64 2.39
2.28 3.68 2.39
2.21 3.73 2.39
2.18 3.87 2.45
2.14 3.98 2.50
2.06 4.02 2.50
1.98 4.06 2.50
1.89 4.10 2.50
1.81 4.14 2.50
1.72 4.18 2.50
1.64 4.21 2.50
1.55 4.24 2.50
1.47 4.27 2.50
1.38 4.30 2.50
1.29 4.33 2.50
1.20 4.36 2.50
1.11 4.38 2.50
1.02 4.40 2.50
0.93 4.42 2.50
0.84 4.44 2.50
0.75 4.46 2.50
0.66 4.48 2.50
0.57 4.49 2.50
0.48 4.50 2.50
0.39 4.51 2.50
0.30 4.52 2.50
0.21 4.53 2.50
0.11 4.53 2.50
0.02 4.54 2.50
-0.07 4.54 2.50
-0.16 4.54 2.50
-0.26 4.54 2.50
-0.35 4.53 2.50
-0.44 4.53 2.50
-0.53 4.52 2.50
-0.62 4.51 2.50
-0.72 4.50 2.50
-0.81 4.49 2.50
-0.90 4.48 2.50
-0.99 4.46 2.50
-1.08 4.44 2.50
