ply
format ascii 1.0
element vertex 2896
property float32 x
property float32 y
property float32 z
end_header
-12.95 -8.99 1.49
-12.96 -9.38 1.51
-12.97 -9.79 1.54
-12.97 -10.21 1.56
-12.98 -10.65 1.59
-12.99 -11.10 1.62
-13.00 -11.56 1.66
-13.01 -12.05 1.69
-13.02 -12.55 1.73
-13.03 -13.08 1.76
-13.04 -13.62 1.81
-13.05 -14.20 1.85
-13.06 -14.79 1.89
-13.07 -15.42 1.94
-13.09 -16.08 2.00
-13.10 -16.77 2.05
-13.11 -17.50 2.11
-13.11 -18.24 2.17
-13.09 -19.02 2.24
-13.07 -19.82 2.30
-12.65 -20.05 2.30
-12.23 -20.28 2.30
-11.80 -20.49 2.30
-11.28 -20.54 2.28
-10.76 -20.54 2.26
-10.37 -20.82 2.27
-10.39 -21.94 2.38
-9.99 -22.25 2.39
-9.53 -22.41 2.39
-9.07 -22.57 2.39
-8.60 -22.72 2.39
-8.13 -22.86 2.39
-7.66 -22.99 2.39
-7.19 -23.11 2.39
-6.72 -23.22 2.39
-6.48 -24.20 2.48
-6.01 -24.42 2.49
-5.52 -24.51 2.49
-5.02 -24.59 2.49
-4.52 -24.65 2.49
-4.02 -24.71 2.49
-3.52 -24.76 2.49
-3.01 -24.79 2.49
-2.51 -24.82 2.49
-1.71 -21.14 2.12
-1.27 -20.81 2.09
-0.85 -20.82 2.09
-0.43 -20.82 2.09
-0.01 -20.23 2.49
0.39 -20.21 2.49
0.80 -20.18 2.49
1.20 -20.14 2.49
1.61 -20.10 2.49
1.92 -19.22 2.39
2.31 -19.16 2.39
1.99 -14.10 1.77
3.07 -19.03 2.39
3.45 -18.95 2.39
3.83 -18.86 2.39
4.20 -18.77 2.39
4.58 -18.67 2.39
4.95 -18.56 2.39
5.32 -18.45 2.39
5.20 -16.77 2.19
5.08 -15.28 2.01
5.38 -15.18 2.01
5.80 -15.36 2.05
6.14 -15.34 2.06
6.52 -15.38 2.09
6.88 -15.35 2.10
7.27 -15.39 2.13
7.64 -15.36 2.15
8.05 -15.41 2.17
8.22 -14.98 2.14
8.84 -15.39 2.22
9.29 -15.43 2.26
9.70 -15.40 2.28
10.01 -15.22 2.28
10.25 -14.91 2.27
10.48 -14.61 2.25
10.78 -14.41 2.26
11.06 -14.18 2.26
11.33 -13.94 2.25
11.60 -13.70 2.25
11.87 -13.46 2.25
12.12 -13.20 2.25
12.37 -12.94 2.25
12.61 -12.67 2.24
12.85 -12.41 2.24
13.09 -12.14 2.24
13.33 -11.88 2.24
13.57 -11.61 2.24
13.80 -11.33 2.24
14.02 -11.05 2.24
14.24 -10.77 2.24
14.46 -10.48 2.24
14.67 -10.19 2.24
14.87 -9.89 2.24
15.07 -9.60 2.24
15.26 -9.29 2.24
15.45 -8.99 2.24
15.63 -8.68 2.24
15.81 -8.36 2.24
15.97 -8.04 2.24
16.14 -7.72 2.24
16.29 -7.40 2.24
16.45 -7.07 2.24
16.59 -6.74 2.24
16.73 -6.41 2.24
16.86 -6.08 2.24
16.99 -5.74 2.24
17.10 -5.40 2.24
17.22 -5.06 2.24
17.32 -4.71 2.24
17.42 -4.37 2.24
17.52 -4.02 2.24
17.60 -3.67 2.24
17.68 -3.31 2.24
17.76 -2.96 2.24
17.82 -2.60 2.24
17.88 -2.25 2.24
17.93 -1.89 2.24
17.98 -1.53 2.24
18.02 -1.17 2.24
18.05 -0.81 2.24
18.08 -0.44 2.24
18.10 -0.08 2.24
18.11 0.28 2.24
18.11 0.65 2.24
18.11 1.01 2.24
18.10 1.38 2.24
18.08 1.74 2.24
18.06 2.10 2.24
18.03 2.47 2.24
17.99 2.83 2.24
17.94 3.20 2.24
17.89 3.56 2.24
17.83 3.92 2.24
17.77 4.28 2.24
17.69 4.64 2.24
12.22 3.47 1.56
11.40 3.49 1.46
10.33 3.39 1.33
10.21 3.57 1.32
10.08 3.76 1.31
10.33 4.09 1.35
10.34 4.34 1.37
10.34 4.59 1.38
10.35 4.84 1.39
10.35 5.10 1.40
10.36 5.36 1.41
10.34 5.62 1.42
9.88 5.62 1.38
9.44 5.63 1.33
8.99 5.61 1.28
8.66 5.65 1.25
8.30 5.65 1.21
7.92 5.63 1.17
7.64 5.67 1.14
7.34 5.67 1.11
7.05 5.68 1.09
6.73 5.65 1.05
6.44 5.63 1.02
6.20 5.65 1.00
6.21 5.88 1.02
13.23 13.06 2.22
12.99 13.34 2.22
12.54 13.41 2.19
12.32 13.72 2.19
12.10 14.02 2.20
12.35 14.91 2.30
12.07 15.18 2.30
11.64 15.26 2.27
11.17 15.27 2.24
10.71 15.28 2.20
10.27 15.29 2.17
9.83 15.30 2.14
9.41 15.31 2.11
6.20 10.56 1.44
5.97 10.65 1.43
5.68 10.62 1.41
5.45 10.70 1.41
7.01 14.47 1.88
6.66 14.50 1.86
6.40 14.69 1.87
6.43 15.61 1.97
7.44 19.16 2.39
7.11 19.44 2.41
6.33 18.46 2.27
6.29 19.61 2.39
5.90 19.75 2.39
5.51 19.89 2.39
5.12 20.01 2.39
4.72 20.13 2.39
4.32 20.25 2.39
3.91 20.35 2.39
3.51 20.44 2.39
2.66 17.61 2.05
2.69 20.61 2.39
2.38 21.57 2.49
1.95 21.64 2.49
1.51 21.69 2.49
1.08 21.74 2.49
0.64 21.77 2.49
0.21 21.80 2.49
-0.23 21.82 2.49
-0.67 21.83 2.49
-1.11 21.83 2.49
-1.55 21.82 2.49
-1.99 21.81 2.49
-2.43 21.78 2.49
-2.87 21.74 2.49
-3.30 21.70 2.49
-3.74 21.65 2.49
-4.18 21.58 2.49
-4.61 21.51 2.49
-5.05 21.43 2.49
-5.48 21.34 2.49
-5.91 21.24 2.49
-6.08 20.27 2.39
-6.49 20.14 2.39
-6.89 20.02 2.39
-7.30 19.89 2.39
-7.70 19.75 2.39
-8.10 19.60 2.39
-8.49 19.44 2.39
-8.89 19.28 2.39
-9.28 19.11 2.39
-9.66 18.92 2.39
-10.11 18.86 2.41
-10.49 18.66 2.41
-10.87 18.46 2.41
-11.24 18.24 2.41
-11.61 18.02 2.41
-11.97 17.79 2.41
-12.31 17.52 2.40
-12.63 17.24 2.40
-12.65 16.55 2.34
-12.53 15.73 2.25
-12.49 15.05 2.19
-12.50 14.47 2.14
-12.51 13.90 2.10
-12.52 13.37 2.05
-12.53 12.85 2.01
-12.54 12.35 1.97
-10.13 9.58 1.56
-9.85 8.95 1.49
-9.85 8.60 1.46
-9.85 8.26 1.44
-11.94 9.60 1.72
-9.87 7.62 1.40
-12.60 9.33 1.76
-12.61 8.95 1.73
-12.62 8.58 1.71
-12.62 8.22 1.69
-12.63 7.87 1.67
-12.64 7.52 1.65
-12.64 7.19 1.63
-12.65 6.86 1.61
-11.12 5.74 1.40
-11.13 5.47 1.39
-11.15 5.21 1.38
-11.54 5.11 1.42
-11.15 4.67 1.36
-11.16 4.42 1.35
-11.15 4.15 1.34
-12.69 4.44 1.51
-11.23 3.68 1.33
-11.25 3.44 1.32
-11.29 3.20 1.32
-12.72 3.33 1.48
-12.72 3.06 1.48
-11.40 2.50 1.32
-12.73 2.53 1.47
-12.74 2.27 1.46
-12.74 2.00 1.46
-12.75 1.74 1.46
-12.75 1.48 1.45
-12.76 1.23 1.45
-12.76 0.97 1.45
-12.77 0.71 1.45
-12.77 0.45 1.45
-12.77 0.20 1.45
-11.18 -0.05 1.27
-11.19 -0.28 1.27
-11.20 -0.50 1.28
-12.79 -0.83 1.46
-12.80 -1.09 1.47
-12.80 -1.35 1.47
-12.81 -1.61 1.48
-12.81 -1.87 1.48
-12.82 -2.13 1.49
-12.82 -2.40 1.50
-12.83 -2.67 1.50
-12.83 -2.94 1.51
-12.84 -3.21 1.52
-12.85 -3.49 1.53
-12.85 -3.77 1.54
-12.86 -4.05 1.55
-12.86 -4.34 1.57
-12.87 -4.63 1.58
-12.87 -4.93 1.59
-12.88 -5.23 1.61
-12.88 -5.54 1.63
-12.89 -5.85 1.64
-12.90 -6.17 1.66
-12.90 -6.49 1.68
-6.07 -3.21 0.80
-12.92 -7.16 1.72
-12.92 -7.51 1.74
-12.93 -7.86 1.77
-12.94 -8.22 1.79
-12.94 -8.60 1.82
-12.95 -8.98 1.85
-12.96 -9.38 1.88
-12.97 -9.79 1.91
-12.97 -10.21 1.94
-12.98 -10.64 1.98
-12.99 -11.09 2.01
-13.00 -11.56 2.05
-13.01 -12.05 2.09
-13.02 -12.55 2.14
-13.03 -13.07 2.18
-13.04 -13.62 2.23
-13.05 -14.19 2.29
-12.83 -14.52 2.30
-12.52 -14.76 2.30
-12.21 -14.99 2.30
-11.89 -15.22 2.30
-11.57 -15.44 2.30
-11.24 -15.65 2.30
-10.91 -15.85 2.30
-10.58 -16.05 2.30
-10.33 -16.38 2.32
-10.29 -17.06 2.39
-9.93 -17.24 2.39
-9.57 -17.42 2.39
-9.21 -17.58 2.39
-8.85 -17.75 2.39
-8.48 -17.90 2.39
-8.11 -18.05 2.39
-7.74 -18.19 2.39
-7.36 -18.32 2.39
-6.99 -18.44 2.39
-6.61 -18.56 2.39
-6.38 -19.13 2.45
-6.10 -19.58 2.49
-5.70 -19.68 2.49
-5.30 -19.77 2.49
-4.89 -19.86 2.49
-4.49 -19.93 2.49
-4.08 -20.00 2.49
-3.68 -20.06 2.49
-3.27 -20.11 2.49
-2.86 -20.15 2.49
-2.46 -20.18 2.49
-2.05 -20.21 2.49
-1.64 -20.23 2.49
-1.23 -20.24 2.49
-0.83 -20.24 2.49
-0.42 -20.24 2.49
-0.01 -17.05 2.49
0.33 -17.04 2.49
0.67 -17.02 2.49
1.01 -16.99 2.49
1.35 -16.95 2.49
1.69 -16.91 2.49
1.95 -16.17 2.39
1.99 -14.11 2.09
2.59 -16.06 2.39
2.91 -15.99 2.39
3.23 -15.92 2.39
3.55 -15.84 2.39
3.86 -15.76 2.39
4.18 -15.67 2.39
4.49 -15.58 2.39
4.80 -15.48 2.39
5.08 -15.29 2.38
5.38 -15.18 2.38
5.71 -15.14 2.39
6.10 -15.22 2.42
6.36 -14.99 2.41
6.65 -14.85 2.41
6.95 -14.70 2.41
7.24 -14.56 2.41
7.52 -14.40 2.41
7.81 -14.24 2.41
8.09 -14.08 2.41
8.37 -13.91 2.41
8.60 -13.67 2.39
8.82 -13.40 2.38
9.03 -13.14 2.36
9.23 -12.87 2.35
9.43 -12.60 2.34
9.62 -12.34 2.32
9.81 -12.07 2.31
9.99 -11.80 2.30
10.17 -11.53 2.28
10.34 -11.26 2.27
10.51 -11.00 2.26
10.72 -10.77 2.26
10.92 -10.55 2.25
11.12 -10.32 2.25
11.32 -10.08 2.25
11.51 -9.85 2.25
11.70 -9.61 2.25
11.89 -9.37 2.25
12.07 -9.12 2.25
12.24 -8.87 2.24
12.41 -8.62 2.24
12.58 -8.37 2.24
12.74 -8.11 2.24
12.90 -7.86 2.24
13.06 -7.60 2.24
13.21 -7.33 2.24
13.36 -7.07 2.24
13.50 -6.80 2.24
13.64 -6.53 2.24
13.77 -6.25 2.24
13.90 -5.98 2.24
14.02 -5.70 2.24
14.14 -5.42 2.24
14.25 -5.13 2.24
14.35 -4.85 2.24
14.45 -4.56 2.24
14.55 -4.27 2.24
14.64 -3.98 2.24
14.72 -3.69 2.24
14.80 -3.39 2.24
14.87 -3.10 2.24
14.93 -2.80 2.24
14.99 -2.50 2.24
15.05 -2.20 2.24
15.10 -1.90 2.24
15.14 -1.59 2.24
15.18 -1.29 2.24
15.21 -0.98 2.24
15.24 -0.68 2.24
15.26 -0.37 2.24
15.27 -0.07 2.24
15.28 0.24 2.24
15.28 0.55 2.24
15.01 0.84 2.20
14.93 1.14 2.19
14.92 1.44 2.19
14.90 1.74 2.19
14.94 2.05 2.20
14.90 2.35 2.20
14.86 2.65 2.20
14.82 2.95 2.20
14.77 3.25 2.20
14.71 3.55 2.20
14.65 3.85 2.20
12.21 3.47 1.85
11.39 3.49 1.73
10.28 3.37 1.57
10.16 3.56 1.56
10.03 3.74 1.55
10.33 4.09 1.61
10.34 4.34 1.62
10.34 4.59 1.64
10.35 4.84 1.65
10.35 5.10 1.67
10.36 5.36 1.68
10.33 5.62 1.69
9.87 5.62 1.64
9.44 5.63 1.58
8.98 5.61 1.52
8.66 5.65 1.48
8.30 5.65 1.44
7.91 5.63 1.39
7.64 5.67 1.36
7.33 5.67 1.33
7.04 5.68 1.29
6.73 5.65 1.25
6.50 5.69 1.23
6.25 5.69 1.20
6.20 5.88 1.22
11.07 10.93 2.21
10.92 11.22 2.22
10.82 11.57 2.25
10.71 11.93 2.27
10.55 12.23 2.29
10.28 12.41 2.28
10.07 12.68 2.29
6.15 8.07 1.43
9.65 13.20 2.31
6.17 8.81 1.52
6.18 9.20 1.56
6.20 9.65 1.61
6.18 10.06 1.66
6.20 10.56 1.72
5.98 10.66 1.71
5.70 10.66 1.69
5.50 10.81 1.70
7.01 14.47 2.25
6.66 14.50 2.23
6.40 14.70 2.24
6.33 15.36 2.32
6.21 15.99 2.39
5.89 16.13 2.39
5.57 16.26 2.39
5.25 16.38 2.39
4.93 16.50 2.39
4.56 16.49 2.37
4.25 16.64 2.38
3.94 16.81 2.39
3.60 16.90 2.39
3.26 16.98 2.39
2.92 17.06 2.39
2.58 17.13 2.39
2.34 17.93 2.49
1.98 17.99 2.49
1.62 18.04 2.49
1.26 18.08 2.49
0.90 18.12 2.49
0.53 18.15 2.49
0.17 18.17 2.49
-0.20 18.18 2.49
-0.56 18.19 2.49
-0.93 18.19 2.49
-1.29 18.18 2.49
-1.66 18.16 2.49
-2.02 18.13 2.49
-2.39 18.10 2.49
-2.75 18.06 2.49
-3.12 18.01 2.49
-3.48 17.96 2.49
-3.84 17.90 2.49
-4.20 17.83 2.49
-4.56 17.75 2.49
-4.92 17.66 2.49
-5.27 17.57 2.49
-5.63 17.47 2.49
-5.73 16.65 2.39
-6.07 16.54 2.39
-6.40 16.42 2.39
-6.73 16.29 2.39
-7.06 16.16 2.39
-7.39 16.02 2.39
-7.71 15.88 2.39
-8.03 15.73 2.39
-8.35 15.57 2.39
-8.66 15.40 2.39
-8.97 15.23 2.39
-9.28 15.05 2.39
-9.58 14.87 2.39
-9.74 14.47 2.36
-9.80 13.94 2.30
-10.08 13.75 2.30
-10.35 13.55 2.30
-10.62 13.34 2.30
-10.89 13.12 2.30
-11.15 12.90 2.30
-11.41 12.68 2.30
-11.67 12.45 2.30
-11.91 12.21 2.30
-12.16 11.97 2.30
-10.13 9.58 1.88
-9.85 8.95 1.80
-9.85 8.60 1.76
-9.85 8.26 1.73
-9.88 7.95 1.71
-9.87 7.62 1.68
-9.89 7.33 1.66
-9.88 7.01 1.63
-12.62 8.58 2.06
-9.89 6.44 1.59
-9.89 6.16 1.57
-12.64 7.52 1.99
-11.80 6.71 1.83
-11.90 6.46 1.83
-11.04 5.70 1.68
-11.04 5.43 1.66
-11.05 5.16 1.65
-11.51 5.10 1.70
-11.07 4.64 1.62
-11.07 4.38 1.61
-11.05 4.12 1.60
-12.69 4.44 1.82
-11.11 3.64 1.58
-11.12 3.40 1.57
-11.12 3.15 1.57
-12.72 3.33 1.78
-12.72 3.06 1.77
-11.10 2.44 1.54
-11.11 2.21 1.54
-11.09 1.97 1.53
-12.74 2.00 1.75
-10.00 1.37 1.37
-12.75 1.49 1.75
-12.76 1.23 1.74
-12.76 0.97 1.74
-12.77 0.71 1.74
-12.77 0.46 1.74
-12.08 0.19 1.65
-11.20 -0.05 1.53
-11.20 -0.27 1.53
-11.20 -0.50 1.53
-10.81 -0.70 1.48
-12.80 -1.09 1.76
-12.80 -1.35 1.76
-12.81 -1.61 1.77
-12.81 -1.87 1.78
-12.82 -2.13 1.79
-12.82 -2.40 1.79
-12.83 -2.67 1.80
-12.83 -2.94 1.81
-12.84 -3.21 1.82
-12.85 -3.49 1.84
-12.85 -3.77 1.85
-12.86 -4.05 1.86
-12.86 -4.34 1.88
-12.87 -4.63 1.89
-12.87 -4.93 1.91
-12.88 -5.23 1.93
-12.88 -5.53 1.95
-12.89 -5.85 1.97
-12.90 -6.16 1.99
-12.90 -6.49 2.01
-6.07 -3.21 0.96
-12.92 -7.16 2.06
-12.92 -7.50 2.08
-12.93 -7.86 2.11
-12.94 -8.22 2.14
-12.94 -8.60 2.17
-12.95 -8.98 2.21
-12.96 -9.38 2.24
-12.97 -9.78 2.28
-12.88 -10.13 2.30
-12.66 -10.38 2.30
-12.44 -10.62 2.30
-12.21 -10.86 2.30
-11.98 -11.09 2.30
-11.74 -11.32 2.30
-11.50 -11.54 2.30
-11.26 -11.76 2.30
-11.01 -11.97 2.30
-10.76 -12.17 2.30
-10.50 -12.38 2.30
-10.27 -12.61 2.31
-10.27 -13.14 2.37
-10.08 -13.45 2.39
-9.80 -13.63 2.39
-9.51 -13.81 2.39
-9.23 -13.99 2.39
-8.93 -14.16 2.39
-8.64 -14.32 2.39
-8.34 -14.48 2.39
-8.04 -14.63 2.39
-7.74 -14.77 2.39
-7.44 -14.91 2.39
-7.13 -15.04 2.39
-6.82 -15.17 2.39
-6.52 -15.32 2.40
-6.32 -15.71 2.44
-6.13 -16.18 2.49
-5.80 -16.29 2.49
-5.47 -16.38 2.49
-5.13 -16.48 2.49
-4.80 -16.56 2.49
-4.46 -16.64 2.49
-4.12 -16.71 2.49
-3.78 -16.78 2.49
-3.44 -16.84 2.49
-3.10 -16.89 2.49
-2.76 -16.93 2.49
-2.41 -16.97 2.49
-2.07 -17.00 2.49
-1.73 -17.03 2.49
-1.38 -17.05 2.49
-1.04 -17.06 2.49
-0.70 -17.06 2.49
-0.35 -17.06 2.49
-0.01 -14.73 2.49
0.28 -14.72 2.49
0.58 -14.70 2.49
0.87 -14.68 2.49
1.17 -14.65 2.49
1.46 -14.61 2.49
1.75 -14.57 2.49
1.96 -13.93 2.39
2.24 -13.88 2.39
2.51 -13.82 2.39
2.79 -13.76 2.39
3.07 -13.70 2.39
3.34 -13.63 2.39
3.61 -13.55 2.39
3.88 -13.47 2.39
4.15 -13.38 2.39
4.41 -13.29 2.39
4.68 -13.19 2.39
4.94 -13.09 2.39
5.20 -12.99 2.39
5.46 -12.87 2.39
5.71 -12.76 2.39
6.04 -12.80 2.42
6.27 -12.62 2.41
6.51 -12.46 2.41
6.76 -12.32 2.41
7.00 -12.18 2.41
7.24 -12.04 2.41
7.48 -11.89 2.41
7.72 -11.73 2.41
7.95 -11.57 2.41
8.18 -11.41 2.41
8.40 -11.24 2.41
8.60 -11.03 2.40
8.77 -10.79 2.39
8.94 -10.56 2.37
9.10 -10.33 2.36
9.26 -10.09 2.35
9.42 -9.86 2.34
9.57 -9.62 2.33
9.72 -9.38 2.32
9.86 -9.15 2.31
10.00 -8.91 2.30
10.14 -8.67 2.29
10.27 -8.43 2.28
10.39 -8.19 2.27
10.52 -7.95 2.26
10.65 -7.72 2.26
10.80 -7.50 2.26
10.94 -7.28 2.25
11.08 -7.06 2.25
11.22 -6.83 2.25
11.35 -6.60 2.25
11.48 -6.37 2.25
11.60 -6.14 2.25
11.72 -5.90 2.25
11.83 -5.66 2.25
11.92 -5.41 2.24
12.00 -5.16 2.24
12.11 -4.92 2.24
12.21 -4.68 2.24
12.31 -4.44 2.24
12.40 -4.19 2.24
12.49 -3.94 2.24
12.58 -3.69 2.24
12.66 -3.44 2.24
12.73 -3.19 2.24
12.80 -2.93 2.24
12.86 -2.68 2.24
12.91 -2.42 2.24
12.97 -2.16 2.24
13.01 -1.90 2.24
13.05 -1.64 2.24
13.09 -1.38 2.24
13.12 -1.11 2.24
13.15 -0.85 2.24
13.17 -0.59 2.24
13.18 -0.32 2.24
13.19 -0.06 2.24
13.20 0.21 2.24
13.20 0.47 2.24
12.97 0.73 2.20
12.90 0.98 2.19
12.88 1.24 2.19
12.86 1.50 2.19
12.84 1.76 2.19
12.87 2.03 2.20
12.83 2.29 2.20
12.79 2.55 2.20
12.75 2.81 2.20
12.70 3.06 2.20
12.64 3.32 2.20
12.58 3.58 2.20
10.36 3.17 1.82
10.23 3.36 1.81
10.11 3.54 1.80
9.98 3.73 1.79
10.33 4.10 1.87
10.34 4.34 1.88
10.34 4.59 1.90
10.35 4.84 1.91
10.35 5.10 1.93
10.36 5.36 1.95
10.33 5.62 1.96
9.87 5.62 1.90
9.44 5.63 1.83
8.98 5.61 1.77
8.65 5.65 1.72
8.29 5.65 1.67
7.91 5.63 1.61
7.64 5.67 1.58
7.33 5.67 1.54
7.04 5.68 1.50
6.73 5.65 1.46
6.50 5.69 1.43
6.25 5.69 1.40
6.20 5.88 1.41
5.93 5.85 1.38
9.77 10.05 2.31
6.13 6.55 1.48
6.14 6.83 1.51
9.33 10.82 2.35
8.89 10.74 2.29
6.14 7.72 1.62
6.14 8.06 1.66
8.31 11.37 2.31
6.17 8.81 1.76
6.18 9.20 1.82
6.20 9.65 1.88
7.50 12.21 2.34
7.38 12.58 2.38
7.15 12.76 2.39
5.70 10.67 1.97
5.51 10.84 1.98
6.42 13.27 2.40
6.13 13.34 2.39
5.86 13.48 2.39
5.60 13.60 2.39
5.33 13.72 2.39
5.06 13.84 2.39
4.78 13.95 2.39
4.50 14.05 2.39
4.22 14.15 2.39
3.94 14.24 2.39
3.66 14.33 2.39
3.37 14.41 2.39
3.08 14.49 2.39
2.80 14.56 2.39
2.51 14.63 2.39
2.31 15.31 2.49
2.00 15.37 2.49
1.69 15.41 2.49
1.39 15.45 2.49
1.08 15.49 2.49
0.77 15.52 2.49
0.45 15.54 2.49
0.14 15.56 2.49
-0.17 15.57 2.49
-0.48 15.57 2.49
-0.79 15.57 2.49
-1.11 15.56 2.49
-1.42 15.54 2.49
-1.73 15.52 2.49
-2.04 15.49 2.49
-2.36 15.46 2.49
-2.67 15.41 2.49
-2.98 15.37 2.49
-3.29 15.31 2.49
-3.59 15.25 2.49
-3.90 15.18 2.49
-4.21 15.11 2.49
-4.51 15.03 2.49
-4.81 14.94 2.49
-5.11 14.85 2.49
-5.41 14.75 2.49
-5.71 14.64 2.49
-5.76 13.94 2.39
-6.04 13.82 2.39
-6.32 13.70 2.39
-6.59 13.57 2.39
-6.86 13.44 2.39
-7.13 13.31 2.39
-7.40 13.16 2.39
-7.67 13.02 2.39
-7.93 12.86 2.39
-8.19 12.71 2.39
-8.44 12.54 2.39
-8.69 12.37 2.39
-8.94 12.20 2.39
-9.19 12.02 2.39
-9.43 11.83 2.39
-9.66 11.64 2.39
-9.80 11.34 2.37
-9.81 10.90 2.32
-9.97 10.64 2.30
-10.18 10.43 2.30
-10.39 10.23 2.30
-10.13 9.58 2.20
-9.85 8.95 2.10
-9.85 8.60 2.06
-9.85 8.26 2.03
-11.36 9.14 2.30
-9.87 7.62 1.97
-11.71 8.67 2.30
-9.88 7.01 1.91
-11.14 7.57 2.13
-9.89 6.44 1.86
-9.89 6.16 1.84
-12.52 7.45 2.30
-12.64 7.19 2.30
-11.55 6.27 2.08
-11.04 5.70 1.96
-11.04 5.43 1.95
-11.05 5.16 1.93
-11.51 5.10 1.99
-11.03 4.62 1.89
-11.03 4.36 1.88
-11.04 4.11 1.86
-12.69 4.44 2.13
-9.95 3.26 1.66
-9.95 3.04 1.65
-9.96 2.83 1.64
-9.96 2.61 1.63
-9.97 2.40 1.63
-9.97 2.19 1.62
-9.97 1.98 1.61
-9.98 1.78 1.61
-9.98 1.57 1.61
-9.98 1.37 1.60
-9.99 1.16 1.60
-9.99 0.96 1.60
-12.76 0.97 2.04
-12.77 0.71 2.04
-10.00 0.36 1.60
-10.01 0.16 1.60
-11.21 -0.05 1.79
-11.21 -0.27 1.79
-11.22 -0.50 1.79
-10.02 -0.65 1.61
-12.80 -1.08 2.06
-12.80 -1.34 2.06
-12.81 -1.61 2.07
-12.81 -1.87 2.08
-12.82 -2.13 2.08
-12.82 -2.40 2.09
-12.83 -2.67 2.10
-12.83 -2.94 2.12
-12.84 -3.21 2.13
-12.85 -3.49 2.14
-12.85 -3.77 2.16
-12.86 -4.05 2.17
-12.86 -4.34 2.19
-12.87 -4.63 2.21
-12.87 -4.92 2.23
-12.88 -5.23 2.25
-12.88 -5.53 2.27
-12.89 -5.84 2.29
-12.82 -6.12 2.30
-12.68 -6.37 2.30
-6.07 -3.20 1.11
-12.40 -6.87 2.30
-12.25 -7.11 2.30
-12.09 -7.35 2.30
-11.93 -7.58 2.30
-11.77 -7.81 2.30
-11.60 -8.04 2.30
-11.42 -8.26 2.30
-11.25 -8.49 2.30
-11.07 -8.70 2.30
-10.88 -8.91 2.30
-10.69 -9.12 2.30
-10.50 -9.33 2.30
-10.30 -9.53 2.30
-10.20 -9.83 2.33
-10.21 -10.24 2.38
-10.05 -10.50 2.39
-9.83 -10.69 2.39
-9.61 -10.87 2.39
-9.38 -11.05 2.39
-9.15 -11.23 2.39
-8.91 -11.40 2.39
-8.68 -11.57 2.39
-8.43 -11.73 2.39
-8.19 -11.89 2.39
-7.94 -12.04 2.39
-7.69 -12.19 2.39
-7.44 -12.33 2.39
-7.19 -12.47 2.39
-6.93 -12.60 2.39
-6.67 -12.72 2.39
-6.41 -12.84 2.39
-6.27 -13.22 2.44
-6.13 -13.64 2.49
-5.85 -13.74 2.49
-5.57 -13.85 2.49
-5.29 -13.95 2.49
-5.00 -14.04 2.49
-4.72 -14.13 2.49
-4.43 -14.21 2.49
-4.14 -14.28 2.49
-3.85 -14.35 2.49
-3.56 -14.42 2.49
-3.26 -14.47 2.49
-2.97 -14.53 2.49
-2.68 -14.57 2.49
-2.38 -14.61 2.49
-2.09 -14.65 2.49
-1.79 -14.68 2.49
-1.49 -14.70 2.49
-1.20 -14.72 2.49
-0.90 -14.73 2.49
-0.60 -14.73 2.49
-0.31 -14.73 2.49
-0.01 -12.95 2.49
0.25 -12.94 2.49
0.51 -12.93 2.49
0.77 -12.91 2.49
1.03 -12.88 2.49
1.28 -12.85 2.49
1.54 -12.82 2.49
1.79 -12.72 2.48
1.97 -12.21 2.39
2.21 -12.16 2.39
2.08 -10.25 2.02
2.70 -12.05 2.39
2.94 -11.99 2.39
3.18 -11.92 2.39
2.12 -7.35 1.48
3.65 -11.78 2.39
3.88 -11.70 2.39
4.12 -11.61 2.39
4.35 -11.52 2.39
4.58 -11.43 2.39
4.80 -11.33 2.39
5.03 -11.23 2.39
5.25 -11.12 2.39
5.47 -11.01 2.39
5.69 -10.90 2.39
6.01 -10.97 2.43
6.20 -10.79 2.42
6.39 -10.62 2.41
6.59 -10.46 2.41
6.79 -10.33 2.41
7.00 -10.19 2.41
7.20 -10.04 2.41
7.40 -9.89 2.41
7.60 -9.74 2.41
7.79 -9.59 2.41
7.98 -9.43 2.41
8.17 -9.26 2.41
8.35 -9.10 2.41
8.53 -8.93 2.41
8.67 -8.72 2.40
8.81 -8.50 2.39
8.94 -8.29 2.38
9.07 -8.08 2.37
9.20 -7.87 2.36
9.32 -7.65 2.35
9.44 -7.44 2.34
9.55 -7.22 2.33
9.66 -7.00 2.33
9.77 -6.79 2.32
9.88 -6.57 2.31
9.98 -6.35 2.30
10.07 -6.13 2.30
10.17 -5.91 2.29
10.26 -5.69 2.28
10.34 -5.47 2.28
10.41 -5.24 2.27
10.48 -5.01 2.26
10.54 -4.78 2.25
10.60 -4.56 2.24
10.65 -4.33 2.24
10.72 -4.11 2.23
10.78 -3.89 2.23
10.86 -3.67 2.23
10.94 -3.45 2.23
11.01 -3.23 2.23
11.08 -3.01 2.23
11.14 -2.79 2.23
11.20 -2.57 2.23
11.26 -2.34 2.23
11.31 -2.12 2.23
11.36 -1.89 2.23
11.40 -1.66 2.23
11.44 -1.43 2.23
11.49 -1.21 2.24
11.52 -0.98 2.24
11.56 -0.75 2.24
11.58 -0.51 2.24
11.60 -0.28 2.24
11.61 -0.05 2.24
11.61 0.18 2.24
11.61 0.42 2.24
11.62 0.65 2.25
11.39 0.87 2.20
11.33 1.09 2.19
11.31 1.32 2.19
11.29 1.55 2.19
11.26 1.78 2.19
11.28 2.01 2.20
11.24 2.24 2.20
11.20 2.47 2.20
11.16 2.69 2.20
11.11 2.92 2.20
11.05 3.14 2.20
10.31 3.16 2.07
10.18 3.34 2.05
10.06 3.53 2.04
9.94 3.71 2.03
10.72 4.25 2.20
10.64 4.47 2.20
10.55 4.68 2.20
10.46 4.90 2.20
10.37 5.11 2.20
10.27 5.32 2.20
10.17 5.53 2.20
9.87 5.62 2.16
9.43 5.63 2.09
8.98 5.61 2.01
8.65 5.65 1.96
8.29 5.65 1.90
7.91 5.63 1.84
7.63 5.67 1.80
7.33 5.67 1.75
7.04 5.68 1.71
6.72 5.65 1.66
6.50 5.69 1.63
6.25 5.69 1.60
6.20 5.88 1.61
5.94 5.87 1.57
6.11 6.28 1.65
6.13 6.56 1.69
6.13 6.83 1.73
8.01 9.30 2.31
7.82 9.45 2.30
7.63 9.60 2.30
6.15 8.08 1.90
7.23 9.90 2.30
6.17 8.81 2.01
6.18 9.21 2.07
6.20 9.65 2.14
6.65 10.83 2.37
6.19 10.55 2.28
5.97 10.66 2.28
5.71 10.69 2.26
5.53 10.87 2.27
5.59 11.56 2.39
5.36 11.68 2.39
5.13 11.79 2.39
4.90 11.90 2.39
4.66 12.01 2.39
4.42 12.11 2.39
4.18 12.20 2.39
3.94 12.29 2.39
3.69 12.38 2.39
3.45 12.46 2.39
3.20 12.53 2.39
2.95 12.60 2.39
2.70 12.67 2.39
2.44 12.73 2.39
2.27 13.24 2.48
2.02 13.38 2.49
1.75 13.43 2.49
1.48 13.47 2.49
1.21 13.51 2.49
0.94 13.54 2.49
0.67 13.56 2.49
0.40 13.58 2.49
0.12 13.59 2.49
-0.15 13.60 2.49
-0.42 13.60 2.49
-0.70 13.60 2.49
-0.97 13.59 2.49
-1.24 13.57 2.49
-1.51 13.55 2.49
-1.79 13.53 2.49
-2.06 13.49 2.49
-2.33 13.46 2.49
-2.60 13.41 2.49
-2.87 13.36 2.49
-3.14 13.31 2.49
-3.41 13.25 2.49
-3.67 13.19 2.49
-3.94 13.11 2.49
-4.20 13.04 2.49
-4.46 12.96 2.49
-4.73 12.87 2.49
-4.98 12.78 2.49
-5.24 12.68 2.49
-5.50 12.57 2.49
-5.75 12.47 2.49
-5.80 11.93 2.41
-6.00 11.75 2.40
-6.22 11.61 2.39
-6.46 11.48 2.39
-6.69 11.35 2.39
-6.92 11.22 2.39
-7.14 11.08 2.39
-7.36 10.94 2.39
-7.58 10.79 2.39
-7.80 10.64 2.39
-8.01 10.48 2.39
-8.22 10.32 2.39
-8.43 10.15 2.39
-8.63 9.98 2.39
-8.83 9.81 2.39
-9.03 9.63 2.39
-9.22 9.45 2.39
-9.41 9.26 2.39
-9.59 9.07 2.39
-9.77 8.88 2.39
-9.85 8.60 2.37
-9.85 8.26 2.33
-9.90 7.97 2.30
-9.87 7.62 2.26
-10.22 7.57 2.30
-9.88 7.01 2.19
-10.51 7.15 2.30
-9.89 6.44 2.14
-9.89 6.16 2.11
-10.92 6.50 2.30
-11.04 6.28 2.30
-11.16 6.06 2.30
-11.01 5.69 2.25
-11.01 5.42 2.22
-11.02 5.15 2.21
-11.44 5.07 2.27
-11.03 4.62 2.17
-11.03 4.37 2.15
-11.04 4.11 2.14
-11.97 4.19 2.30
-9.95 3.26 1.90
-9.95 3.04 1.89
-9.96 2.83 1.88
-9.96 2.61 1.87
-9.97 2.40 1.86
-9.97 2.19 1.86
-9.97 1.98 1.85
-9.98 1.78 1.84
-9.98 1.57 1.84
-9.98 1.37 1.84
-9.99 1.17 1.83
-9.99 0.96 1.83
-12.58 0.96 2.30
-12.59 0.71 2.30
-10.00 0.36 1.83
-10.01 0.16 1.83
-11.56 -0.05 2.11
-11.22 -0.27 2.05
-12.35 -0.55 2.26
-10.02 -0.65 1.84
-12.52 -1.06 2.30
-12.49 -1.31 2.30
-12.45 -1.56 2.30
-12.41 -1.81 2.30
-12.37 -2.05 2.30
-12.32 -2.30 2.30
-12.26 -2.55 2.30
-12.20 -2.79 2.30
-12.13 -3.03 2.30
-12.06 -3.27 2.30
-11.99 -3.51 2.30
-11.91 -3.75 2.30
-11.82 -3.98 2.30
-11.73 -4.22 2.30
-11.64 -4.45 2.30
-11.54 -4.68 2.30
-11.43 -4.91 2.30
-11.32 -5.13 2.30
-11.21 -5.35 2.30
-11.09 -5.57 2.30
-6.07 -3.20 1.27
-10.85 -6.01 2.30
-10.72 -6.22 2.30
-10.58 -6.43 2.30
-10.44 -6.63 2.30
-10.30 -6.84 2.30
-10.16 -7.04 2.30
-10.16 -7.35 2.34
-10.16 -7.66 2.37
-10.06 -7.91 2.39
-9.90 -8.11 2.39
-9.72 -8.30 2.39
-9.55 -8.48 2.39
-9.37 -8.67 2.39
-9.19 -8.85 2.39
-9.00 -9.02 2.39
-8.81 -9.20 2.39
-8.62 -9.36 2.39
-8.42 -9.53 2.39
-8.22 -9.69 2.39
-8.02 -9.84 2.39
-7.82 -9.99 2.39
-7.61 -10.14 2.39
-7.40 -10.29 2.39
-7.18 -10.42 2.39
-6.97 -10.56 2.39
-6.75 -10.69 2.39
-6.53 -10.81 2.39
-6.31 -10.94 2.39
-6.23 -11.33 2.45
-6.11 -11.65 2.49
-5.87 -11.76 2.49
-5.63 -11.86 2.49
-5.38 -11.97 2.49
-5.14 -12.06 2.49
-4.89 -12.16 2.49
-4.64 -12.24 2.49
-4.39 -12.33 2.49
-4.14 -12.40 2.49
-3.89 -12.48 2.49
-3.64 -12.54 2.49
-3.38 -12.61 2.49
-3.13 -12.66 2.49
-2.87 -12.71 2.49
-2.61 -12.76 2.49
-2.35 -12.80 2.49
-2.09 -12.84 2.49
-1.83 -12.87 2.49
-1.57 -12.90 2.49
-1.31 -12.92 2.49
-1.05 -12.94 2.49
-0.79 -12.95 2.49
-0.53 -12.95 2.49
-0.27 -12.95 2.49
-0.01 -11.54 2.49
0.22 -11.54 2.49
0.45 -11.52 2.49
0.68 -11.51 2.49
0.91 -11.49 2.49
1.14 -11.46 2.49
1.37 -11.43 2.49
1.60 -11.39 2.49
1.82 -11.28 2.48
1.97 -10.84 2.39
2.09 -10.30 2.28
2.40 -10.75 2.39
2.62 -10.69 2.39
2.83 -10.63 2.39
3.04 -10.57 2.39
2.15 -6.96 1.58
3.46 -10.43 2.39
3.67 -10.36 2.39
3.88 -10.28 2.39
4.08 -10.20 2.39
4.28 -10.11 2.39
4.49 -10.02 2.39
4.68 -9.92 2.39
4.88 -9.83 2.39
5.08 -9.72 2.39
5.27 -9.62 2.39
5.46 -9.51 2.39
5.65 -9.39 2.39
5.84 -9.28 2.39
6.10 -9.27 2.42
6.26 -9.12 2.41
6.43 -8.97 2.41
6.60 -8.83 2.41
6.78 -8.69 2.41
6.95 -8.56 2.41
7.12 -8.41 2.41
7.29 -8.27 2.41
7.45 -8.12 2.41
7.61 -7.97 2.41
7.77 -7.81 2.41
7.93 -7.65 2.41
8.08 -7.49 2.41
8.23 -7.33 2.41
8.37 -7.16 2.41
8.52 -6.99 2.41
8.64 -6.81 2.40
8.74 -6.61 2.39
8.85 -6.41 2.39
8.95 -6.22 2.38
9.05 -6.02 2.37
9.14 -5.82 2.37
9.23 -5.62 2.36
9.32 -5.42 2.35
9.41 -5.22 2.35
9.49 -5.02 2.34
9.56 -4.81 2.34
9.64 -4.61 2.33
9.69 -4.40 2.32
9.75 -4.19 2.31
9.80 -3.98 2.31
9.85 -3.77 2.30
9.90 -3.57 2.29
9.96 -3.36 2.29
10.01 -3.16 2.29
10.05 -2.95 2.28
10.10 -2.74 2.28
10.14 -2.54 2.27
10.18 -2.33 2.27
10.21 -2.12 2.27
10.25 -1.92 2.27
10.28 -1.71 2.26
10.30 -1.50 2.26
10.33 -1.29 2.26
10.35 -1.09 2.26
10.38 -0.88 2.26
10.40 -0.67 2.26
10.41 -0.46 2.26
10.43 -0.25 2.26
10.44 -0.04 2.26
10.45 0.17 2.26
10.46 0.38 2.26
10.45 0.59 2.27
10.16 0.78 2.20
10.10 0.98 2.19
10.08 1.18 2.19
10.06 1.38 2.19
10.04 1.59 2.19
10.01 1.79 2.19
10.02 2.00 2.20
9.98 2.20 2.20
9.94 2.40 2.20
9.90 2.60 2.20
9.85 2.80 2.20
9.80 3.00 2.20
9.74 3.20 2.20
9.68 3.40 2.20
9.61 3.59 2.20
9.55 3.79 2.20
9.47 3.98 2.20
9.40 4.17 2.20
9.32 4.36 2.20
9.23 4.55 2.20
9.14 4.74 2.20
9.05 4.92 2.20
8.96 5.11 2.20
8.86 5.29 2.20
8.76 5.47 2.20
8.65 5.65 2.20
8.29 5.65 2.14
7.91 5.63 2.07
7.63 5.67 2.02
7.33 5.67 1.97
7.04 5.68 1.92
6.72 5.65 1.87
6.50 5.69 1.83
6.25 5.69 1.79
6.20 5.88 1.81
5.94 5.87 1.77
7.65 7.87 2.32
6.13 6.56 1.90
6.13 6.83 1.94
7.17 8.32 2.32
7.00 8.46 2.32
6.83 8.60 2.32
6.15 8.08 2.14
6.69 9.16 2.39
6.17 8.81 2.26
6.16 9.19 2.33
6.14 9.56 2.39
5.95 9.69 2.39
5.76 9.81 2.39
5.56 9.93 2.39
5.37 10.05 2.39
5.17 10.16 2.39
4.97 10.27 2.39
4.76 10.38 2.39
4.56 10.48 2.39
4.35 10.57 2.39
4.14 10.66 2.39
3.92 10.75 2.39
3.71 10.83 2.39
3.49 10.91 2.39
3.28 10.99 2.39
3.06 11.06 2.39
2.84 11.12 2.39
2.61 11.19 2.39
2.39 11.24 2.39
2.24 11.66 2.47
2.02 11.83 2.49
1.79 11.88 2.49
1.55 11.92 2.49
1.31 11.95 2.49
1.07 11.98 2.49
0.83 12.01 2.49
0.59 12.03 2.49
0.35 12.04 2.49
0.11 12.06 2.49
-0.13 12.06 2.49
-0.38 12.06 2.49
-0.62 12.06 2.49
-0.86 12.05 2.49
-1.10 12.03 2.49
-1.34 12.02 2.49
-1.59 11.99 2.49
-1.83 11.96 2.49
-2.07 11.93 2.49
-2.31 11.89 2.49
-2.55 11.85 2.49
-2.78 11.80 2.49
-3.02 11.74 2.49
-3.26 11.69 2.49
-3.49 11.62 2.49
-3.72 11.55 2.49
-3.96 11.48 2.49
-4.19 11.40 2.49
-4.42 11.32 2.49
-4.64 11.23 2.49
-4.87 11.14 2.49
-5.09 11.04 2.49
-5.32 10.94 2.49
-5.54 10.84 2.49
-5.75 10.73 2.49
-5.82 10.35 2.43
-5.93 10.06 2.39
-6.13 9.94 2.39
-6.33 9.82 2.39
-6.52 9.69 2.39
-6.72 9.56 2.39
-6.91 9.42 2.39
-7.10 9.28 2.39
-7.28 9.14 2.39
-7.47 8.99 2.39
-7.64 8.84 2.39
-7.82 8.69 2.39
-7.99 8.53 2.39
-8.16 8.37 2.39
-8.33 8.20 2.39
-8.49 8.04 2.39
-8.65 7.86 2.39
-8.81 7.69 2.39
-8.96 7.51 2.39
-9.11 7.33 2.39
-9.25 7.15 2.39
-9.40 6.96 2.39
-9.53 6.77 2.39
-9.67 6.58 2.39
-9.79 6.38 2.39
-9.89 6.17 2.38
-9.90 5.90 2.36
-9.91 5.64 2.33
-9.92 5.38 2.31
-9.99 5.17 2.30
-10.09 4.96 2.30
-10.19 4.76 2.30
-10.28 4.55 2.30
-10.37 4.34 2.30
-10.45 4.14 2.30
-10.53 3.92 2.30
-10.60 3.71 2.30
-9.95 3.26 2.15
-9.95 3.04 2.13
-9.96 2.83 2.12
-9.96 2.61 2.11
-9.97 2.40 2.10
-9.97 2.19 2.10
-9.97 1.98 2.09
-9.98 1.78 2.08
-9.98 1.57 2.08
-9.98 1.37 2.07
-9.99 1.17 2.07
-9.99 0.96 2.07
-11.15 0.85 2.30
-11.16 0.63 2.30
-10.00 0.36 2.06
-10.01 0.16 2.06
-11.16 -0.05 2.30
-11.16 -0.27 2.30
-11.14 -0.49 2.30
-10.02 -0.64 2.07
-11.10 -0.94 2.30
-11.08 -1.16 2.30
-11.05 -1.38 2.30
-11.01 -1.60 2.30
-10.97 -1.82 2.30
-10.93 -2.04 2.30
-10.88 -2.26 2.30
-10.82 -2.47 2.30
-10.77 -2.69 2.30
-10.70 -2.90 2.30
-10.64 -3.12 2.30
-10.57 -3.33 2.30
-10.49 -3.54 2.30
-10.41 -3.74 2.30
-10.33 -3.95 2.30
-10.24 -4.15 2.30
-10.15 -4.35 2.30
-10.11 -4.58 2.31
-10.11 -4.83 2.34
-10.11 -5.08 2.36
-6.05 -3.19 1.43
-10.00 -5.54 2.39
-9.88 -5.73 2.39
-9.76 -5.93 2.39
-9.63 -6.12 2.39
-9.50 -6.31 2.39
-9.37 -6.49 2.39
-9.23 -6.67 2.39
-9.09 -6.85 2.39
-8.94 -7.03 2.39
-8.79 -7.20 2.39
-8.64 -7.37 2.39
-8.49 -7.54 2.39
-8.33 -7.70 2.39
-8.17 -7.86 2.39
-8.00 -8.02 2.39
-7.83 -8.17 2.39
-7.66 -8.32 2.39
-7.49 -8.47 2.39
-7.31 -8.61 2.39
-7.14 -8.75 2.39
-6.95 -8.89 2.39
-6.77 -9.02 2.39
-6.58 -9.15 2.39
-6.41 -9.29 2.39
-6.21 -9.40 2.39
-6.20 -9.82 2.47
-6.06 -10.04 2.49
-5.86 -10.15 2.49
-5.65 -10.26 2.49
-5.44 -10.36 2.49
-5.22 -10.46 2.49
-5.01 -10.56 2.49
-4.79 -10.65 2.49
-4.58 -10.74 2.49
-4.36 -10.82 2.49
-4.14 -10.90 2.49
-3.91 -10.98 2.49
-3.69 -11.05 2.49
-3.47 -11.11 2.49
-3.24 -11.17 2.49
-3.01 -11.23 2.49
-2.79 -11.28 2.49
-2.56 -11.33 2.49
-2.33 -11.37 2.49
-2.10 -11.41 2.49
-1.87 -11.44 2.49
-1.64 -11.47 2.49
-1.40 -11.49 2.49
-1.17 -11.51 2.49
-0.94 -11.53 2.49
-0.71 -11.54 2.49
-0.48 -11.54 2.49
-0.24 -11.55 2.49
-0.01 -10.40 2.49
0.20 -10.40 2.49
0.41 -10.39 2.49
0.61 -10.37 2.49
0.82 -10.35 2.49
1.03 -10.33 2.49
1.24 -10.30 2.49
1.44 -10.27 2.49
1.65 -10.24 2.49
1.84 -10.12 2.47
1.97 -9.73 2.39
2.17 -9.69 2.39
2.36 -9.64 2.39
2.11 -7.93 1.98
2.74 -9.53 2.39
2.15 -6.95 1.75
3.12 -9.41 2.39
3.31 -9.34 2.39
2.15 -5.70 1.47
3.68 -9.20 2.39
3.86 -9.12 2.39
4.04 -9.04 2.39
4.22 -8.95 2.39
4.40 -8.86 2.39
4.58 -8.77 2.39
4.75 -8.67 2.39
4.93 -8.57 2.39
5.10 -8.47 2.39
5.26 -8.37 2.39
5.43 -8.26 2.39
5.59 -8.15 2.39
5.76 -8.03 2.39
6.00 -8.02 2.42
6.15 -7.88 2.42
6.29 -7.74 2.41
6.44 -7.60 2.41
6.57 -7.46 2.41
6.72 -7.32 2.41
6.87 -7.19 2.41
7.01 -7.05 2.41
7.15 -6.90 2.41
7.29 -6.76 2.41
7.42 -6.61 2.41
7.55 -6.46 2.41
7.68 -6.31 2.41
7.81 -6.15 2.41
7.93 -5.99 2.41
8.05 -5.83 2.41
8.16 -5.67 2.41
8.28 -5.51 2.41
8.39 -5.34 2.41
8.49 -5.17 2.41
8.60 -5.00 2.41
8.68 -4.81 2.40
8.75 -4.63 2.40
8.83 -4.44 2.39
8.90 -4.26 2.39
8.97 -4.07 2.38
9.02 -3.88 2.37
9.07 -3.69 2.37
9.13 -3.50 2.36
9.18 -3.31 2.36
9.23 -3.12 2.35
9.28 -2.93 2.35
9.32 -2.74 2.35
9.37 -2.54 2.34
9.41 -2.35 2.34
9.44 -2.16 2.34
9.48 -1.97 2.33
9.51 -1.78 2.33
9.53 -1.59 2.33
9.56 -1.39 2.33
9.58 -1.20 2.33
9.60 -1.01 2.32
9.62 -0.81 2.32
9.63 -0.62 2.32
9.65 -0.43 2.32
9.66 -0.23 2.32
9.67 -0.04 2.32
9.68 0.16 2.33
9.68 0.35 2.33
9.68 0.55 2.33
9.67 0.74 2.33
9.14 0.89 2.20
9.09 1.06 2.19
9.07 1.25 2.19
9.04 1.43 2.19
9.02 1.61 2.19
8.99 1.79 2.19
8.99 1.98 2.20
8.96 2.17 2.20
8.92 2.35 2.20
8.87 2.53 2.20
8.82 2.70 2.20
8.77 2.88 2.20
8.72 3.06 2.20
8.66 3.24 2.20
8.60 3.41 2.20
8.53 3.59 2.20
8.46 3.76 2.20
8.39 3.93 2.20
8.31 4.10 2.20
8.23 4.27 2.20
8.15 4.43 2.20
8.06 4.60 2.20
7.97 4.76 2.20
7.88 4.93 2.20
7.79 5.09 2.20
7.69 5.24 2.20
7.58 5.40 2.20
7.48 5.56 2.20
7.32 5.67 2.19
7.04 5.68 2.14
6.72 5.65 2.07
6.50 5.69 2.04
6.24 5.69 1.99
6.19 5.88 2.01
5.94 5.87 1.97
7.13 7.33 2.41
6.13 6.56 2.11
6.13 6.84 2.16
6.70 7.78 2.41
6.57 7.95 2.42
6.14 7.73 2.32
6.17 8.11 2.39
6.01 8.24 2.39
5.85 8.36 2.39
5.69 8.48 2.39
5.52 8.60 2.39
5.35 8.71 2.39
5.17 8.82 2.39
5.00 8.93 2.39
4.82 9.03 2.39
4.64 9.13 2.39
4.46 9.23 2.39
4.28 9.32 2.39
4.09 9.41 2.39
3.90 9.50 2.39
3.72 9.58 2.39
3.52 9.66 2.39
3.33 9.73 2.39
3.14 9.80 2.39
2.94 9.87 2.39
2.74 9.93 2.39
2.55 9.99 2.39
2.35 10.05 2.39
2.21 10.41 2.46
2.03 10.58 2.49
1.82 10.62 2.49
1.60 10.66 2.49
1.39 10.70 2.49
1.18 10.73 2.49
0.96 10.76 2.49
0.75 10.78 2.49
0.53 10.80 2.49
0.31 10.81 2.49
0.10 10.82 2.49
-0.12 10.83 2.49
-0.34 10.83 2.49
-0.56 10.82 2.49
-0.77 10.81 2.49
-0.99 10.80 2.49
-1.21 10.78 2.49
-1.42 10.76 2.49
-1.64 10.73 2.49
-1.86 10.70 2.49
-2.07 10.67 2.49
-2.28 10.63 2.49
-2.50 10.58 2.49
-2.71 10.54 2.49
-2.92 10.48 2.49
-3.13 10.43 2.49
-3.34 10.36 2.49
-3.55 10.30 2.49
-3.76 10.23 2.49
-3.96 10.15 2.49
-4.17 10.07 2.49
-4.37 9.99 2.49
-4.57 9.90 2.49
-4.77 9.81 2.49
-4.96 9.72 2.49
-5.16 9.62 2.49
-5.35 9.52 2.49
-5.54 9.41 2.49
-5.73 9.30 2.49
-5.84 9.06 2.46
-5.86 8.70 2.39
-6.02 8.57 2.39
-6.19 8.45 2.39
-6.36 8.32 2.39
-6.53 8.20 2.39
-6.69 8.06 2.39
-6.85 7.93 2.39
-7.01 7.79 2.39
-7.17 7.65 2.39
-7.32 7.50 2.39
-7.47 7.36 2.39
-7.62 7.21 2.39
-7.76 7.05 2.39
-7.90 6.89 2.39
-8.03 6.73 2.39
-8.17 6.57 2.39
-8.30 6.41 2.39
-8.42 6.24 2.39
-8.55 6.07 2.39
-8.67 5.90 2.39
-8.78 5.72 2.39
-8.89 5.54 2.39
-9.00 5.36 2.39
-9.11 5.18 2.39
-9.21 5.00 2.39
-9.30 4.81 2.39
-9.40 4.62 2.39
-9.49 4.43 2.39
-9.57 4.24 2.39
-9.65 4.05 2.39
-9.73 3.85 2.39
-9.80 3.65 2.39
-9.87 3.46 2.39
-9.94 3.26 2.39
-9.95 3.04 2.38
-9.96 2.83 2.37
-9.96 2.61 2.36
-9.97 2.40 2.35
-9.97 2.19 2.34
-9.97 1.99 2.33
-9.98 1.78 2.32
-9.98 1.57 2.31
-9.98 1.37 2.31
-9.99 1.17 2.31
-9.99 0.96 2.30
-10.01 0.76 2.30
-10.02 0.56 2.30
-10.00 0.36 2.30
-10.01 0.16 2.30
-10.03 -0.04 2.30
-10.03 -0.24 2.31
-10.03 -0.44 2.31
-10.02 -0.64 2.31
-10.04 -0.85 2.32
-10.04 -1.05 2.32
-10.04 -1.25 2.33
-10.04 -1.46 2.34
-10.05 -1.67 2.35
-10.05 -1.88 2.36
-10.06 -2.09 2.37
-10.06 -2.30 2.38
-10.04 -2.51 2.39
-9.98 -2.71 2.39
-9.92 -2.90 2.39
-9.85 -3.10 2.39
-9.78 -3.30 2.39
-9.71 -3.49 2.39
-9.63 -3.68 2.39
-9.55 -3.87 2.39
-9.47 -4.06 2.39
-9.38 -4.25 2.39
-9.29 -4.43 2.39
-9.19 -4.61 2.39
-6.05 -3.19 1.59
-8.99 -4.97 2.39
-8.88 -5.15 2.39
-8.77 -5.32 2.39
-8.66 -5.50 2.39
-8.54 -5.67 2.39
-8.42 -5.83 2.39
-8.30 -6.00 2.39
-8.17 -6.16 2.39
-8.04 -6.32 2.39
-7.91 -6.47 2.39
-7.77 -6.63 2.39
-7.63 -6.78 2.39
-7.49 -6.92 2.39
-7.35 -7.07 2.39
-7.20 -7.21 2.39
-7.05 -7.35 2.39
-6.89 -7.49 2.39
-6.74 -7.62 2.39
-6.58 -7.75 2.39
-6.42 -7.87 2.39
-6.26 -7.99 2.39
-6.18 -8.23 2.42
-6.18 -8.59 2.49
-6.00 -8.70 2.49
-5.82 -8.82 2.49
-5.64 -8.93 2.49
-5.46 -9.03 2.49
-5.27 -9.13 2.49
-5.08 -9.23 2.49
-4.90 -9.33 2.49
-4.70 -9.42 2.49
-4.51 -9.51 2.49
-4.32 -9.59 2.49
-4.12 -9.67 2.49
-3.92 -9.74 2.49
-3.73 -9.81 2.49
-3.53 -9.88 2.49
-3.32 -9.95 2.49
-3.12 -10.00 2.49
-2.92 -10.06 2.49
-2.72 -10.11 2.49
-2.51 -10.16 2.49
-2.30 -10.20 2.49
-2.10 -10.24 2.49
-1.89 -10.27 2.49
-1.68 -10.31 2.49
-1.48 -10.33 2.49
-1.27 -10.35 2.49
-1.06 -10.37 2.49
-0.85 -10.39 2.49
-0.64 -10.40 2.49
-0.43 -10.40 2.49
-0.22 -10.40 2.49
-0.01 -9.46 2.49
0.18 -9.45 2.49
0.37 -9.44 2.49
0.56 -9.43 2.49
0.75 -9.41 2.49
0.93 -9.39 2.49
1.12 -9.37 2.49
1.31 -9.34 2.49
1.50 -9.31 2.49
1.68 -9.27 2.49
1.86 -9.17 2.48
1.97 -8.81 2.39
2.14 -8.77 2.39
2.32 -8.72 2.39
2.49 -8.67 2.39
2.15 -6.95 1.93
2.84 -8.56 2.39
3.01 -8.50 2.39
3.18 -8.43 2.39
3.35 -8.36 2.39
2.18 -5.14 1.48
3.68 -8.22 2.39
3.84 -8.14 2.39
4.00 -8.06 2.39
4.17 -7.98 2.39
4.32 -7.89 2.39
4.48 -7.80 2.39
4.64 -7.71 2.39
4.79 -7.61 2.39
4.94 -7.51 2.39
5.09 -7.41 2.39
5.24 -7.31 2.39
5.38 -7.20 2.39
5.53 -7.09 2.39
5.67 -6.98 2.39
5.81 -6.86 2.39
6.05 -6.87 2.44
6.17 -6.73 2.43
6.29 -6.58 2.42
6.40 -6.43 2.41
6.51 -6.29 2.41
6.63 -6.15 2.41
6.75 -6.02 2.41
6.87 -5.88 2.41
6.99 -5.74 2.41
7.10 -5.60 2.41
7.21 -5.45 2.41
7.32 -5.31 2.41
7.43 -5.16 2.41
7.53 -5.01 2.41
7.63 -4.86 2.41
7.73 -4.70 2.41
7.82 -4.55 2.41
7.91 -4.39 2.41
8.00 -4.23 2.41
8.08 -4.07 2.41
8.17 -3.91 2.41
8.24 -3.74 2.41
8.32 -3.58 2.41
8.39 -3.41 2.41
8.46 -3.24 2.41
8.52 -3.07 2.41
8.59 -2.90 2.41
8.64 -2.73 2.41
8.69 -2.55 2.40
8.73 -2.37 2.40
8.76 -2.19 2.40
8.80 -2.01 2.39
8.83 -1.83 2.39
8.86 -1.66 2.39
8.89 -1.48 2.39
8.91 -1.30 2.39
8.93 -1.12 2.38
8.95 -0.94 2.38
8.96 -0.76 2.38
8.98 -0.58 2.38
8.99 -0.40 2.38
9.00 -0.22 2.38
9.00 -0.03 2.38
9.00 0.15 2.38
9.01 0.33 2.38
9.01 0.51 2.38
9.00 0.69 2.38
8.34 0.81 2.21
8.26 0.97 2.19
8.24 1.14 2.19
8.22 1.30 2.19
8.20 1.47 2.19
8.17 1.63 2.19
8.15 1.80 2.20
8.14 1.97 2.20
8.10 2.13 2.20
8.06 2.30 2.20
8.02 2.46 2.20
7.97 2.62 2.20
7.92 2.78 2.20
7.87 2.94 2.20
7.81 3.10 2.20
7.75 3.26 2.20
7.69 3.42 2.20
7.62 3.57 2.20
7.55 3.73 2.20
7.48 3.88 2.20
7.40 4.03 2.20
7.33 4.18 2.20
7.21 4.31 2.19
7.13 4.46 2.19
7.04 4.60 2.19
6.95 4.74 2.19
6.87 4.90 2.20
6.79 5.05 2.20
6.69 5.18 2.20
6.59 5.32 2.20
6.49 5.45 2.20
6.38 5.59 2.20
6.24 5.69 2.19
6.11 5.80 2.19
5.94 5.87 2.17
6.51 6.70 2.42
6.11 6.55 2.32
6.16 6.87 2.39
6.03 7.00 2.39
5.89 7.12 2.39
5.75 7.24 2.39
5.60 7.36 2.39
5.46 7.47 2.39
5.31 7.59 2.39
5.16 7.70 2.39
5.01 7.80 2.39
4.85 7.91 2.39
4.69 8.01 2.39
4.53 8.10 2.39
4.37 8.20 2.39
4.21 8.29 2.39
4.05 8.37 2.39
2.38 5.19 1.47
3.71 8.54 2.39
3.54 8.62 2.39
3.37 8.69 2.39
3.19 8.76 2.39
3.02 8.83 2.39
2.84 8.89 2.39
2.67 8.95 2.39
2.49 9.01 2.39
2.31 9.06 2.39
2.19 9.39 2.46
2.03 9.55 2.49
1.84 9.59 2.49
1.64 9.63 2.49
1.45 9.67 2.49
1.26 9.70 2.49
1.06 9.73 2.49
0.87 9.75 2.49
0.67 9.77 2.49
0.48 9.79 2.49
0.28 9.80 2.49
0.09 9.81 2.49
-0.11 9.81 2.49
-0.31 9.81 2.49
-0.50 9.81 2.49
-0.70 9.80 2.49
-0.90 9.79 2.49
-1.09 9.77 2.49
-1.29 9.75 2.49
-1.49 9.72 2.49
-1.68 9.70 2.49
-1.88 9.66 2.49
-2.07 9.63 2.49
-2.26 9.59 2.49
-2.46 9.54 2.49
-2.65 9.49 2.49
-2.84 9.44 2.49
-3.03 9.39 2.49
-3.22 9.33 2.49
-3.40 9.26 2.49
-3.59 9.20 2.49
-3.77 9.12 2.49
-3.96 9.05 2.49
-4.14 8.97 2.49
-4.32 8.89 2.49
-4.50 8.80 2.49
-4.67 8.71 2.49
-4.85 8.62 2.49
-5.02 8.52 2.49
-5.19 8.42 2.49
-5.36 8.31 2.49
-5.53 8.21 2.49
-5.69 8.09 2.49
-5.85 7.98 2.49
-5.87 7.68 2.44
-5.91 7.42 2.39
-6.06 7.30 2.39
-6.21 7.18 2.39
-6.35 7.05 2.39
-6.49 6.93 2.39
-6.63 6.79 2.39
-6.76 6.66 2.39
-6.90 6.52 2.39
-7.02 6.38 2.39
-7.15 6.24 2.39
-7.27 6.10 2.39
-7.40 5.95 2.39
-7.51 5.80 2.39
-7.63 5.65 2.39
-7.74 5.49 2.39
-7.85 5.34 2.39
-7.95 5.18 2.39
-8.05 5.02 2.39
-8.15 4.86 2.39
-8.25 4.69 2.39
-8.34 4.52 2.39
-8.42 4.36 2.39
-8.51 4.19 2.39
-8.59 4.01 2.39
-8.67 3.84 2.39
-8.74 3.66 2.39
-8.81 3.49 2.39
-8.88 3.31 2.39
-8.94 3.13 2.39
-9.00 2.95 2.39
-9.05 2.77 2.39
-9.11 2.59 2.39
-9.15 2.40 2.39
-9.20 2.22 2.39
-9.24 2.03 2.39
-9.27 1.85 2.39
-9.31 1.66 2.39
-9.34 1.47 2.39
-9.36 1.29 2.39
-9.38 1.10 2.39
-9.40 0.91 2.39
-9.41 0.72 2.39
-9.42 0.53 2.39
-9.43 0.34 2.39
-9.43 0.15 2.39
-9.42 -0.04 2.39
-9.42 -0.23 2.39
-9.41 -0.41 2.39
-9.39 -0.60 2.39
-9.38 -0.79 2.39
-9.36 -0.98 2.39
-9.33 -1.16 2.39
-9.30 -1.35 2.39
-9.27 -1.54 2.39
-9.23 -1.72 2.39
-9.19 -1.91 2.39
-9.15 -2.09 2.39
-9.10 -2.27 2.39
-9.05 -2.45 2.39
-8.99 -2.63 2.39
-8.93 -2.81 2.39
-8.87 -2.99 2.39
-8.80 -3.16 2.39
-8.74 -3.34 2.39
-8.66 -3.51 2.39
-8.59 -3.68 2.39
-8.51 -3.85 2.39
-8.42 -4.02 2.39
-8.34 -4.18 2.39
-6.05 -3.19 1.75
-8.15 -4.51 2.39
-8.06 -4.67 2.39
-7.96 -4.83 2.39
-7.85 -4.98 2.39
-7.75 -5.14 2.39
-7.64 -5.29 2.39
-7.53 -5.44 2.39
-7.41 -5.59 2.39
-7.30 -5.73 2.39
-7.18 -5.87 2.39
-7.05 -6.01 2.39
-6.93 -6.15 2.39
-6.80 -6.28 2.39
-6.67 -6.41 2.39
-6.53 -6.54 2.39
-6.40 -6.67 2.39
-6.26 -6.79 2.39
-6.16 -6.96 2.41
-6.15 -7.24 2.46
-6.08 -7.45 2.49
-5.93 -7.57 2.49
-5.77 -7.68 2.49
-5.61 -7.79 2.49
-5.45 -7.90 2.49
-5.29 -8.00 2.49
-5.12 -8.10 2.49
-4.96 -8.20 2.49
-4.79 -8.29 2.49
-4.62 -8.38 2.49
-4.45 -8.47 2.49
-4.27 -8.55 2.49
-4.10 -8.63 2.49
-3.92 -8.71 2.49
-3.75 -8.78 2.49
-3.57 -8.85 2.49
-3.39 -8.92 2.49
-3.20 -8.98 2.49
-3.02 -9.04 2.49
-2.84 -9.09 2.49
-2.65 -9.14 2.49
-2.47 -9.19 2.49
-2.28 -9.23 2.49
-2.10 -9.27 2.49
-1.91 -9.31 2.49
-1.72 -9.34 2.49
-1.53 -9.37 2.49
-1.34 -9.39 2.49
-1.15 -9.41 2.49
-0.96 -9.43 2.49
-0.77 -9.44 2.49
-0.58 -9.45 2.49
-0.39 -9.46 2.49
-0.20 -9.46 2.49
-0.01 -8.66 2.49
0.16 -8.66 2.49
0.34 -8.65 2.49
0.51 -8.64 2.49
0.68 -8.62 2.49
0.86 -8.60 2.49
1.03 -8.58 2.49
1.20 -8.56 2.49
1.37 -8.53 2.49
1.54 -8.50 2.49
1.71 -8.46 2.49
1.87 -8.38 2.48
1.96 -8.03 2.39
2.12 -7.99 2.39
2.28 -7.94 2.39
2.15 -6.95 2.11
2.60 -7.84 2.39
2.76 -7.79 2.39
2.91 -7.73 2.39
3.07 -7.66 2.39
3.22 -7.60 2.39
3.37 -7.53 2.39
3.52 -7.46 2.39
3.67 -7.39 2.39
3.82 -7.31 2.39
3.96 -7.23 2.39
4.11 -7.15 2.39
4.25 -7.06 2.39
4.39 -6.98 2.39
4.53 -6.88 2.39
4.66 -6.79 2.39
4.80 -6.70 2.39
4.93 -6.60 2.39
5.06 -6.50 2.39
5.19 -6.39 2.39
5.32 -6.29 2.39
5.44 -6.18 2.39
5.57 -6.07 2.39
5.69 -5.95 2.39
5.81 -5.84 2.39
5.92 -5.72 2.39
6.14 -5.70 2.43
6.24 -5.56 2.43
6.33 -5.42 2.42
6.43 -5.28 2.41
6.52 -5.14 2.41
6.61 -5.00 2.41
6.71 -4.86 2.41
6.81 -4.73 2.41
6.90 -4.59 2.41
6.99 -4.45 2.41
7.08 -4.31 2.41
7.17 -4.17 2.41
7.25 -4.02 2.41
7.33 -3.88 2.41
7.41 -3.73 2.41
7.48 -3.58 2.41
7.55 -3.43 2.41
7.62 -3.28 2.41
7.69 -3.12 2.41
7.75 -2.97 2.41
7.81 -2.81 2.41
7.87 -2.65 2.41
7.92 -2.50 2.41
7.97 -2.34 2.41
8.02 -2.18 2.41
8.06 -2.02 2.41
8.10 -1.85 2.41
8.14 -1.69 2.41
8.18 -1.53 2.41
8.21 -1.36 2.41
8.23 -1.20 2.41
8.26 -1.03 2.41
8.28 -0.87 2.41
8.30 -0.70 2.41
8.31 -0.53 2.41
8.33 -0.37 2.41
8.33 -0.20 2.41
8.34 -0.03 2.41
8.34 0.14 2.41
8.34 0.30 2.41
8.33 0.47 2.41
8.33 0.64 2.41
8.31 0.81 2.41
7.60 0.89 2.20
7.58 1.05 2.20
7.56 1.20 2.20
7.54 1.35 2.20
7.52 1.50 2.20
7.49 1.65 2.20
7.46 1.80 2.20
7.42 1.95 2.20
7.38 2.10 2.20
7.34 2.25 2.20
7.30 2.40 2.20
7.25 2.55 2.20
7.17 2.68 2.19
7.12 2.83 2.19
7.06 2.97 2.19
7.00 3.11 2.19
6.94 3.26 2.19
6.88 3.40 2.19
6.81 3.53 2.19
6.75 3.67 2.19
6.67 3.81 2.19
6.60 3.94 2.19
6.52 4.08 2.19
6.44 4.21 2.19
6.36 4.34 2.19
6.27 4.47 2.19
6.21 4.62 2.20
6.12 4.74 2.20
6.09 4.92 2.23
6.09 5.13 2.26
6.10 5.34 2.30
6.10 5.57 2.35
6.05 5.74 2.37
5.81 5.75 2.32
5.70 5.87 2.32
5.58 5.98 2.32
5.63 6.29 2.39
5.51 6.40 2.39
5.38 6.51 2.39
5.25 6.62 2.39
5.12 6.73 2.39
4.99 6.84 2.39
4.85 6.94 2.39
4.72 7.04 2.39
4.58 7.13 2.39
4.43 7.23 2.39
4.29 7.32 2.39
4.14 7.41 2.39
4.00 7.49 2.39
3.85 7.58 2.39
3.70 7.66 2.39
3.54 7.73 2.39
3.39 7.81 2.39
3.23 7.88 2.39
3.08 7.94 2.39
2.92 8.01 2.39
2.76 8.07 2.39
2.60 8.13 2.39
2.44 8.18 2.39
2.27 8.23 2.39
2.18 8.55 2.47
2.03 8.68 2.49
1.85 8.72 2.49
1.68 8.76 2.49
1.50 8.80 2.49
1.33 8.83 2.49
1.15 8.86 2.49
0.97 8.89 2.49
0.79 8.91 2.49
0.61 8.92 2.49
0.44 8.94 2.49
0.26 8.95 2.49
0.08 8.96 2.49
-0.10 8.96 2.49
-0.28 8.96 2.49
-0.46 8.96 2.49
-0.64 8.95 2.49
-0.82 8.94 2.49
-1.00 8.92 2.49
-1.18 8.90 2.49
-1.36 8.88 2.49
-1.54 8.85 2.49
-1.71 8.82 2.49
-1.89 8.79 2.49
-2.07 8.75 2.49
-2.24 8.71 2.49
-2.42 8.67 2.49
-2.59 8.62 2.49
-2.77 8.57 2.49
-2.94 8.51 2.49
-3.11 8.46 2.49
-3.28 8.39 2.49
-3.45 8.33 2.49
-3.61 8.26 2.49
-3.78 8.19 2.49
-3.94 8.11 2.49
-4.11 8.03 2.49
-4.27 7.95 2.49
-4.43 7.86 2.49
-4.58 7.78 2.49
-4.74 7.68 2.49
-4.89 7.59 2.49
-5.04 7.49 2.49
-5.19 7.39 2.49
-5.34 7.28 2.49
-5.49 7.18 2.49
-5.63 7.07 2.49
-5.77 6.95 2.49
-5.89 6.81 2.48
-5.89 6.55 2.43
-5.92 6.32 2.39
-6.05 6.20 2.39
-6.17 6.08 2.39
-6.29 5.95 2.39
-6.41 5.83 2.39
-6.53 5.70 2.39
-6.64 5.57 2.39
-6.75 5.43 2.39
-6.86 5.29 2.39
-6.96 5.16 2.39
-7.06 5.02 2.39
-7.16 4.87 2.39
-7.26 4.73 2.39
-7.35 4.58 2.39
-7.44 4.43 2.39
-7.53 4.28 2.39
-7.61 4.13 2.39
-7.69 3.98 2.39
-7.77 3.82 2.39
-7.84 3.66 2.39
-7.91 3.51 2.39
-7.98 3.35 2.39
-8.04 3.18 2.39
-8.10 3.02 2.39
-8.16 2.86 2.39
-8.21 2.69 2.39
-8.27 2.53 2.39
-8.31 2.36 2.39
-8.36 2.19 2.39
-8.40 2.03 2.39
-8.43 1.86 2.39
-8.47 1.69 2.39
-8.50 1.52 2.39
-8.52 1.35 2.39
-8.55 1.17 2.39
-8.56 1.00 2.39
-8.58 0.83 2.39
-8.59 0.66 2.39
-8.60 0.49 2.39
-8.61 0.31 2.39
-8.61 0.14 2.39
-8.61 -0.03 2.39
-8.60 -0.21 2.39
-8.59 -0.38 2.39
-8.58 -0.55 2.39
-8.56 -0.72 2.39
-8.54 -0.89 2.39
-8.52 -1.06 2.39
-8.50 -1.23 2.39
-8.47 -1.40 2.39
-8.43 -1.57 2.39
-8.40 -1.74 2.39
-8.36 -1.91 2.39
-8.31 -2.07 2.39
-8.27 -2.24 2.39
-8.22 -2.40 2.39
-8.16 -2.57 2.39
-8.11 -2.73 2.39
-8.05 -2.89 2.39
-7.98 -3.05 2.39
-7.92 -3.21 2.39
-7.85 -3.36 2.39
-7.77 -3.52 2.39
-7.70 -3.67 2.39
-7.62 -3.82 2.39
-6.05 -3.19 1.92
-7.45 -4.12 2.39
-7.36 -4.27 2.39
-7.27 -4.41 2.39
-7.18 -4.55 2.39
-7.08 -4.70 2.39
-6.98 -4.83 2.39
-6.88 -4.97 2.39
-6.78 -5.11 2.39
-6.67 -5.24 2.39
-6.56 -5.37 2.39
-6.45 -5.50 2.39
-6.34 -5.62 2.39
-6.22 -5.74 2.39
-6.14 -5.90 2.41
-6.13 -6.14 2.45
-6.10 -6.36 2.49
-5.97 -6.48 2.49
-5.84 -6.60 2.49
-5.70 -6.71 2.49
-5.56 -6.82 2.49
-5.42 -6.92 2.49
-5.28 -7.03 2.49
-5.13 -7.13 2.49
-4.99 -7.23 2.49
-4.84 -7.32 2.49
-4.69 -7.41 2.49
-4.54 -7.50 2.49
-4.38 -7.59 2.49
-4.23 -7.67 2.49
-4.07 -7.75 2.49
-3.91 -7.83 2.49
-3.75 -7.90 2.49
-3.59 -7.97 2.49
-3.43 -8.04 2.49
-3.27 -8.10 2.49
-3.10 -8.16 2.49
-2.93 -8.22 2.49
-2.77 -8.27 2.49
-2.60 -8.32 2.49
-2.43 -8.37 2.49
-2.26 -8.41 2.49
-2.09 -8.45 2.49
-1.92 -8.49 2.49
-1.75 -8.52 2.49
-1.58 -8.55 2.49
-1.40 -8.58 2.49
-1.23 -8.60 2.49
-1.06 -8.62 2.49
-0.88 -8.63 2.49
-0.71 -8.65 2.49
-0.53 -8.65 2.49
-0.36 -8.66 2.49
-0.19 -8.66 2.49
-0.01 -7.98 2.49
0.15 -7.98 2.49
0.31 -7.97 2.49
0.47 -7.96 2.49
0.63 -7.94 2.49
0.79 -7.93 2.49
0.95 -7.91 2.49
1.10 -7.89 2.49
1.26 -7.86 2.49
1.42 -7.83 2.49
1.58 -7.80 2.49
1.73 -7.76 2.49
1.88 -7.71 2.49
1.96 -7.36 2.39
2.10 -7.32 2.39
2.15 -6.95 2.28
2.40 -7.23 2.39
2.54 -7.18 2.39
2.68 -7.12 2.39
2.83 -7.06 2.39
2.97 -7.01 2.39
3.11 -6.94 2.39
3.24 -6.88 2.39
3.38 -6.81 2.39
2.18 -4.17 1.48
3.65 -6.67 2.39
3.78 -6.59 2.39
3.92 -6.51 2.39
4.05 -6.43 2.39
4.17 -6.35 2.39
4.30 -6.26 2.39
4.42 -6.17 2.39
4.55 -6.08 2.39
4.67 -5.99 2.39
4.79 -5.89 2.39
4.90 -5.80 2.39
5.02 -5.70 2.39
5.13 -5.59 2.39
5.24 -5.49 2.39
5.35 -5.38 2.39
5.46 -5.27 2.39
5.56 -5.16 2.39
5.67 -5.05 2.39
5.77 -4.93 2.39
5.87 -4.82 2.39
6.08 -4.79 2.44
6.16 -4.66 2.43
6.24 -4.52 2.43
6.32 -4.39 2.42
6.39 -4.25 2.42
6.47 -4.12 2.41
6.54 -3.98 2.41
6.61 -3.84 2.41
6.69 -3.71 2.41
6.76 -3.57 2.41
6.83 -3.44 2.41
6.90 -3.30 2.41
6.96 -3.16 2.41
7.03 -3.02 2.41
7.09 -2.88 2.41
7.15 -2.74 2.41
7.20 -2.59 2.41
7.25 -2.45 2.41
7.30 -2.30 2.41
7.35 -2.15 2.41
7.39 -2.01 2.41
7.43 -1.86 2.41
7.47 -1.71 2.41
7.50 -1.56 2.41
7.54 -1.41 2.41
7.56 -1.26 2.41
7.59 -1.10 2.41
7.61 -0.95 2.41
7.63 -0.80 2.41
7.65 -0.64 2.41
7.66 -0.49 2.41
7.67 -0.34 2.41
7.68 -0.18 2.41
7.68 -0.03 2.41
7.69 0.13 2.41
7.68 0.28 2.41
7.68 0.44 2.41
7.67 0.59 2.41
7.66 0.74 2.41
7.08 0.83 2.23
6.96 0.96 2.19
6.94 1.10 2.19
6.92 1.24 2.19
6.89 1.38 2.19
6.87 1.52 2.19
6.84 1.66 2.19
6.80 1.79 2.19
6.77 1.93 2.19
6.73 2.07 2.19
6.69 2.20 2.19
6.65 2.34 2.19
6.60 2.47 2.19
6.56 2.61 2.19
6.50 2.74 2.19
6.45 2.87 2.19
6.40 3.00 2.19
6.34 3.13 2.19
6.28 3.26 2.19
6.21 3.38 2.19
6.17 3.53 2.20
6.10 3.65 2.20
6.07 3.80 2.22
6.07 3.97 2.25
6.08 4.15 2.28
6.08 4.33 2.31
6.08 4.52 2.34
6.09 4.72 2.38
6.02 4.86 2.39
5.92 4.99 2.39
5.83 5.11 2.39
5.72 5.23 2.39
5.62 5.34 2.39
5.52 5.46 2.39
5.41 5.57 2.39
5.30 5.68 2.39
5.18 5.79 2.39
5.07 5.89 2.39
4.95 6.00 2.39
4.83 6.10 2.39
4.71 6.20 2.39
4.59 6.29 2.39
4.46 6.39 2.39
4.34 6.48 2.39
4.21 6.57 2.39
4.08 6.65 2.39
3.95 6.74 2.39
2.34 4.19 1.47
3.68 6.89 2.39
3.54 6.97 2.39
3.40 7.04 2.39
3.26 7.11 2.39
3.12 7.18 2.39
2.97 7.25 2.39
2.83 7.31 2.39
2.68 7.37 2.39
2.54 7.42 2.39
2.39 7.47 2.39
2.24 7.52 2.39
2.18 7.90 2.49
2.02 7.94 2.49
1.86 7.98 2.49
1.70 8.02 2.49
1.54 8.06 2.49
1.38 8.09 2.49
1.22 8.12 2.49
1.05 8.15 2.49
0.89 8.17 2.49
0.73 8.19 2.49
0.56 8.21 2.49
0.40 8.22 2.49
0.23 8.23 2.49
0.07 8.23 2.49
-0.10 8.24 2.49
-0.26 8.24 2.49
-0.43 8.23 2.49
-0.59 8.22 2.49
-0.76 8.21 2.49
-0.92 8.20 2.49
-1.09 8.18 2.49
-1.25 8.16 2.49
-1.41 8.14 2.49
-1.58 8.11 2.49
-1.74 8.08 2.49
-1.90 8.04 2.49
-2.06 8.01 2.49
-2.22 7.97 2.49
-2.38 7.92 2.49
-2.54 7.88 2.49
-2.70 7.82 2.49
-2.86 7.77 2.49
-3.01 7.71 2.49
-3.17 7.65 2.49
-3.32 7.59 2.49
-3.47 7.52 2.49
-3.62 7.45 2.49
-3.77 7.38 2.49
-3.92 7.31 2.49
-4.07 7.23 2.49
-4.21 7.14 2.49
-4.35 7.06 2.49
-4.50 6.97 2.49
-4.63 6.88 2.49
-4.77 6.79 2.49
-4.91 6.69 2.49
-5.04 6.59 2.49
-5.17 6.49 2.49
-5.30 6.39 2.49
-5.43 6.28 2.49
-5.55 6.17 2.49
-5.68 6.06 2.49
-5.80 5.94 2.49
-5.91 5.82 2.49
-5.91 5.59 2.44
-5.92 5.38 2.40
-6.00 5.23 2.39
-6.10 5.11 2.39
-6.20 4.99 2.39
-6.30 4.86 2.39
-6.40 4.74 2.39
-6.49 4.61 2.39
-6.58 4.48 2.39
-6.67 4.34 2.39
-6.75 4.21 2.39
-6.84 4.07 2.39
-6.91 3.93 2.39
-6.99 3.79 2.39
-7.07 3.65 2.39
-7.14 3.51 2.39
-7.20 3.37 2.39
-7.27 3.22 2.39
-7.33 3.07 2.39
-7.39 2.93 2.39
-7.45 2.78 2.39
-7.50 2.63 2.39
-7.55 2.48 2.39
-7.59 2.32 2.39
-7.64 2.17 2.39
-7.68 2.02 2.39
-7.72 1.86 2.39
-7.75 1.71 2.39
-7.78 1.55 2.39
-7.81 1.39 2.39
-7.83 1.24 2.39
-7.85 1.08 2.39
-7.87 0.92 2.39
-7.89 0.76 2.39
-7.90 0.61 2.39
-7.91 0.45 2.39
-7.91 0.29 2.39
-7.91 0.13 2.39
-7.91 -0.03 2.39
-7.91 -0.19 2.39
-7.90 -0.35 2.39
-7.89 -0.50 2.39
-7.87 -0.66 2.39
-7.86 -0.82 2.39
-7.83 -0.98 2.39
-7.81 -1.13 2.39
-7.78 -1.29 2.39
-7.75 -1.44 2.39
-7.72 -1.60 2.39
-7.68 -1.75 2.39
-7.64 -1.90 2.39
-7.60 -2.06 2.39
-7.55 -2.21 2.39
-7.51 -2.36 2.39
-7.45 -2.51 2.39
-7.40 -2.65 2.39
-7.34 -2.80 2.39
-7.28 -2.95 2.39
-7.22 -3.09 2.39
-7.15 -3.23 2.39
-7.08 -3.37 2.39
-7.01 -3.51 2.39
-6.05 -3.18 2.08
-6.86 -3.79 2.39
-6.78 -3.92 2.39
-6.69 -4.06 2.39
-6.61 -4.19 2.39
-6.52 -4.32 2.39
-6.43 -4.45 2.39
-6.33 -4.57 2.39
-6.24 -4.70 2.39
-6.14 -4.82 2.39
-6.12 -5.00 2.42
-6.12 -5.21 2.46
-6.08 -5.40 2.49
-5.97 -5.51 2.49
-5.85 -5.63 2.49
-5.74 -5.74 2.49
-5.62 -5.85 2.49
-5.50 -5.96 2.49
-5.37 -6.07 2.49
-5.25 -6.17 2.49
-5.12 -6.27 2.49
-4.99 -6.37 2.49
-4.86 -6.47 2.49
-4.73 -6.56 2.49
-4.59 -6.65 2.49
-4.46 -6.74 2.49
-4.32 -6.82 2.49
-4.18 -6.91 2.49
-4.04 -6.99 2.49
-3.89 -7.06 2.49
-3.75 -7.14 2.49
-3.60 -7.21 2.49
-3.46 -7.27 2.49
-3.31 -7.34 2.49
-3.16 -7.40 2.49
-3.01 -7.46 2.49
-2.86 -7.51 2.49
-2.70 -7.57 2.49
-2.55 -7.62 2.49
-2.40 -7.66 2.49
-2.24 -7.71 2.49
-2.08 -7.75 2.49
-1.93 -7.78 2.49
-1.77 -7.82 2.49
-1.61 -7.85 2.49
-1.45 -7.88 2.49
-1.29 -7.90 2.49
-1.13 -7.92 2.49
-0.97 -7.94 2.49
-0.81 -7.95 2.49
-0.65 -7.97 2.49
-0.49 -7.97 2.49
-0.33 -7.98 2.49
-0.17 -7.98 2.49
-0.01 -7.39 2.49
0.14 -7.39 2.49
0.28 -7.38 2.49
0.43 -7.37 2.49
0.58 -7.36 2.49
0.73 -7.34 2.49
0.88 -7.33 2.49
1.02 -7.30 2.49
1.17 -7.28 2.49
1.31 -7.25 2.49
1.46 -7.22 2.49
1.60 -7.19 2.49
1.75 -7.16 2.49
1.89 -7.12 2.49
1.95 -6.78 2.39
2.09 -6.77 2.40
2.22 -6.70 2.39
2.35 -6.65 2.39
2.49 -6.60 2.39
2.16 -5.41 1.98
2.75 -6.49 2.39
2.88 -6.43 2.39
3.01 -6.37 2.39
3.13 -6.31 2.39
3.26 -6.24 2.39
3.38 -6.18 2.39
2.18 -3.80 1.49
3.63 -6.03 2.39
3.75 -5.96 2.39
3.87 -5.88 2.39
3.98 -5.80 2.39
