ply
format ascii 1.0
element vertex 2993
property float32 x
property float32 y
property float32 z
end_header
6.03 2.23 1.65
6.03 2.37 1.66
6.03 2.51 1.68
6.04 2.66 1.70
6.04 2.80 1.71
6.04 2.95 1.73
6.00 3.08 1.74
6.05 3.26 1.77
6.05 3.42 1.79
6.05 3.58 1.82
6.05 3.75 1.84
6.06 3.92 1.86
6.06 4.10 1.89
6.06 4.28 1.92
6.06 4.47 1.95
6.07 4.66 1.98
6.07 4.86 2.02
6.07 5.07 2.05
6.08 5.28 2.09
6.06 5.48 2.12
6.03 5.68 2.15
6.03 5.91 2.20
6.29 6.68 2.39
6.15 6.80 2.39
6.01 6.92 2.39
5.86 7.04 2.39
5.72 7.15 2.39
5.57 7.26 2.39
5.42 7.36 2.39
5.26 7.46 2.39
5.11 7.56 2.39
4.95 7.66 2.39
4.80 7.75 2.39
4.64 7.84 2.39
4.48 7.93 2.39
4.31 8.01 2.39
4.15 8.09 2.39
3.98 8.17 2.39
3.81 8.24 2.39
3.65 8.31 2.39
3.48 8.38 2.39
3.31 8.44 2.39
3.13 8.50 2.39
2.96 8.56 2.39
2.79 8.61 2.39
2.61 8.66 2.39
2.43 8.71 2.39
2.34 9.06 2.48
2.17 9.17 2.49
1.98 9.20 2.49
1.80 9.24 2.49
1.61 9.27 2.49
1.42 9.29 2.49
1.24 9.31 2.49
1.05 9.33 2.49
0.86 9.35 2.49
0.67 9.36 2.49
0.48 9.37 2.49
0.29 9.37 2.49
0.11 9.37 2.49
-0.08 9.37 2.49
-0.27 9.36 2.49
-0.46 9.35 2.49
-0.65 9.33 2.49
-0.83 9.32 2.49
-1.02 9.29 2.49
-1.21 9.27 2.49
-1.39 9.24 2.49
-1.58 9.21 2.49
-1.76 9.17 2.49
-1.95 9.13 2.49
-2.13 9.09 2.49
-2.31 9.04 2.49
-2.49 8.99 2.49
-2.67 8.94 2.49
-2.85 8.88 2.49
-3.03 8.82 2.49
-3.20 8.75 2.49
-3.38 8.69 2.49
-3.55 8.61 2.49
-3.72 8.54 2.49
-3.89 8.46 2.49
-4.06 8.38 2.49
-4.23 8.30 2.49
-4.40 8.21 2.49
-4.56 8.12 2.49
-4.72 8.02 2.49
-4.88 7.93 2.49
-5.04 7.83 2.49
-5.20 7.72 2.49
-5.35 7.62 2.49
-5.50 7.51 2.49
-5.65 7.40 2.49
-5.73 7.20 2.47
-5.75 6.92 2.41
-5.84 6.75 2.39
-5.97 6.63 2.39
-6.10 6.51 2.39
-6.24 6.39 2.39
-6.36 6.26 2.39
-6.49 6.13 2.39
-6.61 6.00 2.39
-6.73 5.87 2.39
-6.85 5.73 2.39
-6.97 5.60 2.39
-7.08 5.46 2.39
-7.19 5.31 2.39
-7.29 5.17 2.39
-7.40 5.02 2.39
-7.50 4.87 2.39
-7.60 4.72 2.39
-7.69 4.57 2.39
-7.79 4.42 2.39
-7.88 4.26 2.39
-7.96 4.10 2.39
-8.05 3.94 2.39
-8.13 3.78 2.39
-8.20 3.62 2.39
-8.28 3.45 2.39
-8.35 3.29 2.39
-8.42 3.12 2.39
-8.48 2.95 2.39
-8.54 2.78 2.39
-8.60 2.61 2.39
-8.65 2.44 2.39
-8.70 2.26 2.39
-8.75 2.09 2.39
-8.80 1.91 2.39
-8.84 1.74 2.39
-8.87 1.56 2.39
-8.91 1.38 2.39
-8.94 1.20 2.39
-8.97 1.02 2.39
-8.99 0.84 2.39
-9.01 0.66 2.39
-9.03 0.48 2.39
-9.04 0.30 2.39
-9.05 0.12 2.39
-9.05 -0.06 2.39
-9.05 -0.24 2.39
-9.05 -0.43 2.39
-9.05 -0.61 2.39
-9.04 -0.79 2.39
-9.03 -0.97 2.39
-9.01 -1.15 2.39
-8.99 -1.34 2.39
-8.97 -1.52 2.39
-8.94 -1.70 2.39
-8.91 -1.88 2.39
-8.88 -2.06 2.39
-8.84 -2.24 2.39
-8.80 -2.42 2.39
-8.75 -2.59 2.39
-8.71 -2.77 2.39
-8.65 -2.95 2.39
-8.60 -3.12 2.39
-8.48 -3.27 2.37
-8.42 -3.45 2.37
-8.35 -3.62 2.37
-8.28 -3.79 2.37
-8.21 -3.96 2.37
-8.14 -4.12 2.37
-8.12 -4.32 2.39
-8.03 -4.48 2.39
-7.91 -4.63 2.38
-7.77 -4.75 2.36
-7.63 -4.88 2.35
-7.53 -5.03 2.35
-7.08 -4.95 2.24
-7.30 -5.32 2.34
-6.85 -5.20 2.22
-6.80 -5.38 2.24
-7.07 -5.83 2.37
-6.98 -6.00 2.38
-6.89 -6.17 2.39
-6.78 -6.32 2.39
-6.66 -6.46 2.39
-6.54 -6.60 2.39
-6.41 -6.73 2.39
-6.28 -6.87 2.39
-6.14 -7.00 2.39
-6.00 -7.12 2.39
-5.95 -7.35 2.43
-5.95 -7.66 2.49
-5.82 -7.81 2.49
-5.66 -7.93 2.49
-5.51 -8.05 2.49
-5.35 -8.16 2.49
-5.19 -8.27 2.49
-5.02 -8.38 2.49
-4.86 -8.48 2.49
-4.69 -8.59 2.49
-4.52 -8.68 2.49
-4.35 -8.78 2.49
-4.17 -8.87 2.49
-4.00 -8.96 2.49
-3.82 -9.04 2.49
-3.64 -9.12 2.49
-3.46 -9.20 2.49
-3.27 -9.27 2.49
-3.09 -9.34 2.49
-2.90 -9.40 2.49
-2.71 -9.47 2.49
-2.53 -9.52 2.49
-2.34 -9.58 2.49
-2.14 -9.63 2.49
-1.95 -9.67 2.49
-1.76 -9.72 2.49
-1.56 -9.76 2.49
-1.37 -9.79 2.49
-1.17 -9.82 2.49
-0.98 -9.85 2.49
-0.78 -9.87 2.49
-0.58 -9.89 2.49
-0.38 -9.90 2.49
-0.19 -9.91 2.49
0.01 -9.05 2.49
0.19 -9.05 2.49
0.38 -9.05 2.49
0.56 -9.04 2.49
0.74 -9.03 2.49
0.92 -9.02 2.49
1.10 -9.00 2.49
1.28 -8.98 2.49
1.46 -8.96 2.49
1.64 -8.93 2.49
1.82 -8.90 2.49
2.00 -8.86 2.49
2.09 -8.49 2.40
2.25 -8.41 2.39
2.42 -8.37 2.39
2.59 -8.32 2.39
2.76 -8.27 2.39
2.92 -8.21 2.39
3.09 -8.16 2.39
3.25 -8.09 2.39
3.41 -8.03 2.39
3.57 -7.96 2.39
3.73 -7.89 2.39
3.89 -7.81 2.39
4.05 -7.73 2.39
4.20 -7.65 2.39
4.35 -7.57 2.39
4.50 -7.48 2.39
4.65 -7.39 2.39
4.80 -7.29 2.39
4.95 -7.19 2.39
5.05 -7.04 2.37
5.23 -6.99 2.39
5.37 -6.88 2.39
5.51 -6.78 2.39
5.64 -6.66 2.39
5.77 -6.55 2.39
4.88 -5.32 1.98
4.88 -5.11 1.94
4.89 -4.92 1.90
4.94 -4.77 1.88
5.03 -4.67 1.88
5.12 -4.57 1.88
5.21 -4.47 1.88
5.30 -4.36 1.88
5.93 -4.68 2.07
5.93 -4.49 2.04
5.93 -4.31 2.01
5.94 -4.13 1.99
5.94 -3.96 1.96
5.94 -3.79 1.94
5.94 -3.63 1.91
5.95 -3.47 1.89
5.95 -3.31 1.87
5.95 -3.16 1.85
5.95 -3.01 1.83
5.96 -2.86 1.82
5.96 -2.72 1.80
5.96 -2.57 1.79
5.96 -2.43 1.77
5.96 -2.30 1.76
5.97 -2.16 1.75
5.97 -2.03 1.74
5.97 -1.90 1.73
5.97 -1.77 1.72
5.97 -1.64 1.71
5.98 -1.51 1.70
5.98 -1.38 1.69
5.98 -1.26 1.69
5.98 -1.13 1.68
5.98 -1.01 1.68
5.92 -0.88 1.66
5.97 -0.76 1.67
5.99 -0.64 1.67
5.99 -0.52 1.67
5.99 -0.40 1.66
5.99 -0.28 1.66
6.00 -0.16 1.66
6.00 -0.04 1.67
6.00 0.08 1.67
6.00 0.20 1.67
2.71 0.14 0.75
2.67 0.20 0.75
2.71 0.25 0.76
6.01 0.68 1.68
6.01 0.81 1.69
6.01 0.93 1.70
6.01 1.05 1.70
6.02 1.18 1.71
6.02 1.31 1.72
6.02 1.43 1.73
6.02 1.56 1.74
6.02 1.69 1.75
6.02 1.82 1.76
6.03 1.96 1.78
6.03 2.09 1.79
6.03 2.23 1.80
6.03 2.37 1.82
6.03 2.51 1.84
6.04 2.65 1.85
6.04 2.80 1.87
6.04 2.95 1.89
6.00 3.08 1.90
6.05 3.26 1.94
6.05 3.42 1.96
6.05 3.58 1.98
6.05 3.75 2.01
6.06 3.92 2.04
6.06 4.10 2.07
5.43 3.84 1.88
5.35 3.94 1.88
5.27 4.05 1.88
5.18 4.15 1.88
5.09 4.25 1.88
5.03 4.37 1.89
5.02 4.54 1.92
6.12 5.77 2.39
6.00 5.89 2.39
5.88 6.00 2.39
5.76 6.11 2.39
5.63 6.22 2.39
5.50 6.33 2.39
5.37 6.44 2.39
5.23 6.54 2.39
5.10 6.64 2.39
4.96 6.74 2.39
4.82 6.83 2.39
4.68 6.92 2.39
4.54 7.01 2.39
4.39 7.10 2.39
4.25 7.18 2.39
4.10 7.26 2.39
3.95 7.33 2.39
3.80 7.41 2.39
3.65 7.48 2.39
3.49 7.55 2.39
3.34 7.61 2.39
3.19 7.67 2.39
3.03 7.73 2.39
2.87 7.79 2.39
2.71 7.84 2.39
2.55 7.89 2.39
2.39 7.93 2.39
2.33 8.32 2.49
2.16 8.36 2.49
1.99 8.40 2.49
1.82 8.43 2.49
1.65 8.46 2.49
1.48 8.49 2.49
1.31 8.51 2.49
1.13 8.53 2.49
0.96 8.55 2.49
0.79 8.57 2.49
0.62 8.58 2.49
0.44 8.58 2.49
0.27 8.59 2.49
0.10 8.59 2.49
-0.07 8.59 2.49
-0.25 8.58 2.49
-0.42 8.57 2.49
-0.59 8.56 2.49
-0.76 8.54 2.49
-0.93 8.52 2.49
-1.11 8.50 2.49
-1.28 8.47 2.49
-1.45 8.44 2.49
-1.61 8.41 2.49
-1.78 8.37 2.49
-1.95 8.33 2.49
-2.12 8.29 2.49
-2.28 8.24 2.49
-2.45 8.19 2.49
-2.61 8.14 2.49
-2.77 8.08 2.49
-2.94 8.03 2.49
-3.10 7.96 2.49
-3.25 7.90 2.49
-3.41 7.83 2.49
-3.57 7.76 2.49
-3.72 7.68 2.49
-3.88 7.61 2.49
-4.03 7.53 2.49
-4.18 7.44 2.49
-4.33 7.36 2.49
-4.48 7.27 2.49
-4.62 7.18 2.49
-4.76 7.08 2.49
-4.91 6.99 2.49
-5.04 6.89 2.49
-5.18 6.78 2.49
-5.32 6.68 2.49
-5.45 6.57 2.49
-5.58 6.46 2.49
-5.71 6.34 2.49
-5.75 6.13 2.46
-5.76 5.90 2.41
-5.83 5.74 2.39
-5.95 5.63 2.39
-6.06 5.50 2.39
-6.17 5.38 2.39
-6.28 5.26 2.39
-6.39 5.13 2.39
-6.49 5.00 2.39
-6.59 4.87 2.39
-6.69 4.74 2.39
-6.78 4.60 2.39
-6.88 4.47 2.39
-6.97 4.33 2.39
-7.05 4.19 2.39
-7.14 4.05 2.39
-7.22 3.90 2.39
-7.30 3.76 2.39
-7.38 3.61 2.39
-7.45 3.47 2.39
-7.52 3.32 2.39
-7.59 3.16 2.39
-7.65 3.01 2.39
-7.71 2.86 2.39
-7.77 2.70 2.39
-7.83 2.55 2.39
-7.88 2.39 2.39
-7.93 2.23 2.39
-7.98 2.07 2.39
-8.02 1.91 2.39
-8.06 1.75 2.39
-8.10 1.59 2.39
-8.13 1.43 2.39
-8.16 1.27 2.39
-8.19 1.10 2.39
-8.21 0.94 2.39
-8.24 0.77 2.39
-8.25 0.61 2.39
-8.27 0.44 2.39
-8.28 0.27 2.39
-8.29 0.11 2.39
-8.29 -0.06 2.39
-8.29 -0.22 2.39
-8.29 -0.39 2.39
-8.29 -0.56 2.39
-8.28 -0.73 2.39
-8.27 -0.89 2.39
-8.25 -1.06 2.39
-8.23 -1.23 2.39
-8.21 -1.39 2.39
-8.19 -1.56 2.39
-8.16 -1.72 2.39
-8.13 -1.89 2.39
-8.09 -2.05 2.39
-8.05 -2.21 2.39
-8.01 -2.38 2.39
-7.97 -2.54 2.39
-7.92 -2.70 2.39
-7.87 -2.86 2.39
-7.82 -3.02 2.39
-7.76 -3.18 2.39
-7.70 -3.34 2.39
-7.63 -3.49 2.39
-7.57 -3.65 2.39
-7.50 -3.80 2.39
-7.42 -3.95 2.39
-7.35 -4.10 2.39
-7.27 -4.25 2.39
-7.19 -4.40 2.39
-7.10 -4.55 2.39
-7.01 -4.69 2.39
-6.92 -4.83 2.39
-6.83 -4.98 2.39
-6.73 -5.12 2.39
-6.63 -5.25 2.39
-6.53 -5.39 2.39
-6.42 -5.52 2.39
-6.32 -5.65 2.39
-6.21 -5.78 2.39
-6.09 -5.91 2.39
-5.98 -6.03 2.39
-5.94 -6.24 2.42
-5.94 -6.50 2.47
-5.86 -6.67 2.49
-5.72 -6.79 2.49
-5.59 -6.91 2.49
-5.45 -7.02 2.49
-5.31 -7.14 2.49
-5.17 -7.25 2.49
-5.03 -7.35 2.49
-4.89 -7.46 2.49
-4.74 -7.56 2.49
-4.59 -7.66 2.49
-4.44 -7.75 2.49
-4.28 -7.84 2.49
-4.13 -7.93 2.49
-3.97 -8.02 2.49
-3.81 -8.10 2.49
-3.65 -8.18 2.49
-3.49 -8.26 2.49
-3.32 -8.33 2.49
-3.16 -8.40 2.49
-2.99 -8.47 2.49
-2.82 -8.53 2.49
-2.65 -8.59 2.49
-2.48 -8.64 2.49
-2.31 -8.70 2.49
-2.13 -8.75 2.49
-1.96 -8.79 2.49
-1.78 -8.83 2.49
-1.60 -8.87 2.49
-1.43 -8.91 2.49
-1.25 -8.94 2.49
-1.07 -8.96 2.49
-0.89 -8.99 2.49
-0.71 -9.01 2.49
-0.53 -9.02 2.49
-0.35 -9.04 2.49
-0.17 -9.05 2.49
0.01 -8.31 2.49
0.18 -8.32 2.49
0.35 -8.31 2.49
0.51 -8.31 2.49
0.68 -8.30 2.49
0.85 -8.29 2.49
1.01 -8.27 2.49
1.18 -8.25 2.49
1.34 -8.23 2.49
1.51 -8.20 2.49
1.67 -8.17 2.49
1.84 -8.14 2.49
2.00 -8.10 2.49
2.10 -7.82 2.42
2.23 -7.69 2.39
2.38 -7.64 2.39
2.53 -7.59 2.39
2.69 -7.54 2.39
2.84 -7.49 2.39
2.99 -7.43 2.39
3.14 -7.37 2.39
3.28 -7.31 2.39
3.43 -7.24 2.39
3.57 -7.17 2.39
3.72 -7.10 2.39
3.86 -7.03 2.39
4.00 -6.95 2.39
4.14 -6.87 2.39
4.27 -6.78 2.39
4.41 -6.70 2.39
4.54 -6.61 2.39
4.67 -6.51 2.39
4.80 -6.42 2.39
4.93 -6.32 2.39
5.06 -6.22 2.39
5.18 -6.12 2.39
5.30 -6.01 2.39
5.42 -5.91 2.39
4.97 -5.20 2.15
5.06 -5.09 2.14
4.89 -4.72 2.03
4.89 -4.54 1.99
4.89 -4.36 1.96
4.90 -4.19 1.92
4.91 -4.03 1.90
4.95 -3.90 1.88
5.12 -3.87 1.92
5.34 -3.88 1.97
5.89 -4.10 2.14
5.92 -3.95 2.13
5.94 -3.79 2.11
5.94 -3.63 2.08
5.95 -3.47 2.06
5.95 -3.31 2.04
5.95 -3.16 2.02
5.95 -3.01 2.00
5.96 -2.86 1.98
5.96 -2.72 1.96
5.96 -2.57 1.95
5.96 -2.44 1.93
5.96 -2.30 1.92
5.97 -2.16 1.90
5.97 -2.03 1.89
5.97 -1.90 1.88
5.97 -1.77 1.87
5.97 -1.64 1.86
5.98 -1.51 1.85
5.98 -1.38 1.84
5.98 -1.26 1.84
5.98 -1.13 1.83
5.98 -1.01 1.83
5.92 -0.88 1.80
5.97 -0.76 1.81
5.99 -0.65 1.82
5.99 -0.52 1.81
5.99 -0.40 1.81
5.99 -0.28 1.81
6.00 -0.16 1.81
6.00 -0.04 1.81
6.00 0.08 1.81
6.00 0.20 1.82
2.71 0.14 0.82
2.68 0.20 0.81
2.71 0.25 0.82
6.01 0.68 1.83
6.01 0.81 1.84
6.01 0.93 1.85
6.01 1.05 1.85
6.02 1.18 1.86
6.02 1.30 1.87
6.02 1.43 1.88
6.02 1.56 1.89
6.02 1.69 1.90
6.02 1.82 1.92
6.03 1.96 1.93
6.03 2.09 1.95
6.03 2.23 1.96
6.03 2.37 1.98
6.03 2.51 2.00
6.04 2.65 2.02
6.04 2.80 2.04
6.04 2.95 2.06
6.00 3.08 2.06
6.05 3.26 2.10
5.35 3.02 1.88
5.28 3.13 1.88
5.21 3.23 1.88
5.15 3.33 1.88
5.07 3.43 1.88
5.02 3.54 1.89
5.01 3.69 1.91
5.01 3.85 1.95
5.02 4.01 1.98
5.02 4.18 2.01
5.03 4.36 2.05
5.75 5.20 2.39
5.64 5.31 2.39
5.53 5.42 2.39
5.42 5.52 2.39
5.30 5.63 2.39
5.18 5.73 2.39
5.06 5.83 2.39
4.94 5.93 2.39
4.82 6.02 2.39
4.70 6.11 2.39
4.57 6.20 2.39
4.44 6.29 2.39
4.31 6.37 2.39
4.18 6.46 2.39
4.05 6.54 2.39
3.91 6.61 2.39
3.78 6.69 2.39
3.64 6.76 2.39
3.50 6.82 2.39
3.36 6.89 2.39
3.22 6.95 2.39
3.08 7.01 2.39
2.94 7.07 2.39
2.79 7.12 2.39
2.65 7.17 2.39
2.52 7.28 2.41
2.35 7.27 2.39
2.30 7.63 2.49
2.15 7.67 2.49
1.99 7.70 2.49
1.84 7.74 2.49
1.68 7.77 2.49
1.52 7.80 2.49
1.36 7.83 2.49
1.21 7.85 2.49
1.05 7.87 2.49
0.89 7.88 2.49
0.73 7.90 2.49
0.57 7.91 2.49
0.41 7.91 2.49
0.25 7.92 2.49
0.09 7.92 2.49
-0.07 7.92 2.49
-0.23 7.91 2.49
-0.39 7.90 2.49
-0.54 7.89 2.49
-0.70 7.87 2.49
-0.86 7.86 2.49
-1.02 7.84 2.49
-1.18 7.81 2.49
-1.33 7.78 2.49
-1.49 7.75 2.49
-1.64 7.72 2.49
-1.80 7.68 2.49
-1.95 7.64 2.49
-2.10 7.60 2.49
-2.26 7.56 2.49
-2.41 7.51 2.49
-2.56 7.46 2.49
-2.71 7.40 2.49
-2.85 7.34 2.49
-3.00 7.28 2.49
-3.15 7.22 2.49
-3.29 7.16 2.49
-3.43 7.09 2.49
-3.58 7.02 2.49
-3.72 6.94 2.49
-3.86 6.87 2.49
-3.99 6.79 2.49
-4.13 6.70 2.49
-4.26 6.62 2.49
-4.39 6.53 2.49
-4.52 6.44 2.49
-4.65 6.35 2.49
-4.78 6.26 2.49
-4.91 6.16 2.49
-5.03 6.06 2.49
-5.15 5.96 2.49
-5.27 5.85 2.49
-5.39 5.74 2.49
-5.50 5.64 2.49
-5.61 5.52 2.49
-5.72 5.41 2.49
-5.76 5.23 2.47
-5.77 5.03 2.42
-5.79 4.85 2.39
-5.89 4.73 2.39
-5.98 4.61 2.39
-6.08 4.49 2.39
-6.17 4.37 2.39
-6.26 4.25 2.39
-6.34 4.12 2.39
-6.42 3.99 2.39
-6.50 3.86 2.39
-6.58 3.73 2.39
-6.66 3.60 2.39
-6.73 3.47 2.39
-6.80 3.33 2.39
-6.87 3.19 2.39
-6.93 3.06 2.39
-7.00 2.92 2.39
-7.06 2.78 2.39
-7.11 2.64 2.39
-7.17 2.49 2.39
-7.22 2.35 2.39
-7.27 2.20 2.39
-7.31 2.06 2.39
-7.35 1.91 2.39
-7.39 1.76 2.39
-7.43 1.62 2.39
-7.46 1.47 2.39
-7.50 1.32 2.39
-7.52 1.17 2.39
-7.55 1.01 2.39
-7.57 0.86 2.39
-7.59 0.71 2.39
-7.61 0.56 2.39
-7.62 0.41 2.39
-7.63 0.25 2.39
-7.64 0.10 2.39
-7.64 -0.05 2.39
-7.64 -0.21 2.39
-7.64 -0.36 2.39
-7.64 -0.52 2.39
-7.63 -0.67 2.39
-7.62 -0.82 2.39
-7.60 -0.98 2.39
-7.59 -1.13 2.39
-7.57 -1.28 2.39
-7.54 -1.44 2.39
-7.52 -1.59 2.39
-7.49 -1.74 2.39
-7.45 -1.89 2.39
-7.42 -2.04 2.39
-7.38 -2.19 2.39
-7.34 -2.34 2.39
-7.29 -2.49 2.39
-7.25 -2.64 2.39
-7.20 -2.78 2.39
-7.14 -2.93 2.39
-7.09 -3.07 2.39
-7.03 -3.22 2.39
-6.97 -3.36 2.39
-6.90 -3.50 2.39
-6.83 -3.64 2.39
-6.76 -3.78 2.39
-6.69 -3.92 2.39
-6.62 -4.05 2.39
-6.54 -4.19 2.39
-6.45 -4.32 2.39
-6.37 -4.45 2.39
-6.28 -4.58 2.39
-6.19 -4.71 2.39
-6.10 -4.84 2.39
-6.01 -4.96 2.39
-5.93 -5.10 2.40
-5.92 -5.30 2.44
-5.92 -5.52 2.48
-5.85 -5.67 2.49
-5.73 -5.79 2.49
-5.62 -5.91 2.49
-5.50 -6.03 2.49
-5.39 -6.14 2.49
-5.26 -6.25 2.49
-5.14 -6.36 2.49
-5.02 -6.46 2.49
-4.89 -6.57 2.49
-4.76 -6.67 2.49
-4.63 -6.76 2.49
-4.49 -6.86 2.49
-4.36 -6.95 2.49
-4.22 -7.04 2.49
-4.08 -7.13 2.49
-3.94 -7.21 2.49
-3.79 -7.30 2.49
-3.65 -7.37 2.49
-3.50 -7.45 2.49
-3.35 -7.52 2.49
-3.20 -7.59 2.49
-3.05 -7.66 2.49
-2.90 -7.72 2.49
-2.75 -7.78 2.49
-2.59 -7.84 2.49
-2.43 -7.89 2.49
-2.28 -7.95 2.49
-2.12 -7.99 2.49
-1.96 -8.04 2.49
-1.80 -8.08 2.49
-1.64 -8.12 2.49
-1.47 -8.15 2.49
-1.31 -8.18 2.49
-1.15 -8.21 2.49
-0.98 -8.24 2.49
-0.82 -8.26 2.49
-0.65 -8.28 2.49
-0.49 -8.29 2.49
-0.32 -8.30 2.49
-0.15 -8.31 2.49
0.01 -7.68 2.49
0.17 -7.68 2.49
0.32 -7.68 2.49
0.47 -7.67 2.49
0.63 -7.67 2.49
0.78 -7.65 2.49
0.94 -7.64 2.49
1.09 -7.62 2.49
1.24 -7.60 2.49
1.39 -7.58 2.49
1.55 -7.55 2.49
1.70 -7.52 2.49
1.85 -7.48 2.49
2.00 -7.45 2.49
2.10 -7.25 2.44
2.20 -7.06 2.39
2.34 -7.01 2.39
2.48 -6.97 2.39
2.62 -6.92 2.39
2.76 -6.86 2.39
2.90 -6.81 2.39
3.03 -6.75 2.39
3.17 -6.69 2.39
3.30 -6.63 2.39
3.43 -6.56 2.39
3.56 -6.49 2.39
3.69 -6.42 2.39
3.82 -6.34 2.39
3.95 -6.26 2.39
4.07 -6.18 2.39
4.20 -6.10 2.39
4.32 -6.02 2.39
4.44 -5.93 2.39
4.55 -5.84 2.39
4.67 -5.75 2.39
4.78 -5.65 2.39
4.90 -5.55 2.39
5.01 -5.45 2.39
4.97 -5.20 2.32
5.06 -5.09 2.32
5.27 -5.10 2.37
5.42 -5.04 2.39
5.52 -4.93 2.39
5.62 -4.81 2.39
4.90 -4.03 2.05
4.91 -3.88 2.02
5.90 -4.46 2.39
5.98 -4.35 2.39
6.07 -4.22 2.39
6.15 -4.10 2.39
5.93 -3.46 2.22
5.89 -3.28 2.18
5.90 -3.13 2.16
5.90 -2.98 2.14
5.23 -2.52 1.88
5.28 -2.41 1.88
5.33 -2.30 1.88
5.37 -2.19 1.88
5.96 -2.30 2.07
5.97 -2.16 2.06
5.97 -2.03 2.05
5.97 -1.90 2.03
5.97 -1.77 2.02
5.97 -1.64 2.01
5.98 -1.51 2.00
5.98 -1.38 2.00
5.98 -1.26 1.99
5.98 -1.14 1.98
5.98 -1.01 1.98
5.92 -0.88 1.95
5.96 -0.76 1.96
5.99 -0.65 1.96
5.99 -0.52 1.96
5.99 -0.40 1.96
5.99 -0.28 1.96
6.00 -0.16 1.96
6.00 -0.04 1.96
6.00 0.08 1.96
6.00 0.20 1.96
2.71 0.14 0.89
2.68 0.20 0.88
2.71 0.25 0.89
6.01 0.68 1.98
6.01 0.80 1.99
6.01 0.93 2.00
6.01 1.05 2.00
6.02 1.18 2.01
6.02 1.30 2.02
6.02 1.43 2.03
6.02 1.56 2.05
6.02 1.69 2.06
6.02 1.82 2.07
5.43 1.76 1.88
6.03 2.09 2.10
6.03 2.23 2.12
6.00 2.35 2.13
5.99 2.49 2.14
5.98 2.63 2.16
5.98 2.77 2.18
6.00 2.93 2.21
6.00 3.08 2.23
5.31 3.00 2.02
5.08 3.00 1.96
5.00 3.10 1.95
5.00 3.24 1.98
5.01 3.38 2.01
5.01 3.53 2.04
5.79 4.26 2.39
5.70 4.38 2.39
5.27 4.22 2.25
5.10 4.25 2.21
5.42 4.70 2.39
5.32 4.81 2.39
5.22 4.91 2.39
5.12 5.01 2.39
5.01 5.11 2.39
4.91 5.21 2.39
4.80 5.30 2.39
4.69 5.40 2.39
4.58 5.49 2.39
4.46 5.57 2.39
4.35 5.66 2.39
4.23 5.74 2.39
4.11 5.82 2.39
3.99 5.90 2.39
3.87 5.98 2.39
3.75 6.05 2.39
3.62 6.12 2.39
3.50 6.19 2.39
3.37 6.26 2.39
3.24 6.32 2.39
3.11 6.38 2.39
2.98 6.44 2.39
2.85 6.49 2.39
2.72 6.55 2.39
2.59 6.60 2.39
2.45 6.64 2.39
2.32 6.69 2.39
2.28 7.02 2.49
2.13 7.06 2.49
1.99 7.10 2.49
1.85 7.14 2.49
1.70 7.17 2.49
1.56 7.20 2.49
1.41 7.23 2.49
1.26 7.25 2.49
1.12 7.27 2.49
0.97 7.29 2.49
0.82 7.30 2.49
0.68 7.32 2.49
0.53 7.33 2.49
0.38 7.33 2.49
0.23 7.34 2.49
0.09 7.34 2.49
-0.06 7.34 2.49
-0.21 7.33 2.49
-0.36 7.32 2.49
-0.50 7.31 2.49
-0.65 7.30 2.49
-0.80 7.28 2.49
-0.94 7.26 2.49
-1.09 7.24 2.49
-1.23 7.21 2.49
-1.38 7.19 2.49
-1.52 7.16 2.49
-1.67 7.12 2.49
-1.81 7.08 2.49
-1.95 7.05 2.49
-2.09 7.00 2.49
-2.23 6.96 2.49
-2.37 6.91 2.49
-2.51 6.86 2.49
-2.65 6.81 2.49
-2.78 6.75 2.49
-2.92 6.69 2.49
-3.05 6.63 2.49
-3.18 6.57 2.49
-3.31 6.50 2.49
-3.44 6.44 2.49
-3.57 6.36 2.49
-3.70 6.29 2.49
-3.83 6.22 2.49
-3.95 6.14 2.49
-4.07 6.06 2.49
-4.19 5.97 2.49
-4.31 5.89 2.49
-4.43 5.80 2.49
-4.55 5.71 2.49
-4.66 5.62 2.49
-4.77 5.52 2.49
-4.88 5.42 2.49
-4.99 5.33 2.49
-5.10 5.22 2.49
-5.20 5.12 2.49
-5.31 5.02 2.49
-5.41 4.91 2.49
-5.50 4.80 2.49
-5.60 4.69 2.49
-5.70 4.57 2.49
-5.78 4.45 2.49
-5.78 4.27 2.45
-5.79 4.10 2.42
-5.80 3.93 2.39
-5.88 3.82 2.39
-5.95 3.70 2.39
-6.03 3.58 2.39
-6.10 3.46 2.39
-6.17 3.34 2.39
-6.24 3.21 2.39
-6.30 3.09 2.39
-6.37 2.96 2.39
-6.43 2.83 2.39
-6.48 2.70 2.39
-6.54 2.57 2.39
-6.59 2.44 2.39
-6.64 2.31 2.39
-6.69 2.18 2.39
-6.73 2.04 2.39
-6.78 1.91 2.39
-6.81 1.77 2.39
-6.85 1.63 2.39
-6.89 1.50 2.39
-6.92 1.36 2.39
-6.95 1.22 2.39
-6.97 1.08 2.39
-6.99 0.94 2.39
-7.01 0.80 2.39
-7.03 0.66 2.39
-7.05 0.52 2.39
-7.06 0.37 2.39
-7.07 0.23 2.39
-7.07 0.09 2.39
-7.08 -0.05 2.39
-7.08 -0.19 2.39
-7.08 -0.34 2.39
-7.07 -0.48 2.39
-7.06 -0.62 2.39
-7.05 -0.76 2.39
-7.04 -0.91 2.39
-7.02 -1.05 2.39
-7.01 -1.19 2.39
-6.98 -1.33 2.39
-6.96 -1.47 2.39
-6.93 -1.61 2.39
-6.90 -1.75 2.39
-6.87 -1.89 2.39
-6.83 -2.03 2.39
-6.79 -2.17 2.39
-6.75 -2.31 2.39
-6.71 -2.44 2.39
-6.66 -2.58 2.39
-6.61 -2.71 2.39
-6.56 -2.85 2.39
-6.51 -2.98 2.39
-6.45 -3.11 2.39
-6.39 -3.24 2.39
-6.33 -3.37 2.39
-6.26 -3.50 2.39
-6.19 -3.63 2.39
-6.12 -3.75 2.39
-6.05 -3.88 2.39
-5.97 -4.00 2.39
-5.91 -4.13 2.40
-5.91 -4.31 2.43
-5.91 -4.49 2.47
-5.89 -4.67 2.49
-5.80 -4.79 2.49
-5.70 -4.91 2.49
-5.61 -5.02 2.49
-5.51 -5.14 2.49
-5.41 -5.25 2.49
-5.30 -5.36 2.49
-5.20 -5.47 2.49
-5.09 -5.57 2.49
-4.98 -5.68 2.49
-4.87 -5.78 2.49
-4.75 -5.88 2.49
-4.64 -5.98 2.49
-4.52 -6.07 2.49
-4.40 -6.17 2.49
-4.28 -6.26 2.49
-4.15 -6.34 2.49
-4.03 -6.43 2.49
-3.90 -6.51 2.49
-3.77 -6.59 2.49
-3.64 -6.67 2.49
-3.51 -6.75 2.49
-3.37 -6.82 2.49
-3.24 -6.89 2.49
-3.10 -6.95 2.49
-2.96 -7.02 2.49
-2.82 -7.08 2.49
-2.68 -7.14 2.49
-2.54 -7.19 2.49
-2.39 -7.25 2.49
-2.25 -7.30 2.49
-2.10 -7.34 2.49
-1.96 -7.39 2.49
-1.81 -7.43 2.49
-1.66 -7.47 2.49
-1.51 -7.50 2.49
-1.36 -7.53 2.49
-1.21 -7.56 2.49
-1.06 -7.59 2.49
-0.91 -7.61 2.49
-0.75 -7.63 2.49
-0.60 -7.65 2.49
-0.45 -7.66 2.49
-0.29 -7.67 2.49
-0.14 -7.68 2.49
0.01 -7.13 2.49
0.16 -7.13 2.49
0.30 -7.13 2.49
0.44 -7.12 2.49
0.58 -7.12 2.49
0.73 -7.10 2.49
0.87 -7.09 2.49
1.01 -7.07 2.49
1.15 -7.05 2.49
1.29 -7.03 2.49
1.43 -7.01 2.49
1.57 -6.98 2.49
1.71 -6.95 2.49
1.85 -6.91 2.49
1.99 -6.87 2.49
2.11 -6.76 2.47
2.17 -6.51 2.39
2.32 -6.51 2.41
2.43 -6.42 2.39
2.56 -6.37 2.39
2.69 -6.32 2.39
2.81 -6.26 2.39
2.94 -6.21 2.39
3.06 -6.15 2.39
3.19 -6.09 2.39
3.31 -6.02 2.39
3.43 -5.95 2.39
3.55 -5.89 2.39
3.66 -5.81 2.39
3.78 -5.74 2.39
3.89 -5.66 2.39
4.01 -5.58 2.39
4.12 -5.50 2.39
4.23 -5.42 2.39
4.33 -5.33 2.39
4.44 -5.24 2.39
4.54 -5.15 2.39
4.64 -5.06 2.39
4.74 -4.97 2.39
4.84 -4.87 2.39
4.94 -4.77 2.39
5.03 -4.67 2.39
5.13 -4.57 2.39
5.21 -4.47 2.39
5.00 -4.11 2.26
5.21 -4.12 2.31
5.47 -4.14 2.39
5.55 -4.03 2.39
5.63 -3.92 2.39
5.71 -3.81 2.39
5.78 -3.69 2.39
5.85 -3.57 2.39
5.92 -3.45 2.39
5.99 -3.33 2.39
6.05 -3.21 2.39
4.92 -2.49 1.93
4.92 -2.37 1.91
4.93 -2.25 1.89
4.95 -2.14 1.88
4.99 -2.04 1.88
5.02 -1.94 1.88
5.06 -1.84 1.88
5.09 -1.73 1.88
5.13 -1.63 1.88
5.16 -1.53 1.88
5.18 -1.42 1.88
5.21 -1.32 1.88
5.23 -1.21 1.88
5.25 -1.11 1.88
5.29 -1.00 1.89
5.97 -1.01 2.12
5.92 -0.88 2.10
5.96 -0.77 2.11
5.99 -0.65 2.12
5.99 -0.53 2.11
5.99 -0.41 2.11
5.99 -0.28 2.11
6.00 -0.16 2.11
6.00 -0.04 2.11
6.00 0.08 2.11
6.00 0.20 2.11
2.71 0.14 0.96
2.68 0.19 0.95
2.70 0.25 0.96
5.30 0.60 1.88
5.28 0.71 1.88
5.27 0.81 1.88
5.25 0.92 1.88
5.22 1.02 1.88
5.20 1.12 1.88
5.17 1.23 1.88
5.15 1.33 1.88
5.12 1.43 1.88
5.08 1.53 1.88
5.05 1.64 1.88
5.01 1.74 1.88
6.22 2.58 2.39
6.16 2.70 2.39
6.10 2.82 2.39
6.04 2.94 2.39
5.98 3.06 2.39
5.91 3.18 2.39
5.84 3.30 2.39
5.77 3.41 2.39
5.24 3.24 2.20
5.09 3.29 2.17
5.55 3.75 2.39
5.47 3.86 2.39
5.39 3.96 2.39
5.30 4.07 2.39
5.22 4.17 2.39
5.10 4.25 2.38
5.04 4.37 2.39
4.95 4.47 2.39
4.85 4.57 2.39
4.76 4.66 2.39
4.66 4.75 2.39
4.56 4.84 2.39
4.46 4.93 2.39
4.36 5.02 2.39
4.26 5.10 2.39
4.15 5.18 2.39
4.04 5.26 2.39
3.94 5.34 2.39
3.83 5.41 2.39
3.71 5.49 2.39
3.60 5.56 2.39
3.49 5.63 2.39
3.37 5.69 2.39
3.26 5.76 2.39
3.14 5.82 2.39
3.02 5.88 2.39
2.90 5.93 2.39
2.78 5.99 2.39
2.66 6.04 2.39
2.53 6.09 2.39
2.41 6.14 2.39
2.30 6.24 2.41
2.25 6.49 2.49
2.12 6.53 2.49
1.99 6.57 2.49
1.85 6.61 2.49
1.72 6.64 2.49
1.58 6.67 2.49
1.45 6.70 2.49
1.31 6.72 2.49
1.18 6.75 2.49
1.04 6.77 2.49
0.90 6.78 2.49
0.77 6.80 2.49
0.63 6.81 2.49
0.49 6.82 2.49
0.36 6.82 2.49
0.22 6.83 2.49
0.08 6.83 2.49
-0.06 6.83 2.49
-0.19 6.82 2.49
-0.33 6.82 2.49
-0.47 6.81 2.49
-0.60 6.79 2.49
-0.74 6.78 2.49
-0.88 6.76 2.49
-1.01 6.74 2.49
-1.15 6.71 2.49
-1.28 6.69 2.49
-1.42 6.66 2.49
-1.55 6.63 2.49
-1.68 6.60 2.49
-1.81 6.56 2.49
-1.95 6.52 2.49
-2.08 6.48 2.49
-2.21 6.43 2.49
-2.33 6.39 2.49
-2.46 6.34 2.49
-2.59 6.29 2.49
-2.72 6.23 2.49
-2.84 6.18 2.49
-2.96 6.12 2.49
-3.09 6.06 2.49
-3.21 5.99 2.49
-3.33 5.93 2.49
-3.44 5.86 2.49
-3.56 5.79 2.49
-3.68 5.71 2.49
-3.79 5.64 2.49
-3.90 5.56 2.49
-4.02 5.48 2.49
-4.13 5.40 2.49
-4.23 5.31 2.49
-4.34 5.23 2.49
-4.44 5.14 2.49
-4.55 5.05 2.49
-4.65 4.96 2.49
-4.75 4.86 2.49
-4.84 4.77 2.49
-4.94 4.67 2.49
-5.03 4.57 2.49
-5.12 4.47 2.49
-5.21 4.36 2.49
-5.30 4.26 2.49
-5.39 4.15 2.49
-5.47 4.04 2.49
-5.55 3.93 2.49
-5.63 3.82 2.49
-5.71 3.71 2.49
-5.78 3.59 2.49
-5.79 3.44 2.47
-5.79 3.28 2.44
-5.80 3.13 2.42
-5.81 2.99 2.39
-5.87 2.87 2.39
-5.93 2.75 2.39
-5.99 2.64 2.40
-6.04 2.52 2.39
-6.09 2.39 2.39
-6.14 2.27 2.39
-6.18 2.15 2.39
-6.23 2.02 2.39
-6.27 1.90 2.39
-6.31 1.77 2.39
-6.34 1.65 2.39
-6.38 1.52 2.39
-6.41 1.39 2.39
-6.44 1.26 2.39
-6.46 1.13 2.39
-6.49 1.00 2.39
-6.51 0.87 2.39
-6.53 0.74 2.39
-6.54 0.61 2.39
-6.56 0.48 2.39
-6.57 0.35 2.39
-6.58 0.22 2.39
-6.58 0.08 2.39
-6.59 -0.05 2.39
-6.59 -0.18 2.39
-6.58 -0.31 2.39
-6.58 -0.45 2.39
-6.57 -0.58 2.39
-6.56 -0.71 2.39
-6.55 -0.84 2.39
-6.53 -0.98 2.39
-6.52 -1.11 2.39
-6.50 -1.24 2.39
-6.47 -1.37 2.39
-6.45 -1.50 2.39
-6.42 -1.63 2.39
-6.39 -1.76 2.39
-6.35 -1.89 2.39
-6.32 -2.02 2.39
-6.28 -2.14 2.39
-6.24 -2.27 2.39
-6.19 -2.40 2.39
-6.15 -2.52 2.39
-6.10 -2.65 2.39
-6.05 -2.77 2.39
-5.99 -2.89 2.39
-5.94 -3.01 2.39
-5.90 -3.14 2.40
-5.89 -3.30 2.42
-5.89 -3.45 2.45
-5.89 -3.61 2.48
-5.86 -3.76 2.49
-5.79 -3.88 2.49
-5.71 -4.00 2.49
-5.64 -4.11 2.49
-5.56 -4.23 2.49
-5.47 -4.34 2.49
-5.39 -4.45 2.49
-5.30 -4.56 2.49
-5.21 -4.67 2.49
-5.12 -4.78 2.49
-5.02 -4.88 2.49
-4.93 -4.98 2.49
-4.83 -5.08 2.49
-4.73 -5.18 2.49
-4.63 -5.28 2.49
-4.52 -5.37 2.49
-4.42 -5.46 2.49
-4.31 -5.56 2.49
-4.20 -5.64 2.49
-4.09 -5.73 2.49
-3.97 -5.81 2.49
-3.86 -5.89 2.49
-3.74 -5.97 2.49
-3.62 -6.05 2.49
-3.50 -6.12 2.49
-3.38 -6.20 2.49
-3.25 -6.27 2.49
-3.13 -6.33 2.49
-3.00 -6.40 2.49
-2.88 -6.46 2.49
-2.75 -6.52 2.49
-2.62 -6.58 2.49
-2.49 -6.63 2.49
-2.35 -6.68 2.49
-2.22 -6.73 2.49
-2.09 -6.78 2.49
-1.95 -6.82 2.49
-1.81 -6.86 2.49
-1.68 -6.90 2.49
-1.54 -6.93 2.49
-1.40 -6.97 2.49
-1.26 -7.00 2.49
-1.12 -7.02 2.49
-0.98 -7.05 2.49
-0.84 -7.07 2.49
-0.70 -7.08 2.49
-0.56 -7.10 2.49
-0.42 -7.11 2.49
-0.27 -7.12 2.49
-0.13 -7.13 2.49
0.01 -6.65 2.49
0.15 -6.65 2.49
0.28 -6.65 2.49
0.41 -6.64 2.49
0.54 -6.63 2.49
0.68 -6.62 2.49
0.81 -6.61 2.49
0.94 -6.59 2.49
1.07 -6.57 2.49
1.21 -6.55 2.49
1.34 -6.53 2.49
1.47 -6.50 2.49
1.60 -6.47 2.49
1.73 -6.44 2.49
1.86 -6.41 2.49
1.99 -6.37 2.49
2.11 -6.33 2.49
2.15 -6.03 2.39
2.27 -5.98 2.39
2.39 -5.94 2.39
2.51 -5.89 2.39
2.62 -5.84 2.39
2.74 -5.78 2.39
2.85 -5.73 2.39
2.97 -5.67 2.39
3.08 -5.61 2.39
3.19 -5.55 2.39
3.30 -5.48 2.39
3.41 -5.42 2.39
3.52 -5.35 2.39
3.63 -5.28 2.39
3.73 -5.20 2.39
3.84 -5.13 2.39
3.94 -5.05 2.39
4.04 -4.97 2.39
4.14 -4.89 2.39
4.23 -4.80 2.39
4.33 -4.72 2.39
4.42 -4.63 2.39
4.51 -4.54 2.39
4.60 -4.45 2.39
4.69 -4.35 2.39
4.78 -4.26 2.39
4.86 -4.16 2.39
4.94 -4.06 2.39
5.02 -3.96 2.39
5.10 -3.86 2.39
5.17 -3.76 2.39
5.25 -3.65 2.39
5.32 -3.55 2.39
5.39 -3.44 2.39
5.45 -3.33 2.39
5.52 -3.22 2.39
5.58 -3.11 2.39
5.64 -3.00 2.39
5.70 -2.88 2.39
4.93 -2.37 2.05
4.92 -2.25 2.03
4.93 -2.13 2.01
4.93 -2.01 2.00
4.93 -1.90 1.98
4.93 -1.79 1.97
4.93 -1.68 1.96
4.93 -1.57 1.94
4.94 -1.46 1.93
4.94 -1.36 1.92
4.94 -1.25 1.91
4.94 -1.15 1.91
4.95 -1.04 1.90
5.18 -0.99 1.98
5.92 -0.88 2.25
5.96 -0.77 2.26
2.71 0.14 1.03
2.68 0.19 1.01
2.70 0.25 1.03
4.97 0.56 1.89
4.97 0.66 1.90
4.97 0.77 1.91
4.97 0.87 1.91
4.97 0.97 1.92
4.97 1.07 1.93
4.97 1.18 1.94
4.98 1.29 1.95
4.98 1.39 1.96
4.98 1.50 1.98
4.98 1.61 1.99
4.98 1.72 2.01
5.90 2.17 2.39
5.85 2.29 2.39
5.80 2.41 2.39
5.75 2.52 2.39
5.69 2.63 2.39
5.63 2.75 2.39
5.58 2.86 2.39
5.51 2.97 2.39
5.45 3.08 2.39
5.39 3.18 2.39
5.24 3.24 2.36
5.09 3.29 2.32
5.18 3.50 2.39
5.10 3.60 2.39
5.03 3.70 2.39
4.95 3.79 2.39
4.87 3.89 2.39
4.79 3.99 2.39
4.70 4.08 2.39
4.62 4.17 2.39
4.53 4.26 2.39
4.44 4.35 2.39
4.35 4.44 2.39
4.26 4.52 2.39
4.17 4.60 2.39
4.07 4.68 2.39
3.98 4.76 2.39
3.88 4.84 2.39
3.78 4.91 2.39
3.68 4.98 2.39
3.57 5.05 2.39
3.47 5.12 2.39
3.36 5.19 2.39
3.26 5.25 2.39
3.15 5.32 2.39
3.04 5.37 2.39
2.93 5.43 2.39
2.82 5.49 2.39
2.71 5.54 2.39
2.59 5.59 2.39
2.50 5.68 2.41
2.37 5.69 2.39
2.29 5.84 2.44
2.23 6.02 2.49
2.10 6.06 2.49
1.98 6.10 2.49
1.86 6.14 2.49
1.73 6.17 2.49
1.61 6.20 2.49
1.48 6.23 2.49
1.35 6.26 2.49
1.23 6.28 2.49
1.10 6.30 2.49
0.97 6.32 2.49
0.85 6.34 2.49
0.72 6.35 2.49
0.59 6.36 2.49
0.46 6.37 2.49
0.33 6.37 2.49
0.20 6.38 2.49
0.08 6.38 2.49
-0.05 6.38 2.49
-0.18 6.37 2.49
-0.31 6.37 2.49
-0.44 6.36 2.49
-0.56 6.35 2.49
-0.69 6.33 2.49
-0.82 6.31 2.49
-0.95 6.30 2.49
-1.07 6.27 2.49
-1.20 6.25 2.49
-1.32 6.22 2.49
-1.45 6.19 2.49
-1.57 6.16 2.49
-1.70 6.13 2.49
-1.82 6.09 2.49
-1.94 6.05 2.49
-2.06 6.01 2.49
-2.18 5.97 2.49
-2.30 5.92 2.49
-2.42 5.87 2.49
-2.54 5.82 2.49
-2.65 5.77 2.49
-2.77 5.72 2.49
-2.88 5.66 2.49
-3.00 5.60 2.49
-3.11 5.54 2.49
-3.22 5.47 2.49
-3.33 5.41 2.49
-3.44 5.34 2.49
-3.54 5.27 2.49
-3.65 5.20 2.49
-3.75 5.12 2.49
-3.85 5.04 2.49
-3.96 4.97 2.49
-4.05 4.89 2.49
-4.15 4.80 2.49
-4.25 4.72 2.49
-4.34 4.63 2.49
-4.44 4.54 2.49
-4.53 4.45 2.49
-4.62 4.36 2.49
-4.70 4.27 2.49
-4.79 4.17 2.49
-4.87 4.08 2.49
-4.95 3.98 2.49
-5.03 3.88 2.49
-5.11 3.78 2.49
-5.19 3.67 2.49
-5.26 3.57 2.49
-5.33 3.46 2.49
-5.40 3.36 2.49
-5.47 3.25 2.49
-5.54 3.14 2.49
-5.60 3.03 2.49
-5.66 2.91 2.49
-5.72 2.80 2.49
-5.78 2.68 2.49
-5.80 2.56 2.48
-5.80 2.42 2.46
-5.81 2.28 2.44
-5.81 2.15 2.43
-5.82 2.02 2.41
-5.82 1.89 2.39
-5.85 1.77 2.39
-5.89 1.66 2.39
-5.92 1.54 2.39
-5.96 1.42 2.39
-5.99 1.30 2.39
-6.02 1.18 2.39
-6.04 1.06 2.39
-6.06 0.94 2.39
-6.08 0.81 2.39
-6.10 0.69 2.39
-6.11 0.57 2.39
-6.12 0.45 2.39
-6.13 0.32 2.39
-6.14 0.20 2.39
-6.15 0.08 2.39
-6.15 -0.05 2.39
-6.15 -0.17 2.39
-6.15 -0.29 2.39
-6.14 -0.42 2.39
-6.14 -0.54 2.39
-6.13 -0.67 2.39
-6.12 -0.79 2.39
-6.10 -0.91 2.39
-6.08 -1.04 2.39
-6.06 -1.16 2.39
-6.05 -1.28 2.40
-6.02 -1.40 2.39
-5.99 -1.52 2.39
-5.96 -1.64 2.39
-5.93 -1.76 2.39
-5.90 -1.88 2.39
-5.88 -2.01 2.40
-5.88 -2.14 2.41
-5.88 -2.28 2.43
-5.88 -2.41 2.45
-5.88 -2.55 2.47
-5.88 -2.70 2.49
-5.84 -2.82 2.49
-5.78 -2.94 2.49
-5.72 -3.05 2.49
-5.66 -3.17 2.49
-5.60 -3.28 2.49
-5.54 -3.40 2.49
-5.47 -3.51 2.49
-5.40 -3.62 2.49
-5.33 -3.73 2.49
-5.26 -3.84 2.49
-5.18 -3.95 2.49
-5.11 -4.05 2.49
-5.03 -4.15 2.49
-4.94 -4.26 2.49
-4.86 -4.36 2.49
-4.77 -4.46 2.49
-4.69 -4.55 2.49
-4.60 -4.65 2.49
-4.50 -4.74 2.49
-4.41 -4.83 2.49
-4.31 -4.92 2.49
-4.22 -5.01 2.49
-4.12 -5.10 2.49
-4.02 -5.18 2.49
-3.91 -5.26 2.49
-3.81 -5.34 2.49
-3.70 -5.42 2.49
-3.60 -5.50 2.49
-3.49 -5.57 2.49
-3.38 -5.64 2.49
-3.26 -5.71 2.49
-3.15 -5.78 2.49
-3.03 -5.84 2.49
-2.92 -5.91 2.49
-2.80 -5.97 2.49
-2.68 -6.02 2.49
-2.56 -6.08 2.49
-2.44 -6.13 2.49
-2.32 -6.18 2.49
-2.19 -6.23 2.49
-2.07 -6.28 2.49
-1.94 -6.32 2.49
-1.82 -6.36 2.49
-1.69 -6.40 2.49
-1.56 -6.43 2.49
-1.43 -6.46 2.49
-1.31 -6.49 2.49
-1.18 -6.52 2.49
-1.04 -6.55 2.49
-0.91 -6.57 2.49
-0.78 -6.59 2.49
-0.65 -6.60 2.49
-0.52 -6.62 2.49
-0.39 -6.63 2.49
-0.25 -6.64 2.49
-0.12 -6.64 2.49
0.01 -6.22 2.49
0.14 -6.22 2.49
0.26 -6.22 2.49
0.39 -6.21 2.49
0.51 -6.20 2.49
0.63 -6.19 2.49
0.76 -6.18 2.49
0.88 -6.17 2.49
1.01 -6.15 2.49
1.13 -6.13 2.49
1.25 -6.11 2.49
1.37 -6.08 2.49
1.50 -6.05 2.49
1.62 -6.02 2.49
1.74 -5.99 2.49
1.86 -5.96 2.49
1.98 -5.92 2.49
2.09 -5.88 2.49
2.13 -5.63 2.41
2.23 -5.55 2.39
2.34 -5.51 2.39
2.45 -5.46 2.39
2.56 -5.41 2.39
2.67 -5.36 2.39
2.78 -5.30 2.39
2.88 -5.25 2.39
2.99 -5.19 2.39
3.09 -5.13 2.39
3.19 -5.07 2.39
3.29 -5.00 2.39
3.39 -4.93 2.39
3.49 -4.87 2.39
3.59 -4.79 2.39
3.68 -4.72 2.39
3.78 -4.65 2.39
3.87 -4.57 2.39
3.96 -4.49 2.39
4.05 -4.41 2.39
4.13 -4.33 2.39
4.22 -4.25 2.39
4.30 -4.16 2.39
4.39 -4.07 2.39
4.47 -3.98 2.39
4.54 -3.89 2.39
4.62 -3.80 2.39
4.70 -3.71 2.39
4.77 -3.61 2.39
4.84 -3.52 2.39
4.91 -3.42 2.39
4.97 -3.32 2.39
5.04 -3.22 2.39
5.10 -3.12 2.39
5.16 -3.01 2.39
5.22 -2.91 2.39
5.28 -2.80 2.39
5.33 -2.70 2.39
5.38 -2.59 2.39
5.01 -2.29 2.21
5.09 -2.20 2.22
5.52 -2.26 2.39
5.56 -2.15 2.39
5.61 -2.03 2.39
5.64 -1.92 2.39
5.68 -1.81 2.39
5.71 -1.69 2.39
4.94 -1.36 2.06
4.94 -1.25 2.05
4.94 -1.15 2.04
4.94 -1.04 2.03
5.84 -1.11 2.39
5.86 -0.99 2.39
5.88 -0.88 2.39
5.89 -0.76 2.39
5.91 -0.64 2.39
5.91 -0.52 2.39
5.92 -0.40 2.39
5.93 -0.28 2.39
5.93 -0.16 2.39
5.93 -0.05 2.39
5.93 0.07 2.39
5.92 0.19 2.39
2.71 0.14 1.10
2.68 0.19 1.08
2.70 0.25 1.10
4.97 0.56 2.02
4.97 0.66 2.03
4.97 0.76 2.03
4.97 0.87 2.04
4.98 0.97 2.05
5.77 1.25 2.39
5.74 1.36 2.39
5.71 1.47 2.39
5.15 1.44 2.17
5.06 1.53 2.15
5.60 1.81 2.39
5.56 1.92 2.39
5.52 2.03 2.39
5.47 2.14 2.39
5.43 2.25 2.39
5.38 2.36 2.39
5.33 2.46 2.39
5.28 2.57 2.39
5.22 2.67 2.39
5.16 2.78 2.39
5.10 2.88 2.39
5.04 2.98 2.39
4.98 3.08 2.39
4.91 3.18 2.39
4.85 3.27 2.39
4.78 3.37 2.39
4.71 3.46 2.39
4.63 3.55 2.39
4.56 3.64 2.39
4.48 3.73 2.39
4.41 3.82 2.39
4.33 3.91 2.39
4.25 3.99 2.39
4.16 4.07 2.39
4.08 4.15 2.39
3.99 4.23 2.39
3.90 4.31 2.39
3.81 4.38 2.39
3.72 4.46 2.39
3.63 4.53 2.39
3.54 4.60 2.39
3.44 4.67 2.39
3.35 4.73 2.39
3.25 4.80 2.39
3.15 4.86 2.39
3.05 4.92 2.39
2.95 4.98 2.39
2.85 5.03 2.39
2.75 5.09 2.39
2.64 5.14 2.39
2.54 5.19 2.39
2.43 5.24 2.39
2.32 5.28 2.39
2.29 5.49 2.47
2.20 5.60 2.49
2.09 5.64 2.49
1.97 5.68 2.49
1.86 5.72 2.49
1.74 5.75 2.49
1.62 5.78 2.49
1.51 5.81 2.49
1.39 5.84 2.49
1.27 5.86 2.49
1.15 5.88 2.49
1.03 5.90 2.49
0.91 5.92 2.49
0.79 5.94 2.49
0.67 5.95 2.49
0.55 5.96 2.49
0.43 5.97 2.49
0.31 5.97 2.49
0.19 5.98 2.49
0.07 5.98 2.49
-0.05 5.98 2.49
-0.17 5.97 2.49
-0.29 5.97 2.49
-0.41 5.96 2.49
-0.53 5.95 2.49
-0.65 5.93 2.49
-0.77 5.92 2.49
-0.89 5.90 2.49
-1.00 5.88 2.49
-1.12 5.86 2.49
-1.24 5.83 2.49
-1.36 5.81 2.49
-1.47 5.78 2.49
-1.59 5.74 2.49
-1.70 5.71 2.49
-1.82 5.67 2.49
-1.93 5.64 2.49
-2.04 5.59 2.49
-2.16 5.55 2.49
-2.27 5.51 2.49
-2.38 5.46 2.49
-2.49 5.41 2.49
-2.60 5.36 2.49
-2.70 5.30 2.49
-2.81 5.25 2.49
-2.91 5.19 2.49
-3.02 5.13 2.49
-3.12 5.07 2.49
-3.22 5.00 2.49
-3.32 4.94 2.49
-3.42 4.87 2.49
-3.52 4.80 2.49
-3.61 4.73 2.49
-3.71 4.65 2.49
-3.80 4.58 2.49
-3.89 4.50 2.49
-3.98 4.42 2.49
-4.07 4.34 2.49
-4.16 4.26 2.49
-4.24 4.18 2.49
-4.33 4.09 2.49
-4.41 4.00 2.49
-4.49 3.91 2.49
-4.57 3.82 2.49
-4.64 3.73 2.49
-4.72 3.64 2.49
-4.79 3.54 2.49
-4.86 3.44 2.49
-4.93 3.35 2.49
-5.00 3.25 2.49
-5.06 3.15 2.49
-5.13 3.04 2.49
-5.19 2.94 2.49
-5.25 2.84 2.49
-5.31 2.73 2.49
-5.36 2.62 2.49
-5.41 2.51 2.49
-5.46 2.41 2.49
-5.51 2.30 2.49
-5.56 2.19 2.49
-5.60 2.07 2.49
-5.65 1.96 2.49
-5.69 1.85 2.49
-5.72 1.73 2.49
-5.76 1.62 2.49
-5.79 1.50 2.49
-5.82 1.38 2.49
-5.82 1.26 2.48
-5.82 1.14 2.47
-5.83 1.02 2.46
-5.83 0.90 2.45
-5.83 0.78 2.45
-5.83 0.66 2.44
-5.83 0.54 2.44
-5.84 0.42 2.43
-5.84 0.31 2.43
-5.84 0.19 2.43
-5.84 0.07 2.43
-5.84 -0.05 2.43
-5.85 -0.16 2.43
-5.85 -0.28 2.43
-5.85 -0.40 2.43
-5.85 -0.52 2.43
-5.85 -0.64 2.44
-5.85 -0.76 2.44
-5.85 -0.88 2.45
-5.85 -1.00 2.46
-5.86 -1.12 2.47
-5.86 -1.24 2.48
-5.86 -1.37 2.49
-5.85 -1.49 2.49
-5.83 -1.61 2.49
-5.80 -1.73 2.49
-5.76 -1.84 2.49
-5.73 -1.96 2.49
-5.69 -2.07 2.49
-5.65 -2.19 2.49
-5.61 -2.30 2.49
-5.56 -2.42 2.49
-5.51 -2.53 2.49
-5.47 -2.64 2.49
-5.41 -2.75 2.49
-5.36 -2.86 2.49
-5.30 -2.97 2.49
-5.25 -3.08 2.49
-5.19 -3.18 2.49
-5.12 -3.29 2.49
-5.06 -3.39 2.49
-4.99 -3.49 2.49
-4.92 -3.60 2.49
-4.85 -3.70 2.49
-4.78 -3.79 2.49
-4.70 -3.89 2.49
-4.63 -3.99 2.49
-4.55 -4.08 2.49
-4.47 -4.17 2.49
-4.39 -4.26 2.49
-4.30 -4.35 2.49
-4.22 -4.44 2.49
-4.13 -4.53 2.49
-4.04 -4.61 2.49
-3.95 -4.69 2.49
-3.85 -4.77 2.49
-3.76 -4.85 2.49
-3.66 -4.93 2.49
-3.56 -5.00 2.49
-3.46 -5.08 2.49
-3.36 -5.15 2.49
-3.26 -5.22 2.49
-3.16 -5.28 2.49
-3.05 -5.35 2.49
-2.95 -5.41 2.49
-2.84 -5.47 2.49
-2.73 -5.53 2.49
-2.62 -5.58 2.49
-2.51 -5.64 2.49
-2.40 -5.69 2.49
-2.28 -5.74 2.49
-2.17 -5.79 2.49
-2.05 -5.83 2.49
-1.94 -5.87 2.49
-1.82 -5.91 2.49
-1.70 -5.95 2.49
-1.58 -5.99 2.49
-1.46 -6.02 2.49
-1.34 -6.05 2.49
-1.22 -6.08 2.49
-1.10 -6.10 2.49
-0.98 -6.12 2.49
-0.85 -6.14 2.49
-0.73 -6.16 2.49
-0.61 -6.18 2.49
-0.48 -6.19 2.49
-0.36 -6.20 2.49
-0.24 -6.21 2.49
-0.11 -6.21 2.49
0.01 -5.83 2.49
0.13 -5.83 2.49
0.25 -5.83 2.49
0.36 -5.83 2.49
0.48 -5.82 2.49
0.60 -5.81 2.49
0.71 -5.80 2.49
0.83 -5.79 2.49
0.94 -5.77 2.49
1.06 -5.75 2.49
1.17 -5.73 2.49
1.29 -5.71 2.49
1.40 -5.68 2.49
1.52 -5.65 2.49
1.63 -5.62 2.49
1.74 -5.59 2.49
1.85 -5.55 2.49
1.97 -5.51 2.49
2.08 -5.48 2.49
2.13 -5.30 2.43
2.20 -5.17 2.39
2.30 -5.12 2.39
2.40 -5.07 2.39
2.50 -5.03 2.39
2.61 -4.98 2.39
2.70 -4.92 2.39
2.80 -4.87 2.39
2.90 -4.81 2.39
2.99 -4.75 2.39
3.09 -4.69 2.39
3.18 -4.63 2.39
3.27 -4.56 2.39
3.37 -4.50 2.39
3.45 -4.43 2.39
3.54 -4.36 2.39
3.63 -4.29 2.39
3.71 -4.21 2.39
3.80 -4.14 2.39
3.88 -4.06 2.39
3.96 -3.98 2.39
4.04 -3.90 2.39
4.11 -3.82 2.39
4.19 -3.74 2.39
4.26 -3.65 2.39
4.33 -3.57 2.39
4.40 -3.48 2.39
4.47 -3.39 2.39
4.54 -3.30 2.39
4.60 -3.21 2.39
4.67 -3.11 2.39
4.73 -3.02 2.39
4.79 -2.92 2.39
4.84 -2.83 2.39
4.90 -2.73 2.39
4.95 -2.63 2.39
5.00 -2.53 2.39
5.05 -2.43 2.39
5.01 -2.29 2.35
5.09 -2.20 2.37
5.18 -2.12 2.39
5.22 -2.02 2.39
5.26 -1.91 2.39
5.29 -1.80 2.39
5.33 -1.70 2.39
5.36 -1.59 2.39
5.39 -1.48 2.39
5.02 -1.27 2.22
5.28 -1.23 2.32
5.46 -1.15 2.39
5.48 -1.04 2.39
5.50 -0.93 2.39
5.52 -0.82 2.39
5.53 -0.71 2.39
5.54 -0.60 2.39
5.55 -0.49 2.39
5.56 -0.38 2.39
5.56 -0.27 2.39
5.56 -0.16 2.39
5.56 -0.04 2.39
5.56 0.07 2.39
5.56 0.18 2.39
2.71 0.14 1.17
2.68 0.19 1.16
2.70 0.25 1.17
5.05 0.57 2.19
5.50 0.73 2.39
5.48 0.84 2.39
5.46 0.95 2.39
5.44 1.06 2.39
5.41 1.17 2.39
5.39 1.28 2.39
5.36 1.38 2.39
5.15 1.44 2.31
5.06 1.53 2.29
5.26 1.70 2.39
5.22 1.80 2.39
5.18 1.91 2.39
5.14 2.01 2.39
5.10 2.11 2.39
5.05 2.21 2.39
5.00 2.31 2.39
4.95 2.41 2.39
4.90 2.51 2.39
4.85 2.61 2.39
4.79 2.70 2.39
4.74 2.80 2.39
4.68 2.89 2.39
4.62 2.98 2.39
4.55 3.07 2.39
4.49 3.16 2.39
4.42 3.25 2.39
4.35 3.34 2.39
4.28 3.42 2.39
4.21 3.50 2.39
4.14 3.59 2.39
4.06 3.67 2.39
3.99 3.75 2.39
3.91 3.82 2.39
3.83 3.90 2.39
3.75 3.97 2.39
3.67 4.05 2.39
3.58 4.12 2.39
3.50 4.19 2.39
3.41 4.25 2.39
3.33 4.32 2.39
3.24 4.38 2.39
3.15 4.45 2.39
3.05 4.51 2.39
2.96 4.57 2.39
2.87 4.62 2.39
2.77 4.68 2.39
2.68 4.73 2.39
2.58 4.78 2.39
2.49 4.84 2.40
2.39 4.88 2.39
2.29 4.93 2.40
2.28 5.18 2.49
2.17 5.22 2.49
2.07 5.26 2.49
1.96 5.30 2.49
1.85 5.34 2.49
1.74 5.37 2.49
1.64 5.40 2.49
1.53 5.43 2.49
1.42 5.46 2.49
1.31 5.49 2.49
1.19 5.51 2.49
1.08 5.53 2.49
0.97 5.55 2.49
0.86 5.57 2.49
0.75 5.58 2.49
0.63 5.59 2.49
0.52 5.60 2.49
0.41 5.61 2.49
0.30 5.62 2.49
0.18 5.62 2.49
0.07 5.62 2.49
-0.04 5.62 2.49
-0.16 5.61 2.49
-0.27 5.61 2.49
-0.38 5.60 2.49
-0.50 5.59 2.49
-0.61 5.58 2.49
-0.72 5.56 2.49
-0.83 5.55 2.49
-0.94 5.53 2.49
-1.05 5.51 2.49
-1.16 5.48 2.49
-1.27 5.46 2.49
-1.38 5.43 2.49
-1.49 5.40 2.49
-1.60 5.37 2.49
-1.71 5.33 2.49
-1.82 5.30 2.49
-1.92 5.26 2.49
-2.03 5.22 2.49
-2.13 5.18 2.49
-2.23 5.13 2.49
-2.34 5.09 2.49
-2.44 5.04 2.49
-2.54 4.99 2.49
-2.64 4.93 2.49
-2.74 4.88 2.49
-2.84 4.82 2.49
-2.93 4.76 2.49
-3.03 4.70 2.49
-3.12 4.64 2.49
-3.22 4.58 2.49
-3.31 4.51 2.49
-3.40 4.45 2.49
-3.49 4.38 2.49
-3.57 4.30 2.49
-3.66 4.23 2.49
-3.74 4.16 2.49
-3.83 4.08 2.49
-3.91 4.00 2.49
-3.99 3.92 2.49
-4.07 3.84 2.49
-4.14 3.76 2.49
-4.22 3.68 2.49
-4.29 3.59 2.49
-4.37 3.51 2.49
-4.44 3.42 2.49
-4.50 3.33 2.49
-4.57 3.24 2.49
-4.64 3.14 2.49
-4.70 3.05 2.49
-4.76 2.96 2.49
-4.82 2.86 2.49
-4.88 2.76 2.49
-4.93 2.66 2.49
-4.99 2.57 2.49
-5.04 2.46 2.49
-5.09 2.36 2.49
-5.14 2.26 2.49
-5.18 2.16 2.49
-5.23 2.05 2.49
-5.27 1.95 2.49
-5.31 1.84 2.49
-5.34 1.74 2.49
-5.38 1.63 2.49
-5.41 1.52 2.49
-5.44 1.41 2.49
-5.47 1.30 2.49
-5.50 1.19 2.49
-5.52 1.08 2.49
-5.55 0.97 2.49
-5.57 0.86 2.49
-5.58 0.75 2.49
-5.60 0.63 2.49
-5.61 0.52 2.49
-5.63 0.41 2.49
-5.63 0.29 2.49
-5.64 0.18 2.49
-5.65 0.07 2.49
-5.65 -0.05 2.49
-5.65 -0.16 2.49
-5.65 -0.27 2.49
-5.64 -0.39 2.49
-5.63 -0.50 2.49
-5.63 -0.61 2.49
-5.61 -0.73 2.49
-5.60 -0.84 2.49
-5.59 -0.95 2.49
-5.57 -1.07 2.49
-5.55 -1.18 2.49
-5.52 -1.29 2.49
-5.50 -1.40 2.49
-5.47 -1.51 2.49
-5.44 -1.62 2.49
-5.41 -1.73 2.49
-5.38 -1.84 2.49
-5.34 -1.95 2.49
-5.31 -2.06 2.49
-5.27 -2.16 2.49
-5.22 -2.27 2.49
-5.18 -2.38 2.49
-5.13 -2.48 2.49
-5.08 -2.59 2.49
-5.03 -2.69 2.49
-4.98 -2.79 2.49
-4.93 -2.89 2.49
-4.87 -2.99 2.49
-4.81 -3.09 2.49
-4.75 -3.19 2.49
-4.69 -3.28 2.49
-4.62 -3.38 2.49
-4.56 -3.47 2.49
-4.49 -3.56 2.49
-4.42 -3.65 2.49
-4.34 -3.74 2.49
-4.27 -3.83 2.49
-4.19 -3.92 2.49
-4.12 -4.00 2.49
-4.04 -4.09 2.49
-3.96 -4.17 2.49
-3.87 -4.25 2.49
-3.79 -4.33 2.49
-3.70 -4.41 2.49
-3.62 -4.48 2.49
-3.53 -4.56 2.49
-3.44 -4.63 2.49
-3.35 -4.70 2.49
-3.25 -4.77 2.49
-3.16 -4.83 2.49
-3.06 -4.90 2.49
-2.96 -4.96 2.49
-2.86 -5.02 2.49
-2.76 -5.08 2.49
-2.66 -5.14 2.49
-2.56 -5.19 2.49
-2.46 -5.24 2.49
-2.35 -5.29 2.49
-2.25 -5.34 2.49
-2.14 -5.39 2.49
-2.03 -5.43 2.49
-1.92 -5.47 2.49
-1.82 -5.51 2.49
-1.71 -5.55 2.49
-1.59 -5.58 2.49
-1.48 -5.62 2.49
-1.37 -5.65 2.49
-1.26 -5.68 2.49
-1.14 -5.70 2.49
-1.03 -5.73 2.49
-0.92 -5.75 2.49
-0.80 -5.77 2.49
-0.69 -5.78 2.49
-0.57 -5.80 2.49
-0.45 -5.81 2.49
-0.34 -5.82 2.49
-0.22 -5.83 2.49
-0.10 -5.83 2.49
0.01 -5.49 2.49
0.12 -5.49 2.49
0.23 -5.49 2.49
0.34 -5.48 2.49
0.45 -5.48 2.49
0.56 -5.47 2.49
0.67 -5.46 2.49
0.78 -5.44 2.49
0.89 -5.43 2.49
1.00 -5.41 2.49
1.11 -5.39 2.49
1.21 -5.37 2.49
1.32 -5.34 2.49
1.43 -5.32 2.49
1.53 -5.29 2.49
1.64 -5.26 2.49
1.74 -5.22 2.49
1.85 -5.19 2.49
1.95 -5.15 2.49
2.06 -5.11 2.49
2.13 -5.01 2.47
2.17 -4.82 2.39
2.26 -4.77 2.39
2.36 -4.73 2.39
2.45 -4.68 2.39
2.54 -4.63 2.39
2.64 -4.58 2.39
2.73 -4.53 2.39
2.82 -4.47 2.39
2.91 -4.41 2.39
2.99 -4.35 2.39
3.08 -4.29 2.39
3.17 -4.23 2.39
3.25 -4.17 2.39
3.33 -4.10 2.39
3.41 -4.03 2.39
3.49 -3.96 2.39
3.57 -3.89 2.39
3.65 -3.82 2.39
3.72 -3.75 2.39
3.80 -3.67 2.39
3.87 -3.59 2.39
3.94 -3.52 2.39
4.01 -3.44 2.39
4.08 -3.36 2.39
4.14 -3.27 2.39
4.21 -3.19 2.39
4.27 -3.10 2.39
4.33 -3.02 2.39
4.39 -2.93 2.39
4.45 -2.84 2.39
4.50 -2.75 2.39
4.55 -2.66 2.39
4.61 -2.57 2.39
4.66 -2.47 2.39
4.70 -2.38 2.39
4.75 -2.29 2.39
4.79 -2.19 2.39
4.83 -2.09 2.39
4.87 -1.99 2.39
4.91 -1.90 2.39
4.95 -1.80 2.39
4.98 -1.70 2.39
5.01 -1.60 2.39
5.04 -1.50 2.39
5.07 -1.39 2.39
5.02 -1.27 2.36
5.12 -1.19 2.39
5.14 -1.09 2.39
5.16 -0.98 2.39
5.18 -0.88 2.39
5.19 -0.78 2.39
5.20 -0.67 2.39
5.21 -0.57 2.39
5.22 -0.46 2.39
5.23 -0.36 2.39
5.23 -0.25 2.39
5.24 -0.15 2.39
5.24 -0.04 2.39
5.23 0.06 2.39
5.23 0.17 2.39
2.71 0.14 1.24
2.68 0.19 1.23
2.70 0.25 1.24
5.05 0.57 2.33
5.18 0.69 2.39
5.16 0.79 2.39
5.14 0.89 2.39
5.12 1.00 2.39
5.10 1.10 2.39
5.07 1.20 2.39
5.04 1.30 2.39
5.02 1.40 2.39
4.98 1.50 2.39
4.95 1.60 2.39
4.92 1.70 2.39
4.88 1.79 2.39
4.84 1.89 2.39
4.80 1.99 2.39
4.76 2.08 2.39
4.71 2.18 2.39
4.66 2.27 2.39
4.62 2.36 2.39
4.57 2.45 2.39
4.51 2.54 2.39
4.46 2.63 2.39
4.40 2.72 2.39
4.35 2.81 2.39
4.29 2.89 2.39
4.23 2.97 2.39
4.16 3.06 2.39
4.10 3.14 2.39
4.03 3.22 2.39
3.97 3.30 2.39
3.90 3.38 2.39
3.83 3.45 2.39
3.76 3.53 2.39
3.68 3.60 2.39
3.61 3.67 2.39
3.53 3.74 2.39
3.45 3.81 2.39
3.38 3.88 2.39
3.30 3.94 2.39
3.21 4.01 2.39
3.13 4.07 2.39
3.05 4.13 2.39
2.96 4.19 2.39
2.88 4.24 2.39
2.79 4.30 2.39
2.70 4.35 2.39
2.61 4.40 2.39
2.52 4.45 2.39
2.43 4.50 2.39
2.34 4.55 2.39
2.28 4.66 2.43
2.25 4.84 2.49
2.15 4.88 2.49
2.05 4.92 2.49
1.95 4.96 2.49
1.85 4.99 2.49
1.75 5.03 2.49
1.64 5.06 2.49
1.54 5.09 2.49
1.44 5.12 2.49
1.34 5.14 2.49
1.23 5.17 2.49
1.13 5.19 2.49
1.02 5.21 2.49
0.92 5.23 2.49
0.81 5.24 2.49
0.70 5.26 2.49
0.60 5.27 2.49
0.49 5.28 2.49
0.39 5.29 2.49
0.28 5.29 2.49
0.17 5.29 2.49
0.07 5.29 2.49
-0.04 5.29 2.49
-0.15 5.29 2.49
-0.25 5.28 2.49
-0.36 5.28 2.49
-0.47 5.27 2.49
-0.57 5.26 2.49
-0.68 5.24 2.49
-0.78 5.23 2.49
-0.89 5.21 2.49
-0.99 5.19 2.49
-1.10 5.17 2.49
-1.20 5.14 2.49
-1.30 5.12 2.49
-1.41 5.09 2.49
-1.51 5.06 2.49
-1.61 5.03 2.49
-1.71 4.99 2.49
-1.81 4.96 2.49
-1.91 4.92 2.49
-2.01 4.88 2.49
-2.11 4.84 2.49
-2.20 4.79 2.49
-2.30 4.75 2.49
-2.39 4.70 2.49
-2.49 4.65 2.49
-2.58 4.60 2.49
-2.67 4.54 2.49
-2.76 4.49 2.49
-2.85 4.43 2.49
-2.94 4.37 2.49
-3.03 4.31 2.49
-3.12 4.25 2.49
-3.20 4.19 2.49
-3.28 4.12 2.49
-3.37 4.06 2.49
-3.45 3.99 2.49
-3.53 3.92 2.49
-3.61 3.85 2.49
-3.68 3.77 2.49
-3.76 3.70 2.49
-3.83 3.62 2.49
-3.91 3.54 2.49
-3.98 3.47 2.49
-4.05 3.38 2.49
-4.11 3.30 2.49
-4.18 3.22 2.49
-4.25 3.14 2.49
-4.31 3.05 2.49
-4.37 2.96 2.49
-4.43 2.87 2.49
-4.49 2.78 2.49
-4.54 2.69 2.49
-4.60 2.60 2.49
-4.65 2.51 2.49
-4.70 2.42 2.49
-4.75 2.32 2.49
-4.79 2.23 2.49
-4.84 2.13 2.49
-4.88 2.03 2.49
-4.92 1.93 2.49
-4.96 1.83 2.49
-5.00 1.73 2.49
-5.04 1.63 2.49
-5.07 1.53 2.49
-5.10 1.43 2.49
-5.13 1.33 2.49
-5.16 1.23 2.49
-5.18 1.12 2.49
-5.20 1.02 2.49
-5.23 0.91 2.49
-5.24 0.81 2.49
-5.26 0.70 2.49
-5.28 0.60 2.49
-5.29 0.49 2.49
-5.30 0.38 2.49
-5.31 0.28 2.49
-5.31 0.17 2.49
-5.32 0.06 2.49
-5.32 -0.04 2.49
-5.32 -0.15 2.49
-5.32 -0.26 2.49
-5.31 -0.37 2.49
-5.31 -0.47 2.49
-5.30 -0.58 2.49
-5.29 -0.69 2.49
-5.28 -0.79 2.49
-5.26 -0.90 2.49
-5.24 -1.00 2.49
-5.22 -1.11 2.49
-5.20 -1.22 2.49
-5.18 -1.32 2.49
-5.15 -1.42 2.49
-5.13 -1.53 2.49
-5.10 -1.63 2.49
-5.07 -1.74 2.49
-5.03 -1.84 2.49
-5.00 -1.94 2.49
-4.96 -2.04 2.49
-4.92 -2.14 2.49
-4.88 -2.24 2.49
-4.83 -2.34 2.49
-4.79 -2.44 2.49
-4.74 -2.53 2.49
-4.69 -2.63 2.49
-4.64 -2.72 2.49
-4.58 -2.82 2.49
-4.53 -2.91 2.49
-4.47 -3.00 2.49
-4.41 -3.09 2.49
-4.35 -3.18 2.49
-4.29 -3.27 2.49
-4.22 -3.36 2.49
-4.16 -3.44 2.49
-4.09 -3.53 2.49
-4.02 -3.61 2.49
-3.95 -3.69 2.49
-3.88 -3.77 2.49
-3.80 -3.85 2.49
-3.72 -3.93 2.49
-3.65 -4.00 2.49
-3.57 -4.08 2.49
-3.49 -4.15 2.49
-3.40 -4.22 2.49
-3.32 -4.29 2.49
-3.23 -4.36 2.49
-3.15 -4.42 2.49
-3.06 -4.49 2.49
-2.97 -4.55 2.49
-2.88 -4.61 2.49
-2.79 -4.67 2.49
-2.70 -4.73 2.49
-2.60 -4.78 2.49
-2.51 -4.83 2.49
-2.41 -4.88 2.49
-2.31 -4.93 2.49
-2.21 -4.98 2.49
-2.11 -5.03 2.49
-2.01 -5.07 2.49
-1.91 -5.11 2.49
-1.81 -5.15 2.49
-1.71 -5.19 2.49
-1.60 -5.22 2.49
-1.50 -5.26 2.49
-1.39 -5.29 2.49
-1.29 -5.31 2.49
-1.18 -5.34 2.49
-1.08 -5.37 2.49
-0.97 -5.39 2.49
-0.86 -5.41 2.49
-0.75 -5.43 2.49
-0.64 -5.44 2.49
-0.53 -5.45 2.49
-0.43 -5.47 2.49
-0.32 -5.48 2.49
-0.21 -5.48 2.49
-0.10 -5.49 2.49
0.01 -5.18 2.49
0.12 -5.18 2.49
0.22 -5.17 2.49
0.32 -5.17 2.49
0.43 -5.16 2.49
0.53 -5.16 2.49
0.63 -5.14 2.49
0.74 -5.13 2.49
0.84 -5.12 2.49
0.94 -5.10 2.49
1.04 -5.08 2.49
1.14 -5.06 2.49
1.25 -5.04 2.49
1.35 -5.01 2.49
1.45 -4.99 2.49
1.55 -4.96 2.49
1.65 -4.92 2.49
1.74 -4.89 2.49
1.84 -4.86 2.49
1.94 -4.82 2.49
2.03 -4.78 2.49
2.13 -4.74 2.49
2.15 -4.53 2.41
2.22 -4.46 2.39
2.31 -4.41 2.39
2.40 -4.37 2.39
2.49 -4.32 2.39
2.57 -4.27 2.39
2.66 -4.21 2.39
2.74 -4.16 2.39
2.82 -4.11 2.39
2.90 -4.05 2.39
2.98 -3.99 2.39
3.06 -3.93 2.39
3.14 -3.87 2.39
3.22 -3.80 2.39
3.29 -3.74 2.39
3.37 -3.67 2.39
3.44 -3.60 2.39
3.51 -3.53 2.39
3.58 -3.46 2.39
3.65 -3.39 2.39
3.72 -3.32 2.39
3.78 -3.24 2.39
3.84 -3.16 2.39
3.91 -3.09 2.39
3.97 -3.01 2.39
4.03 -2.93 2.39
4.08 -2.85 2.39
4.14 -2.76 2.39
4.19 -2.68 2.39
4.24 -2.59 2.39
4.29 -2.51 2.39
4.34 -2.42 2.39
4.39 -2.33 2.39
4.43 -2.24 2.39
4.48 -2.16 2.39
4.52 -2.06 2.39
4.56 -1.97 2.39
4.60 -1.88 2.39
4.63 -1.79 2.39
4.67 -1.70 2.39
4.70 -1.60 2.39
4.73 -1.51 2.39
4.75 -1.41 2.39
4.78 -1.32 2.39
4.80 -1.22 2.39
4.83 -1.12 2.39
4.85 -1.03 2.39
4.87 -0.93 2.39
4.88 -0.83 2.39
4.90 -0.73 2.39
4.91 -0.63 2.39
4.92 -0.54 2.39
4.93 -0.44 2.39
4.93 -0.34 2.39
4.94 -0.24 2.39
4.94 -0.14 2.39
4.94 -0.04 2.39
4.94 0.06 2.39
4.93 0.16 2.39
2.72 0.14 1.32
2.68 0.19 1.30
2.70 0.25 1.31
4.90 0.55 2.39
4.88 0.65 2.39
4.87 0.75 2.39
4.85 0.84 2.39
4.83 0.94 2.39
4.81 1.03 2.39
4.78 1.13 2.39
4.76 1.23 2.39
4.73 1.32 2.39
4.70 1.41 2.39
4.67 1.51 2.39
4.64 1.60 2.39
4.60 1.69 2.39
4.57 1.78 2.39
4.53 1.87 2.39
4.49 1.96 2.39
4.44 2.05 2.39
4.40 2.14 2.39
4.36 2.23 2.39
4.31 2.31 2.39
4.26 2.40 2.39
4.21 2.48 2.39
4.16 2.56 2.39
4.10 2.65 2.39
4.05 2.73 2.39
3.99 2.81 2.39
3.93 2.88 2.39
3.87 2.96 2.39
3.81 3.04 2.39
3.74 3.11 2.39
3.68 3.19 2.39
3.61 3.26 2.39
3.55 3.33 2.39
3.48 3.40 2.39
3.41 3.46 2.39
3.33 3.53 2.39
3.26 3.60 2.39
3.19 3.66 2.39
3.11 3.72 2.39
3.04 3.78 2.39
2.96 3.84 2.39
2.88 3.90 2.39
2.80 3.95 2.39
2.72 4.01 2.39
2.64 4.06 2.39
2.55 4.11 2.39
2.48 4.17 2.40
2.38 4.20 2.39
2.30 4.25 2.39
2.27 4.41 2.46
2.21 4.52 2.49
2.12 4.56 2.49
2.03 4.60 2.49
1.94 4.64 2.49
1.84 4.68 2.49
1.75 4.71 2.49
1.65 4.75 2.49
1.55 4.78 2.49
1.46 4.80 2.49
1.36 4.83 2.49
1.26 4.86 2.49
1.16 4.88 2.49
1.06 4.90 2.49
0.97 4.92 2.49
0.87 4.94 2.49
0.77 4.95 2.49
0.67 4.96 2.49
0.57 4.97 2.49
0.47 4.98 2.49
0.36 4.99 2.49
0.26 5.00 2.49
0.16 5.00 2.49
0.06 5.00 2.49
-0.04 5.00 2.49
-0.14 5.00 2.49
-0.24 4.99 2.49
-0.34 4.98 2.49
-0.44 4.97 2.49
-0.54 4.96 2.49
-0.64 4.95 2.49
-0.74 4.94 2.49
-0.84 4.92 2.49
-0.94 4.90 2.49
-1.04 4.88 2.49
-1.13 4.86 2.49
-1.23 4.83 2.49
-1.33 4.81 2.49
-1.42 4.78 2.49
-1.52 4.75 2.49
-1.61 4.71 2.49
-1.71 4.68 2.49
-1.80 4.64 2.49
-1.90 4.61 2.49
-1.99 4.57 2.49
-2.08 4.53 2.49
-2.17 4.48 2.49
-2.26 4.44 2.49
-2.35 4.39 2.49
-2.44 4.34 2.49
-2.52 4.29 2.49
-2.61 4.24 2.49
-2.69 4.19 2.49
-2.78 4.13 2.49
-2.86 4.07 2.49
-2.94 4.02 2.49
-3.02 3.96 2.49
-3.10 3.89 2.49
-3.18 3.83 2.49
-3.26 3.77 2.49
-3.33 3.70 2.49
-3.41 3.63 2.49
-3.48 3.56 2.49
-3.55 3.49 2.49
-3.62 3.42 2.49
-3.69 3.35 2.49
-3.76 3.27 2.49
-3.82 3.20 2.49
-3.89 3.12 2.49
-3.95 3.04 2.49
-4.01 2.96 2.49
-4.07 2.88 2.49
-4.13 2.80 2.49
-4.18 2.71 2.49
-4.24 2.63 2.49
-4.29 2.54 2.49
-4.34 2.46 2.49
-4.39 2.37 2.49
-4.44 2.28 2.49
-4.48 2.19 2.49
-4.53 2.10 2.49
-4.57 2.01 2.49
-4.61 1.92 2.49
-4.65 1.83 2.49
-4.69 1.73 2.49
-4.72 1.64 2.49
-4.76 1.54 2.49
-4.79 1.45 2.49
-4.82 1.35 2.49
-4.84 1.25 2.49
-4.87 1.16 2.49
-4.89 1.06 2.49
-4.91 0.96 2.49
-4.93 0.86 2.49
-4.95 0.76 2.49
-4.97 0.66 2.49
-4.98 0.56 2.49
-4.99 0.46 2.49
-5.00 0.36 2.49
-5.01 0.26 2.49
-5.02 0.16 2.49
-5.02 0.06 2.49
-5.02 -0.04 2.49
-5.02 -0.14 2.49
-5.02 -0.24 2.49
-5.02 -0.35 2.49
-5.01 -0.45 2.49
-5.00 -0.55 2.49
-4.99 -0.65 2.49
-4.98 -0.75 2.49
-4.97 -0.85 2.49
-4.95 -0.95 2.49
-4.93 -1.05 2.49
-4.91 -1.15 2.49
-4.89 -1.25 2.49
-4.87 -1.35 2.49
-4.84 -1.44 2.49
-4.81 -1.54 2.49
-4.78 -1.64 2.49
-4.75 -1.74 2.49
-4.72 -1.83 2.49
-4.68 -1.93 2.49
-4.64 -2.02 2.49
-4.60 -2.11 2.49
-4.56 -2.21 2.49
-4.52 -2.30 2.49
-4.47 -2.39 2.49
-4.43 -2.48 2.49
-4.38 -2.57 2.49
-4.33 -2.66 2.49
-4.27 -2.75 2.49
-4.22 -2.83 2.49
-4.16 -2.92 2.49
-4.11 -3.00 2.49
-4.05 -3.09 2.49
-3.99 -3.17 2.49
-3.92 -3.25 2.49
-3.86 -3.33 2.49
-3.79 -3.41 2.49
-3.72 -3.48 2.49
-3.66 -3.56 2.49
-3.59 -3.63 2.49
-3.51 -3.71 2.49
-3.44 -3.78 2.49
-3.36 -3.85 2.49
-3.29 -3.92 2.49
-3.21 -3.98 2.49
-3.13 -4.05 2.49
-3.05 -4.11 2.49
-2.97 -4.17 2.49
-2.89 -4.23 2.49
-2.80 -4.29 2.49
-2.72 -4.35 2.49
-2.63 -4.40 2.49
