ply
format ascii 1.0
element vertex 2940
property float32 x
property float32 y
property float32 z
end_header
-5.82 16.90 2.49
-6.16 16.79 2.49
-6.23 15.98 2.39
-6.56 15.86 2.39
-6.88 15.73 2.39
-7.19 15.60 2.39
-7.51 15.46 2.39
-7.82 15.31 2.39
-8.13 15.16 2.39
-8.44 15.00 2.39
-8.74 14.84 2.39
-9.04 14.66 2.39
-9.34 14.49 2.39
-9.63 14.30 2.39
-6.37 9.07 1.54
-9.65 13.16 2.26
-9.87 12.91 2.25
-10.25 12.86 2.28
-10.70 12.89 2.32
-11.11 12.85 2.35
-11.59 12.87 2.39
-11.91 12.70 2.41
-12.16 12.47 2.41
-7.46 7.34 1.45
-7.57 7.16 1.44
-7.78 7.07 1.45
-13.11 11.44 2.40
-13.33 11.17 2.40
-13.54 10.89 2.40
-13.74 10.61 2.39
-13.93 10.31 2.39
-14.10 10.00 2.38
-14.26 9.69 2.38
-12.70 8.27 2.09
-12.64 7.87 2.05
-12.57 7.48 2.01
-12.54 7.13 1.99
-12.53 6.79 1.96
-12.53 6.47 1.94
-12.52 6.15 1.92
-12.54 5.85 1.90
-12.60 5.57 1.90
-12.66 5.30 1.89
-12.81 5.06 1.90
-13.56 5.05 1.99
-14.39 5.03 2.10
-14.61 4.78 2.11
-14.61 4.46 2.10
-14.60 4.14 2.09
-14.60 3.82 2.07
-14.59 3.51 2.06
-14.58 3.20 2.05
-14.58 2.89 2.04
-14.55 2.58 2.03
-9.41 1.48 1.31
-10.02 1.37 1.39
-11.71 1.36 1.62
-13.71 1.31 1.89
-14.56 1.10 2.01
-14.57 0.81 2.01
-14.58 0.51 2.01
-14.59 0.22 2.01
-14.59 -0.07 2.01
-14.58 -0.36 2.01
-14.57 -0.66 2.01
-14.55 -0.95 2.01
-14.53 -1.24 2.01
-14.50 -1.53 2.01
-14.46 -1.82 2.01
-14.45 -2.12 2.01
-14.44 -2.41 2.02
-13.54 -2.54 1.90
-12.53 -2.61 1.76
-12.47 -2.86 1.76
-12.41 -3.11 1.76
-12.34 -3.36 1.76
-9.81 -2.88 1.41
-9.69 -3.06 1.40
-9.76 -3.30 1.42
-12.31 -4.44 1.81
-12.30 -4.72 1.82
-12.33 -5.01 1.84
-12.37 -5.32 1.86
-12.41 -5.63 1.88
-12.45 -5.96 1.91
-15.40 -7.75 2.39
-15.24 -8.06 2.39
-15.06 -8.36 2.39
-14.88 -8.65 2.39
-14.70 -8.94 2.38
-14.50 -9.23 2.38
-14.30 -9.51 2.38
-14.11 -9.80 2.38
-13.64 -9.88 2.34
-13.11 -9.91 2.28
-12.53 -9.87 2.22
-12.05 -9.88 2.17
-11.51 -9.84 2.11
-11.09 -9.87 2.07
-10.60 -9.82 2.01
-10.21 -9.85 1.98
-9.77 -9.80 1.93
-9.41 -9.83 1.90
-9.18 -9.99 1.89
-11.41 -12.92 2.41
-11.14 -13.14 2.41
-7.99 -9.82 1.77
-7.74 -9.91 1.76
-7.62 -10.17 1.78
-10.03 -13.96 2.41
-9.74 -14.15 2.41
-9.39 -14.24 2.39
-9.09 -14.42 2.39
-8.80 -14.59 2.39
-8.50 -14.76 2.39
-8.19 -14.91 2.39
-7.89 -15.07 2.39
-7.58 -15.21 2.39
-7.27 -15.35 2.39
-6.96 -15.49 2.39
-6.64 -15.61 2.39
-6.32 -15.74 2.39
-6.00 -15.85 2.39
-5.68 -15.96 2.39
-5.51 -16.53 2.46
-5.24 -16.85 2.49
-4.90 -16.94 2.49
-4.56 -17.03 2.49
-4.21 -17.10 2.49
-3.87 -17.18 2.49
-3.52 -17.24 2.49
-3.17 -17.30 2.49
-2.82 -17.35 2.49
-2.47 -17.39 2.49
-2.12 -17.42 2.49
-1.77 -17.45 2.49
-1.42 -17.47 2.49
-1.06 -17.49 2.49
-0.71 -17.50 2.49
-0.36 -17.50 2.49
-0.01 -15.06 2.49
0.29 -15.05 2.49
0.59 -15.03 2.49
0.89 -15.01 2.49
1.20 -14.98 2.49
1.50 -14.94 2.49
1.79 -14.90 2.49
2.09 -14.86 2.49
2.39 -14.81 2.49
2.57 -14.14 2.39
2.86 -14.08 2.39
3.14 -14.01 2.39
3.41 -13.94 2.39
3.69 -13.86 2.39
3.97 -13.78 2.39
4.24 -13.69 2.39
4.51 -13.59 2.39
4.78 -13.49 2.39
5.05 -13.39 2.39
5.32 -13.28 2.39
5.35 -12.61 2.29
5.84 -13.05 2.39
5.18 -10.96 2.03
5.16 -10.39 1.94
2.82 -5.39 1.02
5.40 -9.85 1.88
5.59 -9.73 1.88
6.19 -10.29 2.01
6.19 -9.84 1.95
6.19 -9.41 1.89
6.18 -8.99 1.83
6.17 -8.61 1.78
6.16 -8.24 1.73
6.15 -7.90 1.68
6.15 -7.57 1.64
6.14 -7.26 1.60
6.14 -6.96 1.56
6.13 -6.68 1.53
6.06 -6.35 1.48
6.12 -6.15 1.46
6.11 -5.91 1.43
6.11 -5.67 1.40
6.10 -5.44 1.38
6.10 -5.22 1.35
6.10 -5.01 1.33
6.09 -4.80 1.31
6.09 -4.61 1.29
6.08 -4.41 1.27
6.08 -4.23 1.25
6.08 -4.05 1.23
6.07 -3.87 1.21
6.07 -3.70 1.20
6.07 -3.53 1.18
6.06 -3.37 1.17
6.06 -3.21 1.16
6.06 -3.05 1.15
6.05 -2.90 1.13
6.05 -2.75 1.12
6.05 -2.60 1.11
5.98 -2.44 1.09
6.01 -2.31 1.09
6.04 -2.18 1.08
6.04 -2.04 1.08
6.03 -1.91 1.07
6.03 -1.77 1.06
6.03 -1.64 1.06
6.03 -1.51 1.05
6.02 -1.38 1.04
6.02 -1.26 1.04
6.02 -1.13 1.03
6.02 -1.01 1.03
6.01 -0.88 1.03
6.01 -0.76 1.02
6.01 -0.64 1.02
6.01 -0.51 1.02
6.00 -0.39 1.02
6.00 -0.27 1.01
6.00 -0.15 1.01
6.00 -0.03 1.01
5.99 0.09 1.01
5.99 0.21 1.01
5.99 0.33 1.01
5.99 0.45 1.01
5.98 0.57 1.01
5.98 0.69 1.02
5.98 0.82 1.02
5.98 0.94 1.02
5.97 1.06 1.02
5.97 1.19 1.03
5.97 1.31 1.03
5.97 1.44 1.03
5.91 1.55 1.03
5.91 1.67 1.03
5.96 1.82 1.05
5.96 1.95 1.06
5.95 2.08 1.06
5.95 2.22 1.07
5.95 2.35 1.08
5.94 2.49 1.08
5.94 2.63 1.09
5.94 2.77 1.10
5.94 2.92 1.11
5.93 3.07 1.12
5.93 3.22 1.13
5.93 3.37 1.14
5.92 3.53 1.16
5.92 3.69 1.17
5.92 3.86 1.18
5.91 4.03 1.20
5.91 4.20 1.22
5.91 4.38 1.23
5.90 4.56 1.25
5.90 4.75 1.27
5.89 4.95 1.29
5.89 5.15 1.31
5.89 5.36 1.33
5.84 5.54 1.35
5.88 5.80 1.38
5.87 6.03 1.41
5.87 6.27 1.43
5.86 6.52 1.46
5.86 6.79 1.50
5.85 7.06 1.53
5.85 7.35 1.56
5.84 7.65 1.60
5.83 7.97 1.64
5.83 8.31 1.69
5.82 8.66 1.74
5.81 9.04 1.79
5.80 9.44 1.84
5.80 9.86 1.90
5.79 10.31 1.96
5.78 10.80 2.03
5.77 11.32 2.11
5.70 11.77 2.17
5.77 13.24 2.39
5.50 13.36 2.39
5.24 13.47 2.39
4.97 13.58 2.39
4.70 13.68 2.39
4.42 13.78 2.39
4.15 13.88 2.39
3.87 13.96 2.39
3.59 14.05 2.39
3.31 14.12 2.39
3.03 14.19 2.39
2.74 14.26 2.39
2.46 14.32 2.39
2.17 14.37 2.39
1.91 14.64 2.43
1.66 15.09 2.49
1.36 15.13 2.49
1.06 15.16 2.49
0.75 15.18 2.49
0.45 15.20 2.49
0.14 15.22 2.49
-0.16 15.22 2.49
-0.47 15.23 2.49
-0.77 15.22 2.49
-1.08 15.21 2.49
-1.39 15.19 2.49
-1.69 15.17 2.49
-2.00 15.14 2.49
-2.30 15.10 2.49
-2.60 15.06 2.49
-2.91 15.01 2.49
-3.21 14.96 2.49
-3.51 14.90 2.49
-3.81 14.83 2.49
-4.11 14.76 2.49
-4.41 14.68 2.49
-4.70 14.60 2.49
-5.00 14.51 2.49
-5.29 14.41 2.49
-5.58 14.31 2.49
-5.87 14.20 2.49
-6.13 14.02 2.48
-6.17 13.39 2.39
-6.44 13.26 2.39
-6.71 13.14 2.39
-6.98 13.01 2.39
-7.24 12.87 2.39
-7.50 12.73 2.39
-7.75 12.58 2.39
-8.01 12.42 2.39
-8.26 12.27 2.39
-6.37 9.07 1.79
-8.75 11.93 2.39
-8.99 11.76 2.39
-9.23 11.58 2.39
-9.46 11.40 2.39
-9.69 11.21 2.39
-9.92 11.01 2.39
-10.21 10.89 2.41
-10.09 10.34 2.33
-7.46 7.34 1.69
-7.57 7.16 1.68
-7.78 7.07 1.69
-10.67 9.31 2.28
-11.46 9.60 2.41
-11.65 9.37 2.41
-11.84 9.14 2.41
-12.03 8.90 2.41
-12.20 8.66 2.41
-12.38 8.41 2.41
-12.54 8.16 2.41
-12.64 7.87 2.39
-12.57 7.48 2.35
-12.54 7.13 2.32
-12.53 6.79 2.29
-12.53 6.47 2.27
-12.52 6.15 2.24
-12.54 5.85 2.22
-12.60 5.57 2.21
-12.66 5.30 2.20
-12.81 5.06 2.21
-13.56 5.04 2.32
-13.95 4.87 2.37
-14.04 4.59 2.37
-13.76 4.20 2.31
-13.83 3.92 2.31
-13.90 3.64 2.31
-13.96 3.36 2.31
-14.02 3.07 2.30
-14.08 2.79 2.30
-14.11 2.50 2.30
-9.41 1.48 1.53
-10.02 1.37 1.62
-11.71 1.36 1.89
-13.71 1.31 2.21
-14.19 1.07 2.28
-14.16 0.78 2.28
-14.16 0.50 2.27
-14.15 0.22 2.27
-14.14 -0.07 2.27
-14.14 -0.35 2.27
-14.13 -0.64 2.27
-14.13 -0.92 2.27
-14.12 -1.20 2.28
-14.14 -1.49 2.28
-14.13 -1.78 2.29
-14.13 -2.07 2.30
-14.12 -2.36 2.30
-13.53 -2.54 2.21
-12.53 -2.61 2.06
-12.47 -2.86 2.06
-12.41 -3.11 2.06
-12.34 -3.36 2.06
-9.81 -2.88 1.65
-9.72 -3.07 1.64
-9.76 -3.30 1.66
-12.31 -4.44 2.11
-12.30 -4.71 2.12
-12.33 -5.01 2.15
-12.37 -5.32 2.17
-12.41 -5.63 2.20
-12.45 -5.96 2.23
-13.25 -6.67 2.40
-13.12 -6.94 2.40
-12.98 -7.20 2.40
-12.84 -7.46 2.40
-12.69 -7.72 2.40
-12.54 -7.98 2.40
-12.38 -8.23 2.41
-12.22 -8.48 2.41
-12.04 -8.72 2.41
-11.86 -8.96 2.41
-11.67 -9.19 2.41
-11.48 -9.42 2.41
-11.28 -9.64 2.41
-11.08 -9.86 2.41
-10.60 -9.82 2.35
-10.21 -9.85 2.30
-9.77 -9.80 2.25
-9.41 -9.83 2.21
-9.18 -9.99 2.21
-9.82 -11.13 2.41
-9.50 -11.21 2.39
-8.00 -9.83 2.06
-7.74 -9.91 2.05
-7.63 -10.18 2.07
-8.55 -11.91 2.39
-8.15 -11.84 2.34
-7.76 -11.77 2.30
-7.53 -11.93 2.30
-7.31 -12.12 2.31
-7.12 -12.35 2.33
-6.89 -12.53 2.34
-6.69 -12.77 2.36
-6.48 -13.00 2.38
-6.25 -13.19 2.39
-5.98 -13.31 2.39
-5.71 -13.42 2.39
-5.56 -13.85 2.45
-5.38 -14.21 2.49
-5.09 -14.31 2.49
-4.80 -14.40 2.49
-4.51 -14.49 2.49
-4.22 -14.57 2.49
-3.92 -14.64 2.49
-3.62 -14.71 2.49
-3.33 -14.77 2.49
-3.03 -14.83 2.49
-2.73 -14.88 2.49
-2.43 -14.92 2.49
-2.13 -14.96 2.49
-1.82 -14.99 2.49
-1.52 -15.02 2.49
-1.22 -15.04 2.49
-0.92 -15.05 2.49
-0.62 -15.06 2.49
-0.31 -15.06 2.49
-0.01 -13.20 2.49
0.25 -13.20 2.49
0.52 -13.18 2.49
0.78 -13.16 2.49
1.05 -13.14 2.49
1.31 -13.11 2.49
1.57 -13.08 2.49
1.83 -13.04 2.49
2.09 -12.99 2.49
2.35 -12.94 2.49
2.50 -12.35 2.39
2.75 -12.29 2.39
3.00 -12.23 2.39
3.24 -12.16 2.39
3.48 -12.09 2.39
3.72 -12.01 2.39
3.96 -11.93 2.39
4.20 -11.85 2.39
4.43 -11.76 2.39
4.67 -11.66 2.39
4.90 -11.56 2.39
5.13 -11.45 2.39
5.35 -11.34 2.39
5.30 -10.66 2.27
2.82 -5.39 1.16
5.18 -9.45 2.06
5.56 -9.68 2.13
6.19 -10.30 2.29
6.14 -9.77 2.20
6.14 -9.34 2.14
6.18 -9.00 2.09
6.17 -8.61 2.02
6.16 -8.24 1.97
6.15 -7.90 1.91
6.15 -7.57 1.87
6.14 -7.26 1.82
6.14 -6.96 1.78
6.13 -6.68 1.74
6.06 -6.35 1.68
6.12 -6.16 1.66
6.11 -5.91 1.63
6.11 -5.67 1.60
6.10 -5.44 1.57
6.10 -5.22 1.54
6.10 -5.01 1.51
6.09 -4.80 1.49
6.09 -4.61 1.46
6.08 -4.41 1.44
6.08 -4.23 1.42
6.08 -4.05 1.40
6.07 -3.87 1.38
6.07 -3.70 1.36
6.07 -3.53 1.35
6.06 -3.37 1.33
6.06 -3.21 1.32
6.06 -3.05 1.30
6.05 -2.90 1.29
6.05 -2.75 1.28
6.05 -2.60 1.27
5.98 -2.44 1.24
6.01 -2.31 1.24
6.04 -2.18 1.23
6.04 -2.04 1.22
6.03 -1.91 1.22
6.03 -1.77 1.21
6.03 -1.64 1.20
6.03 -1.51 1.19
6.02 -1.38 1.19
6.02 -1.26 1.18
6.02 -1.13 1.18
6.02 -1.01 1.17
6.01 -0.88 1.17
6.01 -0.76 1.16
6.01 -0.63 1.16
6.01 -0.51 1.16
6.00 -0.39 1.16
6.00 -0.27 1.15
6.00 -0.15 1.15
6.00 -0.03 1.15
5.99 0.09 1.15
5.99 0.21 1.15
5.99 0.33 1.15
5.99 0.45 1.15
5.98 0.57 1.15
5.98 0.69 1.16
5.98 0.82 1.16
5.98 0.94 1.16
5.97 1.06 1.16
5.97 1.19 1.17
5.97 1.31 1.17
5.97 1.44 1.18
5.91 1.55 1.17
5.91 1.68 1.18
5.96 1.82 1.19
5.96 1.95 1.20
5.95 2.08 1.21
5.95 2.22 1.22
5.95 2.35 1.22
5.94 2.49 1.23
5.94 2.63 1.24
5.94 2.77 1.25
5.94 2.92 1.27
5.93 3.07 1.28
5.93 3.22 1.29
5.93 3.37 1.30
5.92 3.53 1.32
5.92 3.69 1.33
5.92 3.86 1.35
5.91 4.03 1.37
5.91 4.20 1.38
5.91 4.38 1.40
5.90 4.56 1.42
5.90 4.75 1.44
5.89 4.95 1.47
5.89 5.15 1.49
5.89 5.36 1.52
5.84 5.54 1.53
5.88 5.80 1.57
5.87 6.03 1.60
5.87 6.27 1.63
5.86 6.52 1.67
5.86 6.79 1.70
5.85 7.06 1.74
5.85 7.35 1.78
5.84 7.66 1.83
5.83 7.97 1.87
5.83 8.31 1.92
5.82 8.66 1.98
5.81 9.04 2.04
5.80 9.44 2.10
5.74 9.77 2.15
5.96 11.15 2.39
5.74 11.27 2.39
5.51 11.39 2.39
5.29 11.50 2.39
5.06 11.61 2.39
4.82 11.71 2.39
4.59 11.81 2.39
4.35 11.91 2.39
4.12 12.00 2.39
3.88 12.08 2.39
3.63 12.16 2.39
3.39 12.24 2.39
3.15 12.31 2.39
2.90 12.38 2.39
2.65 12.44 2.39
2.40 12.50 2.39
2.16 12.59 2.40
1.94 12.87 2.44
1.72 13.18 2.49
1.46 13.22 2.49
1.19 13.25 2.49
0.92 13.28 2.49
0.66 13.30 2.49
0.39 13.32 2.49
0.12 13.33 2.49
-0.14 13.33 2.49
-0.41 13.33 2.49
-0.68 13.33 2.49
-0.95 13.32 2.49
-1.21 13.30 2.49
-1.48 13.28 2.49
-1.75 13.26 2.49
-2.02 13.22 2.49
-2.28 13.19 2.49
-2.55 13.14 2.49
-2.81 13.09 2.49
-3.07 13.04 2.49
-3.34 12.98 2.49
-3.60 12.92 2.49
-3.86 12.85 2.49
-4.12 12.77 2.49
-4.37 12.69 2.49
-4.63 12.61 2.49
-4.88 12.52 2.49
-5.14 12.42 2.49
-5.39 12.32 2.49
-5.63 12.21 2.49
-5.88 12.10 2.49
-6.09 11.91 2.48
-6.10 11.38 2.39
-6.33 11.26 2.39
-6.56 11.13 2.39
-6.78 11.00 2.39
-7.00 10.86 2.39
-7.22 10.73 2.39
-6.37 9.06 2.05
-7.65 10.43 2.39
-7.86 10.28 2.39
-8.07 10.12 2.39
-8.27 9.96 2.39
-8.47 9.80 2.39
-8.67 9.63 2.39
-8.87 9.46 2.39
-9.06 9.28 2.39
-7.46 7.34 1.93
-7.57 7.16 1.92
-7.79 7.07 1.94
-9.78 8.53 2.39
-9.95 8.33 2.39
-10.05 8.08 2.37
-10.04 7.75 2.33
-10.03 7.42 2.30
-10.10 7.17 2.28
-10.61 7.21 2.36
-10.61 6.90 2.33
-10.61 6.60 2.30
-10.65 6.34 2.28
-11.36 6.46 2.40
-11.49 6.23 2.40
-11.62 6.00 2.40
-11.74 5.77 2.40
-11.86 5.53 2.41
-11.97 5.29 2.41
-12.08 5.05 2.41
-12.18 4.81 2.41
-12.28 4.57 2.41
-12.01 4.20 2.34
-12.09 3.95 2.34
-12.16 3.71 2.34
-12.22 3.46 2.33
-12.29 3.21 2.33
-12.34 2.97 2.33
-12.40 2.72 2.33
-12.44 2.47 2.33
-12.86 2.28 2.40
-9.41 1.48 1.75
-10.01 1.37 1.86
-11.71 1.36 2.17
-13.01 1.24 2.40
-13.03 0.98 2.40
-13.04 0.72 2.40
-13.05 0.46 2.40
-13.05 0.20 2.40
-12.77 -0.06 2.35
-12.76 -0.32 2.35
-12.75 -0.57 2.35
-12.74 -0.83 2.35
-12.72 -1.08 2.35
-12.69 -1.34 2.35
-12.66 -1.59 2.35
-12.63 -1.85 2.35
-12.86 -2.15 2.40
-12.82 -2.40 2.40
-12.53 -2.61 2.36
-12.47 -2.86 2.35
-12.41 -3.11 2.35
-12.34 -3.36 2.36
-9.80 -2.88 1.88
-9.72 -3.07 1.88
-9.76 -3.30 1.90
-12.28 -4.43 2.41
-12.19 -4.67 2.41
-12.09 -4.91 2.41
-11.98 -5.15 2.41
-11.88 -5.39 2.41
-11.76 -5.63 2.41
-11.64 -5.86 2.41
-11.52 -6.09 2.41
-11.39 -6.32 2.41
-11.26 -6.54 2.41
-11.12 -6.77 2.41
-10.40 -6.61 2.28
-10.33 -6.87 2.30
-10.33 -7.17 2.33
-10.31 -7.47 2.36
-9.82 -7.42 2.28
-9.73 -7.66 2.29
-9.72 -7.97 2.33
-9.87 -8.43 2.41
-9.63 -8.57 2.39
-9.45 -8.76 2.39
-9.27 -8.94 2.39
-9.09 -9.12 2.39
-8.90 -9.30 2.39
-8.71 -9.47 2.39
-8.45 -9.57 2.37
-8.26 -9.74 2.37
-8.06 -9.90 2.37
-7.85 -10.05 2.37
-7.70 -10.28 2.39
-7.49 -10.42 2.39
-7.28 -10.57 2.39
-7.05 -10.69 2.39
-6.82 -10.82 2.39
-6.60 -10.94 2.38
-6.39 -11.10 2.39
-6.17 -11.22 2.39
-5.94 -11.34 2.39
-5.71 -11.45 2.39
-5.61 -11.83 2.45
-5.46 -12.16 2.49
-5.22 -12.26 2.49
-4.97 -12.36 2.49
-4.72 -12.45 2.49
-4.46 -12.54 2.49
-4.21 -12.62 2.49
-3.95 -12.69 2.49
-3.70 -12.76 2.49
-3.44 -12.83 2.49
-3.18 -12.89 2.49
-2.92 -12.95 2.49
-2.65 -13.00 2.49
-2.39 -13.04 2.49
-2.13 -13.08 2.49
-1.87 -13.11 2.49
-1.60 -13.14 2.49
-1.34 -13.17 2.49
-1.07 -13.18 2.49
-0.81 -13.20 2.49
-0.54 -13.21 2.49
-0.28 -13.21 2.49
-0.01 -11.75 2.49
0.23 -11.74 2.49
0.46 -11.73 2.49
0.70 -11.71 2.49
0.93 -11.69 2.49
1.17 -11.67 2.49
1.40 -11.64 2.49
1.63 -11.60 2.49
1.86 -11.56 2.49
2.09 -11.52 2.49
2.32 -11.47 2.49
2.45 -10.94 2.39
2.67 -10.89 2.39
2.88 -10.83 2.39
3.10 -10.76 2.39
3.31 -10.70 2.39
3.53 -10.62 2.39
3.74 -10.55 2.39
3.95 -10.47 2.39
4.15 -10.38 2.39
4.36 -10.29 2.39
4.57 -10.20 2.39
4.77 -10.10 2.39
4.97 -10.00 2.39
2.82 -5.40 1.30
5.30 -9.68 2.36
5.56 -9.68 2.39
5.75 -9.56 2.39
5.94 -9.44 2.39
5.11 -7.78 2.00
5.10 -7.44 1.93
5.12 -7.14 1.89
5.25 -7.02 1.88
5.39 -6.91 1.88
5.52 -6.80 1.88
6.14 -7.26 2.04
6.14 -6.97 1.99
6.13 -6.68 1.95
6.06 -6.35 1.89
6.12 -6.16 1.87
6.11 -5.91 1.83
6.11 -5.67 1.79
6.10 -5.44 1.76
6.10 -5.22 1.73
6.10 -5.01 1.70
6.09 -4.81 1.67
6.09 -4.61 1.64
6.08 -4.41 1.62
6.08 -4.23 1.59
6.08 -4.05 1.57
6.07 -3.87 1.55
6.07 -3.70 1.53
6.07 -3.53 1.51
6.06 -3.37 1.49
6.06 -3.21 1.48
6.06 -3.05 1.46
6.05 -2.90 1.45
6.05 -2.75 1.43
6.05 -2.60 1.42
5.98 -2.44 1.39
6.01 -2.31 1.39
6.04 -2.18 1.38
6.04 -2.04 1.37
6.03 -1.91 1.36
6.03 -1.77 1.36
6.03 -1.64 1.35
6.03 -1.51 1.34
6.02 -1.38 1.33
6.02 -1.26 1.33
6.02 -1.13 1.32
6.02 -1.01 1.32
6.01 -0.88 1.31
6.01 -0.76 1.31
6.01 -0.63 1.30
6.01 -0.51 1.30
6.00 -0.39 1.30
6.00 -0.27 1.30
6.00 -0.15 1.29
6.00 -0.03 1.29
5.99 0.09 1.29
5.99 0.21 1.29
5.99 0.33 1.29
5.99 0.45 1.29
5.98 0.57 1.30
5.98 0.70 1.30
5.98 0.82 1.30
5.98 0.94 1.30
5.97 1.06 1.31
5.97 1.19 1.31
5.97 1.31 1.32
5.97 1.44 1.32
5.91 1.55 1.31
5.91 1.68 1.32
5.96 1.82 1.34
5.96 1.95 1.35
5.95 2.08 1.36
5.95 2.22 1.37
5.95 2.35 1.37
5.94 2.49 1.39
5.94 2.63 1.40
5.94 2.78 1.41
5.94 2.92 1.42
5.93 3.07 1.43
5.93 3.22 1.45
5.93 3.37 1.46
5.92 3.53 1.48
5.92 3.69 1.50
5.92 3.86 1.51
5.91 4.03 1.53
5.91 4.20 1.55
5.91 4.38 1.58
5.90 4.56 1.60
5.90 4.75 1.62
5.89 4.95 1.65
5.89 5.15 1.67
5.89 5.36 1.70
5.84 5.54 1.72
5.88 5.80 1.76
5.87 6.03 1.80
5.87 6.27 1.83
5.86 6.53 1.87
5.86 6.79 1.91
5.85 7.06 1.96
5.85 7.35 2.00
5.84 7.66 2.05
5.83 7.98 2.11
5.77 8.24 2.14
5.78 8.61 2.21
5.88 9.57 2.39
5.69 9.69 2.39
5.50 9.81 2.39
5.30 9.92 2.39
5.10 10.03 2.39
4.90 10.13 2.39
4.70 10.23 2.39
4.50 10.33 2.39
4.29 10.42 2.39
4.08 10.51 2.39
3.87 10.59 2.39
3.66 10.67 2.39
3.45 10.75 2.39
3.23 10.82 2.39
3.01 10.89 2.39
2.80 10.95 2.39
2.58 11.01 2.39
2.36 11.06 2.39
2.13 11.11 2.39
1.97 11.50 2.46
1.76 11.68 2.49
1.53 11.72 2.49
1.29 11.75 2.49
1.06 11.78 2.49
0.82 11.80 2.49
0.58 11.82 2.49
0.35 11.84 2.49
0.11 11.85 2.49
-0.13 11.85 2.49
-0.37 11.85 2.49
-0.60 11.85 2.49
-0.84 11.84 2.49
-1.08 11.82 2.49
-1.32 11.80 2.49
-1.56 11.78 2.49
-1.79 11.75 2.49
-2.03 11.71 2.49
-2.26 11.68 2.49
-2.50 11.63 2.49
-2.73 11.58 2.49
-2.97 11.53 2.49
-3.20 11.47 2.49
-3.43 11.41 2.49
-3.66 11.34 2.49
-3.89 11.27 2.49
-4.11 11.20 2.49
-4.34 11.12 2.49
-4.56 11.03 2.49
-4.78 10.94 2.49
-5.00 10.85 2.49
-5.22 10.75 2.49
-5.44 10.64 2.49
-5.65 10.54 2.49
-5.86 10.42 2.49
-6.05 10.27 2.48
-6.05 9.81 2.40
-6.23 9.66 2.40
-6.41 9.52 2.39
-6.37 9.06 2.31
-6.79 9.26 2.39
-6.98 9.13 2.39
-7.16 8.99 2.39
-7.34 8.84 2.39
-7.52 8.70 2.39
-7.70 8.55 2.39
-7.87 8.39 2.39
-8.04 8.23 2.39
-7.49 7.37 2.18
-7.59 7.18 2.17
-7.84 7.12 2.20
-8.68 7.57 2.39
-8.83 7.40 2.39
-8.98 7.22 2.39
-9.12 7.04 2.39
-9.26 6.85 2.39
-9.40 6.67 2.39
-9.53 6.48 2.39
-9.66 6.29 2.39
-9.79 6.09 2.39
-9.91 5.90 2.39
-10.04 5.71 2.39
-10.21 5.53 2.41
-10.32 5.33 2.41
-10.43 5.12 2.41
-10.53 4.91 2.41
-10.62 4.70 2.41
-10.72 4.48 2.41
-10.59 4.18 2.36
-10.67 3.97 2.36
-10.74 3.75 2.36
-10.81 3.54 2.36
-10.88 3.32 2.35
-10.94 3.10 2.35
-10.99 2.88 2.35
-11.04 2.65 2.35
-11.09 2.43 2.35
-11.40 2.26 2.41
-11.44 2.03 2.41
-9.41 1.48 1.97
-10.01 1.37 2.09
-11.54 1.34 2.41
-11.57 1.11 2.41
-11.59 0.88 2.41
-11.60 0.64 2.41
-11.61 0.41 2.41
-11.42 0.17 2.37
-11.42 -0.06 2.37
-11.42 -0.28 2.37
-11.41 -0.51 2.37
-11.40 -0.74 2.37
-11.38 -0.97 2.37
-11.36 -1.20 2.37
-11.33 -1.43 2.37
-11.30 -1.65 2.37
-11.27 -1.88 2.37
-11.40 -2.14 2.41
-11.36 -2.37 2.41
-11.31 -2.59 2.41
-11.25 -2.82 2.41
-11.19 -3.04 2.41
-9.86 -2.90 2.13
-9.75 -3.08 2.12
-9.86 -3.33 2.16
-10.40 -3.75 2.30
-10.39 -3.98 2.31
-10.39 -4.22 2.33
-10.38 -4.46 2.35
-10.34 -4.69 2.36
-9.89 -4.73 2.28
-9.79 -4.93 2.28
-9.78 -5.17 2.30
-9.77 -5.42 2.33
-9.77 -5.68 2.35
-9.76 -5.94 2.38
-9.68 -6.16 2.39
-9.56 -6.35 2.39
-9.42 -6.54 2.39
-9.29 -6.72 2.39
-9.15 -6.91 2.39
-9.00 -7.09 2.39
-8.86 -7.26 2.39
-8.71 -7.44 2.39
-8.55 -7.61 2.39
-8.40 -7.78 2.39
-8.24 -7.94 2.39
-8.07 -8.10 2.39
-7.91 -8.26 2.39
-7.74 -8.41 2.39
-7.56 -8.56 2.39
-7.39 -8.71 2.39
-7.21 -8.85 2.39
-7.03 -8.99 2.39
-6.84 -9.13 2.39
-6.65 -9.26 2.39
-6.46 -9.39 2.39
-6.27 -9.51 2.39
-6.08 -9.63 2.39
-5.88 -9.75 2.39
-5.68 -9.86 2.39
-5.64 -10.25 2.46
-5.51 -10.51 2.49
-5.29 -10.61 2.49
-5.08 -10.71 2.49
-4.86 -10.81 2.49
-4.64 -10.90 2.49
-4.42 -10.98 2.49
-4.19 -11.07 2.49
-3.97 -11.14 2.49
-3.74 -11.22 2.49
-3.52 -11.28 2.49
-3.29 -11.35 2.49
-3.06 -11.41 2.49
-2.83 -11.46 2.49
-2.59 -11.51 2.49
-2.36 -11.56 2.49
-2.13 -11.60 2.49
-1.89 -11.63 2.49
-1.66 -11.66 2.49
-1.43 -11.69 2.49
-1.19 -11.71 2.49
-0.95 -11.73 2.49
-0.72 -11.74 2.49
-0.48 -11.75 2.49
-0.25 -11.75 2.49
-0.01 -10.57 2.49
0.20 -10.56 2.49
0.41 -10.55 2.49
0.63 -10.54 2.49
0.84 -10.52 2.49
1.05 -10.50 2.49
1.26 -10.47 2.49
1.47 -10.44 2.49
1.68 -10.41 2.49
1.88 -10.37 2.49
2.09 -10.32 2.49
2.30 -10.28 2.49
2.41 -9.85 2.40
2.61 -9.81 2.41
2.79 -9.69 2.39
2.98 -9.63 2.39
3.17 -9.56 2.39
3.36 -9.50 2.39
3.55 -9.42 2.39
3.74 -9.35 2.39
3.93 -9.27 2.39
4.11 -9.18 2.39
4.29 -9.10 2.39
4.47 -9.01 2.39
2.80 -5.37 1.44
4.83 -8.81 2.39
5.00 -8.71 2.39
5.18 -8.61 2.39
5.35 -8.50 2.39
5.51 -8.39 2.39
5.33 -7.77 2.24
5.84 -8.16 2.39
5.09 -6.81 2.03
5.11 -6.56 1.98
5.32 -6.55 2.01
5.54 -6.55 2.04
6.08 -6.90 2.19
6.07 -6.62 2.14
6.06 -6.35 2.09
6.12 -6.16 2.07
6.11 -5.91 2.03
6.11 -5.67 1.99
6.10 -5.44 1.95
6.10 -5.22 1.92
6.10 -5.01 1.89
6.09 -4.81 1.85
6.09 -4.61 1.82
6.08 -4.41 1.80
6.08 -4.23 1.77
6.08 -4.05 1.75
6.07 -3.87 1.72
6.07 -3.70 1.70
6.07 -3.53 1.68
6.06 -3.37 1.66
6.06 -3.21 1.64
6.06 -3.05 1.62
6.05 -2.90 1.61
6.05 -2.75 1.59
6.05 -2.60 1.58
5.98 -2.44 1.55
6.01 -2.31 1.54
6.04 -2.18 1.54
6.04 -2.04 1.53
6.03 -1.91 1.51
6.03 -1.77 1.50
6.03 -1.64 1.50
6.03 -1.51 1.49
6.02 -1.38 1.48
6.02 -1.26 1.47
6.02 -1.13 1.47
6.02 -1.01 1.46
6.01 -0.88 1.45
6.01 -0.76 1.45
6.01 -0.63 1.45
6.01 -0.51 1.44
6.00 -0.39 1.44
6.00 -0.27 1.44
6.00 -0.15 1.44
6.00 -0.03 1.43
5.99 0.09 1.43
5.99 0.21 1.43
5.99 0.33 1.43
5.99 0.45 1.44
5.98 0.57 1.44
5.98 0.70 1.44
5.98 0.82 1.44
5.98 0.94 1.45
5.97 1.06 1.45
5.97 1.19 1.46
5.97 1.31 1.46
5.97 1.44 1.47
5.91 1.55 1.46
5.91 1.68 1.47
5.96 1.82 1.49
5.96 1.95 1.50
5.95 2.08 1.51
5.95 2.22 1.52
5.95 2.35 1.53
5.94 2.49 1.54
5.94 2.63 1.55
5.94 2.78 1.56
5.94 2.92 1.58
5.93 3.07 1.59
5.93 3.22 1.61
5.93 3.37 1.62
5.92 3.53 1.64
5.92 3.69 1.66
5.92 3.86 1.68
5.91 4.03 1.70
5.91 4.20 1.73
5.91 4.38 1.75
5.90 4.56 1.77
5.90 4.75 1.80
5.89 4.95 1.83
5.89 5.15 1.86
5.89 5.36 1.89
5.84 5.54 1.91
5.88 5.80 1.96
5.87 6.03 2.00
5.87 6.27 2.04
5.86 6.53 2.08
5.84 6.77 2.12
5.80 7.00 2.15
5.82 7.32 2.22
5.96 8.15 2.39
5.80 8.27 2.39
5.63 8.39 2.39
5.46 8.50 2.39
5.29 8.61 2.39
5.12 8.72 2.39
4.95 8.82 2.39
4.77 8.93 2.39
4.59 9.02 2.39
4.41 9.12 2.39
4.23 9.21 2.39
4.05 9.29 2.39
3.86 9.38 2.39
3.67 9.45 2.39
3.48 9.53 2.39
3.29 9.60 2.39
3.10 9.67 2.39
2.91 9.73 2.39
2.71 9.79 2.39
2.51 9.85 2.39
2.32 9.90 2.39
2.12 9.95 2.39
1.99 10.38 2.48
1.79 10.47 2.49
1.58 10.50 2.49
1.37 10.54 2.49
1.16 10.57 2.49
0.95 10.59 2.49
0.74 10.61 2.49
0.52 10.63 2.49
0.31 10.64 2.49
0.10 10.65 2.49
-0.12 10.65 2.49
-0.33 10.65 2.49
-0.54 10.65 2.49
-0.76 10.64 2.49
-0.97 10.63 2.49
-1.19 10.61 2.49
-1.40 10.59 2.49
-1.61 10.56 2.49
-1.82 10.53 2.49
-2.04 10.49 2.49
-2.25 10.45 2.49
-2.46 10.41 2.49
-2.67 10.36 2.49
-2.87 10.31 2.49
-3.08 10.25 2.49
-3.29 10.19 2.49
-3.49 10.13 2.49
-3.70 10.06 2.49
-3.90 9.99 2.49
-4.10 9.91 2.49
-4.30 9.83 2.49
-4.50 9.74 2.49
-4.69 9.65 2.49
-4.89 9.56 2.49
-5.08 9.46 2.49
-5.27 9.36 2.49
-5.46 9.26 2.49
-5.64 9.15 2.49
-5.83 9.04 2.49
-6.01 8.92 2.49
-6.02 8.56 2.43
-6.10 8.32 2.39
-6.27 8.20 2.39
-6.43 8.07 2.39
-6.60 7.94 2.39
-6.76 7.81 2.39
-6.91 7.67 2.39
-7.07 7.53 2.39
-7.22 7.39 2.39
-7.37 7.25 2.39
-7.51 7.10 2.39
-7.65 6.95 2.39
-7.79 6.80 2.39
-7.93 6.64 2.39
-8.06 6.48 2.39
-8.19 6.32 2.39
-8.32 6.15 2.39
-8.44 5.99 2.39
-8.56 5.82 2.39
-8.68 5.65 2.39
-8.79 5.47 2.39
-8.90 5.29 2.39
-9.00 5.12 2.39
-9.11 4.93 2.39
-9.20 4.75 2.39
-9.30 4.57 2.39
-9.39 4.38 2.39
-9.48 4.19 2.39
-9.56 4.00 2.39
-9.64 3.81 2.39
-9.71 3.61 2.39
-9.72 3.39 2.37
-9.77 3.20 2.37
-9.83 3.00 2.37
-9.88 2.80 2.37
-9.93 2.60 2.37
-9.98 2.40 2.37
-10.31 2.26 2.43
-10.33 2.05 2.43
-10.35 1.84 2.42
-9.41 1.48 2.20
-10.01 1.37 2.33
-10.39 1.21 2.41
-10.40 1.00 2.41
-10.40 0.79 2.41
-10.41 0.58 2.41
-10.42 0.37 2.41
-10.34 0.16 2.39
-10.34 -0.05 2.39
-10.34 -0.26 2.39
-10.33 -0.46 2.39
-10.32 -0.67 2.39
-10.30 -0.88 2.39
-10.28 -1.08 2.39
-10.26 -1.29 2.39
-10.23 -1.50 2.39
-10.20 -1.70 2.39
-10.24 -1.92 2.41
-10.20 -2.12 2.41
-10.15 -2.33 2.41
-10.10 -2.53 2.41
-10.05 -2.73 2.41
-9.77 -2.87 2.35
-9.93 -3.13 2.41
-9.79 -3.31 2.39
-9.72 -3.50 2.39
-9.65 -3.70 2.39
-9.57 -3.89 2.39
-9.49 -4.08 2.39
-9.40 -4.27 2.39
-9.31 -4.45 2.39
-9.22 -4.64 2.39
-9.12 -4.82 2.39
-9.02 -5.00 2.39
-8.92 -5.18 2.39
-8.81 -5.36 2.39
-8.70 -5.53 2.39
-8.58 -5.70 2.39
-8.46 -5.87 2.39
-8.34 -6.04 2.39
-8.22 -6.20 2.39
-8.09 -6.37 2.39
-7.96 -6.53 2.39
-7.82 -6.68 2.39
-7.69 -6.83 2.39
-7.54 -6.99 2.39
-7.40 -7.13 2.39
-7.25 -7.28 2.39
-7.10 -7.42 2.39
-6.95 -7.56 2.39
-6.80 -7.69 2.39
-6.64 -7.83 2.39
-6.48 -7.95 2.39
-6.31 -8.08 2.39
-6.15 -8.20 2.39
-5.98 -8.32 2.39
-5.81 -8.44 2.39
-5.68 -8.61 2.41
-5.66 -8.97 2.48
-5.52 -9.14 2.49
-5.33 -9.25 2.49
-5.14 -9.35 2.49
-4.95 -9.45 2.49
-4.76 -9.54 2.49
-4.56 -9.63 2.49
-4.37 -9.72 2.49
-4.17 -9.80 2.49
-3.97 -9.88 2.49
-3.77 -9.95 2.49
-3.57 -10.02 2.49
-3.37 -10.09 2.49
-3.16 -10.15 2.49
-2.96 -10.20 2.49
-2.75 -10.26 2.49
-2.54 -10.31 2.49
-2.33 -10.35 2.49
-2.13 -10.39 2.49
-1.92 -10.43 2.49
-1.71 -10.46 2.49
-1.49 -10.49 2.49
-1.28 -10.52 2.49
-1.07 -10.53 2.49
-0.86 -10.55 2.49
-0.65 -10.56 2.49
-0.43 -10.57 2.49
-0.22 -10.57 2.49
-0.01 -9.60 2.49
0.18 -9.59 2.49
0.38 -9.58 2.49
0.57 -9.57 2.49
0.76 -9.55 2.49
0.95 -9.53 2.49
1.14 -9.51 2.49
1.33 -9.48 2.49
1.52 -9.45 2.49
1.71 -9.42 2.49
1.90 -9.38 2.49
2.09 -9.33 2.49
2.27 -9.29 2.49
2.39 -8.98 2.42
2.53 -8.80 2.39
2.71 -8.75 2.39
2.88 -8.69 2.39
3.05 -8.63 2.39
3.23 -8.56 2.39
3.40 -8.49 2.39
3.57 -8.42 2.39
3.73 -8.34 2.39
3.90 -8.26 2.39
4.06 -8.18 2.39
2.80 -5.37 1.59
4.39 -8.01 2.39
4.54 -7.92 2.39
4.70 -7.82 2.39
4.86 -7.72 2.39
5.01 -7.62 2.39
5.16 -7.52 2.39
5.31 -7.41 2.39
5.46 -7.30 2.39
5.29 -6.79 2.26
5.74 -7.07 2.39
5.88 -6.96 2.39
6.02 -6.84 2.39
6.15 -6.71 2.39
5.06 -5.30 1.92
5.07 -5.10 1.89
5.15 -4.98 1.88
5.25 -4.87 1.88
5.34 -4.76 1.88
5.44 -4.66 1.88
6.10 -5.01 2.07
6.09 -4.81 2.04
6.09 -4.61 2.01
6.08 -4.42 1.98
6.08 -4.23 1.95
6.08 -4.05 1.92
6.07 -3.87 1.89
6.07 -3.70 1.87
6.07 -3.53 1.85
6.06 -3.37 1.83
6.06 -3.21 1.80
6.06 -3.05 1.79
6.05 -2.90 1.77
6.05 -2.75 1.75
6.05 -2.60 1.73
5.98 -2.44 1.70
6.01 -2.31 1.70
6.04 -2.18 1.69
6.04 -2.04 1.68
6.03 -1.91 1.67
6.03 -1.77 1.66
6.03 -1.64 1.65
6.03 -1.51 1.64
6.02 -1.38 1.63
6.02 -1.26 1.62
6.02 -1.13 1.61
6.02 -1.01 1.61
6.01 -0.88 1.60
6.01 -0.76 1.60
6.01 -0.63 1.59
6.01 -0.51 1.59
6.00 -0.39 1.58
6.00 -0.27 1.58
6.00 -0.15 1.58
6.00 -0.03 1.58
5.99 0.09 1.58
5.99 0.21 1.58
5.99 0.33 1.58
5.99 0.45 1.58
5.98 0.57 1.58
5.98 0.70 1.58
5.98 0.82 1.59
5.98 0.94 1.59
5.97 1.06 1.60
5.97 1.19 1.60
5.97 1.31 1.61
5.97 1.44 1.61
5.91 1.55 1.61
5.91 1.68 1.61
5.96 1.82 1.64
5.96 1.95 1.65
5.95 2.08 1.66
5.95 2.22 1.67
5.95 2.35 1.68
5.94 2.49 1.69
5.94 2.63 1.71
5.94 2.78 1.72
5.94 2.92 1.74
5.93 3.07 1.75
5.93 3.22 1.77
5.93 3.37 1.79
5.92 3.53 1.81
5.92 3.69 1.83
5.92 3.86 1.85
5.91 4.03 1.87
5.91 4.20 1.90
5.91 4.38 1.93
5.90 4.56 1.95
5.90 4.75 1.98
5.89 4.95 2.01
5.89 5.15 2.05
5.89 5.36 2.08
5.84 5.54 2.10
5.83 5.75 2.14
5.82 5.98 2.18
5.98 6.94 2.39
5.84 7.06 2.39
5.70 7.17 2.39
5.56 7.29 2.39
5.41 7.40 2.39
5.26 7.51 2.39
5.11 7.62 2.39
4.96 7.72 2.39
4.81 7.82 2.39
4.65 7.92 2.39
4.49 8.01 2.39
4.33 8.11 2.39
4.17 8.19 2.39
4.01 8.28 2.39
3.84 8.36 2.39
3.67 8.44 2.39
3.50 8.51 2.39
3.33 8.58 2.39
3.16 8.65 2.39
2.99 8.72 2.39
2.81 8.78 2.39
2.64 8.84 2.39
2.46 8.89 2.39
2.28 8.94 2.39
2.10 8.99 2.39
2.01 9.42 2.49
1.82 9.46 2.49
1.63 9.50 2.49
1.44 9.53 2.49
1.24 9.56 2.49
1.05 9.59 2.49
0.86 9.61 2.49
0.67 9.63 2.49
0.47 9.65 2.49
0.28 9.66 2.49
0.09 9.66 2.49
-0.11 9.67 2.49
-0.30 9.67 2.49
-0.50 9.66 2.49
-0.69 9.65 2.49
-0.88 9.64 2.49
-1.08 9.62 2.49
-1.27 9.60 2.49
-1.46 9.58 2.49
-1.66 9.55 2.49
-1.85 9.52 2.49
-2.04 9.48 2.49
-2.23 9.44 2.49
-2.42 9.40 2.49
-2.61 9.35 2.49
-2.80 9.30 2.49
-2.98 9.25 2.49
-3.17 9.19 2.49
-3.35 9.12 2.49
-3.54 9.06 2.49
-3.72 8.99 2.49
-3.90 8.91 2.49
-4.08 8.84 2.49
-4.26 8.75 2.49
-4.43 8.67 2.49
-4.61 8.58 2.49
-4.78 8.49 2.49
-4.95 8.39 2.49
-5.12 8.29 2.49
-5.28 8.19 2.49
-5.45 8.09 2.49
-5.61 7.98 2.49
-5.77 7.87 2.49
-5.93 7.75 2.49
-6.00 7.52 2.46
-6.00 7.22 2.40
-6.12 7.08 2.39
-6.27 6.96 2.39
-6.41 6.83 2.39
-6.54 6.70 2.39
-6.68 6.57 2.39
-6.81 6.44 2.39
-6.94 6.30 2.39
-7.06 6.16 2.39
-7.19 6.02 2.39
-7.31 5.87 2.39
-7.43 5.73 2.39
-7.54 5.58 2.39
-7.65 5.43 2.39
-7.76 5.27 2.39
-7.86 5.12 2.39
-7.97 4.96 2.39
-8.07 4.80 2.39
-8.16 4.64 2.39
-8.25 4.47 2.39
-8.34 4.31 2.39
-8.43 4.14 2.39
-8.51 3.97 2.39
-8.59 3.80 2.39
-8.66 3.62 2.39
-8.73 3.45 2.39
-8.80 3.27 2.39
-8.87 3.10 2.39
-8.93 2.92 2.39
-8.98 2.74 2.39
-9.04 2.56 2.39
-9.09 2.38 2.39
-9.13 2.19 2.39
-9.18 2.01 2.39
-9.21 1.83 2.39
-9.25 1.64 2.39
-9.28 1.46 2.39
-9.31 1.27 2.39
-9.33 1.08 2.39
-9.35 0.90 2.39
-9.37 0.71 2.39
-9.38 0.52 2.39
-9.38 0.33 2.39
-9.39 0.14 2.39
-9.39 -0.04 2.39
-9.39 -0.23 2.39
-9.38 -0.42 2.39
-9.37 -0.61 2.39
-9.35 -0.80 2.39
-9.33 -0.98 2.39
-9.31 -1.17 2.39
-9.28 -1.36 2.39
-9.25 -1.54 2.39
-9.22 -1.73 2.39
-9.18 -1.91 2.39
-9.14 -2.10 2.39
-9.10 -2.28 2.39
-9.05 -2.46 2.39
-8.99 -2.64 2.39
-8.94 -2.82 2.39
-8.88 -3.00 2.39
-8.81 -3.17 2.39
-8.75 -3.35 2.39
-8.68 -3.52 2.39
-8.60 -3.70 2.39
-8.52 -3.87 2.39
-8.44 -4.04 2.39
-8.36 -4.20 2.39
-8.27 -4.37 2.39
-8.18 -4.53 2.39
-8.09 -4.70 2.39
-7.99 -4.86 2.39
-7.89 -5.02 2.39
-7.78 -5.17 2.39
-7.68 -5.32 2.39
-7.57 -5.48 2.39
-7.45 -5.63 2.39
-7.34 -5.77 2.39
-7.22 -5.92 2.39
-7.09 -6.06 2.39
-6.97 -6.20 2.39
-6.84 -6.33 2.39
-6.71 -6.47 2.39
-6.58 -6.60 2.39
-6.44 -6.73 2.39
-6.31 -6.85 2.39
-6.16 -6.98 2.39
-6.02 -7.10 2.39
-5.89 -7.23 2.40
-5.73 -7.33 2.39
-5.69 -7.59 2.44
-5.66 -7.87 2.49
-5.50 -7.98 2.49
-5.34 -8.09 2.49
-5.17 -8.19 2.49
-5.00 -8.29 2.49
-4.84 -8.39 2.49
-4.66 -8.48 2.49
-4.49 -8.57 2.49
-4.32 -8.66 2.49
-4.14 -8.74 2.49
-3.96 -8.82 2.49
-3.79 -8.89 2.49
-3.60 -8.96 2.49
-3.42 -9.03 2.49
-3.24 -9.09 2.49
-3.06 -9.15 2.49
-2.87 -9.21 2.49
-2.68 -9.26 2.49
-2.50 -9.31 2.49
-2.31 -9.36 2.49
-2.12 -9.40 2.49
-1.93 -9.43 2.49
-1.74 -9.47 2.49
-1.55 -9.50 2.49
-1.36 -9.52 2.49
-1.17 -9.55 2.49
-0.97 -9.56 2.49
-0.78 -9.58 2.49
-0.59 -9.59 2.49
-0.40 -9.60 2.49
-0.20 -9.60 2.49
-0.01 -8.78 2.49
0.17 -8.78 2.49
0.34 -8.77 2.49
0.52 -8.76 2.49
0.69 -8.74 2.49
0.87 -8.72 2.49
1.04 -8.70 2.49
1.22 -8.68 2.49
1.39 -8.65 2.49
1.56 -8.62 2.49
1.74 -8.58 2.49
1.91 -8.54 2.49
2.08 -8.50 2.49
2.25 -8.45 2.49
2.37 -8.24 2.45
2.48 -8.01 2.39
2.64 -7.95 2.39
2.80 -7.89 2.39
2.95 -7.84 2.39
3.11 -7.77 2.39
3.26 -7.71 2.39
3.42 -7.64 2.39
3.57 -7.57 2.39
3.72 -7.49 2.39
2.80 -5.37 1.73
4.01 -7.33 2.39
4.16 -7.25 2.39
4.30 -7.16 2.39
4.45 -7.07 2.39
4.59 -6.98 2.39
4.72 -6.88 2.39
4.86 -6.79 2.39
4.99 -6.69 2.39
5.13 -6.58 2.39
5.26 -6.48 2.39
5.38 -6.37 2.39
5.51 -6.26 2.39
5.63 -6.15 2.39
5.76 -6.03 2.39
5.07 -5.10 2.06
5.05 -4.88 2.02
5.05 -4.69 1.98
5.05 -4.50 1.94
5.04 -4.32 1.91
5.07 -4.16 1.88
5.14 -4.06 1.88
5.22 -3.95 1.88
5.30 -3.85 1.88
5.41 -3.77 1.89
6.08 -4.05 2.10
6.07 -3.87 2.07
6.07 -3.70 2.04
6.07 -3.53 2.02
6.06 -3.37 1.99
6.06 -3.21 1.97
6.06 -3.05 1.95
6.05 -2.90 1.93
6.05 -2.75 1.91
6.05 -2.60 1.89
5.98 -2.44 1.86
6.01 -2.31 1.85
6.04 -2.18 1.85
6.04 -2.04 1.83
6.03 -1.91 1.82
6.03 -1.77 1.81
6.03 -1.64 1.80
6.03 -1.51 1.79
6.02 -1.38 1.78
6.02 -1.26 1.77
6.02 -1.13 1.76
6.02 -1.01 1.75
6.01 -0.88 1.75
6.01 -0.76 1.74
6.01 -0.63 1.74
6.01 -0.51 1.73
6.00 -0.39 1.73
6.00 -0.27 1.73
6.00 -0.15 1.72
6.00 -0.03 1.72
5.99 0.09 1.72
5.99 0.21 1.72
5.99 0.33 1.72
5.99 0.45 1.73
5.98 0.57 1.73
5.98 0.70 1.73
5.98 0.82 1.73
5.98 0.94 1.74
5.97 1.06 1.74
5.97 1.19 1.75
5.97 1.31 1.75
5.97 1.44 1.76
5.91 1.55 1.75
5.91 1.68 1.76
5.96 1.82 1.79
5.96 1.95 1.80
5.95 2.08 1.81
5.95 2.22 1.82
5.95 2.36 1.83
5.94 2.49 1.85
5.94 2.63 1.86
5.94 2.78 1.88
5.94 2.92 1.90
5.93 3.07 1.91
5.93 3.22 1.93
5.93 3.38 1.95
5.92 3.53 1.97
5.92 3.69 2.00
5.92 3.86 2.02
5.91 4.03 2.05
5.91 4.20 2.07
5.91 4.38 2.10
5.88 4.55 2.13
5.84 4.71 2.15
5.84 4.90 2.18
5.84 5.54 2.30
5.96 5.88 2.39
5.84 6.00 2.39
5.72 6.12 2.39
5.60 6.23 2.39
5.47 6.35 2.39
5.35 6.46 2.39
5.22 6.57 2.39
5.09 6.67 2.39
4.95 6.77 2.39
4.82 6.87 2.39
4.68 6.97 2.39
4.54 7.07 2.39
4.40 7.16 2.39
4.25 7.25 2.39
4.11 7.33 2.39
3.96 7.42 2.39
3.81 7.50 2.39
3.66 7.57 2.39
3.51 7.65 2.39
3.36 7.72 2.39
3.20 7.79 2.39
3.05 7.85 2.39
2.89 7.92 2.39
2.73 7.97 2.39
2.57 8.03 2.39
2.41 8.08 2.39
2.25 8.14 2.39
2.09 8.18 2.39
2.01 8.58 2.49
1.83 8.62 2.49
1.66 8.65 2.49
1.49 8.69 2.49
1.31 8.72 2.49
1.14 8.75 2.49
0.96 8.77 2.49
0.79 8.79 2.49
0.61 8.81 2.49
0.43 8.82 2.49
0.26 8.83 2.49
0.08 8.84 2.49
-0.10 8.84 2.49
-0.28 8.84 2.49
-0.45 8.83 2.49
-0.63 8.83 2.49
-0.81 8.81 2.49
-0.99 8.80 2.49
-1.16 8.78 2.49
-1.34 8.76 2.49
-1.51 8.73 2.49
-1.69 8.70 2.49
-1.86 8.67 2.49
-2.04 8.63 2.49
-2.21 8.59 2.49
-2.38 8.55 2.49
-2.56 8.50 2.49
-2.73 8.45 2.49
-2.90 8.40 2.49
-3.07 8.34 2.49
-3.23 8.28 2.49
-3.40 8.21 2.49
-3.56 8.15 2.49
-3.73 8.07 2.49
-3.89 8.00 2.49
-4.05 7.92 2.49
-4.21 7.84 2.49
-4.37 7.76 2.49
-4.52 7.67 2.49
-4.68 7.58 2.49
-4.83 7.49 2.49
-4.98 7.39 2.49
-5.13 7.29 2.49
-5.27 7.19 2.49
-5.42 7.08 2.49
-5.56 6.97 2.49
-5.70 6.86 2.49
-5.84 6.75 2.49
-5.97 6.63 2.49
-5.97 6.37 2.44
-5.98 6.12 2.39
-6.10 6.00 2.39
-6.22 5.88 2.39
-6.34 5.75 2.39
-6.45 5.63 2.39
-6.57 5.50 2.39
-6.68 5.37 2.39
-6.78 5.23 2.39
-6.89 5.10 2.39
-6.99 4.96 2.39
-7.09 4.82 2.39
-7.18 4.67 2.39
-7.28 4.53 2.39
-7.37 4.38 2.39
-7.46 4.23 2.39
-7.54 4.08 2.39
-7.62 3.93 2.39
-7.70 3.78 2.39
-7.77 3.62 2.39
-7.84 3.47 2.39
-7.91 3.31 2.39
-7.98 3.15 2.39
-8.04 2.99 2.39
-8.10 2.83 2.39
-8.15 2.67 2.39
-8.21 2.50 2.39
-8.26 2.34 2.39
-8.30 2.17 2.39
-8.34 2.00 2.39
-8.38 1.84 2.39
-8.42 1.67 2.39
-8.45 1.50 2.39
-8.48 1.33 2.39
-8.50 1.16 2.39
-8.52 0.99 2.39
-8.54 0.82 2.39
-8.55 0.65 2.39
-8.57 0.47 2.39
-8.57 0.30 2.39
-8.58 0.13 2.39
-8.58 -0.04 2.39
-8.57 -0.21 2.39
-8.57 -0.38 2.39
-8.56 -0.56 2.39
-8.54 -0.73 2.39
-8.53 -0.90 2.39
-8.51 -1.07 2.39
-8.48 -1.24 2.39
-8.45 -1.41 2.39
-8.42 -1.58 2.39
-8.39 -1.75 2.39
-8.35 -1.91 2.39
-8.31 -2.08 2.39
-8.26 -2.25 2.39
-8.22 -2.41 2.39
-8.17 -2.58 2.39
-8.11 -2.74 2.39
-8.05 -2.90 2.39
-7.99 -3.06 2.39
-7.93 -3.22 2.39
-7.86 -3.38 2.39
-7.79 -3.53 2.39
-7.72 -3.69 2.39
-7.64 -3.84 2.39
-7.56 -3.99 2.39
-7.47 -4.14 2.39
-7.39 -4.29 2.39
-7.30 -4.44 2.39
-7.21 -4.58 2.39
-7.11 -4.72 2.39
-7.01 -4.87 2.39
-6.91 -5.00 2.39
-6.81 -5.14 2.39
-6.70 -5.27 2.39
-6.60 -5.41 2.39
-6.48 -5.54 2.39
-6.37 -5.66 2.39
-6.25 -5.79 2.39
-6.14 -5.91 2.39
-6.01 -6.03 2.39
-5.91 -6.17 2.40
-5.76 -6.27 2.39
-5.72 -6.47 2.43
-5.71 -6.73 2.48
-5.60 -6.88 2.49
-5.46 -6.99 2.49
-5.32 -7.09 2.49
-5.18 -7.20 2.49
-5.03 -7.30 2.49
-4.88 -7.40 2.49
-4.73 -7.49 2.49
-4.58 -7.58 2.49
-4.42 -7.67 2.49
-4.27 -7.75 2.49
-4.11 -7.83 2.49
-3.95 -7.91 2.49
-3.79 -7.99 2.49
-3.63 -8.06 2.49
-3.46 -8.13 2.49
-3.30 -8.19 2.49
-3.13 -8.26 2.49
-2.96 -8.31 2.49
-2.80 -8.37 2.49
-2.63 -8.42 2.49
-2.46 -8.47 2.49
-2.28 -8.51 2.49
-2.11 -8.56 2.49
-1.94 -8.59 2.49
-1.77 -8.63 2.49
-1.59 -8.66 2.49
-1.42 -8.69 2.49
-1.24 -8.71 2.49
-1.07 -8.73 2.49
-0.89 -8.75 2.49
-0.72 -8.76 2.49
-0.54 -8.77 2.49
-0.36 -8.78 2.49
-0.19 -8.78 2.49
-0.01 -8.08 2.49
0.15 -8.08 2.49
0.31 -8.07 2.49
0.48 -8.06 2.49
0.64 -8.05 2.49
0.80 -8.03 2.49
0.96 -8.01 2.49
1.12 -7.99 2.49
1.28 -7.96 2.49
1.44 -7.93 2.49
1.60 -7.90 2.49
1.76 -7.86 2.49
1.91 -7.83 2.49
2.07 -7.78 2.49
2.22 -7.74 2.49
2.36 -7.62 2.47
2.43 -7.32 2.39
2.57 -7.27 2.39
2.72 -7.22 2.39
2.86 -7.16 2.39
3.00 -7.10 2.39
3.15 -7.03 2.39
3.29 -6.97 2.39
3.42 -6.90 2.39
2.80 -5.37 1.88
3.70 -6.75 2.39
3.83 -6.68 2.39
3.96 -6.60 2.39
4.09 -6.51 2.39
4.22 -6.43 2.39
4.35 -6.34 2.39
4.48 -6.25 2.39
4.60 -6.16 2.39
4.72 -6.06 2.39
4.84 -5.97 2.39
4.96 -5.87 2.39
5.08 -5.77 2.39
5.19 -5.66 2.39
5.30 -5.55 2.39
5.41 -5.45 2.39
5.15 -4.98 2.23
5.36 -4.98 2.28
5.73 -5.11 2.39
5.83 -4.99 2.39
5.04 -4.14 2.03
5.03 -3.97 2.00
5.03 -3.81 1.97
5.18 -3.76 2.00
5.41 -3.76 2.05
6.01 -3.67 2.20
6.01 -3.50 2.17
6.01 -3.34 2.14
6.03 -3.19 2.13
6.06 -3.05 2.12
6.05 -2.90 2.09
6.05 -2.75 2.07
6.05 -2.61 2.05
5.98 -2.44 2.02
6.01 -2.31 2.01
6.04 -2.18 2.00
6.04 -2.04 1.99
6.03 -1.91 1.97
6.03 -1.77 1.96
6.03 -1.64 1.95
6.03 -1.51 1.94
6.02 -1.38 1.93
6.02 -1.26 1.92
6.02 -1.13 1.91
6.02 -1.00 1.90
6.01 -0.88 1.90
6.01 -0.76 1.89
6.01 -0.63 1.89
6.01 -0.51 1.88
6.00 -0.39 1.88
6.00 -0.27 1.87
6.00 -0.15 1.87
6.00 -0.03 1.87
5.99 0.09 1.87
5.99 0.21 1.87
5.99 0.33 1.87
5.99 0.45 1.87
5.98 0.57 1.87
5.98 0.70 1.88
5.98 0.82 1.88
5.98 0.94 1.89
5.97 1.06 1.89
5.97 1.19 1.90
5.97 1.31 1.90
5.97 1.44 1.91
5.91 1.55 1.90
5.91 1.68 1.91
5.96 1.82 1.94
5.96 1.95 1.95
5.95 2.09 1.96
5.95 2.22 1.98
5.95 2.36 1.99
5.94 2.49 2.01
5.94 2.63 2.02
5.94 2.78 2.04
5.94 2.92 2.06
5.93 3.07 2.08
5.93 3.22 2.10
5.92 3.37 2.12
5.89 3.51 2.13
5.87 3.66 2.15
5.86 3.82 2.17
5.87 4.00 2.21
6.09 4.71 2.39
6.00 4.83 2.39
5.90 4.95 2.39
5.80 5.07 2.39
5.70 5.19 2.39
5.59 5.30 2.39
5.49 5.42 2.39
5.38 5.53 2.39
5.27 5.64 2.39
5.15 5.74 2.39
5.04 5.85 2.39
4.92 5.95 2.39
4.80 6.05 2.39
4.68 6.14 2.39
4.56 6.24 2.39
4.43 6.33 2.39
4.31 6.42 2.39
4.18 6.51 2.39
4.05 6.59 2.39
3.92 6.67 2.39
3.78 6.75 2.39
3.65 6.83 2.39
3.51 6.90 2.39
3.37 6.97 2.39
3.23 7.04 2.39
3.09 7.11 2.39
2.95 7.17 2.39
2.80 7.23 2.39
2.66 7.29 2.39
2.51 7.34 2.39
2.37 7.39 2.39
2.22 7.44 2.39
2.07 7.48 2.39
2.00 7.85 2.49
1.84 7.89 2.49
1.69 7.93 2.49
1.53 7.97 2.49
1.37 8.00 2.49
1.21 8.03 2.49
1.05 8.05 2.49
0.88 8.07 2.49
0.72 8.09 2.49
0.56 8.11 2.49
0.40 8.12 2.49
0.23 8.13 2.49
0.07 8.13 2.49
-0.09 8.13 2.49
-0.25 8.13 2.49
-0.42 8.13 2.49
-0.58 8.12 2.49
-0.74 8.11 2.49
-0.91 8.10 2.49
-1.07 8.08 2.49
-1.23 8.06 2.49
-1.39 8.03 2.49
-1.56 8.01 2.49
-1.72 7.97 2.49
-1.88 7.94 2.49
-2.04 7.90 2.49
-2.19 7.86 2.49
-2.35 7.82 2.49
-2.51 7.77 2.49
-2.67 7.72 2.49
-2.82 7.67 2.49
-2.97 7.61 2.49
-3.13 7.55 2.49
-3.28 7.49 2.49
-3.43 7.43 2.49
-3.58 7.36 2.49
-3.73 7.29 2.49
-3.87 7.21 2.49
-4.02 7.13 2.49
-4.16 7.05 2.49
-4.30 6.97 2.49
-4.44 6.88 2.49
-4.58 6.80 2.49
-4.72 6.70 2.49
-4.85 6.61 2.49
-4.98 6.51 2.49
-5.11 6.41 2.49
-5.24 6.31 2.49
-5.37 6.20 2.49
-5.49 6.10 2.49
-5.62 5.99 2.49
-5.74 5.87 2.49
-5.85 5.76 2.49
-5.96 5.63 2.49
-5.95 5.40 2.44
-5.96 5.20 2.40
-6.04 5.06 2.39
-6.14 4.93 2.39
-6.24 4.81 2.39
-6.33 4.68 2.39
-6.43 4.56 2.39
-6.52 4.43 2.39
-6.61 4.30 2.39
-6.69 4.16 2.39
-6.77 4.03 2.39
-6.85 3.89 2.39
-6.93 3.76 2.39
-7.01 3.62 2.39
-7.08 3.47 2.39
-7.15 3.33 2.39
-7.21 3.19 2.39
-7.28 3.04 2.39
-7.34 2.90 2.39
-7.39 2.75 2.39
-7.45 2.60 2.39
-7.50 2.45 2.39
-7.55 2.30 2.39
-7.59 2.15 2.39
-7.63 2.00 2.39
-7.67 1.84 2.39
-7.71 1.69 2.39
-7.74 1.53 2.39
-7.77 1.38 2.39
-7.79 1.22 2.39
-7.82 1.07 2.39
-7.84 0.91 2.39
-7.85 0.75 2.39
-7.87 0.59 2.39
-7.88 0.44 2.39
-7.88 0.28 2.39
-7.89 0.12 2.39
-7.89 -0.04 2.39
-7.88 -0.20 2.39
-7.88 -0.35 2.39
-7.87 -0.51 2.39
-7.86 -0.67 2.39
-7.84 -0.83 2.39
-7.82 -0.98 2.39
-7.80 -1.14 2.39
-7.77 -1.30 2.39
-7.74 -1.45 2.39
-7.71 -1.61 2.39
-7.68 -1.76 2.39
-7.64 -1.91 2.39
-7.60 -2.07 2.39
-7.56 -2.22 2.39
-7.51 -2.37 2.39
-7.46 -2.52 2.39
-7.41 -2.67 2.39
-7.35 -2.81 2.39
-7.29 -2.96 2.39
-7.23 -3.11 2.39
-7.16 -3.25 2.39
-7.10 -3.39 2.39
-7.02 -3.53 2.39
-6.95 -3.67 2.39
-6.87 -3.81 2.39
-6.80 -3.95 2.39
-6.71 -4.08 2.39
-6.63 -4.21 2.39
-6.54 -4.34 2.39
-6.45 -4.47 2.39
-6.36 -4.60 2.39
-6.26 -4.73 2.39
-6.17 -4.85 2.39
-6.07 -4.97 2.39
-5.96 -5.09 2.39
-5.86 -5.21 2.39
-5.75 -5.32 2.39
-5.74 -5.53 2.43
-5.73 -5.75 2.48
-5.65 -5.90 2.49
-5.53 -6.01 2.49
-5.41 -6.12 2.49
-5.28 -6.22 2.49
-5.16 -6.33 2.49
-5.03 -6.43 2.49
-4.89 -6.53 2.49
-4.76 -6.62 2.49
-4.63 -6.71 2.49
-4.49 -6.80 2.49
-4.35 -6.89 2.49
-4.21 -6.97 2.49
-4.07 -7.06 2.49
-3.93 -7.13 2.49
-3.78 -7.21 2.49
-3.63 -7.28 2.49
-3.49 -7.35 2.49
-3.34 -7.42 2.49
-3.19 -7.48 2.49
-3.03 -7.54 2.49
-2.88 -7.60 2.49
-2.73 -7.65 2.49
-2.57 -7.70 2.49
-2.42 -7.75 2.49
-2.26 -7.79 2.49
-2.10 -7.84 2.49
-1.95 -7.87 2.49
-1.79 -7.91 2.49
-1.63 -7.94 2.49
-1.47 -7.97 2.49
-1.31 -8.00 2.49
-1.14 -8.02 2.49
-0.98 -8.04 2.49
-0.82 -8.05 2.49
-0.66 -8.07 2.49
-0.50 -8.07 2.49
-0.33 -8.08 2.49
-0.17 -8.08 2.49
-0.01 -7.48 2.49
0.14 -7.48 2.49
0.29 -7.47 2.49
0.44 -7.46 2.49
0.59 -7.45 2.49
0.74 -7.43 2.49
0.89 -7.42 2.49
1.04 -7.39 2.49
1.18 -7.37 2.49
1.33 -7.34 2.49
1.48 -7.31 2.49
1.62 -7.28 2.49
1.77 -7.24 2.49
1.91 -7.21 2.49
2.06 -7.16 2.49
2.20 -7.12 2.49
2.34 -7.07 2.49
2.38 -6.73 2.39
2.52 -6.68 2.39
2.65 -6.63 2.39
2.78 -6.57 2.39
2.91 -6.51 2.39
3.04 -6.45 2.39
3.17 -6.39 2.39
2.80 -5.37 2.03
3.42 -6.25 2.39
3.55 -6.18 2.39
3.67 -6.11 2.39
3.79 -6.03 2.39
3.91 -5.95 2.39
4.03 -5.87 2.39
4.14 -5.79 2.39
4.26 -5.70 2.39
4.37 -5.62 2.39
4.48 -5.53 2.39
4.59 -5.43 2.39
4.70 -5.34 2.39
4.81 -5.24 2.39
4.91 -5.14 2.39
5.01 -5.04 2.39
5.11 -4.94 2.39
5.21 -4.84 2.39
5.30 -4.73 2.39
5.40 -4.62 2.39
5.49 -4.51 2.39
5.12 -4.04 2.20
5.28 -4.00 2.23
5.75 -4.17 2.39
5.83 -4.06 2.39
5.91 -3.94 2.39
5.99 -3.82 2.39
6.06 -3.70 2.39
6.13 -3.57 2.39
6.20 -3.45 2.39
6.27 -3.32 2.39
5.01 -2.53 1.89
5.04 -2.41 1.88
5.08 -2.31 1.88
5.13 -2.21 1.88
5.17 -2.11 1.88
5.21 -2.00 1.88
5.25 -1.90 1.88
5.29 -1.79 1.88
5.32 -1.68 1.88
5.36 -1.58 1.88
5.39 -1.47 1.88
5.41 -1.36 1.88
5.44 -1.25 1.88
6.02 -1.26 2.07
6.02 -1.13 2.06
6.02 -1.00 2.06
6.01 -0.88 2.05
6.01 -0.76 2.04
6.01 -0.63 2.04
6.01 -0.51 2.03
6.00 -0.39 2.03
6.00 -0.27 2.02
6.00 -0.15 2.02
6.00 -0.03 2.02
5.99 0.09 2.02
5.99 0.21 2.02
5.99 0.33 2.02
5.99 0.45 2.02
5.98 0.57 2.02
5.98 0.70 2.03
5.98 0.82 2.03
5.98 0.94 2.04
5.97 1.06 2.04
5.97 1.19 2.05
5.97 1.31 2.06
5.97 1.44 2.07
5.91 1.55 2.05
5.91 1.68 2.07
5.96 1.82 2.10
5.96 1.95 2.11
5.94 2.08 2.12
5.92 2.21 2.13
5.91 2.34 2.14
5.89 2.47 2.15
5.88 2.61 2.16
5.88 2.75 2.18
5.89 2.90 2.21
6.11 3.65 2.39
6.04 3.77 2.39
5.97 3.89 2.39
5.89 4.01 2.39
5.81 4.13 2.39
5.72 4.25 2.39
5.64 4.36 2.39
5.55 4.48 2.39
5.46 4.59 2.39
5.37 4.70 2.39
5.27 4.80 2.39
5.18 4.91 2.39
5.08 5.01 2.39
4.98 5.12 2.39
4.88 5.22 2.39
4.77 5.32 2.39
4.66 5.41 2.39
4.56 5.51 2.39
4.45 5.60 2.39
4.33 5.69 2.39
4.22 5.77 2.39
4.10 5.86 2.39
3.99 5.94 2.39
3.87 6.02 2.39
3.75 6.10 2.39
3.62 6.18 2.39
3.50 6.25 2.39
3.37 6.32 2.39
3.25 6.39 2.39
3.12 6.45 2.39
2.99 6.52 2.39
2.86 6.58 2.39
2.73 6.64 2.39
2.60 6.69 2.39
2.46 6.74 2.39
2.33 6.79 2.39
2.19 6.84 2.39
2.07 6.94 2.41
2.00 7.23 2.49
1.85 7.27 2.49
1.71 7.30 2.49
1.56 7.34 2.49
1.41 7.37 2.49
1.26 7.40 2.49
1.12 7.43 2.49
0.97 7.45 2.49
0.82 7.47 2.49
0.67 7.49 2.49
0.52 7.50 2.49
0.37 7.51 2.49
0.22 7.52 2.49
0.07 7.52 2.49
-0.09 7.52 2.49
-0.24 7.52 2.49
-0.39 7.52 2.49
-0.54 7.51 2.49
-0.69 7.50 2.49
-0.84 7.49 2.49
-0.99 7.47 2.49
-1.14 7.45 2.49
-1.29 7.43 2.49
-1.44 7.40 2.49
-1.59 7.38 2.49
-1.74 7.34 2.49
-1.88 7.31 2.49
-2.03 7.27 2.49
-2.18 7.23 2.49
-2.32 7.19 2.49
-2.47 7.14 2.49
-2.61 7.09 2.49
-2.75 7.04 2.49
-2.89 6.99 2.49
-3.03 6.93 2.49
-3.17 6.87 2.49
-3.31 6.80 2.49
-3.45 6.74 2.49
-3.58 6.67 2.49
-3.72 6.60 2.49
-3.85 6.52 2.49
-3.98 6.45 2.49
-4.11 6.37 2.49
-4.24 6.28 2.49
-4.36 6.20 2.49
-4.49 6.11 2.49
-4.61 6.02 2.49
-4.73 5.93 2.49
-4.85 5.83 2.49
-4.96 5.74 2.49
-5.08 5.64 2.49
-5.19 5.53 2.49
-5.30 5.43 2.49
-5.41 5.32 2.49
-5.52 5.21 2.49
-5.62 5.10 2.49
-5.72 4.99 2.49
-5.82 4.88 2.49
-5.92 4.76 2.49
-5.94 4.58 2.46
-5.94 4.39 2.42
-5.94 4.21 2.39
-6.03 4.09 2.39
-6.12 3.98 2.39
-6.19 3.85 2.39
-6.26 3.73 2.39
-6.34 3.60 2.39
-6.41 3.47 2.39
-6.48 3.34 2.39
-6.54 3.21 2.39
-6.61 3.08 2.39
-6.67 2.95 2.39
-6.73 2.81 2.39
-6.78 2.68 2.39
-6.83 2.54 2.39
-6.88 2.40 2.39
-6.93 2.27 2.39
-6.98 2.13 2.39
-7.02 1.99 2.39
-7.06 1.85 2.39
-7.09 1.70 2.39
-7.12 1.56 2.39
-7.15 1.42 2.39
-7.18 1.27 2.39
-7.20 1.13 2.39
-7.23 0.99 2.39
-7.24 0.84 2.39
-7.26 0.70 2.39
-7.27 0.55 2.39
-7.28 0.40 2.39
-7.29 0.26 2.39
-7.29 0.11 2.39
-7.29 -0.03 2.39
-7.29 -0.18 2.39
-7.28 -0.33 2.39
-7.27 -0.47 2.39
-7.26 -0.62 2.39
-7.25 -0.76 2.39
-7.23 -0.91 2.39
-7.21 -1.05 2.39
-7.19 -1.20 2.39
-7.16 -1.34 2.39
-7.13 -1.48 2.39
-7.10 -1.63 2.39
-7.06 -1.77 2.39
-7.03 -1.91 2.39
-6.99 -2.05 2.39
-6.94 -2.19 2.39
-6.90 -2.33 2.39
-6.85 -2.46 2.39
-6.80 -2.60 2.39
-6.74 -2.74 2.39
-6.68 -2.87 2.39
-6.62 -3.00 2.39
-6.56 -3.14 2.39
-6.50 -3.27 2.39
-6.43 -3.39 2.39
-6.36 -3.52 2.39
-6.28 -3.65 2.39
-6.21 -3.77 2.39
-6.13 -3.90 2.39
-6.05 -4.02 2.39
-5.97 -4.14 2.39
-5.88 -4.25 2.39
-5.79 -4.37 2.39
-5.76 -4.53 2.41
-5.75 -4.71 2.45
-5.75 -4.90 2.49
-5.65 -5.02 2.49
-5.55 -5.14 2.49
-5.45 -5.25 2.49
-5.34 -5.35 2.49
-5.23 -5.46 2.49
-5.12 -5.56 2.49
-5.00 -5.66 2.49
-4.89 -5.76 2.49
-4.77 -5.85 2.49
-4.65 -5.95 2.49
-4.53 -6.04 2.49
-4.41 -6.12 2.49
-4.28 -6.21 2.49
-4.15 -6.29 2.49
-4.03 -6.37 2.49
-3.90 -6.45 2.49
-3.76 -6.53 2.49
-3.63 -6.60 2.49
-3.50 -6.67 2.49
-3.36 -6.74 2.49
-3.23 -6.80 2.49
-3.09 -6.86 2.49
-2.95 -6.92 2.49
-2.81 -6.98 2.49
-2.67 -7.03 2.49
-2.52 -7.08 2.49
-2.38 -7.13 2.49
-2.24 -7.17 2.49
-2.09 -7.21 2.49
-1.95 -7.25 2.49
-1.80 -7.29 2.49
-1.65 -7.32 2.49
-1.51 -7.35 2.49
-1.36 -7.38 2.49
-1.21 -7.40 2.49
-1.06 -7.42 2.49
-0.91 -7.44 2.49
-0.76 -7.45 2.49
-0.61 -7.46 2.49
-0.46 -7.47 2.49
-0.31 -7.48 2.49
-0.16 -7.48 2.49
-0.01 -6.95 2.49
0.13 -6.95 2.49
0.27 -6.95 2.49
0.41 -6.94 2.49
0.55 -6.93 2.49
0.69 -6.91 2.49
0.82 -6.90 2.49
0.96 -6.88 2.49
1.10 -6.85 2.49
1.24 -6.83 2.49
1.37 -6.80 2.49
1.51 -6.77 2.49
1.65 -6.74 2.49
1.78 -6.70 2.49
1.91 -6.66 2.49
2.05 -6.62 2.49
2.18 -6.58 2.49
2.31 -6.53 2.49
2.34 -6.22 2.39
2.46 -6.16 2.39
2.59 -6.11 2.39
2.71 -6.06 2.39
2.83 -6.00 2.39
2.95 -5.94 2.39
2.80 -5.37 2.18
3.18 -5.81 2.39
3.30 -5.75 2.39
3.41 -5.68 2.39
3.52 -5.61 2.39
3.64 -5.54 2.39
3.75 -5.46 2.39
3.85 -5.38 2.39
3.96 -5.30 2.39
4.07 -5.22 2.39
4.17 -5.14 2.39
4.27 -5.05 2.39
4.37 -4.97 2.39
4.47 -4.88 2.39
4.57 -4.78 2.39
4.66 -4.69 2.39
4.75 -4.60 2.39
4.84 -4.50 2.39
4.93 -4.40 2.39
5.02 -4.30 2.39
5.10 -4.20 2.39
5.12 -4.04 2.36
5.27 -3.99 2.39
5.35 -3.88 2.39
5.42 -3.77 2.39
5.50 -3.66 2.39
5.57 -3.55 2.39
5.64 -3.44 2.39
5.71 -3.32 2.39
5.77 -3.21 2.39
5.83 -3.09 2.39
5.01 -2.52 2.03
5.00 -2.40 2.01
5.00 -2.27 1.99
5.00 -2.15 1.97
5.00 -2.03 1.95
4.99 -1.92 1.94
4.99 -1.80 1.92
4.99 -1.69 1.91
4.99 -1.58 1.90
5.00 -1.47 1.89
5.01 -1.37 1.88
5.04 -1.26 1.88
5.06 -1.16 1.88
5.08 -1.06 1.88
5.22 -0.98 1.93
5.96 -1.00 2.19
5.96 -0.87 2.18
5.95 -0.75 2.17
5.95 -0.63 2.17
5.95 -0.51 2.16
5.95 -0.39 2.16
5.94 -0.27 2.16
5.94 -0.15 2.15
5.94 -0.03 2.15
5.94 0.09 2.15
5.93 0.21 2.15
5.93 0.33 2.15
5.93 0.45 2.15
5.93 0.57 2.16
5.92 0.69 2.16
5.92 0.81 2.16
5.92 0.93 2.17
5.92 1.05 2.17
5.91 1.18 2.18
5.91 1.30 2.19
5.91 1.43 2.20
5.91 1.55 2.21
5.91 1.68 2.22
6.15 2.44 2.39
6.10 2.56 2.39
6.05 2.68 2.39
5.99 2.80 2.39
5.94 2.92 2.39
5.88 3.04 2.39
5.82 3.16 2.39
5.75 3.28 2.39
5.69 3.39 2.39
5.62 3.51 2.39
5.55 3.62 2.39
5.47 3.73 2.39
5.40 3.84 2.39
5.32 3.95 2.39
5.24 4.06 2.39
5.16 4.16 2.39
5.08 4.27 2.39
4.99 4.37 2.39
4.90 4.47 2.39
4.81 4.57 2.39
4.72 4.66 2.39
4.63 4.76 2.39
4.53 4.85 2.39
4.44 4.94 2.39
4.34 5.03 2.39
4.24 5.12 2.39
4.13 5.20 2.39
4.03 5.29 2.39
3.92 5.37 2.39
3.82 5.45 2.39
3.71 5.53 2.39
3.60 5.60 2.39
3.48 5.67 2.39
3.37 5.74 2.39
3.25 5.81 2.39
3.14 5.88 2.39
3.02 5.94 2.39
2.90 6.00 2.39
2.78 6.06 2.39
2.66 6.12 2.39
2.54 6.17 2.39
2.41 6.22 2.39
2.29 6.27 2.39
2.16 6.32 2.39
2.07 6.48 2.44
1.99 6.68 2.49
1.86 6.72 2.49
1.72 6.75 2.49
1.59 6.79 2.49
1.45 6.82 2.49
1.31 6.85 2.49
1.17 6.88 2.49
1.04 6.90 2.49
0.90 6.92 2.49
0.76 6.94 2.49
0.62 6.96 2.49
0.48 6.97 2.49
0.34 6.98 2.49
0.20 6.99 2.49
0.06 6.99 2.49
-0.08 6.99 2.49
-0.22 6.99 2.49
-0.36 6.99 2.49
-0.50 6.98 2.49
-0.64 6.97 2.49
-0.78 6.96 2.49
-0.92 6.94 2.49
-1.06 6.93 2.49
-1.20 6.90 2.49
-1.34 6.88 2.49
-1.48 6.85 2.49
-1.61 6.82 2.49
-1.75 6.79 2.49
-1.89 6.76 2.49
-2.02 6.72 2.49
-2.16 6.68 2.49
-2.29 6.64 2.49
-2.42 6.59 2.49
-2.56 6.54 2.49
-2.69 6.49 2.49
-2.82 6.44 2.49
-2.95 6.38 2.49
-3.08 6.32 2.49
-3.20 6.26 2.49
-3.33 6.20 2.49
-3.45 6.13 2.49
-3.58 6.06 2.49
-3.70 5.99 2.49
-3.82 5.91 2.49
-3.94 5.84 2.49
-4.05 5.76 2.49
-4.17 5.68 2.49
-4.28 5.59 2.49
-4.39 5.51 2.49
-4.50 5.42 2.49
-4.61 5.33 2.49
-4.72 5.24 2.49
-4.82 5.14 2.49
-4.93 5.04 2.49
-5.03 4.94 2.49
-5.13 4.84 2.49
-5.22 4.74 2.49
-5.32 4.64 2.49
-5.41 4.53 2.49
-5.50 4.42 2.49
-5.59 4.31 2.49
-5.67 4.20 2.49
-5.76 4.08 2.49
-5.84 3.97 2.49
-5.92 3.85 2.49
-5.92 3.68 2.46
-5.92 3.52 2.43
-5.92 3.36 2.40
-5.95 3.22 2.39
-6.02 3.10 2.39
-6.10 2.99 2.40
-6.14 2.86 2.39
-6.19 2.74 2.39
-6.25 2.61 2.39
-6.30 2.49 2.39
-6.35 2.36 2.39
-6.39 2.23 2.39
-6.44 2.10 2.39
-6.48 1.98 2.39
-6.52 1.85 2.39
-6.55 1.71 2.39
-6.59 1.58 2.39
-6.62 1.45 2.39
-6.64 1.32 2.39
-6.67 1.18 2.39
-6.69 1.05 2.39
-6.71 0.92 2.39
-6.73 0.78 2.39
-6.74 0.65 2.39
-6.75 0.51 2.39
-6.76 0.38 2.39
-6.77 0.24 2.39
-6.77 0.10 2.39
-6.77 -0.03 2.39
-6.77 -0.17 2.39
-6.76 -0.30 2.39
-6.76 -0.44 2.39
-6.75 -0.57 2.39
-6.73 -0.71 2.39
-6.72 -0.84 2.39
-6.70 -0.98 2.39
-6.68 -1.11 2.39
-6.65 -1.25 2.39
-6.62 -1.38 2.39
-6.59 -1.51 2.39
-6.56 -1.64 2.39
-6.53 -1.77 2.39
-6.49 -1.90 2.39
-6.45 -2.03 2.39
-6.41 -2.16 2.39
-6.36 -2.29 2.39
-6.31 -2.42 2.39
-6.26 -2.54 2.39
-6.21 -2.67 2.39
-6.15 -2.79 2.39
-6.09 -2.91 2.39
-6.03 -3.03 2.39
-5.97 -3.15 2.39
-5.91 -3.27 2.39
-5.84 -3.39 2.39
-5.78 -3.51 2.40
-5.77 -3.67 2.42
-5.77 -3.83 2.45
-5.76 -4.00 2.49
-5.70 -4.12 2.49
-5.62 -4.24 2.49
-5.53 -4.35 2.49
-5.44 -4.46 2.49
-5.35 -4.56 2.49
-5.25 -4.67 2.49
-5.16 -4.77 2.49
-5.06 -4.87 2.49
-4.96 -4.97 2.49
-4.86 -5.07 2.49
-4.75 -5.16 2.49
-4.65 -5.26 2.49
-4.54 -5.35 2.49
-4.43 -5.44 2.49
-4.32 -5.52 2.49
-4.21 -5.61 2.49
-4.09 -5.69 2.49
-3.98 -5.77 2.49
-3.86 -5.85 2.49
-3.74 -5.92 2.49
-3.62 -5.99 2.49
-3.50 -6.06 2.49
-3.38 -6.13 2.49
-3.25 -6.20 2.49
-3.13 -6.26 2.49
-3.00 -6.32 2.49
-2.87 -6.38 2.49
-2.74 -6.43 2.49
-2.61 -6.48 2.49
-2.48 -6.53 2.49
-2.35 -6.58 2.49
-2.21 -6.62 2.49
-2.08 -6.66 2.49
-1.95 -6.70 2.49
-1.81 -6.74 2.49
-1.67 -6.77 2.49
-1.54 -6.80 2.49
-1.40 -6.83 2.49
-1.26 -6.86 2.49
-1.12 -6.88 2.49
-0.99 -6.90 2.49
-0.85 -6.91 2.49
-0.71 -6.93 2.49
-0.57 -6.94 2.49
-0.43 -6.95 2.49
-0.29 -6.95 2.49
-0.15 -6.95 2.49
-0.01 -6.49 2.49
0.12 -6.49 2.49
