ply
format ascii 1.0
element vertex 2969
property float32 x
property float32 y
property float32 z
end_header
-10.76 -9.58 2.41
-10.57 -9.79 2.41
-10.36 -10.00 2.41
-10.16 -10.20 2.41
-9.95 -10.40 2.41
-9.67 -10.52 2.39
-6.07 -6.88 1.54
-9.23 -10.90 2.39
-9.01 -11.08 2.39
-8.79 -11.25 2.39
-8.56 -11.43 2.39
-8.32 -11.59 2.39
-8.09 -11.76 2.39
-7.85 -11.91 2.39
-7.60 -12.07 2.39
-7.36 -12.21 2.39
-7.05 -12.25 2.37
-6.78 -12.35 2.36
-6.59 -12.59 2.38
-6.34 -12.73 2.39
-6.09 -12.88 2.39
-5.83 -12.99 2.39
-5.76 -13.55 2.47
-5.53 -13.79 2.49
-5.25 -13.89 2.49
-4.97 -13.99 2.49
-4.69 -14.09 2.49
-4.41 -14.18 2.49
-4.12 -14.26 2.49
-3.83 -14.34 2.49
-3.54 -14.41 2.49
-3.25 -14.48 2.49
-2.96 -14.54 2.49
-2.67 -14.60 2.49
-2.37 -14.65 2.49
-2.08 -14.69 2.49
-1.78 -14.73 2.49
-0.63 -6.24 1.05
-0.50 -6.25 1.05
-0.38 -6.25 1.05
-0.25 -6.26 1.05
-0.13 -6.26 1.05
0.00 -5.52 1.06
0.11 -5.52 1.06
0.22 -5.52 1.06
0.33 -5.51 1.06
0.44 -5.50 1.06
0.55 -5.49 1.06
0.66 -5.48 1.06
0.77 -5.47 1.06
0.88 -5.45 1.06
0.99 -5.43 1.06
1.10 -5.41 1.06
2.74 -12.19 2.39
2.98 -12.14 2.39
3.23 -12.08 2.39
3.47 -12.01 2.39
3.71 -11.94 2.39
3.95 -11.86 2.39
4.19 -11.78 2.39
4.42 -11.70 2.39
4.66 -11.61 2.39
4.89 -11.51 2.39
5.12 -11.42 2.39
5.35 -11.31 2.39
5.58 -11.20 2.39
5.80 -11.09 2.39
6.03 -10.97 2.39
6.02 -10.47 2.30
6.00 -9.52 2.15
6.06 -9.20 2.10
6.06 -8.80 2.04
2.34 -3.26 0.77
2.45 -3.27 0.78
2.55 -3.27 0.79
2.65 -3.26 0.80
6.05 -7.14 1.78
6.05 -6.86 1.74
5.98 -6.51 1.68
6.05 -6.32 1.67
6.05 -6.07 1.63
6.05 -5.83 1.60
6.05 -5.60 1.57
6.05 -5.38 1.54
6.05 -5.17 1.51
6.05 -4.96 1.49
6.05 -4.76 1.46
6.05 -4.57 1.44
6.04 -4.38 1.42
6.04 -4.20 1.40
6.04 -4.02 1.38
6.04 -3.84 1.36
6.04 -3.68 1.34
6.04 -3.51 1.33
6.04 -3.35 1.31
6.04 -3.19 1.30
6.04 -3.04 1.28
6.04 -2.89 1.27
6.04 -2.74 1.26
5.97 -2.57 1.23
6.04 -2.45 1.23
6.04 -2.31 1.22
6.04 -2.17 1.21
6.04 -2.04 1.20
6.04 -1.90 1.20
6.04 -1.77 1.19
6.04 -1.64 1.18
6.04 -1.51 1.17
6.04 -1.38 1.17
6.04 -1.26 1.16
6.04 -1.13 1.16
6.04 -1.01 1.15
6.04 -0.88 1.15
6.04 -0.76 1.15
6.03 -0.63 1.14
6.03 -0.51 1.14
6.03 -0.39 1.14
6.03 -0.27 1.14
6.03 -0.15 1.13
6.03 -0.03 1.13
6.03 0.09 1.13
6.03 0.22 1.13
6.03 0.34 1.13
6.03 0.46 1.14
6.03 0.58 1.14
6.03 0.70 1.14
6.03 0.83 1.14
6.03 0.95 1.14
6.03 1.07 1.15
6.03 1.20 1.15
6.03 1.33 1.16
5.96 1.44 1.15
6.03 1.58 1.17
6.03 1.71 1.17
6.03 1.84 1.18
6.03 1.98 1.19
6.03 2.11 1.19
6.03 2.25 1.20
6.03 2.39 1.21
6.03 2.53 1.22
6.03 2.67 1.23
6.03 2.82 1.24
6.03 2.96 1.25
6.02 3.12 1.26
6.02 3.27 1.28
6.02 3.43 1.29
6.02 3.59 1.31
6.02 3.76 1.32
6.02 3.93 1.34
6.02 4.10 1.36
6.02 4.28 1.37
6.02 4.46 1.39
6.02 4.65 1.41
6.02 4.85 1.44
6.02 5.05 1.46
6.02 5.26 1.48
5.96 5.42 1.50
6.02 5.70 1.54
6.02 5.93 1.57
6.02 6.18 1.60
6.02 6.43 1.63
6.02 6.69 1.67
6.01 6.97 1.71
6.01 7.25 1.75
6.01 7.56 1.79
6.01 7.88 1.84
6.01 8.21 1.89
6.01 8.57 1.94
6.01 8.94 1.99
6.01 9.34 2.06
5.33 8.65 1.88
5.15 8.76 1.88
4.99 8.88 1.89
4.97 9.29 1.95
5.87 11.51 2.39
5.21 10.75 2.21
5.40 11.74 2.39
5.12 11.73 2.37
4.93 11.95 2.39
4.69 12.05 2.39
4.45 12.14 2.39
4.20 12.23 2.39
3.96 12.31 2.39
3.71 12.39 2.39
3.46 12.47 2.39
2.67 10.41 1.98
2.96 12.60 2.39
2.71 12.65 2.39
2.45 12.71 2.39
2.22 12.87 2.41
2.02 13.35 2.49
1.76 13.39 2.49
1.49 13.42 2.49
1.22 13.45 2.49
0.95 13.47 2.49
0.68 13.49 2.49
0.41 13.50 2.49
0.14 13.50 2.49
-0.14 13.50 2.49
-0.41 13.50 2.49
-0.68 13.49 2.49
-0.95 13.47 2.49
-1.22 13.45 2.49
-1.49 13.42 2.49
-1.76 13.39 2.49
-2.02 13.35 2.49
-2.29 13.31 2.49
-2.56 13.26 2.49
-2.82 13.20 2.49
-3.09 13.14 2.49
-3.35 13.07 2.49
-3.61 13.00 2.49
-3.87 12.93 2.49
-4.13 12.85 2.49
-4.38 12.76 2.49
-4.64 12.67 2.49
-4.89 12.57 2.49
-5.14 12.47 2.49
-5.39 12.36 2.49
-5.64 12.25 2.49
-5.84 12.04 2.47
-5.87 11.51 2.39
-6.10 11.39 2.39
-6.32 11.26 2.39
-6.55 11.13 2.39
-6.77 11.00 2.39
-6.99 10.86 2.39
-7.20 10.71 2.39
-7.41 10.56 2.39
-7.62 10.41 2.39
-7.83 10.25 2.39
-8.03 10.09 2.39
-8.23 9.92 2.39
-8.42 9.76 2.39
-8.61 9.58 2.39
-8.80 9.41 2.39
-8.99 9.22 2.39
-9.17 9.04 2.39
-9.35 8.85 2.39
-9.52 8.66 2.39
-9.69 8.46 2.39
-9.86 8.28 2.39
-9.86 7.94 2.35
-3.63 2.80 0.85
-3.57 2.65 0.83
-3.58 2.55 0.82
-3.62 2.47 0.82
-3.69 2.40 0.82
-3.78 2.36 0.83
-10.11 6.03 2.19
-10.59 6.03 2.27
-11.04 5.99 2.34
-11.46 5.93 2.41
-11.58 5.69 2.41
-11.68 5.46 2.41
-11.79 5.22 2.41
-11.89 4.98 2.41
-11.98 4.74 2.41
-12.07 4.50 2.41
-12.15 4.25 2.41
-12.23 4.01 2.41
-12.30 3.76 2.41
-12.37 3.51 2.41
-12.43 3.26 2.41
-12.49 3.01 2.40
-12.54 2.76 2.40
-12.58 2.50 2.40
-12.62 2.25 2.40
-12.67 1.99 2.40
-12.70 1.74 2.40
-12.72 1.48 2.40
-12.75 1.23 2.40
-12.76 0.97 2.40
-12.77 0.71 2.40
-12.78 0.46 2.40
-12.78 0.20 2.40
-12.78 -0.06 2.40
-12.77 -0.31 2.40
-12.76 -0.57 2.40
-12.74 -0.82 2.40
-12.72 -1.08 2.40
-12.69 -1.33 2.40
-12.66 -1.59 2.40
-12.62 -1.84 2.40
-12.58 -2.09 2.40
-12.53 -2.35 2.40
-12.48 -2.60 2.41
-12.42 -2.85 2.41
-12.36 -3.09 2.41
-12.29 -3.34 2.41
-12.22 -3.59 2.41
-12.14 -3.83 2.41
-12.06 -4.07 2.41
-11.97 -4.31 2.41
-11.88 -4.55 2.41
-11.78 -4.78 2.41
-11.68 -5.02 2.41
-11.57 -5.25 2.41
-11.46 -5.48 2.41
-11.34 -5.71 2.41
-11.22 -5.93 2.41
-11.10 -6.15 2.41
-10.97 -6.37 2.41
-10.83 -6.59 2.41
-10.70 -6.80 2.41
-10.55 -7.02 2.41
-10.41 -7.22 2.41
-10.26 -7.43 2.41
-10.10 -7.63 2.41
-9.95 -7.83 2.41
-9.72 -7.97 2.39
-9.55 -8.17 2.39
-9.39 -8.35 2.39
-9.21 -8.54 2.39
-9.04 -8.72 2.39
-8.86 -8.90 2.39
-8.68 -9.07 2.39
-8.49 -9.24 2.39
-6.07 -6.88 1.75
-8.11 -9.57 2.39
-7.91 -9.73 2.39
-7.71 -9.88 2.39
-7.51 -10.03 2.39
-7.31 -10.18 2.39
-7.10 -10.32 2.39
-6.89 -10.46 2.39
-6.68 -10.60 2.39
-6.46 -10.73 2.39
-6.24 -10.85 2.39
-6.02 -10.97 2.39
-5.80 -11.09 2.39
-5.76 -11.57 2.47
-5.58 -11.80 2.49
-5.34 -11.91 2.49
-5.10 -12.01 2.49
-4.86 -12.11 2.49
-4.61 -12.20 2.49
-4.37 -12.29 2.49
-4.12 -12.37 2.49
-3.87 -12.45 2.49
-3.62 -12.53 2.49
-3.37 -12.60 2.49
-3.11 -12.66 2.49
-2.86 -12.72 2.49
-2.60 -12.77 2.49
-2.34 -12.82 2.49
-2.09 -12.87 2.49
-1.83 -12.90 2.49
-0.66 -5.48 1.06
-0.55 -5.50 1.06
-0.44 -5.50 1.06
-0.33 -5.51 1.06
-0.22 -5.52 1.06
-0.11 -5.52 1.06
0.00 -4.93 1.06
0.10 -4.93 1.06
0.20 -4.93 1.06
0.30 -4.92 1.06
0.40 -4.91 1.06
0.49 -4.91 1.06
0.59 -4.90 1.06
0.69 -4.88 1.06
0.79 -4.87 1.06
0.89 -4.85 1.06
0.98 -4.83 1.06
1.08 -4.81 1.06
2.66 -10.81 2.39
2.87 -10.76 2.39
3.09 -10.70 2.39
3.31 -10.63 2.39
3.52 -10.57 2.39
3.73 -10.50 2.39
3.94 -10.42 2.39
4.15 -10.34 2.39
4.36 -10.26 2.39
4.56 -10.17 2.39
4.77 -10.07 2.39
4.97 -9.98 2.39
5.17 -9.88 2.39
5.37 -9.77 2.39
5.56 -9.67 2.39
5.76 -9.55 2.39
5.95 -9.44 2.39
6.14 -9.32 2.39
6.02 -8.38 2.21
2.49 -3.32 0.89
6.05 -7.75 2.11
6.05 -7.44 2.05
6.05 -7.14 2.00
6.05 -6.86 1.96
5.98 -6.51 1.89
6.05 -6.32 1.87
6.05 -6.07 1.83
6.05 -5.83 1.80
6.05 -5.60 1.76
6.05 -5.38 1.73
6.05 -5.17 1.70
6.05 -4.96 1.67
6.05 -4.76 1.64
6.05 -4.57 1.62
6.04 -4.38 1.59
6.04 -4.19 1.57
6.04 -4.02 1.55
6.04 -3.84 1.53
6.04 -3.68 1.51
6.04 -3.51 1.49
6.04 -3.35 1.47
6.04 -3.19 1.46
6.04 -3.04 1.44
6.04 -2.89 1.43
6.04 -2.74 1.41
5.97 -2.57 1.38
6.04 -2.45 1.39
6.04 -2.31 1.37
6.04 -2.17 1.36
6.04 -2.04 1.35
6.04 -1.90 1.34
6.04 -1.77 1.34
6.04 -1.64 1.33
6.04 -1.51 1.32
6.04 -1.38 1.31
6.04 -1.26 1.31
6.04 -1.13 1.30
6.04 -1.00 1.30
6.04 -0.88 1.29
6.04 -0.76 1.29
6.03 -0.63 1.28
6.03 -0.51 1.28
6.03 -0.39 1.28
6.03 -0.27 1.28
6.03 -0.15 1.28
6.03 -0.03 1.28
6.03 0.09 1.27
6.03 0.22 1.28
6.03 0.34 1.28
6.03 0.46 1.28
6.03 0.58 1.28
6.03 0.70 1.28
6.03 0.83 1.28
6.03 0.95 1.29
6.03 1.07 1.29
6.03 1.20 1.30
6.03 1.33 1.30
5.96 1.44 1.29
6.03 1.58 1.31
6.03 1.71 1.32
6.03 1.84 1.33
6.03 1.98 1.33
6.03 2.11 1.34
6.03 2.25 1.35
6.03 2.39 1.36
6.03 2.53 1.37
6.03 2.67 1.38
6.03 2.82 1.40
6.03 2.97 1.41
6.02 3.12 1.42
6.02 3.27 1.44
6.02 3.43 1.45
6.02 3.59 1.47
6.02 3.76 1.49
6.02 3.93 1.51
6.02 4.10 1.53
6.02 4.28 1.55
6.02 4.46 1.57
6.02 4.65 1.59
6.02 4.85 1.62
6.02 5.05 1.64
6.02 5.26 1.67
5.96 5.42 1.68
6.02 5.70 1.73
6.02 5.93 1.77
6.02 6.18 1.80
6.02 6.43 1.84
6.02 6.69 1.88
6.01 6.97 1.92
6.01 7.26 1.97
6.01 7.56 2.02
6.01 7.88 2.07
6.00 8.19 2.12
5.42 7.73 1.97
5.19 7.73 1.94
4.98 7.74 1.92
4.97 8.08 1.98
4.97 8.46 2.04
5.05 9.00 2.15
5.41 10.11 2.39
5.21 10.22 2.39
5.00 10.32 2.39
4.80 10.42 2.39
4.59 10.52 2.39
4.38 10.61 2.39
4.16 10.70 2.39
3.95 10.78 2.39
3.73 10.86 2.39
3.51 10.93 2.39
3.29 11.00 2.39
3.07 11.06 2.39
2.67 10.41 2.24
2.63 11.18 2.39
2.42 11.32 2.41
2.21 11.48 2.43
2.03 11.81 2.49
1.80 11.85 2.49
1.56 11.88 2.49
1.32 11.91 2.49
1.08 11.94 2.49
0.84 11.96 2.49
0.60 11.97 2.49
0.36 11.98 2.49
0.12 11.99 2.49
-0.12 11.99 2.49
-0.36 11.98 2.49
-0.60 11.97 2.49
-0.84 11.96 2.49
-1.08 11.94 2.49
-1.32 11.91 2.49
-1.56 11.88 2.49
-1.80 11.85 2.49
-2.03 11.81 2.49
-2.27 11.77 2.49
-2.51 11.72 2.49
-2.74 11.66 2.49
-2.97 11.61 2.49
-3.20 11.54 2.49
-3.44 11.47 2.49
-3.66 11.40 2.49
-3.89 11.33 2.49
-4.12 11.24 2.49
-4.34 11.16 2.49
-4.56 11.07 2.49
-4.78 10.97 2.49
-5.00 10.87 2.49
-5.22 10.77 2.49
-5.43 10.66 2.49
-5.65 10.55 2.49
-5.83 10.39 2.48
-5.84 9.93 2.40
-6.02 9.78 2.40
-6.20 9.64 2.39
-6.39 9.51 2.39
-6.58 9.38 2.39
-6.77 9.24 2.39
-6.95 9.10 2.39
-7.13 8.96 2.39
-7.31 8.81 2.39
-7.48 8.66 2.39
-7.65 8.51 2.39
-7.82 8.35 2.39
-7.98 8.19 2.39
-8.14 8.03 2.39
-8.30 7.86 2.39
-8.45 7.69 2.39
-8.60 7.52 2.39
-8.75 7.34 2.39
-8.89 7.16 2.39
-3.53 2.73 0.93
-3.51 2.60 0.92
-3.53 2.51 0.91
-3.57 2.43 0.91
-3.63 2.37 0.91
-3.71 2.32 0.92
-3.84 2.29 0.94
-10.00 5.69 2.41
-10.10 5.49 2.41
-10.20 5.28 2.41
-10.29 5.06 2.41
-10.38 4.85 2.41
-10.47 4.64 2.41
-10.56 4.43 2.41
-10.64 4.21 2.41
-10.72 4.00 2.41
-10.80 3.78 2.41
-10.87 3.56 2.41
-10.93 3.34 2.41
-11.00 3.12 2.41
-11.05 2.90 2.41
-11.11 2.68 2.41
-11.15 2.45 2.41
-11.20 2.23 2.41
-11.24 2.00 2.41
-11.27 1.78 2.41
-11.30 1.55 2.41
-11.32 1.32 2.41
-11.35 1.09 2.41
-11.36 0.86 2.41
-11.37 0.64 2.41
-11.38 0.41 2.41
-11.38 0.18 2.41
-11.38 -0.05 2.41
-11.37 -0.28 2.41
-11.36 -0.51 2.41
-11.35 -0.73 2.41
-11.32 -0.96 2.41
-11.30 -1.19 2.41
-11.27 -1.41 2.41
-11.24 -1.64 2.41
-11.20 -1.86 2.41
-11.15 -2.09 2.41
-11.11 -2.31 2.41
-11.05 -2.53 2.41
-11.00 -2.75 2.41
-10.94 -2.97 2.41
-10.87 -3.19 2.41
-10.80 -3.41 2.41
-10.73 -3.62 2.41
-10.65 -3.83 2.41
-10.57 -4.05 2.41
-10.48 -4.26 2.41
-10.39 -4.46 2.41
-10.30 -4.67 2.41
-10.20 -4.88 2.41
-10.09 -5.08 2.41
-9.99 -5.28 2.41
-9.88 -5.48 2.41
-9.70 -5.63 2.39
-9.58 -5.83 2.39
-9.46 -6.02 2.39
-9.33 -6.20 2.39
-9.20 -6.39 2.39
-9.07 -6.57 2.39
-8.94 -6.75 2.39
-8.80 -6.92 2.39
-8.65 -7.10 2.39
-8.51 -7.27 2.39
-8.36 -7.44 2.39
-8.20 -7.60 2.39
-8.05 -7.76 2.39
-7.89 -7.92 2.39
-7.73 -8.08 2.39
-7.56 -8.23 2.39
-6.07 -6.88 1.96
-7.22 -8.52 2.39
-7.05 -8.66 2.39
-6.87 -8.80 2.39
-6.69 -8.93 2.39
-6.51 -9.07 2.39
-6.32 -9.19 2.39
-6.14 -9.32 2.39
-5.95 -9.44 2.39
-5.77 -9.58 2.40
-5.76 -10.01 2.48
-5.60 -10.19 2.49
-5.39 -10.30 2.49
-5.18 -10.41 2.49
-4.97 -10.51 2.49
-4.76 -10.60 2.49
-4.54 -10.70 2.49
-4.33 -10.78 2.49
-4.11 -10.87 2.49
-3.89 -10.95 2.49
-3.67 -11.02 2.49
-3.45 -11.09 2.49
-3.22 -11.16 2.49
-3.00 -11.22 2.49
-2.77 -11.28 2.49
-2.55 -11.33 2.49
-2.32 -11.38 2.49
-2.09 -11.42 2.49
-1.86 -11.46 2.49
-0.69 -4.89 1.06
-0.59 -4.90 1.06
-0.49 -4.91 1.06
-0.40 -4.92 1.06
-0.30 -4.92 1.06
-0.20 -4.93 1.06
-0.10 -4.93 1.06
0.00 -4.45 1.06
0.09 -4.45 1.06
0.18 -4.45 1.06
0.27 -4.44 1.06
0.36 -4.44 1.06
0.45 -4.43 1.06
0.54 -4.42 1.06
0.62 -4.41 1.06
0.71 -4.39 1.06
0.80 -4.38 1.06
0.89 -4.36 1.06
0.98 -4.34 1.06
1.06 -4.32 1.06
2.59 -9.69 2.39
2.78 -9.63 2.39
2.98 -9.58 2.39
3.17 -9.52 2.39
3.36 -9.45 2.39
3.55 -9.38 2.39
3.74 -9.31 2.39
3.92 -9.24 2.39
4.11 -9.16 2.39
4.29 -9.07 2.39
4.48 -8.99 2.39
4.66 -8.90 2.39
4.83 -8.80 2.39
5.01 -8.70 2.39
5.18 -8.60 2.39
5.36 -8.50 2.39
5.53 -8.39 2.39
5.70 -8.28 2.39
5.86 -8.16 2.39
2.49 -3.32 0.99
6.19 -7.92 2.39
6.02 -7.10 2.21
5.99 -6.79 2.15
5.98 -6.51 2.10
6.05 -6.32 2.08
6.05 -6.07 2.04
6.05 -5.83 1.99
6.05 -5.60 1.96
6.05 -5.38 1.92
6.05 -5.17 1.89
6.05 -4.96 1.85
6.05 -4.76 1.82
6.05 -4.56 1.80
6.04 -4.38 1.77
6.04 -4.19 1.74
6.04 -4.02 1.72
6.04 -3.84 1.70
6.04 -3.67 1.67
6.04 -3.51 1.65
6.04 -3.35 1.63
6.04 -3.19 1.62
6.04 -3.04 1.60
6.04 -2.89 1.58
6.04 -2.74 1.57
5.97 -2.57 1.54
6.04 -2.45 1.54
6.04 -2.31 1.53
6.04 -2.17 1.52
6.04 -2.04 1.50
6.04 -1.90 1.49
6.04 -1.77 1.48
6.04 -1.64 1.48
6.04 -1.51 1.47
6.04 -1.38 1.46
6.04 -1.26 1.45
6.04 -1.13 1.45
6.04 -1.00 1.44
6.04 -0.88 1.44
6.04 -0.76 1.43
6.03 -0.63 1.43
6.03 -0.51 1.42
6.03 -0.39 1.42
6.03 -0.27 1.42
6.03 -0.15 1.42
6.03 -0.03 1.42
6.03 0.10 1.42
6.03 0.22 1.42
6.03 0.34 1.42
6.03 0.46 1.42
6.03 0.58 1.42
6.03 0.70 1.42
6.03 0.83 1.43
6.03 0.95 1.43
6.03 1.07 1.44
6.03 1.20 1.44
6.03 1.33 1.45
5.96 1.44 1.44
6.03 1.58 1.46
6.03 1.71 1.47
6.03 1.84 1.48
6.03 1.98 1.48
6.03 2.11 1.49
6.03 2.25 1.50
6.03 2.39 1.52
6.03 2.53 1.53
6.03 2.67 1.54
6.03 2.82 1.55
6.03 2.97 1.57
6.02 3.12 1.58
6.02 3.27 1.60
6.02 3.43 1.62
6.02 3.59 1.64
6.02 3.76 1.66
6.02 3.93 1.68
6.02 4.10 1.70
6.02 4.28 1.72
6.02 4.46 1.75
6.02 4.65 1.77
6.02 4.85 1.80
6.02 5.05 1.83
6.02 5.26 1.86
5.96 5.42 1.87
6.02 5.70 1.93
6.02 5.93 1.97
6.02 6.18 2.01
6.02 6.43 2.05
5.41 6.02 1.88
5.29 6.12 1.88
5.16 6.23 1.88
5.04 6.33 1.88
6.08 8.30 2.39
5.91 8.42 2.39
5.35 7.96 2.23
5.12 7.96 2.20
5.40 8.77 2.39
5.22 8.88 2.39
5.04 8.98 2.39
4.86 9.08 2.39
4.68 9.18 2.39
4.49 9.27 2.39
4.31 9.36 2.39
4.12 9.45 2.39
3.93 9.53 2.39
3.74 9.61 2.39
3.55 9.68 2.39
3.35 9.75 2.39
3.15 9.82 2.39
2.96 9.88 2.39
2.76 9.94 2.39
2.56 9.99 2.39
2.36 10.04 2.39
2.21 10.36 2.45
2.04 10.57 2.49
1.83 10.61 2.49
1.61 10.64 2.49
1.40 10.67 2.49
1.19 10.70 2.49
0.97 10.72 2.49
0.76 10.74 2.49
0.54 10.75 2.49
0.32 10.76 2.49
0.11 10.76 2.49
-0.11 10.76 2.49
-0.32 10.76 2.49
-0.54 10.75 2.49
-0.76 10.74 2.49
-0.97 10.72 2.49
-1.19 10.70 2.49
-1.40 10.67 2.49
-1.61 10.64 2.49
-1.83 10.61 2.49
-2.04 10.57 2.49
-2.25 10.52 2.49
-2.46 10.48 2.49
-2.67 10.42 2.49
-2.88 10.37 2.49
-3.08 10.31 2.49
-3.29 10.24 2.49
-3.50 10.17 2.49
-3.70 10.10 2.49
-3.90 10.02 2.49
-4.10 9.94 2.49
-4.30 9.85 2.49
-4.49 9.77 2.49
-4.69 9.67 2.49
-4.88 9.57 2.49
-5.07 9.47 2.49
-5.26 9.37 2.49
-5.45 9.26 2.49
-5.63 9.15 2.49
-5.81 9.03 2.49
-5.83 8.67 2.43
-5.91 8.42 2.39
-6.08 8.30 2.39
-6.24 8.18 2.39
-6.40 8.05 2.39
-6.56 7.92 2.39
-6.72 7.78 2.39
-6.87 7.65 2.39
-7.02 7.50 2.39
-7.17 7.36 2.39
-7.31 7.21 2.39
-7.46 7.06 2.39
-7.60 6.91 2.39
-7.73 6.76 2.39
-7.86 6.60 2.39
-7.93 6.39 2.37
-3.50 2.70 1.03
-3.49 2.58 1.01
-3.51 2.49 1.00
-3.55 2.42 1.00
-3.61 2.35 1.00
-3.69 2.30 1.01
-3.81 2.27 1.03
-8.90 5.07 2.39
-9.00 4.89 2.39
-9.09 4.70 2.39
-9.18 4.52 2.39
-9.27 4.33 2.39
-9.35 4.14 2.39
-9.43 3.96 2.39
-9.50 3.76 2.39
-9.58 3.57 2.39
-9.64 3.38 2.39
-9.71 3.18 2.39
-9.77 2.99 2.39
-9.82 2.79 2.39
-10.14 2.66 2.45
-10.11 2.44 2.44
-10.03 2.21 2.41
-10.07 2.00 2.41
-10.10 1.80 2.41
-10.13 1.60 2.41
-10.16 1.39 2.41
-10.18 1.19 2.41
-10.20 0.98 2.41
-10.22 0.78 2.41
-10.23 0.57 2.41
-10.23 0.37 2.41
-10.23 0.16 2.41
-10.23 -0.04 2.41
-10.23 -0.25 2.41
-10.22 -0.45 2.41
-10.20 -0.66 2.41
-10.18 -0.86 2.41
-10.16 -1.07 2.41
-10.13 -1.27 2.41
-10.10 -1.47 2.40
-10.07 -1.68 2.41
-10.03 -1.88 2.41
-9.99 -2.08 2.41
-9.95 -2.28 2.41
-9.89 -2.48 2.41
-9.78 -2.66 2.39
-9.72 -2.85 2.39
-9.66 -3.04 2.39
-9.59 -3.24 2.39
-9.52 -3.43 2.39
-9.45 -3.62 2.39
-9.37 -3.80 2.39
-9.29 -3.99 2.39
-9.20 -4.18 2.39
-9.12 -4.36 2.39
-9.02 -4.54 2.39
-8.93 -4.72 2.39
-8.83 -4.90 2.39
-8.73 -5.07 2.39
-8.62 -5.24 2.39
-8.51 -5.41 2.39
-8.40 -5.58 2.39
-8.29 -5.75 2.39
-8.17 -5.91 2.39
-8.04 -6.07 2.39
-7.92 -6.23 2.39
-7.79 -6.39 2.39
-7.66 -6.54 2.39
-7.52 -6.69 2.39
-7.39 -6.84 2.39
-7.25 -6.99 2.39
-7.10 -7.13 2.39
-6.96 -7.27 2.39
-6.81 -7.41 2.39
-6.07 -6.88 2.18
-6.50 -7.67 2.39
-6.35 -7.80 2.39
-6.19 -7.92 2.39
-6.03 -8.05 2.39
-5.86 -8.16 2.39
-5.77 -8.38 2.42
-5.77 -8.75 2.49
-5.59 -8.86 2.49
-5.41 -8.97 2.49
-5.23 -9.08 2.49
-5.04 -9.18 2.49
-4.86 -9.28 2.49
-4.67 -9.37 2.49
-4.48 -9.46 2.49
-4.29 -9.55 2.49
-4.09 -9.63 2.49
-3.90 -9.71 2.49
-3.70 -9.79 2.49
-3.50 -9.86 2.49
-3.31 -9.93 2.49
-3.11 -9.99 2.49
-2.90 -10.05 2.49
-2.70 -10.11 2.49
-2.50 -10.16 2.49
-2.29 -10.20 2.49
-2.09 -10.25 2.49
-1.88 -10.29 2.49
-1.67 -10.32 2.49
-0.62 -4.41 1.06
-0.54 -4.42 1.06
-0.45 -4.43 1.06
-0.36 -4.44 1.06
-0.27 -4.44 1.06
-0.18 -4.45 1.06
-0.09 -4.45 1.06
0.00 -4.30 1.13
0.09 -4.30 1.13
0.17 -4.30 1.13
0.26 -4.30 1.13
0.35 -4.30 1.13
0.43 -4.30 1.13
0.52 -4.30 1.14
0.61 -4.30 1.14
0.70 -4.30 1.14
0.79 -4.30 1.15
0.88 -4.30 1.15
0.97 -4.31 1.16
1.06 -4.31 1.16
2.35 -8.80 2.39
2.53 -8.76 2.39
2.71 -8.70 2.39
2.88 -8.65 2.39
3.05 -8.59 2.39
3.23 -8.53 2.39
3.40 -8.46 2.39
3.57 -8.39 2.39
3.73 -8.32 2.39
3.90 -8.24 2.39
4.07 -8.16 2.39
4.23 -8.08 2.39
4.39 -8.00 2.39
4.55 -7.91 2.39
4.71 -7.82 2.39
4.87 -7.72 2.39
5.02 -7.62 2.39
5.18 -7.52 2.39
5.33 -7.42 2.39
2.49 -3.32 1.09
5.62 -7.20 2.39
5.77 -7.09 2.39
5.91 -6.97 2.39
6.05 -6.85 2.39
5.99 -6.51 2.31
5.99 -5.78 2.17
6.00 -5.56 2.14
6.05 -5.38 2.11
6.05 -5.17 2.08
6.05 -4.96 2.04
6.05 -4.76 2.01
6.05 -4.56 1.98
6.04 -4.38 1.95
6.04 -4.19 1.92
6.04 -4.02 1.89
6.04 -3.84 1.87
6.04 -3.67 1.84
6.04 -3.51 1.82
6.04 -3.35 1.80
6.04 -3.19 1.78
6.04 -3.04 1.76
6.04 -2.89 1.74
6.04 -2.74 1.73
5.97 -2.57 1.69
6.04 -2.45 1.70
6.04 -2.31 1.68
6.04 -2.17 1.67
6.04 -2.04 1.66
6.04 -1.90 1.65
6.04 -1.77 1.64
6.04 -1.64 1.63
6.04 -1.51 1.62
6.04 -1.38 1.61
6.04 -1.25 1.60
6.04 -1.13 1.59
6.04 -1.00 1.59
6.04 -0.88 1.58
6.04 -0.76 1.58
6.03 -0.63 1.57
6.03 -0.51 1.57
6.03 -0.39 1.57
6.03 -0.27 1.56
6.03 -0.15 1.56
6.03 -0.03 1.56
6.03 0.10 1.56
6.03 0.22 1.56
6.03 0.34 1.56
6.03 0.46 1.56
6.03 0.58 1.57
6.03 0.70 1.57
6.03 0.83 1.57
6.03 0.95 1.58
6.03 1.08 1.58
6.03 1.20 1.59
6.03 1.33 1.59
5.96 1.44 1.58
6.03 1.58 1.61
6.03 1.71 1.62
6.03 1.84 1.63
6.03 1.98 1.64
6.03 2.11 1.65
6.03 2.25 1.66
6.03 2.39 1.67
6.03 2.53 1.68
6.03 2.67 1.70
6.03 2.82 1.71
6.03 2.97 1.73
6.02 3.12 1.75
6.02 3.27 1.76
6.02 3.43 1.78
6.02 3.59 1.80
6.02 3.76 1.82
6.02 3.93 1.85
6.02 4.10 1.87
6.02 4.28 1.90
6.02 4.46 1.93
6.02 4.65 1.95
6.02 4.85 1.98
6.02 5.05 2.02
6.02 5.26 2.05
5.42 4.93 1.88
5.32 5.04 1.88
5.22 5.15 1.88
5.12 5.25 1.88
5.01 5.36 1.88
4.98 5.54 1.91
4.98 5.77 1.95
4.98 6.01 2.00
4.98 6.26 2.05
5.66 7.42 2.39
5.51 7.53 2.39
5.36 7.64 2.39
5.21 7.75 2.39
5.05 7.85 2.39
4.89 7.95 2.39
4.73 8.05 2.39
4.57 8.14 2.39
4.41 8.24 2.39
4.24 8.32 2.39
4.07 8.41 2.39
3.91 8.49 2.39
3.74 8.57 2.39
3.56 8.64 2.39
3.39 8.71 2.39
3.21 8.78 2.39
3.04 8.84 2.39
2.86 8.90 2.39
2.68 8.96 2.39
2.50 9.01 2.39
2.32 9.06 2.39
2.22 9.44 2.48
2.04 9.54 2.49
1.85 9.58 2.49
1.66 9.62 2.49
1.46 9.65 2.49
1.27 9.68 2.49
1.07 9.70 2.49
0.88 9.72 2.49
0.68 9.73 2.49
0.49 9.75 2.49
0.29 9.75 2.49
0.10 9.76 2.49
-0.10 9.76 2.49
-0.29 9.75 2.49
-0.49 9.75 2.49
-0.68 9.73 2.49
-0.88 9.72 2.49
-1.07 9.70 2.49
-1.27 9.68 2.49
-1.46 9.65 2.49
-1.66 9.62 2.49
-1.85 9.58 2.49
-2.04 9.54 2.49
-2.23 9.50 2.49
-2.42 9.45 2.49
-2.61 9.40 2.49
-2.80 9.34 2.49
-2.98 9.29 2.49
-3.17 9.22 2.49
-3.35 9.16 2.49
-3.54 9.09 2.49
-3.72 9.01 2.49
-3.90 8.94 2.49
-4.07 8.85 2.49
-4.25 8.77 2.49
-4.42 8.68 2.49
-4.60 8.59 2.49
-4.77 8.50 2.49
-4.94 8.40 2.49
-5.10 8.29 2.49
-5.27 8.19 2.49
-5.43 8.08 2.49
-5.59 7.97 2.49
-5.75 7.85 2.49
-5.82 7.63 2.46
-5.83 7.33 2.40
-5.95 7.18 2.39
-6.09 7.06 2.39
-6.23 6.93 2.39
-6.37 6.81 2.39
-6.50 6.68 2.39
-6.63 6.54 2.39
-6.76 6.41 2.39
-6.89 6.27 2.39
-7.01 6.13 2.39
-7.13 5.98 2.39
-7.25 5.84 2.39
-3.50 2.70 1.13
-3.48 2.58 1.11
-3.50 2.49 1.10
-3.54 2.41 1.10
-3.60 2.35 1.11
-3.68 2.30 1.12
-3.81 2.27 1.14
-7.78 4.43 2.30
-7.90 4.29 2.31
-7.91 4.09 2.29
-8.01 3.94 2.30
-8.02 3.75 2.28
-8.09 3.59 2.28
-8.17 3.43 2.28
-8.26 3.27 2.29
-8.32 3.11 2.29
-8.67 3.04 2.37
-8.81 2.89 2.39
-8.86 2.71 2.39
-8.91 2.53 2.39
-8.96 2.35 2.39
-9.00 2.17 2.39
-9.04 1.99 2.39
-9.08 1.81 2.39
-9.11 1.62 2.39
-9.14 1.44 2.39
-9.16 1.26 2.39
-9.18 1.07 2.39
-9.20 0.89 2.39
-9.21 0.70 2.39
-9.22 0.52 2.39
-9.23 0.33 2.39
-9.23 0.15 2.39
-9.23 -0.04 2.39
-9.22 -0.22 2.39
-9.22 -0.41 2.39
-9.20 -0.59 2.39
-9.19 -0.78 2.39
-9.17 -0.96 2.39
-9.14 -1.15 2.39
-9.12 -1.33 2.39
-9.08 -1.51 2.39
-9.05 -1.69 2.39
-9.01 -1.87 2.39
-8.97 -2.05 2.39
-8.92 -2.23 2.39
-8.88 -2.41 2.39
-8.82 -2.59 2.39
-8.77 -2.76 2.39
-8.71 -2.94 2.39
-8.65 -3.11 2.39
-8.58 -3.28 2.39
-8.51 -3.45 2.39
-8.44 -3.62 2.39
-8.36 -3.79 2.39
-8.28 -3.96 2.39
-8.20 -4.12 2.39
-8.11 -4.28 2.39
-8.02 -4.45 2.39
-7.93 -4.60 2.39
-7.83 -4.76 2.39
-7.73 -4.92 2.39
-7.63 -5.07 2.39
-7.53 -5.22 2.39
-7.42 -5.37 2.39
-7.31 -5.52 2.39
-7.19 -5.66 2.39
-7.08 -5.80 2.39
-6.96 -5.94 2.39
-6.84 -6.08 2.39
-6.71 -6.22 2.39
-6.58 -6.35 2.39
-6.45 -6.48 2.39
-6.32 -6.60 2.39
-6.19 -6.73 2.39
-6.05 -6.85 2.39
-5.91 -6.97 2.39
-5.79 -7.12 2.40
-5.78 -7.41 2.46
-5.71 -7.62 2.49
-5.56 -7.74 2.49
-5.40 -7.85 2.49
-5.24 -7.95 2.49
-5.08 -8.05 2.49
-4.91 -8.15 2.49
-4.75 -8.25 2.49
-4.58 -8.34 2.49
-4.41 -8.43 2.49
-4.24 -8.52 2.49
-4.07 -8.60 2.49
-3.90 -8.68 2.49
-3.72 -8.75 2.49
-3.54 -8.83 2.49
-3.36 -8.89 2.49
-3.18 -8.96 2.49
-3.00 -9.02 2.49
-2.82 -9.08 2.49
-2.64 -9.13 2.49
-2.45 -9.18 2.49
-2.27 -9.23 2.49
-2.08 -9.27 2.49
-1.90 -9.31 2.49
-1.71 -9.35 2.49
-1.52 -9.38 2.49
-0.61 -4.30 1.14
-0.52 -4.30 1.14
-0.43 -4.30 1.13
-0.35 -4.30 1.13
-0.26 -4.30 1.13
-0.17 -4.30 1.13
-0.09 -4.30 1.13
0.00 -4.30 1.23
0.09 -4.30 1.23
0.17 -4.30 1.23
0.26 -4.30 1.24
0.35 -4.30 1.24
0.43 -4.30 1.24
0.52 -4.30 1.24
0.61 -4.30 1.25
0.70 -4.30 1.25
0.79 -4.30 1.25
0.88 -4.31 1.26
0.97 -4.31 1.26
1.06 -4.31 1.27
2.25 -8.41 2.49
2.32 -8.01 2.39
2.48 -7.97 2.39
2.64 -7.92 2.39
2.80 -7.86 2.39
2.95 -7.81 2.39
3.11 -7.75 2.39
3.26 -7.68 2.39
3.42 -7.62 2.39
3.57 -7.55 2.39
3.72 -7.47 2.39
3.87 -7.40 2.39
4.02 -7.32 2.39
4.17 -7.24 2.39
4.31 -7.15 2.39
4.46 -7.07 2.39
4.60 -6.97 2.39
4.74 -6.88 2.39
4.88 -6.79 2.39
2.49 -3.32 1.19
5.15 -6.59 2.39
5.28 -6.49 2.39
5.41 -6.38 2.39
5.54 -6.27 2.39
5.66 -6.16 2.39
5.79 -6.05 2.39
5.91 -5.93 2.39
6.03 -5.81 2.39
6.14 -5.69 2.39
6.26 -5.57 2.39
5.99 -4.71 2.17
5.99 -4.52 2.14
6.03 -4.36 2.12
6.04 -4.19 2.10
6.04 -4.02 2.07
6.04 -3.84 2.04
6.04 -3.67 2.01
6.04 -3.51 1.99
6.04 -3.35 1.97
6.04 -3.19 1.95
6.04 -3.04 1.92
6.04 -2.89 1.91
6.04 -2.74 1.89
5.97 -2.56 1.85
6.04 -2.45 1.85
6.04 -2.31 1.84
6.04 -2.17 1.82
6.04 -2.04 1.81
6.04 -1.90 1.80
6.04 -1.77 1.79
6.04 -1.64 1.78
6.04 -1.51 1.77
6.04 -1.38 1.76
6.04 -1.25 1.75
6.04 -1.13 1.74
6.04 -1.00 1.74
6.04 -0.88 1.73
6.04 -0.76 1.72
6.03 -0.63 1.72
6.03 -0.51 1.72
6.03 -0.39 1.71
6.03 -0.27 1.71
6.03 -0.15 1.71
6.03 -0.02 1.71
6.03 0.10 1.71
6.03 0.22 1.71
6.03 0.34 1.71
6.03 0.46 1.71
6.03 0.58 1.71
6.03 0.70 1.72
6.03 0.83 1.72
6.03 0.95 1.72
6.03 1.08 1.73
6.03 1.20 1.74
6.03 1.33 1.74
5.96 1.44 1.73
6.03 1.58 1.76
6.03 1.71 1.77
6.03 1.84 1.78
6.03 1.98 1.79
6.03 2.11 1.80
6.03 2.25 1.81
6.03 2.39 1.83
6.03 2.53 1.84
6.03 2.67 1.86
6.03 2.82 1.87
6.03 2.97 1.89
6.02 3.12 1.91
6.02 3.27 1.93
6.02 3.43 1.95
6.02 3.59 1.97
6.02 3.76 2.00
6.02 3.93 2.02
6.02 4.10 2.05
6.02 4.28 2.08
6.02 4.47 2.11
5.99 4.63 2.13
5.96 4.81 2.15
5.96 5.01 2.19
5.31 4.84 2.02
5.10 4.83 1.97
4.98 4.91 1.96
4.98 5.11 2.00
4.98 5.32 2.05
5.70 6.34 2.39
5.23 6.05 2.24
5.06 6.11 2.22
5.31 6.67 2.39
5.17 6.78 2.39
5.04 6.88 2.39
4.90 6.98 2.39
4.76 7.08 2.39
4.62 7.17 2.39
4.47 7.27 2.39
4.32 7.36 2.39
4.18 7.44 2.39
4.03 7.53 2.39
3.88 7.61 2.39
3.72 7.68 2.39
3.57 7.76 2.39
3.41 7.83 2.39
3.26 7.89 2.39
3.10 7.96 2.39
2.94 8.02 2.39
2.78 8.08 2.39
2.61 8.13 2.39
2.45 8.18 2.39
2.29 8.23 2.39
2.21 8.63 2.49
2.04 8.68 2.49
1.86 8.72 2.49
1.69 8.75 2.49
1.51 8.79 2.49
1.34 8.82 2.49
1.16 8.84 2.49
0.98 8.86 2.49
0.80 8.88 2.49
0.63 8.89 2.49
0.45 8.91 2.49
0.27 8.91 2.49
0.09 8.92 2.49
-0.09 8.92 2.49
-0.27 8.91 2.49
-0.45 8.91 2.49
-0.63 8.89 2.49
-0.80 8.88 2.49
-0.98 8.86 2.49
-1.16 8.84 2.49
-1.34 8.81 2.49
-1.51 8.79 2.49
-1.69 8.75 2.49
-1.86 8.72 2.49
-2.04 8.68 2.49
-2.21 8.63 2.49
-2.38 8.59 2.49
-2.56 8.54 2.49
-2.73 8.48 2.49
-2.90 8.43 2.49
-3.06 8.37 2.49
-3.23 8.30 2.49
-3.40 8.24 2.49
-3.56 8.16 2.49
-3.72 8.09 2.49
-3.88 8.01 2.49
-4.04 7.93 2.49
-4.20 7.85 2.49
-4.36 7.76 2.49
-4.51 7.67 2.49
-4.66 7.58 2.49
-4.81 7.48 2.49
-4.96 7.39 2.49
-5.11 7.28 2.49
-5.25 7.18 2.49
-5.40 7.07 2.49
-5.54 6.96 2.49
-5.67 6.85 2.49
-5.81 6.73 2.49
-5.82 6.48 2.44
-5.83 6.23 2.39
-5.94 6.10 2.39
-6.06 5.98 2.39
-6.18 5.86 2.39
-6.30 5.73 2.39
-6.41 5.60 2.39
-6.52 5.47 2.39
-6.63 5.34 2.39
-3.50 2.70 1.24
-3.48 2.58 1.22
-3.50 2.49 1.21
-3.54 2.41 1.21
-3.60 2.35 1.21
-3.68 2.30 1.22
-3.81 2.27 1.25
-7.20 4.10 2.33
-7.27 3.95 2.33
-7.36 3.81 2.33
-7.41 3.65 2.33
-7.47 3.49 2.32
-7.52 3.34 2.32
-7.54 3.17 2.31
-7.59 3.01 2.30
-7.59 2.83 2.28
-7.66 2.68 2.29
-7.72 2.53 2.29
-7.75 2.37 2.29
-7.96 2.26 2.33
-8.13 2.14 2.37
-8.20 1.98 2.38
-8.25 1.82 2.38
-8.30 1.65 2.39
-8.33 1.49 2.39
-8.35 1.32 2.39
-8.38 1.15 2.39
-8.40 0.98 2.39
-8.41 0.81 2.39
-8.43 0.64 2.39
-8.43 0.47 2.39
-8.44 0.30 2.39
-8.44 0.13 2.39
-8.44 -0.03 2.39
-8.44 -0.20 2.39
-8.43 -0.37 2.39
-8.42 -0.54 2.39
-8.40 -0.71 2.39
-8.38 -0.88 2.39
-8.36 -1.05 2.39
-8.34 -1.21 2.39
-8.31 -1.38 2.39
-8.28 -1.55 2.39
-8.24 -1.71 2.39
-8.21 -1.88 2.39
-8.17 -2.04 2.39
-8.12 -2.20 2.39
-8.07 -2.37 2.39
-8.02 -2.53 2.39
-7.97 -2.69 2.39
-7.91 -2.85 2.39
-7.85 -3.00 2.39
-7.79 -3.16 2.39
-7.72 -3.32 2.39
-7.65 -3.47 2.39
-7.58 -3.62 2.39
-7.50 -3.77 2.39
-7.42 -3.92 2.39
-7.34 -4.07 2.39
-7.25 -4.21 2.39
-7.17 -4.36 2.39
-7.08 -4.50 2.39
-6.98 -4.64 2.39
-6.89 -4.78 2.39
-6.79 -4.91 2.39
-6.69 -5.05 2.39
-6.58 -5.18 2.39
-6.48 -5.31 2.39
-6.37 -5.44 2.39
-6.26 -5.56 2.39
-6.14 -5.69 2.39
-6.03 -5.81 2.39
-5.91 -5.93 2.39
-5.80 -6.06 2.40
-5.79 -6.30 2.44
-5.77 -6.54 2.49
-5.64 -6.65 2.49
-5.51 -6.77 2.49
-5.37 -6.87 2.49
-5.23 -6.98 2.49
-5.09 -7.08 2.49
-4.94 -7.18 2.49
-4.80 -7.28 2.49
-4.65 -7.37 2.49
-4.50 -7.46 2.49
-4.35 -7.55 2.49
-4.19 -7.64 2.49
-4.04 -7.72 2.49
-3.88 -7.80 2.49
-3.73 -7.87 2.49
-3.57 -7.94 2.49
-3.41 -8.01 2.49
-3.24 -8.08 2.49
-3.08 -8.14 2.49
-2.92 -8.20 2.49
-2.75 -8.26 2.49
-2.58 -8.31 2.49
-2.42 -8.36 2.49
-2.25 -8.41 2.49
-2.08 -8.45 2.49
-1.91 -8.49 2.49
-1.74 -8.53 2.49
-1.56 -8.56 2.49
-1.39 -8.59 2.49
-0.61 -4.30 1.24
-0.52 -4.30 1.24
-0.43 -4.30 1.24
-0.35 -4.30 1.24
-0.26 -4.30 1.23
-0.17 -4.30 1.23
-0.09 -4.30 1.23
0.00 -4.30 1.34
0.09 -4.30 1.34
0.17 -4.30 1.34
0.26 -4.30 1.34
0.35 -4.30 1.34
0.43 -4.30 1.35
0.52 -4.30 1.35
0.61 -4.30 1.35
0.70 -4.30 1.36
0.79 -4.31 1.36
0.88 -4.31 1.37
0.97 -4.31 1.37
1.06 -4.31 1.38
2.07 -7.74 2.49
2.23 -7.70 2.49
2.28 -7.34 2.39
2.43 -7.29 2.39
2.57 -7.24 2.39
2.72 -7.19 2.39
2.86 -7.13 2.39
3.01 -7.08 2.39
3.15 -7.01 2.39
3.29 -6.95 2.39
3.43 -6.88 2.39
3.57 -6.81 2.39
3.70 -6.74 2.39
3.84 -6.67 2.39
3.97 -6.59 2.39
4.10 -6.51 2.39
4.23 -6.42 2.39
4.36 -6.34 2.39
4.49 -6.25 2.39
2.49 -3.32 1.29
4.74 -6.07 2.39
4.86 -5.97 2.39
4.98 -5.87 2.39
5.10 -5.77 2.39
5.21 -5.67 2.39
5.33 -5.57 2.39
5.44 -5.46 2.39
5.55 -5.35 2.39
5.66 -5.24 2.39
5.76 -5.12 2.39
5.86 -5.01 2.39
5.97 -4.89 2.39
6.06 -4.77 2.39
6.16 -4.65 2.39
6.25 -4.53 2.39
5.99 -3.81 2.20
5.99 -3.64 2.17
5.99 -3.48 2.14
6.01 -3.33 2.13
6.04 -3.19 2.11
6.04 -3.04 2.09
6.04 -2.89 2.07
6.04 -2.74 2.05
5.97 -2.56 2.01
6.04 -2.45 2.01
6.04 -2.31 2.00
6.04 -2.17 1.98
6.04 -2.04 1.97
6.04 -1.90 1.95
6.04 -1.77 1.94
6.04 -1.64 1.93
6.04 -1.51 1.92
6.04 -1.38 1.91
6.04 -1.25 1.90
6.04 -1.13 1.89
6.04 -1.00 1.89
6.04 -0.88 1.88
6.04 -0.76 1.87
6.03 -0.63 1.87
6.03 -0.51 1.86
6.03 -0.39 1.86
6.03 -0.27 1.86
6.03 -0.15 1.86
6.03 -0.02 1.86
6.03 0.10 1.86
6.03 0.22 1.86
6.03 0.34 1.86
6.03 0.46 1.86
6.03 0.58 1.86
6.03 0.71 1.87
6.03 0.83 1.87
6.03 0.95 1.87
6.03 1.08 1.88
6.03 1.20 1.89
6.03 1.33 1.89
5.96 1.44 1.88
6.03 1.58 1.91
6.03 1.71 1.92
6.03 1.85 1.93
6.03 1.98 1.94
6.03 2.11 1.96
6.03 2.25 1.97
6.03 2.39 1.99
6.03 2.53 2.00
6.03 2.67 2.02
6.03 2.82 2.04
6.03 2.97 2.06
5.46 2.83 1.88
5.40 2.94 1.88
5.34 3.04 1.88
5.28 3.15 1.88
5.22 3.26 1.88
5.15 3.36 1.88
6.00 4.09 2.22
6.19 4.79 2.39
6.09 4.91 2.39
6.00 5.03 2.39
5.89 5.15 2.39
5.79 5.27 2.39
5.36 5.07 2.25
5.14 5.07 2.20
5.47 5.61 2.39
5.35 5.72 2.39
5.24 5.83 2.39
5.12 5.93 2.39
5.00 6.04 2.39
4.88 6.14 2.39
4.76 6.23 2.39
4.63 6.33 2.39
4.50 6.42 2.39
4.38 6.51 2.39
4.24 6.60 2.39
4.11 6.68 2.39
3.98 6.77 2.39
3.84 6.84 2.39
3.70 6.92 2.39
3.56 6.99 2.39
3.42 7.07 2.39
3.28 7.13 2.39
3.14 7.20 2.39
2.99 7.26 2.39
2.85 7.32 2.39
2.70 7.38 2.39
2.55 7.43 2.39
2.40 7.48 2.39
2.25 7.53 2.39
2.19 7.90 2.49
2.03 7.94 2.49
1.87 7.98 2.49
1.71 8.02 2.49
1.55 8.05 2.49
1.39 8.08 2.49
1.23 8.11 2.49
1.07 8.13 2.49
0.90 8.15 2.49
0.74 8.17 2.49
0.58 8.18 2.49
0.41 8.19 2.49
0.25 8.20 2.49
0.08 8.20 2.49
-0.08 8.20 2.49
-0.25 8.20 2.49
-0.41 8.19 2.49
-0.58 8.18 2.49
-0.74 8.17 2.49
-0.90 8.15 2.49
-1.07 8.13 2.49
-1.23 8.11 2.49
-1.39 8.08 2.49
-1.55 8.05 2.49
-1.71 8.02 2.49
-1.87 7.98 2.49
-2.03 7.94 2.49
-2.19 7.90 2.49
-2.35 7.85 2.49
-2.51 7.80 2.49
-2.66 7.75 2.49
-2.82 7.69 2.49
-2.97 7.64 2.49
-3.12 7.57 2.49
-3.27 7.51 2.49
-3.42 7.44 2.49
-3.57 7.37 2.49
-3.72 7.30 2.49
-3.86 7.22 2.49
-4.01 7.14 2.49
-4.15 7.06 2.49
-4.29 6.97 2.49
-4.43 6.88 2.49
-4.56 6.79 2.49
-4.70 6.70 2.49
-4.83 6.60 2.49
-4.96 6.50 2.49
-5.09 6.40 2.49
-5.22 6.30 2.49
-5.34 6.19 2.49
-5.46 6.08 2.49
-5.58 5.97 2.49
-5.70 5.85 2.49
-5.82 5.74 2.49
-5.82 5.51 2.45
-5.83 5.30 2.40
-5.89 5.15 2.39
-6.01 5.04 2.40
-6.09 4.91 2.39
-3.50 2.70 1.35
-3.48 2.58 1.33
-3.50 2.49 1.31
-3.54 2.41 1.31
-3.60 2.35 1.31
-3.68 2.30 1.33
-3.81 2.27 1.35
-6.78 3.86 2.38
-6.81 3.70 2.37
-6.87 3.55 2.37
-6.92 3.41 2.36
-6.95 3.25 2.35
-6.98 3.10 2.34
-7.01 2.94 2.33
-7.02 2.78 2.31
-7.07 2.64 2.31
-7.15 2.51 2.32
-7.19 2.36 2.32
-7.29 2.23 2.34
-7.42 2.11 2.36
-7.45 1.96 2.36
-7.54 1.82 2.38
-7.57 1.67 2.38
-7.64 1.52 2.39
-7.66 1.37 2.39
-7.69 1.21 2.39
-7.71 1.06 2.39
-7.73 0.90 2.39
-7.74 0.75 2.39
-7.75 0.59 2.39
-7.76 0.44 2.39
-7.77 0.28 2.39
-7.77 0.12 2.39
-7.77 -0.03 2.39
-7.77 -0.19 2.39
-7.76 -0.34 2.39
-7.75 -0.50 2.39
-7.73 -0.65 2.39
-7.72 -0.81 2.39
-7.70 -0.96 2.39
-7.68 -1.12 2.39
-7.65 -1.27 2.39
-7.62 -1.42 2.39
-7.59 -1.58 2.39
-7.55 -1.73 2.39
-7.52 -1.88 2.39
-7.48 -2.03 2.39
-7.43 -2.18 2.39
-7.39 -2.33 2.39
-7.34 -2.47 2.39
-7.28 -2.62 2.39
-7.23 -2.77 2.39
-7.17 -2.91 2.39
-7.11 -3.05 2.39
-7.04 -3.19 2.39
-6.98 -3.33 2.39
-6.91 -3.47 2.39
-6.83 -3.61 2.39
-6.76 -3.74 2.39
-6.68 -3.88 2.39
-6.60 -4.01 2.39
-6.52 -4.14 2.39
-6.43 -4.27 2.39
-6.34 -4.40 2.39
-6.25 -4.52 2.39
-6.16 -4.65 2.39
-6.06 -4.77 2.39
-5.98 -4.91 2.40
-5.86 -5.01 2.39
-5.80 -5.16 2.41
-5.79 -5.36 2.45
-5.79 -5.58 2.49
-5.67 -5.69 2.49
-5.56 -5.81 2.49
-5.44 -5.92 2.49
-5.32 -6.02 2.49
-5.20 -6.13 2.49
-5.07 -6.23 2.49
-4.94 -6.33 2.49
-4.82 -6.43 2.49
-4.68 -6.52 2.49
-4.55 -6.61 2.49
-4.42 -6.70 2.49
-4.28 -6.79 2.49
-4.14 -6.87 2.49
-4.00 -6.95 2.49
-3.86 -7.03 2.49
-3.72 -7.11 2.49
-3.58 -7.18 2.49
-3.43 -7.25 2.49
-3.28 -7.32 2.49
-3.14 -7.38 2.49
-2.99 -7.44 2.49
-2.84 -7.50 2.49
-2.69 -7.55 2.49
-2.53 -7.61 2.49
-2.38 -7.66 2.49
-2.23 -7.70 2.49
-2.07 -7.74 2.49
-1.91 -7.78 2.49
-1.76 -7.82 2.49
-1.60 -7.85 2.49
-1.44 -7.88 2.49
-1.28 -7.91 2.49
-0.61 -4.30 1.35
-0.52 -4.30 1.35
-0.43 -4.30 1.34
-0.35 -4.30 1.34
-0.26 -4.30 1.34
-0.17 -4.30 1.34
-0.09 -4.30 1.34
0.00 -4.30 1.45
0.09 -4.30 1.45
0.17 -4.30 1.45
0.26 -4.30 1.45
0.35 -4.30 1.45
0.43 -4.30 1.45
0.52 -4.30 1.46
0.61 -4.31 1.46
0.70 -4.31 1.47
0.79 -4.31 1.47
0.88 -4.31 1.48
0.97 -4.31 1.48
1.06 -4.31 1.49
1.92 -7.17 2.49
2.06 -7.13 2.49
2.20 -7.09 2.49
2.27 -6.81 2.41
2.38 -6.71 2.39
2.52 -6.66 2.39
2.65 -6.61 2.39
2.78 -6.55 2.39
2.92 -6.49 2.39
3.05 -6.44 2.39
3.18 -6.37 2.39
3.30 -6.31 2.39
3.43 -6.24 2.39
3.55 -6.17 2.39
3.68 -6.10 2.39
3.80 -6.03 2.39
3.92 -5.95 2.39
4.04 -5.87 2.39
4.16 -5.79 2.39
2.49 -3.32 1.39
4.39 -5.62 2.39
4.50 -5.53 2.39
4.61 -5.44 2.39
4.72 -5.35 2.39
4.83 -5.25 2.39
4.93 -5.15 2.39
5.04 -5.05 2.39
5.14 -4.95 2.39
5.24 -4.85 2.39
5.33 -4.74 2.39
5.43 -4.64 2.39
5.52 -4.53 2.39
5.61 -4.42 2.39
5.70 -4.30 2.39
5.79 -4.19 2.39
5.87 -4.07 2.39
5.95 -3.95 2.39
6.03 -3.83 2.39
6.11 -3.71 2.39
6.18 -3.59 2.39
6.26 -3.47 2.39
5.98 -2.71 2.19
5.97 -2.56 2.17
5.98 -2.43 2.15
5.99 -2.29 2.14
6.01 -2.16 2.13
6.02 -2.03 2.12
6.04 -1.90 2.11
6.04 -1.77 2.10
6.04 -1.64 2.09
6.04 -1.51 2.07
6.04 -1.38 2.06
6.04 -1.25 2.05
6.04 -1.13 2.05
6.04 -1.00 2.04
6.04 -0.88 2.03
6.04 -0.75 2.02
6.03 -0.63 2.02
6.03 -0.51 2.01
6.03 -0.39 2.01
6.03 -0.27 2.01
6.03 -0.14 2.01
6.03 -0.02 2.01
6.03 0.10 2.01
6.03 0.22 2.01
6.03 0.34 2.01
6.03 0.46 2.01
6.03 0.58 2.01
6.03 0.71 2.02
6.03 0.83 2.02
6.03 0.95 2.03
6.03 1.08 2.03
6.03 1.20 2.04
6.03 1.33 2.05
5.96 1.44 2.03
6.03 1.58 2.07
6.03 1.71 2.08
6.03 1.85 2.09
6.03 1.98 2.10
5.44 1.91 1.91
5.32 1.99 1.88
5.28 2.09 1.88
5.24 2.20 1.88
5.19 2.30 1.88
5.15 2.41 1.88
5.10 2.51 1.88
5.05 2.61 1.88
5.01 2.72 1.88
4.99 2.84 1.90
4.98 2.97 1.92
4.98 3.11 1.94
4.98 3.25 1.97
4.98 3.40 1.99
5.90 4.19 2.39
5.81 4.31 2.39
5.73 4.43 2.39
5.64 4.54 2.39
5.55 4.66 2.39
5.45 4.77 2.39
5.36 4.88 2.39
5.26 4.98 2.39
5.14 5.07 2.38
5.06 5.19 2.39
4.95 5.29 2.39
4.84 5.39 2.39
4.74 5.49 2.39
4.63 5.58 2.39
4.51 5.68 2.39
4.40 5.77 2.39
4.28 5.85 2.39
4.17 5.94 2.39
4.05 6.02 2.39
3.92 6.10 2.39
3.80 6.18 2.39
3.68 6.26 2.39
3.55 6.33 2.39
3.42 6.40 2.39
3.30 6.47 2.39
3.17 6.53 2.39
3.03 6.60 2.39
2.90 6.66 2.39
2.77 6.71 2.39
2.63 6.77 2.39
2.50 6.82 2.39
2.36 6.87 2.39
2.23 6.95 2.40
2.17 7.26 2.49
2.03 7.30 2.49
1.88 7.34 2.49
1.73 7.38 2.49
1.58 7.41 2.49
1.44 7.44 2.49
1.29 7.47 2.49
1.14 7.50 2.49
0.99 7.52 2.49
0.83 7.54 2.49
0.68 7.55 2.49
0.53 7.56 2.49
0.38 7.57 2.49
0.23 7.58 2.49
0.08 7.58 2.49
-0.08 7.58 2.49
-0.23 7.58 2.49
-0.38 7.57 2.49
-0.53 7.56 2.49
-0.68 7.55 2.49
-0.83 7.54 2.49
-0.99 7.52 2.49
-1.14 7.50 2.49
-1.29 7.47 2.49
-1.44 7.44 2.49
-1.58 7.41 2.49
-1.73 7.38 2.49
-1.88 7.34 2.49
-2.03 7.30 2.49
-2.17 7.26 2.49
-2.32 7.21 2.49
-2.46 7.17 2.49
-2.60 7.12 2.49
-2.75 7.06 2.49
-2.89 7.00 2.49
-3.03 6.94 2.49
-3.17 6.88 2.49
-3.30 6.82 2.49
-3.44 6.75 2.49
-3.57 6.68 2.49
-3.71 6.60 2.49
-3.84 6.53 2.49
-3.97 6.45 2.49
-4.09 6.37 2.49
-4.22 6.28 2.49
-4.34 6.20 2.49
-4.47 6.11 2.49
-4.59 6.01 2.49
-4.71 5.92 2.49
-4.82 5.82 2.49
-4.94 5.73 2.49
-5.05 5.62 2.49
-5.16 5.52 2.49
-5.27 5.42 2.49
-5.38 5.31 2.49
-5.48 5.20 2.49
-5.59 5.09 2.49
-5.69 4.97 2.49
-5.78 4.86 2.49
-5.82 4.69 2.47
-3.50 2.70 1.46
-3.48 2.58 1.43
-3.50 2.49 1.42
-3.54 2.41 1.42
-3.60 2.35 1.42
-3.68 2.30 1.44
-3.80 2.27 1.46
-6.28 3.58 2.39
-6.35 3.45 2.39
-6.42 3.32 2.39
-6.48 3.19 2.39
-6.53 3.06 2.39
-6.60 2.93 2.39
-6.64 2.79 2.38
-6.69 2.65 2.38
-6.76 2.52 2.39
-6.77 2.37 2.38
-6.82 2.24 2.38
-6.87 2.10 2.38
-6.94 1.97 2.39
-6.97 1.83 2.39
-7.01 1.69 2.39
-7.04 1.55 2.39
-7.07 1.41 2.39
-7.09 1.27 2.39
-7.11 1.12 2.39
-7.13 0.98 2.39
-7.15 0.84 2.39
-7.16 0.69 2.39
-7.17 0.55 2.39
-7.18 0.40 2.39
-7.19 0.26 2.39
-7.19 0.12 2.39
-7.19 -0.03 2.39
-7.19 -0.17 2.39
-7.18 -0.32 2.39
-7.17 -0.46 2.39
-7.16 -0.60 2.39
-7.14 -0.75 2.39
-7.12 -0.89 2.39
-7.10 -1.03 2.39
-7.08 -1.18 2.39
-7.05 -1.32 2.39
-7.02 -1.46 2.39
-6.99 -1.60 2.39
-6.96 -1.74 2.39
-6.92 -1.88 2.39
-6.88 -2.02 2.39
-6.84 -2.15 2.39
-6.79 -2.29 2.39
-6.74 -2.42 2.39
-6.69 -2.56 2.39
-6.63 -2.69 2.39
-6.58 -2.82 2.39
-6.52 -2.96 2.39
-6.46 -3.08 2.39
-6.39 -3.21 2.39
-6.33 -3.34 2.39
-6.26 -3.47 2.39
-6.18 -3.59 2.39
-6.11 -3.71 2.39
-6.03 -3.83 2.39
-5.95 -3.95 2.39
-5.87 -4.07 2.39
-5.80 -4.20 2.40
-5.80 -4.37 2.43
-5.79 -4.56 2.47
-5.76 -4.72 2.49
-5.66 -4.84 2.49
-5.56 -4.95 2.49
-5.46 -5.06 2.49
-5.36 -5.17 2.49
-5.25 -5.27 2.49
-5.15 -5.38 2.49
-5.04 -5.48 2.49
-4.92 -5.58 2.49
-4.81 -5.67 2.49
-4.69 -5.77 2.49
-4.58 -5.86 2.49
-4.46 -5.95 2.49
-4.34 -6.04 2.49
-4.21 -6.12 2.49
-4.09 -6.21 2.49
-3.96 -6.29 2.49
-3.84 -6.36 2.49
-3.71 -6.44 2.49
-3.58 -6.51 2.49
-3.45 -6.58 2.49
-3.31 -6.65 2.49
-3.18 -6.71 2.49
-3.04 -6.77 2.49
-2.90 -6.83 2.49
-2.77 -6.89 2.49
-2.63 -6.94 2.49
-2.49 -6.99 2.49
-2.35 -7.04 2.49
-2.20 -7.09 2.49
-2.06 -7.13 2.49
-1.92 -7.17 2.49
-1.77 -7.21 2.49
-1.63 -7.24 2.49
-1.48 -7.27 2.49
-1.33 -7.30 2.49
-1.19 -7.32 2.49
-0.61 -4.30 1.46
-0.52 -4.30 1.46
-0.43 -4.30 1.45
-0.35 -4.30 1.45
-0.26 -4.30 1.45
-0.17 -4.30 1.45
-0.09 -4.30 1.45
0.00 -4.30 1.55
0.09 -4.30 1.55
0.17 -4.30 1.56
0.26 -4.30 1.56
0.35 -4.30 1.56
0.43 -4.30 1.56
0.52 -4.31 1.57
0.61 -4.31 1.57
0.70 -4.31 1.58
0.79 -4.31 1.58
0.88 -4.31 1.59
0.97 -4.31 1.59
1.06 -4.31 1.60
1.78 -6.67 2.49
1.92 -6.63 2.49
2.05 -6.59 2.49
2.18 -6.55 2.49
2.26 -6.35 2.44
2.34 -6.19 2.39
2.47 -6.15 2.39
2.59 -6.09 2.39
2.71 -6.04 2.39
2.83 -5.98 2.39
2.95 -5.93 2.39
3.07 -5.87 2.39
3.19 -5.81 2.39
3.31 -5.74 2.39
3.42 -5.67 2.39
3.53 -5.60 2.39
3.65 -5.53 2.39
3.76 -5.46 2.39
3.87 -5.38 2.39
2.49 -3.32 1.50
4.08 -5.22 2.39
4.19 -5.14 2.39
4.29 -5.06 2.39
4.39 -4.97 2.39
4.49 -4.88 2.39
4.59 -4.79 2.39
4.68 -4.70 2.39
4.78 -4.61 2.39
4.87 -4.51 2.39
4.96 -4.41 2.39
5.05 -4.31 2.39
5.14 -4.21 2.39
5.22 -4.11 2.39
5.30 -4.00 2.39
5.38 -3.89 2.39
5.46 -3.79 2.39
5.54 -3.68 2.39
5.61 -3.56 2.39
5.68 -3.45 2.39
5.75 -3.34 2.39
5.82 -3.22 2.39
5.88 -3.11 2.39
5.94 -2.99 2.39
6.00 -2.87 2.39
6.06 -2.75 2.39
5.97 -2.56 2.33
6.17 -2.50 2.39
6.22 -2.38 2.39
5.98 -1.37 2.20
5.98 -1.24 2.19
5.98 -1.12 2.18
5.98 -0.99 2.17
5.98 -0.87 2.16
5.98 -0.75 2.16
5.98 -0.63 2.15
5.98 -0.50 2.15
5.98 -0.38 2.14
5.98 -0.26 2.14
5.98 -0.14 2.14
5.98 -0.02 2.14
5.98 0.10 2.14
5.98 0.22 2.14
5.98 0.34 2.14
5.98 0.46 2.14
5.98 0.58 2.14
5.98 0.70 2.15
5.97 0.82 2.15
5.97 0.94 2.16
5.97 1.07 2.17
5.97 1.19 2.17
5.97 1.32 2.18
5.96 1.44 2.19
5.99 1.58 2.21
5.46 1.91 2.06
5.10 1.90 1.94
4.99 1.98 1.91
4.99 2.09 1.93
4.99 2.21 1.94
4.99 2.33 1.96
4.99 2.46 1.98
4.99 2.58 2.00
4.99 2.71 2.02
4.99 2.84 2.04
5.24 3.12 2.17
5.07 3.16 2.13
5.63 3.67 2.39
5.55 3.79 2.39
5.48 3.90 2.39
5.40 4.01 2.39
5.32 4.11 2.39
5.24 4.22 2.39
5.15 4.33 2.39
5.07 4.43 2.39
4.98 4.53 2.39
4.88 4.63 2.39
4.79 4.73 2.39
4.70 4.82 2.39
4.60 4.92 2.39
4.50 5.01 2.39
4.40 5.10 2.39
4.30 5.19 2.39
4.19 5.27 2.39
4.09 5.36 2.39
3.98 5.44 2.39
3.87 5.52 2.39
3.76 5.59 2.39
3.65 5.67 2.39
3.53 5.74 2.39
3.42 5.81 2.39
3.30 5.88 2.39
3.18 5.95 2.39
3.06 6.01 2.39
2.94 6.07 2.39
2.82 6.13 2.39
2.70 6.18 2.39
2.57 6.24 2.39
2.45 6.29 2.39
2.32 6.34 2.39
2.23 6.49 2.43
2.15 6.70 2.49
2.02 6.75 2.49
1.88 6.78 2.49
1.75 6.82 2.49
1.61 6.86 2.49
1.47 6.89 2.49
1.33 6.91 2.49
1.19 6.94 2.49
1.06 6.96 2.49
0.92 6.98 2.49
0.78 7.00 2.49
0.63 7.01 2.49
0.49 7.03 2.49
0.35 7.03 2.49
0.21 7.04 2.49
0.07 7.04 2.49
-0.07 7.04 2.49
-0.21 7.04 2.49
-0.35 7.03 2.49
-0.49 7.03 2.49
-0.63 7.01 2.49
-0.78 7.00 2.49
-0.92 6.98 2.49
-1.06 6.96 2.49
-1.19 6.94 2.49
-1.33 6.91 2.49
-1.47 6.89 2.49
-1.61 6.86 2.49
-1.75 6.82 2.49
-1.88 6.78 2.49
-2.02 6.74 2.49
-2.15 6.70 2.49
-2.29 6.66 2.49
-2.42 6.61 2.49
-2.55 6.56 2.49
-2.68 6.51 2.49
-2.81 6.45 2.49
-2.94 6.39 2.49
-3.07 6.33 2.49
-3.19 6.27 2.49
-3.32 6.20 2.49
-3.44 6.13 2.49
-3.56 6.06 2.49
-3.68 5.99 2.49
-3.80 5.91 2.49
-3.92 5.84 2.49
-4.04 5.76 2.49
-4.15 5.67 2.49
-4.26 5.59 2.49
-4.37 5.50 2.49
-4.48 5.41 2.49
-4.59 5.32 2.49
-4.69 5.23 2.49
-4.80 5.13 2.49
-4.90 5.03 2.49
-5.00 4.93 2.49
-5.10 4.83 2.49
-5.19 4.73 2.49
-5.28 4.62 2.49
-5.37 4.51 2.49
-5.46 4.40 2.49
-3.50 2.70 1.57
-3.48 2.58 1.54
-3.50 2.49 1.53
-3.54 2.42 1.52
-3.60 2.35 1.53
-3.68 2.30 1.54
-3.80 2.27 1.58
-5.84 3.33 2.39
-5.90 3.21 2.39
-5.96 3.09 2.39
-6.02 2.97 2.39
-6.08 2.84 2.39
-6.13 2.72 2.39
-6.19 2.60 2.39
-6.24 2.47 2.39
-6.28 2.35 2.39
-6.33 2.22 2.39
-6.37 2.09 2.39
-6.41 1.96 2.39
-6.45 1.83 2.39
-6.48 1.70 2.39
-6.51 1.57 2.39
-6.54 1.44 2.39
-6.57 1.31 2.39
-6.59 1.18 2.39
-6.61 1.04 2.39
-6.63 0.91 2.39
-6.65 0.78 2.39
-6.66 0.64 2.39
-6.67 0.51 2.39
-6.68 0.38 2.39
-6.68 0.24 2.39
-6.68 0.11 2.39
-6.68 -0.03 2.39
-6.68 -0.16 2.39
-6.67 -0.29 2.39
-6.66 -0.43 2.39
-6.65 -0.56 2.39
-6.64 -0.69 2.39
-6.62 -0.83 2.39
-6.60 -0.96 2.39
-6.58 -1.09 2.39
-6.56 -1.22 2.39
-6.53 -1.36 2.39
-6.50 -1.49 2.39
-6.47 -1.62 2.39
-6.43 -1.74 2.39
-6.39 -1.87 2.39
-6.35 -2.00 2.39
-6.31 -2.13 2.39
-6.27 -2.25 2.39
-6.22 -2.38 2.39
-6.17 -2.50 2.39
-6.12 -2.63 2.39
-6.06 -2.75 2.39
-6.00 -2.87 2.39
-5.94 -2.99 2.39
-5.88 -3.11 2.39
-5.82 -3.22 2.39
-5.80 -3.37 2.41
-5.80 -3.52 2.44
-5.79 -3.68 2.47
-5.77 -3.83 2.49
-5.70 -3.95 2.49
-5.61 -4.06 2.49
-5.53 -4.17 2.49
-5.44 -4.28 2.49
-5.36 -4.39 2.49
-5.27 -4.50 2.49
-5.17 -4.60 2.49
-5.08 -4.70 2.49
-4.98 -4.80 2.49
-4.89 -4.90 2.49
-4.79 -5.00 2.49
-4.68 -5.09 2.49
-4.58 -5.19 2.49
-4.47 -5.28 2.49
-4.37 -5.36 2.49
-4.26 -5.45 2.49
-4.15 -5.53 2.49
-4.03 -5.61 2.49
-3.92 -5.69 2.49
-3.80 -5.77 2.49
-3.69 -5.85 2.49
-3.57 -5.92 2.49
-3.45 -5.99 2.49
-3.33 -6.06 2.49
-3.20 -6.12 2.49
-3.08 -6.18 2.49
-2.96 -6.24 2.49
-2.83 -6.30 2.49
-2.70 -6.36 2.49
-2.57 -6.41 2.49
-2.44 -6.46 2.49
-2.31 -6.51 2.49
-2.18 -6.55 2.49
-2.05 -6.59 2.49
-1.92 -6.63 2.49
-1.78 -6.67 2.49
-1.65 -6.70 2.49
-1.51 -6.73 2.49
-1.38 -6.76 2.49
-1.24 -6.79 2.49
-0.82 -5.07 1.86
-0.61 -4.30 1.57
-0.52 -4.30 1.56
-0.43 -4.30 1.56
-0.35 -4.30 1.56
-0.26 -4.30 1.56
-0.17 -4.30 1.56
-0.09 -4.30 1.55
0.00 -4.30 1.67
0.09 -4.30 1.67
0.17 -4.30 1.67
0.26 -4.30 1.67
0.35 -4.30 1.67
0.43 -4.31 1.67
0.52 -4.31 1.68
0.61 -4.31 1.68
0.70 -4.31 1.69
0.79 -4.31 1.69
0.88 -4.31 1.70
0.97 -4.31 1.71
1.06 -4.31 1.72
1.35 -5.06 2.03
1.79 -6.19 2.49
1.91 -6.16 2.49
2.04 -6.12 2.49
2.16 -6.07 2.49
2.26 -5.97 2.47
2.30 -5.74 2.39
2.42 -5.69 2.39
2.53 -5.64 2.39
2.65 -5.59 2.39
2.76 -5.53 2.39
2.87 -5.48 2.39
2.98 -5.42 2.39
3.09 -5.36 2.39
3.19 -5.30 2.39
3.30 -5.23 2.39
3.40 -5.16 2.39
3.51 -5.10 2.39
3.61 -5.03 2.39
2.49 -3.32 1.60
3.81 -4.88 2.39
3.91 -4.80 2.39
4.00 -4.72 2.39
4.10 -4.64 2.39
4.19 -4.56 2.39
4.28 -4.47 2.39
4.37 -4.39 2.39
4.46 -4.30 2.39
4.55 -4.21 2.39
4.63 -4.12 2.39
4.71 -4.02 2.39
4.79 -3.93 2.39
4.87 -3.83 2.39
4.95 -3.73 2.39
5.02 -3.63 2.39
5.10 -3.53 2.39
5.17 -3.43 2.39
5.24 -3.33 2.39
5.30 -3.22 2.39
5.37 -3.12 2.39
5.43 -3.01 2.39
5.49 -2.90 2.39
5.55 -2.79 2.39
5.60 -2.68 2.39
5.66 -2.56 2.39
5.71 -2.45 2.39
5.76 -2.34 2.39
5.81 -2.22 2.39
5.85 -2.10 2.39
5.89 -1.99 2.39
5.93 -1.87 2.39
5.97 -1.75 2.39
6.00 -1.63 2.39
6.04 -1.51 2.39
6.07 -1.39 2.39
6.09 -1.26 2.39
6.12 -1.14 2.39
6.14 -1.02 2.39
6.16 -0.90 2.39
6.18 -0.77 2.39
6.20 -0.65 2.39
6.21 -0.52 2.39
6.22 -0.40 2.39
6.23 -0.27 2.39
6.23 -0.15 2.39
6.24 -0.02 2.39
6.24 0.10 2.39
6.23 0.23 2.39
6.23 0.35 2.39
6.22 0.48 2.39
6.21 0.60 2.39
6.20 0.73 2.39
6.19 0.85 2.39
6.17 0.98 2.39
6.15 1.10 2.39
6.13 1.22 2.39
6.10 1.35 2.39
5.96 1.44 2.34
6.05 1.59 2.39
6.01 1.71 2.39
5.98 1.83 2.39
5.94 1.95 2.39
5.90 2.07 2.39
5.86 2.19 2.39
4.99 1.98 2.05
5.11 2.14 2.11
5.07 2.25 2.12
5.67 2.65 2.39
5.62 2.77 2.39
5.56 2.88 2.39
5.50 2.99 2.39
5.44 3.10 2.39
5.24 3.12 2.32
5.07 3.16 2.28
5.25 3.43 2.39
5.18 3.53 2.39
5.11 3.64 2.39
5.04 3.74 2.39
4.96 3.84 2.39
4.89 3.94 2.39
4.81 4.04 2.39
4.72 4.13 2.39
4.64 4.23 2.39
4.56 4.32 2.39
4.47 4.41 2.39
4.38 4.50 2.39
4.29 4.59 2.39
4.20 4.67 2.39
4.10 4.76 2.39
4.01 4.84 2.39
3.91 4.92 2.39
3.81 5.00 2.39
3.71 5.07 2.39
3.61 5.15 2.39
3.51 5.22 2.39
3.40 5.29 2.39
3.29 5.36 2.39
3.19 5.42 2.39
3.08 5.49 2.39
2.97 5.55 2.39
2.86 5.61 2.39
2.74 5.66 2.39
2.63 5.72 2.39
2.51 5.77 2.39
2.40 5.82 2.39
2.28 5.87 2.39
2.23 6.08 2.46
2.13 6.21 2.49
2.01 6.25 2.49
1.88 6.29 2.49
1.76 6.33 2.49
1.63 6.36 2.49
1.50 6.39 2.49
1.37 6.42 2.49
1.24 6.45 2.49
1.11 6.47 2.49
0.98 6.49 2.49
0.85 6.51 2.49
0.72 6.53 2.49
0.59 6.54 2.49
0.46 6.55 2.49
0.33 6.56 2.49
0.20 6.57 2.49
0.07 6.57 2.49
-0.07 6.57 2.49
-0.20 6.57 2.49
-0.33 6.56 2.49
-0.46 6.55 2.49
-0.59 6.54 2.49
-0.72 6.53 2.49
-0.85 6.51 2.49
-0.98 6.49 2.49
-1.11 6.47 2.49
-1.24 6.45 2.49
-1.37 6.42 2.49
-1.50 6.39 2.49
-1.63 6.36 2.49
-1.76 6.33 2.49
-1.88 6.29 2.49
-2.01 6.25 2.49
-2.13 6.21 2.49
-2.26 6.17 2.49
-2.38 6.12 2.49
-2.50 6.07 2.49
-2.62 6.02 2.49
-2.74 5.96 2.49
-2.86 5.91 2.49
-2.98 5.85 2.49
-3.10 5.79 2.49
-3.21 5.72 2.49
-3.32 5.66 2.49
-3.44 5.59 2.49
-3.55 5.52 2.49
-3.66 5.44 2.49
-3.76 5.37 2.49
-3.87 5.29 2.49
-3.98 5.21 2.49
-4.08 5.13 2.49
-4.18 5.05 2.49
-4.28 4.96 2.49
-4.38 4.87 2.49
-4.48 4.79 2.49
-4.57 4.69 2.49
-4.66 4.60 2.49
-4.75 4.51 2.49
-4.84 4.41 2.49
-4.93 4.31 2.49
-5.01 4.21 2.49
-5.10 4.11 2.49
-3.50 2.70 1.68
-3.48 2.59 1.65
-3.50 2.49 1.64
-3.54 2.42 1.63
-3.60 2.35 1.64
-3.68 2.30 1.66
-3.80 2.27 1.69
-5.68 3.24 2.49
-5.74 3.12 2.49
-5.80 3.01 2.49
-5.81 2.86 2.47
-5.81 2.72 2.45
-5.81 2.58 2.43
-5.82 2.44 2.41
-5.82 2.31 2.39
-5.86 2.19 2.39
-5.90 2.07 2.39
-5.94 1.95 2.39
-6.00 1.84 2.40
-6.01 1.71 2.39
-6.05 1.59 2.39
-6.08 1.47 2.39
-6.10 1.35 2.39
-6.13 1.22 2.39
-6.15 1.10 2.39
-6.17 0.98 2.39
-6.19 0.85 2.39
-6.20 0.73 2.39
-6.21 0.60 2.39
-6.22 0.48 2.39
-6.23 0.35 2.39
-6.23 0.23 2.39
-6.24 0.10 2.39
-6.24 -0.02 2.39
-6.23 -0.15 2.39
-6.23 -0.27 2.39
-6.22 -0.40 2.39
-6.21 -0.52 2.39
-6.20 -0.65 2.39
-6.18 -0.77 2.39
-6.16 -0.90 2.39
-6.14 -1.02 2.39
-6.12 -1.14 2.39
-6.09 -1.26 2.39
-6.07 -1.39 2.39
-6.04 -1.51 2.39
-6.00 -1.63 2.39
-5.97 -1.75 2.39
-5.93 -1.87 2.39
-5.89 -1.99 2.39
-5.85 -2.10 2.39
-5.81 -2.22 2.39
-5.80 -2.35 2.41
-5.80 -2.49 2.43
-5.80 -2.63 2.45
-5.80 -2.77 2.47
-5.79 -2.91 2.49
-5.73 -3.02 2.49
-5.66 -3.14 2.49
-5.60 -3.25 2.49
-5.53 -3.36 2.49
-5.46 -3.47 2.49
-5.39 -3.58 2.49
-5.32 -3.69 2.49
-5.24 -3.79 2.49
-5.16 -3.90 2.49
-5.08 -4.00 2.49
-5.00 -4.10 2.49
-4.92 -4.20 2.49
-4.83 -4.29 2.49
-4.74 -4.39 2.49
-4.65 -4.48 2.49
-4.56 -4.58 2.49
-4.47 -4.67 2.49
-4.37 -4.75 2.49
-4.28 -4.84 2.49
-4.18 -4.92 2.49
-4.08 -5.01 2.49
-3.97 -5.09 2.49
-3.87 -5.17 2.49
-3.77 -5.24 2.49
-3.66 -5.32 2.49
-3.55 -5.39 2.49
-3.44 -5.46 2.49
-3.33 -5.52 2.49
-3.22 -5.59 2.49
-3.11 -5.65 2.49
-2.99 -5.71 2.49
-2.88 -5.77 2.49
-2.76 -5.83 2.49
-2.64 -5.88 2.49
-2.52 -5.93 2.49
-2.40 -5.98 2.49
-2.28 -6.03 2.49
-2.16 -6.07 2.49
-2.04 -6.12 2.49
-1.91 -6.15 2.49
-1.79 -6.19 2.49
-1.66 -6.23 2.49
-1.54 -6.26 2.49
-1.41 -6.29 2.49
-1.29 -6.31 2.49
-0.93 -5.07 1.99
-0.80 -4.95 1.94
-0.61 -4.30 1.68
-0.52 -4.30 1.68
-0.43 -4.30 1.67
-0.35 -4.30 1.67
-0.26 -4.30 1.67
-0.17 -4.30 1.67
-0.09 -4.30 1.67
0.00 -4.30 1.78
0.09 -4.30 1.78
0.17 -4.30 1.78
0.26 -4.31 1.78
0.35 -4.31 1.78
0.43 -4.31 1.79
0.52 -4.31 1.79
0.61 -4.31 1.80
0.71 -4.41 1.84
0.81 -4.41 1.85
0.90 -4.41 1.86
0.99 -4.41 1.87
1.08 -4.41 1.87
1.33 -4.99 2.13
1.68 -5.80 2.49
1.79 -5.77 2.49
1.91 -5.73 2.49
2.02 -5.69 2.49
2.14 -5.65 2.49
2.25 -5.60 2.49
2.27 -5.33 2.39
2.37 -5.28 2.39
2.48 -5.23 2.39
2.58 -5.18 2.39
2.69 -5.13 2.39
2.79 -5.08 2.39
2.89 -5.02 2.39
2.99 -4.96 2.39
3.09 -4.90 2.39
3.19 -4.84 2.39
3.29 -4.77 2.39
3.38 -4.71 2.39
2.49 -3.32 1.71
3.57 -4.57 2.39
3.66 -4.50 2.39
3.75 -4.42 2.39
3.84 -4.35 2.39
3.93 -4.27 2.39
4.01 -4.19 2.39
4.10 -4.11 2.39
4.18 -4.03 2.39
4.26 -3.94 2.39
4.34 -3.86 2.39
4.41 -3.77 2.39
4.49 -3.68 2.39
4.56 -3.59 2.39
4.64 -3.50 2.39
4.71 -3.40 2.39
4.77 -3.31 2.39
4.84 -3.21 2.39
4.90 -3.12 2.39
4.97 -3.02 2.39
5.03 -2.92 2.39
5.09 -2.82 2.39
5.14 -2.71 2.39
5.20 -2.61 2.39
5.25 -2.51 2.39
5.30 -2.40 2.39
5.35 -2.29 2.39
5.39 -2.19 2.39
5.44 -2.08 2.39
5.48 -1.97 2.39
5.52 -1.86 2.39
5.55 -1.75 2.39
5.59 -1.64 2.39
5.62 -1.52 2.39
5.65 -1.41 2.39
5.68 -1.30 2.39
5.71 -1.18 2.39
5.73 -1.07 2.39
5.75 -0.95 2.39
5.77 -0.84 2.39
5.79 -0.72 2.39
5.80 -0.61 2.39
5.81 -0.49 2.39
5.82 -0.37 2.39
5.83 -0.26 2.39
5.84 -0.14 2.39
5.84 -0.02 2.39
5.84 0.10 2.39
5.84 0.21 2.39
5.83 0.33 2.39
5.83 0.45 2.39
5.82 0.56 2.39
5.81 0.68 2.39
5.79 0.80 2.39
5.78 0.91 2.39
5.76 1.03 2.39
5.74 1.15 2.39
5.71 1.26 2.39
5.69 1.37 2.39
5.66 1.49 2.39
5.63 1.60 2.39
5.60 1.72 2.39
5.56 1.83 2.39
5.53 1.94 2.39
5.49 2.05 2.39
5.45 2.16 2.39
5.10 2.14 2.26
5.07 2.25 2.26
5.31 2.49 2.39
5.26 2.59 2.39
5.21 2.70 2.39
5.15 2.80 2.39
5.10 2.90 2.39
5.04 3.01 2.39
4.98 3.11 2.39
4.91 3.21 2.39
4.85 3.31 2.39
4.78 3.40 2.39
4.72 3.50 2.39
4.64 3.59 2.39
4.57 3.69 2.39
4.50 3.78 2.39
4.42 3.87 2.39
4.34 3.96 2.39
4.26 4.04 2.39
4.18 4.13 2.39
4.10 4.21 2.39
4.02 4.29 2.39
3.93 4.37 2.39
3.84 4.45 2.39
3.75 4.53 2.39
3.66 4.60 2.39
3.57 4.68 2.39
3.47 4.75 2.39
3.38 4.82 2.39
3.28 4.88 2.39
3.18 4.95 2.39
3.08 5.01 2.39
2.98 5.07 2.39
2.88 5.13 2.39
2.78 5.19 2.39
2.67 5.25 2.39
2.57 5.30 2.39
