ply
format ascii 1.0
element vertex 2951
property float32 x
property float32 y
property float32 z
end_header
-13.99 -7.76 2.33
-14.15 -8.23 2.39
-13.98 -8.51 2.39
-13.54 -8.62 2.34
-12.97 -8.63 2.27
-12.69 -8.81 2.25
-12.62 -9.14 2.27
-12.55 -9.48 2.30
-12.54 -9.88 2.33
-12.54 -10.30 2.37
-12.53 -10.71 2.41
-12.31 -10.96 2.41
-12.08 -11.20 2.41
-11.85 -11.44 2.41
-10.60 -10.65 2.19
-11.38 -11.91 2.41
-10.63 -11.58 2.30
-10.64 -12.06 2.35
-10.08 -11.90 2.28
-10.05 -12.36 2.33
-10.06 -12.89 2.39
-9.80 -13.10 2.39
-9.54 -13.29 2.39
-9.27 -13.48 2.39
-9.00 -13.67 2.39
-8.72 -13.85 2.39
-8.44 -14.02 2.39
-8.16 -14.19 2.39
-7.87 -14.35 2.39
-7.58 -14.51 2.39
-7.29 -14.66 2.39
-7.00 -14.80 2.39
-6.70 -14.94 2.39
-6.40 -15.08 2.39
-6.09 -15.20 2.39
-6.04 -15.99 2.49
-5.72 -16.11 2.49
-5.39 -16.22 2.49
-5.07 -16.33 2.49
-4.74 -16.43 2.49
-4.41 -16.53 2.49
-4.08 -16.62 2.49
-3.74 -16.70 2.49
-3.41 -16.78 2.49
-3.07 -16.84 2.49
-2.73 -16.91 2.49
-2.39 -16.96 2.49
-2.05 -17.01 2.49
-1.71 -17.06 2.49
-1.37 -17.09 2.49
-1.03 -17.12 2.49
-0.68 -17.15 2.49
-0.34 -17.16 2.49
0.01 -14.82 2.49
0.30 -14.82 2.49
0.60 -14.82 2.49
0.90 -14.81 2.49
1.20 -14.79 2.49
1.49 -14.77 2.49
1.79 -14.74 2.49
2.02 -14.24 2.41
2.28 -14.06 2.39
2.57 -14.02 2.39
2.85 -13.97 2.39
3.13 -13.91 2.39
3.41 -13.85 2.39
3.69 -13.79 2.39
3.97 -13.72 2.39
4.24 -13.64 2.39
4.52 -13.56 2.39
4.79 -13.47 2.39
5.06 -13.38 2.39
5.33 -13.28 2.39
4.80 -11.29 2.05
4.80 -10.69 1.96
4.93 -10.42 1.92
5.19 -10.42 1.94
5.84 -11.15 2.10
5.84 -10.63 2.02
5.85 -10.16 1.95
5.85 -9.71 1.89
5.86 -9.29 1.83
5.86 -8.89 1.77
5.87 -8.52 1.72
5.87 -8.17 1.67
5.87 -7.84 1.63
5.88 -7.52 1.58
5.88 -7.22 1.54
5.88 -6.94 1.51
5.89 -6.67 1.47
5.89 -6.41 1.44
5.89 -6.16 1.41
5.89 -5.92 1.38
5.90 -5.68 1.35
5.90 -5.46 1.33
5.90 -5.25 1.30
5.85 -5.00 1.27
5.91 -4.84 1.26
5.91 -4.65 1.24
5.91 -4.46 1.22
5.91 -4.28 1.20
5.91 -4.10 1.18
5.92 -3.93 1.17
5.92 -3.76 1.15
5.92 -3.60 1.14
5.92 -3.44 1.12
5.92 -3.28 1.11
5.92 -3.13 1.10
5.93 -2.98 1.09
5.93 -2.83 1.08
5.93 -2.69 1.07
5.93 -2.55 1.06
5.93 -2.41 1.05
5.93 -2.27 1.04
5.93 -2.14 1.03
5.94 -2.00 1.02
5.94 -1.87 1.02
5.94 -1.74 1.01
5.94 -1.61 1.00
5.94 -1.49 1.00
5.94 -1.36 0.99
5.94 -1.24 0.99
5.88 -1.10 0.97
5.92 -0.99 0.98
5.95 -0.87 0.98
5.95 -0.75 0.97
5.95 -0.63 0.97
5.95 -0.51 0.97
5.95 -0.39 0.97
5.95 -0.27 0.97
5.96 -0.15 0.97
5.96 -0.03 0.97
5.96 0.09 0.97
5.96 0.21 0.97
5.96 0.33 0.97
5.96 0.45 0.97
5.96 0.57 0.97
5.96 0.69 0.97
5.97 0.82 0.97
5.97 0.94 0.98
5.97 1.06 0.98
5.97 1.19 0.98
5.97 1.31 0.99
5.97 1.44 0.99
5.97 1.57 1.00
5.97 1.69 1.00
5.98 1.83 1.01
5.98 1.96 1.01
5.98 2.09 1.02
5.98 2.23 1.03
5.98 2.37 1.04
5.98 2.51 1.04
5.98 2.65 1.05
5.99 2.80 1.06
5.92 2.91 1.06
5.99 3.10 1.08
5.99 3.25 1.10
5.99 3.41 1.11
5.99 3.57 1.12
6.00 3.74 1.13
6.00 3.91 1.15
6.00 4.08 1.16
6.00 4.26 1.18
6.00 4.45 1.20
6.01 4.64 1.22
6.01 4.84 1.24
6.01 5.04 1.26
6.01 5.25 1.28
6.01 5.47 1.30
6.02 5.69 1.33
6.02 5.93 1.35
6.02 6.18 1.38
6.02 6.43 1.41
6.03 6.70 1.44
5.96 6.90 1.46
6.03 7.27 1.51
6.04 7.58 1.55
6.04 7.91 1.59
6.04 8.25 1.64
6.05 8.61 1.69
6.05 9.00 1.74
6.06 9.40 1.79
6.06 9.84 1.85
6.07 10.30 1.92
6.07 10.80 1.99
6.08 11.34 2.06
6.05 11.85 2.13
6.24 13.53 2.39
5.96 13.65 2.39
5.69 13.77 2.39
5.41 13.88 2.39
5.13 13.98 2.39
4.85 14.08 2.39
4.56 14.17 2.39
4.28 14.26 2.39
3.99 14.34 2.39
3.70 14.41 2.39
3.41 14.48 2.39
3.12 14.54 2.39
2.82 14.60 2.39
2.53 14.67 2.39
2.33 15.31 2.49
2.02 15.37 2.49
1.71 15.40 2.49
1.40 15.43 2.49
1.09 15.45 2.49
0.78 15.46 2.49
0.47 15.47 2.49
0.16 15.47 2.49
-0.15 15.46 2.49
-0.46 15.45 2.49
-0.77 15.44 2.49
-1.08 15.41 2.49
-1.39 15.38 2.49
-1.69 15.34 2.49
-2.00 15.30 2.49
-2.31 15.25 2.49
-2.61 15.20 2.49
-2.91 15.14 2.49
-3.22 15.07 2.49
-3.52 14.99 2.49
-3.81 14.91 2.49
-4.11 14.83 2.49
-4.41 14.74 2.49
-4.70 14.64 2.49
-4.99 14.53 2.49
-5.28 14.43 2.49
-5.56 14.31 2.49
-5.73 13.92 2.45
-5.87 13.48 2.39
-6.14 13.35 2.39
-6.40 13.22 2.39
-6.66 13.08 2.39
-6.92 12.94 2.39
-7.18 12.79 2.39
-7.43 12.64 2.39
-7.68 12.48 2.39
-7.92 12.32 2.39
-8.16 12.15 2.39
-8.40 11.98 2.39
-8.63 11.80 2.39
-8.87 11.62 2.39
-9.09 11.43 2.39
-9.31 11.24 2.39
-9.53 11.05 2.39
-9.75 10.85 2.39
-10.02 10.72 2.41
-10.23 10.51 2.41
-10.44 10.29 2.41
-10.63 10.08 2.41
-10.83 9.86 2.41
-11.02 9.63 2.41
-11.20 9.40 2.41
-11.38 9.17 2.41
-11.56 8.94 2.41
-9.35 6.93 1.92
-9.43 6.71 1.91
-9.80 6.68 1.96
-10.30 6.71 2.03
-10.72 6.69 2.09
-11.28 6.72 2.17
-11.76 6.70 2.24
-12.40 6.74 2.33
-12.88 6.67 2.40
-13.00 6.40 2.40
-6.14 2.87 1.12
-13.22 5.86 2.40
-13.32 5.59 2.40
-13.42 5.31 2.39
-13.51 5.04 2.39
-13.59 4.76 2.39
-13.68 4.48 2.39
-13.73 4.20 2.39
-13.78 3.91 2.38
-13.82 3.63 2.38
-13.86 3.34 2.37
-13.89 3.05 2.37
-12.60 2.51 2.14
-12.56 2.24 2.13
-12.52 1.97 2.12
-12.49 1.71 2.10
-12.45 1.45 2.09
-12.42 1.20 2.08
-12.42 0.94 2.08
-12.43 0.69 2.08
-12.43 0.44 2.08
-12.43 0.19 2.08
-7.45 -0.03 1.25
-7.34 -0.18 1.23
-7.32 -0.33 1.23
-7.36 -0.48 1.24
-14.07 -1.20 2.37
-14.04 -1.48 2.37
-13.65 -1.71 2.31
-13.62 -1.99 2.31
-13.57 -2.26 2.31
-13.52 -2.53 2.31
-13.47 -2.81 2.31
-13.41 -3.08 2.31
-13.35 -3.34 2.32
-13.28 -3.61 2.32
-13.61 -4.00 2.39
-13.54 -4.27 2.39
-13.31 -4.50 2.37
-12.50 -4.50 2.24
-11.77 -4.51 2.12
-11.04 -4.49 2.01
-10.52 -4.52 1.93
-9.91 -4.50 1.83
-9.48 -4.54 1.77
-9.47 -4.77 1.79
-12.33 -6.52 2.35
-12.20 -6.77 2.36
-12.07 -7.02 2.36
-11.93 -7.26 2.36
-11.80 -7.51 2.36
-11.65 -7.75 2.36
-11.51 -7.99 2.37
-11.53 -8.36 2.41
-11.36 -8.58 2.41
-11.18 -8.81 2.41
-11.00 -9.03 2.41
-10.82 -9.25 2.41
-10.63 -9.46 2.41
-10.24 -9.49 2.36
-10.02 -9.67 2.36
-9.97 -10.02 2.39
-9.77 -10.21 2.39
-9.56 -10.41 2.39
-9.35 -10.60 2.39
-9.13 -10.78 2.39
-8.91 -10.96 2.39
-8.69 -11.14 2.39
-8.46 -11.31 2.39
-8.24 -11.48 2.39
-8.00 -11.64 2.39
-7.77 -11.80 2.39
-7.53 -11.96 2.39
-7.29 -12.11 2.39
-7.04 -12.25 2.39
-6.80 -12.39 2.39
-6.55 -12.53 2.39
-6.30 -12.66 2.39
-6.04 -12.78 2.39
-6.02 -13.44 2.49
-5.76 -13.58 2.49
-5.49 -13.69 2.49
-5.21 -13.80 2.49
-4.94 -13.91 2.49
-4.66 -14.01 2.49
-4.37 -14.10 2.49
-4.09 -14.19 2.49
-3.81 -14.27 2.49
-3.52 -14.34 2.49
-3.23 -14.42 2.49
-2.94 -14.48 2.49
-2.65 -14.54 2.49
-2.36 -14.59 2.49
-2.07 -14.64 2.49
-1.77 -14.69 2.49
-1.48 -14.72 2.49
-1.18 -14.75 2.49
-0.89 -14.78 2.49
-0.59 -14.80 2.49
-0.29 -14.81 2.49
0.01 -13.02 2.49
0.27 -13.02 2.49
0.53 -13.02 2.49
0.79 -13.01 2.49
1.05 -12.99 2.49
1.31 -12.97 2.49
1.57 -12.95 2.49
1.83 -12.92 2.49
2.04 -12.53 2.42
2.26 -12.31 2.39
2.50 -12.27 2.39
2.75 -12.22 2.39
3.00 -12.17 2.39
3.24 -12.11 2.39
3.49 -12.04 2.39
3.73 -11.98 2.39
3.97 -11.90 2.39
4.21 -11.83 2.39
4.45 -11.74 2.39
4.68 -11.66 2.39
4.92 -11.56 2.39
5.15 -11.47 2.39
5.05 -10.66 2.24
5.61 -11.26 2.39
5.84 -11.15 2.39
4.83 -8.78 1.90
4.95 -8.59 1.88
5.12 -8.49 1.88
5.29 -8.39 1.88
5.86 -8.89 2.02
5.87 -8.52 1.96
5.87 -8.17 1.90
5.87 -7.84 1.85
5.88 -7.52 1.81
5.88 -7.22 1.76
5.88 -6.94 1.72
5.89 -6.66 1.68
5.89 -6.40 1.64
5.89 -6.15 1.61
5.89 -5.91 1.57
5.90 -5.68 1.54
5.90 -5.46 1.51
5.90 -5.25 1.49
5.85 -5.00 1.45
5.91 -4.84 1.44
5.91 -4.65 1.41
5.91 -4.46 1.39
5.91 -4.28 1.37
5.91 -4.10 1.35
5.92 -3.93 1.33
5.92 -3.76 1.32
5.92 -3.60 1.30
5.92 -3.44 1.28
5.92 -3.28 1.27
5.92 -3.13 1.25
5.93 -2.98 1.24
5.93 -2.83 1.23
5.93 -2.69 1.22
5.93 -2.55 1.21
5.93 -2.41 1.20
5.93 -2.27 1.19
5.93 -2.14 1.18
5.94 -2.00 1.17
5.94 -1.87 1.16
5.94 -1.74 1.15
5.94 -1.61 1.15
5.94 -1.49 1.14
5.94 -1.36 1.13
5.94 -1.24 1.13
5.88 -1.10 1.11
5.92 -0.99 1.12
5.95 -0.87 1.12
5.95 -0.75 1.11
5.95 -0.63 1.11
5.95 -0.50 1.11
5.95 -0.38 1.11
5.95 -0.27 1.11
5.96 -0.15 1.10
5.96 -0.03 1.10
5.96 0.09 1.10
5.96 0.21 1.10
5.96 0.33 1.10
5.96 0.45 1.11
5.96 0.57 1.11
5.96 0.69 1.11
5.97 0.82 1.11
5.97 0.94 1.12
5.97 1.06 1.12
5.97 1.19 1.12
5.97 1.31 1.13
5.97 1.44 1.13
5.97 1.57 1.14
5.97 1.70 1.15
5.98 1.83 1.15
5.98 1.96 1.16
5.98 2.09 1.17
5.98 2.23 1.18
5.98 2.37 1.18
5.98 2.51 1.19
5.98 2.65 1.20
5.99 2.80 1.22
5.92 2.91 1.21
5.99 3.10 1.24
5.99 3.25 1.25
5.99 3.41 1.27
5.99 3.57 1.28
6.00 3.74 1.30
6.00 3.91 1.32
6.00 4.08 1.33
6.00 4.26 1.35
6.00 4.45 1.37
6.01 4.64 1.39
6.01 4.84 1.42
6.01 5.04 1.44
6.01 5.25 1.47
6.01 5.47 1.49
6.02 5.69 1.52
6.02 5.93 1.55
6.02 6.18 1.58
6.02 6.43 1.62
6.03 6.70 1.65
5.96 6.90 1.67
6.03 7.27 1.73
6.04 7.58 1.78
6.04 7.91 1.83
6.04 8.25 1.88
6.05 8.61 1.93
6.05 8.99 1.99
6.06 9.40 2.05
6.05 9.82 2.12
6.01 10.20 2.17
6.11 10.86 2.29
6.15 11.48 2.39
5.92 11.60 2.39
5.68 11.71 2.39
5.45 11.82 2.39
5.21 11.93 2.39
4.97 12.03 2.39
4.73 12.13 2.39
4.48 12.22 2.39
4.23 12.30 2.39
3.99 12.38 2.39
3.74 12.46 2.39
3.48 12.53 2.39
3.23 12.59 2.39
2.98 12.65 2.39
2.72 12.71 2.39
2.47 12.76 2.39
2.31 13.35 2.49
2.04 13.40 2.49
1.77 13.43 2.49
1.50 13.46 2.49
1.23 13.48 2.49
0.96 13.50 2.49
0.69 13.51 2.49
0.41 13.52 2.49
0.14 13.52 2.49
-0.13 13.52 2.49
-0.40 13.51 2.49
-0.67 13.50 2.49
-0.94 13.48 2.49
-1.21 13.45 2.49
-1.48 13.42 2.49
-1.75 13.38 2.49
-2.02 13.34 2.49
-2.28 13.29 2.49
-2.55 13.24 2.49
-2.81 13.18 2.49
-3.07 13.12 2.49
-3.34 13.05 2.49
-3.59 12.97 2.49
-3.85 12.89 2.49
-4.11 12.81 2.49
-4.36 12.72 2.49
-4.62 12.62 2.49
-4.87 12.52 2.49
-5.11 12.42 2.49
-5.36 12.31 2.49
-5.60 12.19 2.49
-5.76 11.89 2.46
-5.83 11.45 2.39
-6.06 11.33 2.39
-6.28 11.20 2.39
-6.50 11.07 2.39
-6.72 10.93 2.39
-6.93 10.79 2.39
-7.15 10.64 2.39
-7.35 10.49 2.39
-7.56 10.34 2.39
-7.76 10.18 2.39
-7.96 10.01 2.39
-8.16 9.85 2.39
-8.35 9.68 2.39
-8.54 9.50 2.39
-8.72 9.33 2.39
-8.90 9.14 2.39
-9.08 8.96 2.39
-9.25 8.77 2.39
-9.42 8.58 2.39
-9.59 8.39 2.39
-9.75 8.19 2.39
-9.98 8.04 2.41
-10.13 7.83 2.41
-9.35 6.93 2.19
-9.43 6.71 2.18
-9.80 6.68 2.23
-10.29 6.71 2.31
-10.71 6.69 2.38
-10.97 6.54 2.41
-11.09 6.32 2.41
-11.21 6.09 2.41
-11.32 5.86 2.41
-11.43 5.63 2.41
-6.14 2.87 1.28
-11.64 5.16 2.41
-11.74 4.92 2.41
-11.83 4.69 2.41
-11.91 4.44 2.41
-11.99 4.20 2.41
-12.07 3.96 2.41
-12.14 3.71 2.41
-12.21 3.47 2.41
-12.27 3.22 2.41
-12.33 2.97 2.41
-12.38 2.72 2.41
-12.43 2.47 2.41
-12.46 2.22 2.40
-12.49 1.97 2.40
-12.49 1.71 2.40
-12.45 1.45 2.38
-12.42 1.20 2.37
-12.42 0.95 2.37
-12.43 0.70 2.37
-12.43 0.45 2.37
-12.43 0.20 2.37
-7.45 -0.03 1.42
-7.34 -0.18 1.40
-7.32 -0.33 1.40
-7.36 -0.48 1.41
-12.54 -1.06 2.40
-12.51 -1.32 2.40
-12.49 -1.57 2.41
-12.09 -1.76 2.34
-12.05 -2.01 2.34
-12.01 -2.25 2.34
-11.96 -2.49 2.34
-11.91 -2.73 2.34
-11.85 -2.97 2.34
-11.79 -3.21 2.34
-11.73 -3.44 2.34
-11.66 -3.68 2.34
-11.89 -4.02 2.41
-11.81 -4.25 2.41
-11.72 -4.49 2.41
-11.04 -4.49 2.29
-10.52 -4.52 2.20
-9.91 -4.50 2.09
-9.48 -4.54 2.02
-9.47 -4.77 2.04
-11.08 -5.86 2.41
-10.83 -6.01 2.38
-10.72 -6.23 2.38
-10.60 -6.45 2.38
-10.47 -6.67 2.39
-10.35 -6.88 2.39
-10.22 -7.09 2.39
-10.08 -7.30 2.39
-9.92 -7.50 2.39
-9.77 -7.69 2.39
-9.61 -7.89 2.39
-9.45 -8.08 2.39
-9.28 -8.26 2.39
-9.11 -8.45 2.39
-8.94 -8.63 2.39
-8.76 -8.81 2.39
-8.59 -8.98 2.39
-8.40 -9.15 2.39
-8.22 -9.32 2.39
-8.03 -9.48 2.39
-7.84 -9.64 2.39
-7.64 -9.79 2.39
-7.44 -9.95 2.39
-7.24 -10.09 2.39
-7.04 -10.24 2.39
-6.83 -10.38 2.39
-6.62 -10.51 2.39
-6.41 -10.64 2.39
-6.19 -10.77 2.39
-6.01 -10.95 2.40
-6.00 -11.48 2.49
-5.77 -11.61 2.49
-5.54 -11.72 2.49
-5.30 -11.83 2.49
-5.06 -11.94 2.49
-4.82 -12.04 2.49
-4.58 -12.13 2.49
-4.34 -12.22 2.49
-4.09 -12.31 2.49
-3.84 -12.39 2.49
-3.60 -12.47 2.49
-3.35 -12.54 2.49
-3.09 -12.61 2.49
-2.84 -12.67 2.49
-2.59 -12.73 2.49
-2.33 -12.78 2.49
-2.07 -12.83 2.49
-1.82 -12.87 2.49
-1.56 -12.91 2.49
-1.30 -12.94 2.49
-1.04 -12.96 2.49
-0.78 -12.99 2.49
-0.52 -13.00 2.49
-0.26 -13.01 2.49
0.01 -11.60 2.49
0.24 -11.60 2.49
0.47 -11.60 2.49
0.71 -11.59 2.49
0.94 -11.57 2.49
1.17 -11.56 2.49
1.40 -11.53 2.49
1.64 -11.51 2.49
1.87 -11.47 2.49
2.05 -11.17 2.44
2.23 -10.93 2.39
2.45 -10.88 2.39
2.67 -10.83 2.39
2.89 -10.78 2.39
3.10 -10.72 2.39
3.32 -10.66 2.39
3.54 -10.60 2.39
3.75 -10.53 2.39
3.96 -10.46 2.39
4.17 -10.38 2.39
4.38 -10.30 2.39
4.59 -10.21 2.39
4.79 -10.12 2.39
5.00 -10.02 2.39
5.20 -9.93 2.39
4.91 -8.92 2.17
5.10 -8.86 2.18
4.83 -8.01 1.99
4.84 -7.66 1.93
5.04 -7.64 1.95
5.26 -7.64 1.97
5.84 -8.13 2.13
5.87 -7.84 2.08
5.88 -7.52 2.03
5.88 -7.22 1.98
5.88 -6.94 1.93
5.89 -6.66 1.89
5.89 -6.40 1.85
5.89 -6.15 1.81
5.89 -5.91 1.77
5.90 -5.68 1.74
5.90 -5.46 1.70
5.90 -5.25 1.67
5.86 -5.00 1.63
5.91 -4.84 1.62
5.91 -4.65 1.59
5.91 -4.46 1.56
5.91 -4.28 1.54
5.91 -4.10 1.52
5.92 -3.93 1.50
5.92 -3.76 1.48
5.92 -3.60 1.46
5.92 -3.44 1.44
5.92 -3.28 1.43
5.92 -3.13 1.41
5.93 -2.98 1.40
5.93 -2.83 1.38
5.93 -2.69 1.37
5.93 -2.55 1.36
5.93 -2.41 1.35
5.93 -2.27 1.33
5.93 -2.14 1.32
5.94 -2.00 1.32
5.94 -1.87 1.31
5.94 -1.74 1.30
5.94 -1.61 1.29
5.94 -1.49 1.28
5.94 -1.36 1.28
5.94 -1.24 1.27
5.88 -1.10 1.25
5.92 -0.98 1.26
5.95 -0.87 1.26
5.95 -0.75 1.25
5.95 -0.62 1.25
5.95 -0.50 1.25
5.95 -0.38 1.25
5.95 -0.26 1.24
5.96 -0.15 1.24
5.96 -0.03 1.24
5.96 0.09 1.24
5.96 0.21 1.24
5.96 0.33 1.24
5.96 0.45 1.25
5.96 0.57 1.25
5.96 0.70 1.25
5.97 0.82 1.25
5.97 0.94 1.26
5.97 1.06 1.26
5.97 1.19 1.27
5.97 1.31 1.27
5.97 1.44 1.28
5.97 1.57 1.28
5.97 1.70 1.29
5.98 1.83 1.30
5.98 1.96 1.31
5.98 2.09 1.32
5.98 2.23 1.32
5.98 2.37 1.34
5.98 2.51 1.35
5.98 2.65 1.36
5.99 2.80 1.37
5.92 2.91 1.37
5.99 3.10 1.40
5.99 3.25 1.41
5.99 3.41 1.43
5.99 3.57 1.45
6.00 3.74 1.46
6.00 3.91 1.48
6.00 4.08 1.50
6.00 4.26 1.52
6.00 4.45 1.55
6.01 4.64 1.57
6.01 4.84 1.60
6.01 5.04 1.62
6.01 5.25 1.65
6.01 5.47 1.68
6.02 5.70 1.71
6.02 5.93 1.75
6.02 6.18 1.78
6.02 6.43 1.82
6.03 6.70 1.86
5.96 6.90 1.89
6.03 7.27 1.95
6.04 7.58 2.00
6.04 7.91 2.06
6.04 8.25 2.12
5.99 8.53 2.16
6.26 9.71 2.39
6.06 9.84 2.39
5.86 9.96 2.39
5.66 10.07 2.39
5.46 10.18 2.39
5.25 10.29 2.39
5.04 10.39 2.39
4.83 10.49 2.39
4.62 10.58 2.39
4.41 10.67 2.39
4.19 10.76 2.39
3.98 10.84 2.39
3.76 10.91 2.39
3.54 10.99 2.39
3.31 11.05 2.39
3.09 11.11 2.39
2.87 11.17 2.39
2.64 11.23 2.39
2.42 11.27 2.39
2.28 11.81 2.49
2.05 11.85 2.49
1.81 11.89 2.49
1.57 11.92 2.49
1.33 11.94 2.49
1.09 11.96 2.49
0.85 11.98 2.49
0.61 11.99 2.49
0.37 12.00 2.49
0.13 12.00 2.49
-0.11 12.00 2.49
-0.35 11.99 2.49
-0.59 11.98 2.49
-0.83 11.96 2.49
-1.07 11.94 2.49
-1.31 11.91 2.49
-1.55 11.88 2.49
-1.79 11.84 2.49
-2.02 11.80 2.49
-2.26 11.75 2.49
-2.49 11.70 2.49
-2.73 11.64 2.49
-2.96 11.58 2.49
-3.19 11.52 2.49
-3.42 11.45 2.49
-3.65 11.37 2.49
-3.87 11.29 2.49
-4.10 11.21 2.49
-4.32 11.12 2.49
-4.54 11.03 2.49
-4.76 10.93 2.49
-4.98 10.83 2.49
-5.19 10.72 2.49
-5.40 10.61 2.49
-5.61 10.50 2.49
-5.77 10.29 2.47
-5.79 9.85 2.40
-5.97 9.71 2.39
-6.16 9.58 2.39
-6.35 9.45 2.39
-6.53 9.32 2.39
-6.72 9.18 2.39
-6.90 9.04 2.39
-7.07 8.90 2.39
-7.25 8.75 2.39
-7.42 8.60 2.39
-7.59 8.45 2.39
-7.75 8.29 2.39
-7.91 8.13 2.39
-8.07 7.97 2.39
-8.23 7.80 2.39
-8.38 7.63 2.39
-8.53 7.46 2.39
-8.67 7.28 2.39
-8.81 7.10 2.39
-8.95 6.92 2.39
-9.08 6.74 2.39
-9.21 6.55 2.39
-9.34 6.36 2.39
-9.46 6.17 2.39
-9.58 5.98 2.39
-9.69 5.78 2.39
-9.80 5.58 2.39
-9.97 5.42 2.41
-10.07 5.21 2.41
-10.17 5.01 2.41
-6.11 2.86 1.43
-9.87 4.38 2.29
-9.89 4.15 2.28
-9.97 3.95 2.28
-10.40 3.88 2.36
-10.46 3.67 2.36
-10.47 3.44 2.35
-10.47 3.20 2.33
-10.48 2.98 2.32
-10.48 2.75 2.31
-10.48 2.53 2.30
-10.48 2.31 2.29
-10.49 2.09 2.28
-10.51 1.87 2.28
-10.54 1.66 2.28
-10.57 1.45 2.28
-10.59 1.24 2.28
-10.61 1.02 2.28
-10.63 0.81 2.28
-10.64 0.60 2.28
-11.22 0.40 2.40
-11.23 0.18 2.40
-7.45 -0.03 1.60
-7.33 -0.18 1.57
-7.32 -0.33 1.57
-7.36 -0.48 1.58
-11.18 -0.95 2.41
-11.16 -1.17 2.41
-11.13 -1.40 2.41
-11.10 -1.62 2.41
-10.82 -1.80 2.35
-10.78 -2.02 2.36
-10.74 -2.23 2.36
-10.69 -2.45 2.36
-10.64 -2.66 2.36
-10.59 -2.88 2.36
-10.53 -3.09 2.36
-10.47 -3.30 2.36
-10.40 -3.51 2.36
-10.33 -3.72 2.36
-10.45 -4.00 2.41
-10.41 -4.23 2.42
-10.37 -4.46 2.43
-9.91 -4.50 2.34
-9.48 -4.54 2.26
-9.47 -4.77 2.28
-9.81 -5.19 2.39
-9.70 -5.38 2.39
-9.59 -5.57 2.39
-9.47 -5.76 2.39
-9.35 -5.95 2.39
-9.23 -6.14 2.39
-9.10 -6.32 2.39
-8.97 -6.50 2.39
-8.84 -6.68 2.39
-8.70 -6.86 2.39
-8.56 -7.03 2.39
-8.42 -7.20 2.39
-8.27 -7.37 2.39
-8.12 -7.53 2.39
-7.97 -7.69 2.39
-7.81 -7.85 2.39
-7.65 -8.00 2.39
-7.49 -8.16 2.39
-7.32 -8.30 2.39
-7.16 -8.45 2.39
-6.98 -8.59 2.39
-6.81 -8.73 2.39
-6.63 -8.87 2.39
-6.45 -9.00 2.39
-6.27 -9.12 2.39
-6.09 -9.25 2.39
-5.99 -9.50 2.42
-5.96 -9.90 2.49
-5.76 -10.01 2.49
-5.56 -10.13 2.49
-5.35 -10.24 2.49
-5.15 -10.34 2.49
-4.94 -10.45 2.49
-4.73 -10.54 2.49
-4.51 -10.64 2.49
-4.30 -10.73 2.49
-4.08 -10.81 2.49
-3.87 -10.90 2.49
-3.65 -10.97 2.49
-3.43 -11.04 2.49
-3.20 -11.11 2.49
-2.98 -11.18 2.49
-2.76 -11.24 2.49
-2.53 -11.29 2.49
-2.30 -11.34 2.49
-2.08 -11.39 2.49
-1.85 -11.43 2.49
-1.62 -11.47 2.49
-1.39 -11.50 2.49
-1.16 -11.53 2.49
-0.92 -11.55 2.49
-0.69 -11.57 2.49
-0.46 -11.58 2.49
-0.23 -11.59 2.49
0.01 -10.45 2.49
0.22 -10.45 2.49
0.43 -10.44 2.49
0.64 -10.44 2.49
0.85 -10.42 2.49
1.06 -10.41 2.49
1.26 -10.39 2.49
1.47 -10.36 2.49
1.68 -10.33 2.49
1.89 -10.30 2.49
2.06 -10.08 2.45
2.21 -9.80 2.39
2.40 -9.76 2.39
2.60 -9.71 2.39
2.80 -9.66 2.39
2.99 -9.60 2.39
3.18 -9.54 2.39
3.38 -9.48 2.39
3.57 -9.41 2.39
3.76 -9.34 2.39
3.94 -9.27 2.39
4.13 -9.19 2.39
4.32 -9.11 2.39
4.50 -9.02 2.39
4.68 -8.93 2.39
4.86 -8.84 2.39
5.04 -8.75 2.39
5.22 -8.65 2.39
4.97 -7.88 2.20
5.20 -7.88 2.23
5.73 -8.32 2.39
5.90 -8.21 2.39
6.07 -8.09 2.39
5.82 -7.15 2.18
5.85 -6.89 2.13
5.89 -6.66 2.10
5.89 -6.40 2.05
5.89 -6.15 2.01
5.89 -5.91 1.97
5.90 -5.68 1.93
5.90 -5.46 1.89
5.90 -5.25 1.86
5.86 -5.00 1.81
5.91 -4.84 1.80
5.91 -4.65 1.77
5.91 -4.46 1.74
5.91 -4.28 1.71
5.91 -4.10 1.69
5.92 -3.93 1.67
5.92 -3.76 1.65
5.92 -3.60 1.62
5.92 -3.44 1.61
5.92 -3.28 1.59
5.92 -3.13 1.57
5.93 -2.98 1.55
5.93 -2.83 1.54
5.93 -2.69 1.52
5.93 -2.55 1.51
5.93 -2.41 1.50
5.93 -2.27 1.48
5.93 -2.13 1.47
5.94 -2.00 1.46
5.94 -1.87 1.45
5.94 -1.74 1.44
5.94 -1.61 1.44
5.94 -1.49 1.43
5.94 -1.36 1.42
5.94 -1.23 1.41
5.88 -1.10 1.39
5.92 -0.98 1.40
5.95 -0.87 1.40
5.95 -0.75 1.40
5.95 -0.62 1.39
5.95 -0.50 1.39
5.95 -0.38 1.39
5.95 -0.26 1.39
5.96 -0.14 1.38
5.96 -0.03 1.38
5.96 0.09 1.38
5.96 0.21 1.38
5.96 0.33 1.39
5.96 0.45 1.39
5.96 0.57 1.39
5.96 0.70 1.39
5.97 0.82 1.40
5.97 0.94 1.40
5.97 1.06 1.40
5.97 1.19 1.41
5.97 1.31 1.42
5.97 1.44 1.42
5.97 1.57 1.43
5.97 1.70 1.44
5.98 1.83 1.45
5.98 1.96 1.45
5.98 2.09 1.46
5.98 2.23 1.48
5.98 2.37 1.49
5.98 2.51 1.50
5.98 2.65 1.51
5.99 2.80 1.53
5.92 2.91 1.52
5.99 3.10 1.56
5.99 3.25 1.57
5.99 3.41 1.59
5.99 3.57 1.61
6.00 3.74 1.63
6.00 3.91 1.65
6.00 4.08 1.67
6.00 4.26 1.70
6.00 4.45 1.72
6.01 4.64 1.75
6.01 4.84 1.78
6.01 5.04 1.81
6.01 5.25 1.84
6.01 5.47 1.87
6.02 5.70 1.91
6.02 5.93 1.95
6.02 6.18 1.99
6.02 6.43 2.03
6.03 6.70 2.08
5.96 6.90 2.10
5.98 7.20 2.16
6.13 8.37 2.39
5.96 8.49 2.39
5.79 8.60 2.39
5.62 8.72 2.39
5.44 8.83 2.39
5.26 8.94 2.39
5.08 9.04 2.39
4.90 9.14 2.39
4.71 9.23 2.39
4.53 9.33 2.39
4.34 9.41 2.39
4.15 9.50 2.39
3.96 9.58 2.39
3.76 9.66 2.39
3.57 9.73 2.39
3.37 9.80 2.39
3.18 9.86 2.39
2.98 9.92 2.39
2.78 9.98 2.39
2.58 10.03 2.39
2.37 10.08 2.39
2.26 10.56 2.49
2.05 10.60 2.49
1.84 10.64 2.49
1.62 10.67 2.49
1.41 10.70 2.49
1.19 10.72 2.49
0.98 10.74 2.49
0.76 10.76 2.49
0.55 10.77 2.49
0.33 10.77 2.49
0.11 10.78 2.49
-0.10 10.77 2.49
-0.32 10.77 2.49
-0.53 10.76 2.49
-0.75 10.74 2.49
-0.96 10.72 2.49
-1.18 10.70 2.49
-1.39 10.67 2.49
-1.61 10.63 2.49
-1.82 10.60 2.49
-2.03 10.56 2.49
-2.24 10.51 2.49
-2.45 10.46 2.49
-2.66 10.41 2.49
-2.87 10.35 2.49
-3.07 10.28 2.49
-3.28 10.22 2.49
-3.48 10.15 2.49
-3.68 10.07 2.49
-3.88 9.99 2.49
-4.08 9.91 2.49
-4.28 9.82 2.49
-4.47 9.73 2.49
-4.66 9.63 2.49
-4.85 9.54 2.49
-5.04 9.43 2.49
-5.23 9.33 2.49
-5.41 9.22 2.49
-5.59 9.10 2.49
-5.77 8.99 2.49
-5.79 8.63 2.43
-5.87 8.38 2.39
-6.04 8.26 2.39
-6.20 8.13 2.39
-6.36 8.00 2.39
-6.52 7.87 2.39
-6.67 7.73 2.39
-6.82 7.60 2.39
-6.97 7.45 2.39
-7.11 7.31 2.39
-7.26 7.16 2.39
-7.40 7.01 2.39
-7.53 6.86 2.39
-7.67 6.71 2.39
-7.80 6.55 2.39
-7.92 6.39 2.39
-8.05 6.22 2.39
-8.17 6.06 2.39
-8.28 5.89 2.39
-8.40 5.72 2.39
-8.51 5.55 2.39
-8.61 5.38 2.39
-8.72 5.20 2.39
-8.81 5.02 2.39
-8.91 4.84 2.39
-9.00 4.66 2.39
-9.09 4.48 2.39
-6.11 2.86 1.59
-9.26 4.11 2.39
-9.33 3.92 2.39
-9.41 3.73 2.39
-9.48 3.54 2.39
-9.54 3.35 2.39
-9.60 3.15 2.39
-9.66 2.96 2.39
-9.71 2.76 2.39
-9.76 2.57 2.39
-9.81 2.37 2.39
-9.85 2.17 2.39
-9.90 1.97 2.39
-9.90 1.77 2.38
-9.90 1.56 2.38
-9.91 1.36 2.37
-9.91 1.16 2.37
-9.91 0.96 2.36
-9.91 0.76 2.36
-9.91 0.56 2.36
-9.92 0.36 2.36
-9.92 0.16 2.36
-7.45 -0.03 1.77
-7.34 -0.18 1.75
-7.32 -0.32 1.74
-7.36 -0.48 1.76
-10.07 -0.85 2.41
-10.05 -1.06 2.41
-10.02 -1.26 2.41
-9.99 -1.46 2.41
-9.89 -1.65 2.39
-9.77 -1.83 2.37
-9.74 -2.03 2.37
-9.70 -2.22 2.37
-9.70 -2.43 2.39
-9.67 -2.63 2.39
-9.61 -2.82 2.39
-9.55 -3.01 2.39
-9.48 -3.20 2.39
-9.42 -3.39 2.39
-9.34 -3.58 2.39
-9.27 -3.77 2.39
-9.19 -3.95 2.39
-9.11 -4.13 2.39
-9.02 -4.31 2.39
-8.93 -4.49 2.39
-8.84 -4.67 2.39
-8.74 -4.85 2.39
-8.64 -5.02 2.39
-8.53 -5.19 2.39
-8.43 -5.36 2.39
-8.32 -5.53 2.39
-8.20 -5.70 2.39
-8.09 -5.86 2.39
-7.97 -6.02 2.39
-7.84 -6.18 2.39
-7.72 -6.33 2.39
-7.59 -6.49 2.39
-7.45 -6.64 2.39
-7.32 -6.79 2.39
-7.18 -6.93 2.39
-7.04 -7.07 2.39
-6.90 -7.21 2.39
-6.75 -7.35 2.39
-6.60 -7.48 2.39
-6.45 -7.61 2.39
-6.29 -7.74 2.39
-6.16 -7.89 2.40
-5.98 -7.99 2.39
-5.97 -8.32 2.45
-5.90 -8.58 2.49
-5.72 -8.69 2.49
-5.55 -8.81 2.49
-5.37 -8.92 2.49
-5.19 -9.02 2.49
-5.01 -9.13 2.49
-4.82 -9.23 2.49
-4.64 -9.32 2.49
-4.45 -9.41 2.49
-4.26 -9.50 2.49
-4.07 -9.59 2.49
-3.87 -9.67 2.49
-3.68 -9.74 2.49
-3.48 -9.82 2.49
-3.29 -9.89 2.49
-3.09 -9.95 2.49
-2.89 -10.01 2.49
-2.69 -10.07 2.49
-2.48 -10.12 2.49
-2.28 -10.17 2.49
-2.07 -10.22 2.49
-1.87 -10.26 2.49
-1.66 -10.30 2.49
-1.46 -10.33 2.49
-1.25 -10.36 2.49
-1.04 -10.38 2.49
-0.83 -10.41 2.49
-0.62 -10.42 2.49
-0.41 -10.44 2.49
-0.20 -10.44 2.49
0.01 -9.50 2.49
0.20 -9.50 2.49
0.39 -9.49 2.49
0.58 -9.48 2.49
0.77 -9.47 2.49
0.96 -9.46 2.49
1.15 -9.44 2.49
1.34 -9.42 2.49
1.53 -9.39 2.49
1.72 -9.36 2.49
1.91 -9.33 2.49
2.07 -9.18 2.46
2.19 -8.86 2.39
2.36 -8.82 2.39
2.54 -8.77 2.39
2.72 -8.72 2.39
2.89 -8.67 2.39
3.07 -8.61 2.39
3.24 -8.55 2.39
3.41 -8.49 2.39
3.58 -8.42 2.39
3.75 -8.35 2.39
3.92 -8.27 2.39
4.09 -8.20 2.39
4.25 -8.11 2.39
4.42 -8.03 2.39
4.58 -7.94 2.39
4.74 -7.85 2.39
4.90 -7.76 2.39
5.05 -7.66 2.39
5.21 -7.56 2.39
5.36 -7.46 2.39
5.51 -7.35 2.39
5.66 -7.24 2.39
5.81 -7.13 2.39
5.95 -7.01 2.39
6.09 -6.89 2.39
5.84 -6.09 2.19
5.84 -5.86 2.15
5.88 -5.67 2.12
5.90 -5.46 2.08
5.90 -5.24 2.05
5.86 -5.00 2.00
5.91 -4.84 1.98
5.91 -4.65 1.95
5.91 -4.46 1.92
5.91 -4.28 1.89
5.91 -4.10 1.86
5.92 -3.93 1.84
5.92 -3.76 1.81
5.92 -3.60 1.79
5.92 -3.44 1.77
5.92 -3.28 1.75
5.92 -3.13 1.73
5.93 -2.98 1.71
5.93 -2.83 1.69
5.93 -2.69 1.68
5.93 -2.55 1.66
5.93 -2.41 1.65
5.93 -2.27 1.64
5.93 -2.13 1.62
5.94 -2.00 1.61
5.94 -1.87 1.60
5.94 -1.74 1.59
5.94 -1.61 1.58
5.94 -1.48 1.57
5.94 -1.36 1.57
5.94 -1.23 1.56
5.88 -1.10 1.54
5.92 -0.98 1.54
5.95 -0.87 1.54
5.95 -0.74 1.54
5.95 -0.62 1.53
5.95 -0.50 1.53
5.95 -0.38 1.53
5.95 -0.26 1.53
5.96 -0.14 1.53
5.96 -0.02 1.53
5.96 0.09 1.53
5.96 0.21 1.53
5.96 0.33 1.53
5.96 0.45 1.53
5.96 0.58 1.53
5.96 0.70 1.54
5.97 0.82 1.54
5.97 0.94 1.54
5.97 1.06 1.55
5.97 1.19 1.55
5.97 1.31 1.56
5.97 1.44 1.57
5.97 1.57 1.58
5.97 1.70 1.59
5.98 1.83 1.59
5.98 1.96 1.60
5.98 2.09 1.62
5.98 2.23 1.63
5.98 2.37 1.64
5.98 2.51 1.65
5.98 2.65 1.67
5.99 2.80 1.68
5.92 2.91 1.68
5.99 3.10 1.72
5.99 3.25 1.74
5.99 3.41 1.76
5.99 3.57 1.78
6.00 3.74 1.80
6.00 3.91 1.82
6.00 4.08 1.85
6.00 4.26 1.87
6.00 4.45 1.90
6.01 4.64 1.93
6.01 4.84 1.96
6.01 5.04 2.00
6.01 5.25 2.03
6.01 5.47 2.07
6.02 5.70 2.11
5.98 5.89 2.14
5.96 6.12 2.17
5.96 6.90 2.32
6.00 7.23 2.39
5.85 7.35 2.39
5.71 7.47 2.39
5.56 7.58 2.39
5.40 7.69 2.39
5.25 7.80 2.39
5.09 7.90 2.39
4.93 8.00 2.39
4.77 8.10 2.39
4.60 8.19 2.39
4.44 8.28 2.39
4.27 8.37 2.39
4.10 8.45 2.39
3.93 8.53 2.39
3.76 8.61 2.39
3.59 8.68 2.39
3.41 8.75 2.39
3.23 8.82 2.39
3.06 8.88 2.39
2.88 8.94 2.39
2.70 8.99 2.39
2.52 9.04 2.39
2.33 9.09 2.39
2.24 9.53 2.49
2.05 9.57 2.49
1.86 9.61 2.49
1.67 9.64 2.49
1.47 9.67 2.49
1.28 9.70 2.49
1.08 9.72 2.49
0.89 9.74 2.49
0.69 9.75 2.49
0.50 9.76 2.49
0.30 9.77 2.49
0.10 9.77 2.49
-0.09 9.77 2.49
-0.29 9.76 2.49
-0.48 9.75 2.49
-0.68 9.74 2.49
-0.87 9.72 2.49
-1.07 9.70 2.49
-1.26 9.67 2.49
-1.45 9.64 2.49
-1.65 9.61 2.49
-1.84 9.57 2.49
-2.03 9.53 2.49
-2.22 9.48 2.49
-2.41 9.44 2.49
-2.60 9.38 2.49
-2.78 9.33 2.49
-2.97 9.27 2.49
-3.15 9.20 2.49
-3.34 9.13 2.49
-3.52 9.06 2.49
-3.70 8.99 2.49
-3.88 8.91 2.49
-4.05 8.83 2.49
-4.23 8.74 2.49
-4.40 8.65 2.49
-4.57 8.56 2.49
-4.74 8.46 2.49
-4.91 8.36 2.49
-5.07 8.26 2.49
-5.24 8.15 2.49
-5.40 8.04 2.49
-5.56 7.93 2.49
-5.71 7.81 2.49
-5.80 7.61 2.47
-5.81 7.31 2.41
-5.91 7.14 2.39
-6.05 7.02 2.39
-6.19 6.89 2.39
-6.32 6.77 2.39
-6.46 6.63 2.39
-6.59 6.50 2.39
-6.71 6.37 2.39
-6.84 6.23 2.39
-6.96 6.09 2.39
-7.08 5.94 2.39
-7.19 5.80 2.39
-7.30 5.65 2.39
-7.41 5.50 2.39
-7.52 5.35 2.39
-7.62 5.20 2.39
-7.72 5.04 2.39
-7.82 4.88 2.39
-7.91 4.72 2.39
-8.00 4.56 2.39
-8.09 4.40 2.39
-8.17 4.23 2.39
-8.25 4.07 2.39
-6.10 2.86 1.75
-8.40 3.73 2.39
-8.47 3.56 2.39
-8.54 3.39 2.39
-8.61 3.21 2.39
-8.66 3.04 2.39
-8.72 2.86 2.39
-8.77 2.69 2.39
-8.82 2.51 2.39
-8.87 2.33 2.39
-8.91 2.15 2.39
-8.95 1.97 2.39
-8.98 1.79 2.39
-9.02 1.61 2.39
-9.04 1.43 2.39
-9.07 1.25 2.39
-9.09 1.06 2.39
-9.10 0.88 2.39
-9.12 0.70 2.39
-9.13 0.51 2.39
-9.13 0.33 2.39
-9.14 0.15 2.39
-7.45 -0.03 1.95
-7.34 -0.18 1.92
-7.32 -0.32 1.92
-7.36 -0.47 1.93
-9.09 -0.77 2.39
-9.07 -0.95 2.39
-9.05 -1.13 2.39
-9.02 -1.31 2.39
-8.99 -1.50 2.39
-8.96 -1.68 2.39
-8.92 -1.85 2.39
-8.88 -2.03 2.39
-8.83 -2.21 2.39
-8.79 -2.39 2.39
-8.73 -2.56 2.39
-8.68 -2.74 2.39
-8.62 -2.91 2.39
-8.56 -3.08 2.39
-8.49 -3.25 2.39
-8.42 -3.42 2.39
-8.35 -3.59 2.39
-8.28 -3.76 2.39
-8.20 -3.92 2.39
-8.12 -4.08 2.39
-8.03 -4.25 2.39
-7.94 -4.41 2.39
-7.85 -4.56 2.39
-7.76 -4.72 2.39
-7.66 -4.87 2.39
-7.56 -5.03 2.39
-7.46 -5.18 2.39
-7.35 -5.33 2.39
-7.24 -5.47 2.39
-7.13 -5.62 2.39
-7.01 -5.76 2.39
-6.90 -5.90 2.39
-6.78 -6.03 2.39
-6.65 -6.17 2.39
-6.53 -6.30 2.39
-6.40 -6.43 2.39
-6.27 -6.56 2.39
-6.14 -6.69 2.39
-6.00 -6.80 2.39
-5.96 -7.04 2.43
-5.96 -7.33 2.49
-5.82 -7.46 2.49
-5.67 -7.58 2.49
-5.52 -7.69 2.49
-5.36 -7.80 2.49
-5.20 -7.90 2.49
-5.04 -8.01 2.49
-4.88 -8.11 2.49
-4.72 -8.20 2.49
-4.55 -8.30 2.49
-4.38 -8.39 2.49
-4.21 -8.47 2.49
-4.04 -8.56 2.49
-3.87 -8.64 2.49
-3.70 -8.72 2.49
-3.52 -8.79 2.49
-3.34 -8.86 2.49
-3.17 -8.92 2.49
-2.99 -8.99 2.49
-2.81 -9.05 2.49
-2.62 -9.10 2.49
-2.44 -9.15 2.49
-2.26 -9.20 2.49
-2.07 -9.25 2.49
-1.89 -9.29 2.49
-1.70 -9.33 2.49
-1.51 -9.36 2.49
-1.32 -9.39 2.49
-1.13 -9.42 2.49
-0.95 -9.44 2.49
-0.76 -9.46 2.49
-0.57 -9.47 2.49
-0.37 -9.48 2.49
-0.18 -9.49 2.49
0.01 -8.69 2.49
0.18 -8.69 2.49
0.36 -8.69 2.49
0.53 -8.68 2.49
0.70 -8.67 2.49
0.88 -8.66 2.49
1.05 -8.64 2.49
1.23 -8.62 2.49
1.40 -8.60 2.49
1.57 -8.57 2.49
1.75 -8.54 2.49
1.92 -8.50 2.49
2.08 -8.42 2.48
2.16 -8.07 2.39
2.33 -8.03 2.39
2.49 -7.98 2.39
2.65 -7.93 2.39
2.81 -7.88 2.39
2.97 -7.83 2.39
3.12 -7.77 2.39
3.28 -7.71 2.39
3.44 -7.64 2.39
3.59 -7.57 2.39
3.74 -7.50 2.39
3.89 -7.43 2.39
4.04 -7.35 2.39
4.19 -7.27 2.39
4.34 -7.18 2.39
4.48 -7.10 2.39
4.62 -7.01 2.39
4.77 -6.92 2.39
4.91 -6.82 2.39
5.04 -6.72 2.39
5.18 -6.62 2.39
5.31 -6.52 2.39
5.44 -6.41 2.39
5.57 -6.31 2.39
5.70 -6.19 2.39
5.83 -6.08 2.39
5.95 -5.96 2.39
6.07 -5.85 2.39
5.85 -4.99 2.18
5.85 -4.79 2.14
5.89 -4.63 2.12
5.91 -4.46 2.10
5.91 -4.27 2.06
5.91 -4.10 2.04
5.92 -3.93 2.01
5.92 -3.76 1.98
5.92 -3.59 1.96
5.92 -3.43 1.93
5.92 -3.28 1.91
5.92 -3.13 1.89
5.93 -2.98 1.87
5.93 -2.83 1.85
5.93 -2.69 1.84
5.93 -2.54 1.82
5.93 -2.41 1.80
5.93 -2.27 1.79
5.93 -2.13 1.78
5.94 -2.00 1.76
5.94 -1.87 1.75
5.94 -1.74 1.74
5.94 -1.61 1.73
5.94 -1.48 1.72
5.94 -1.36 1.71
5.94 -1.23 1.71
5.88 -1.10 1.68
5.92 -0.98 1.69
5.95 -0.87 1.69
5.95 -0.74 1.68
5.95 -0.62 1.68
5.95 -0.50 1.68
5.95 -0.38 1.67
5.95 -0.26 1.67
5.96 -0.14 1.67
5.96 -0.02 1.67
5.96 0.10 1.67
5.96 0.22 1.67
5.96 0.33 1.67
5.96 0.46 1.67
5.96 0.58 1.68
5.96 0.70 1.68
5.97 0.82 1.68
5.97 0.94 1.69
5.97 1.06 1.70
5.97 1.19 1.70
5.97 1.31 1.71
5.97 1.44 1.72
5.97 1.57 1.73
5.97 1.70 1.74
5.98 1.83 1.75
5.98 1.96 1.76
5.98 2.09 1.77
5.98 2.23 1.78
5.98 2.37 1.80
5.98 2.51 1.81
5.98 2.65 1.83
5.99 2.80 1.84
5.92 2.91 1.84
5.99 3.10 1.88
5.99 3.25 1.90
5.99 3.41 1.92
5.99 3.57 1.95
6.00 3.74 1.97
6.00 3.91 2.00
6.00 4.08 2.02
6.00 4.26 2.05
6.00 4.45 2.08
6.01 4.64 2.11
5.97 4.80 2.13
5.95 4.99 2.16
5.97 5.22 2.21
6.23 5.90 2.39
6.11 6.02 2.39
5.99 6.15 2.39
5.87 6.27 2.39
5.74 6.38 2.39
5.61 6.50 2.39
5.48 6.61 2.39
5.35 6.72 2.39
5.21 6.82 2.39
5.07 6.92 2.39
4.93 7.03 2.39
4.79 7.12 2.39
4.65 7.22 2.39
4.50 7.31 2.39
4.35 7.40 2.39
4.21 7.48 2.39
4.05 7.56 2.39
3.90 7.64 2.39
3.75 7.72 2.39
3.59 7.79 2.39
3.43 7.86 2.39
3.28 7.93 2.39
3.12 7.99 2.39
2.95 8.05 2.39
2.79 8.11 2.39
2.63 8.16 2.39
2.47 8.22 2.39
2.30 8.26 2.39
2.22 8.66 2.49
2.05 8.70 2.49
1.88 8.74 2.49
1.70 8.78 2.49
1.52 8.81 2.49
1.35 8.84 2.49
1.17 8.86 2.49
0.99 8.88 2.49
0.81 8.90 2.49
0.63 8.91 2.49
0.45 8.92 2.49
0.28 8.92 2.49
0.10 8.93 2.49
-0.08 8.92 2.49
-0.26 8.92 2.49
-0.44 8.91 2.49
-0.62 8.90 2.49
-0.80 8.88 2.49
-0.97 8.86 2.49
-1.15 8.84 2.49
-1.33 8.81 2.49
-1.50 8.78 2.49
-1.68 8.75 2.49
-1.85 8.71 2.49
-2.03 8.67 2.49
-2.20 8.62 2.49
-2.37 8.57 2.49
-2.54 8.52 2.49
-2.71 8.47 2.49
-2.88 8.41 2.49
-3.05 8.35 2.49
-3.22 8.28 2.49
-3.38 8.21 2.49
-3.54 8.14 2.49
-3.70 8.07 2.49
-3.86 7.99 2.49
-4.02 7.91 2.49
-4.18 7.82 2.49
-4.33 7.73 2.49
-4.49 7.64 2.49
-4.64 7.55 2.49
-4.79 7.45 2.49
-4.93 7.35 2.49
-5.08 7.25 2.49
-5.22 7.15 2.49
-5.36 7.04 2.49
-5.50 6.93 2.49
-5.64 6.81 2.49
-5.77 6.69 2.49
-5.81 6.48 2.46
-5.82 6.23 2.41
-5.90 6.07 2.39
-6.02 5.95 2.39
-6.14 5.82 2.39
-6.25 5.70 2.39
-6.36 5.57 2.39
-6.47 5.44 2.39
-6.58 5.30 2.39
-6.68 5.17 2.39
-6.78 5.03 2.39
-6.88 4.89 2.39
-6.97 4.75 2.39
-7.06 4.61 2.39
-7.15 4.47 2.39
-7.24 4.32 2.39
-7.32 4.17 2.39
-7.40 4.02 2.39
-7.48 3.87 2.39
-7.55 3.72 2.39
-6.10 2.86 1.91
-6.21 2.76 1.93
-7.75 3.26 2.39
-7.81 3.10 2.39
-7.87 2.94 2.39
-7.93 2.78 2.39
-7.98 2.62 2.39
-8.03 2.46 2.39
-8.07 2.30 2.39
-8.12 2.13 2.39
-8.15 1.97 2.39
-8.19 1.80 2.39
-8.22 1.64 2.39
-8.25 1.47 2.39
-8.28 1.31 2.39
-8.30 1.14 2.39
-8.32 0.97 2.39
-8.33 0.81 2.39
-8.34 0.64 2.39
-8.35 0.47 2.39
-8.36 0.30 2.39
-8.36 0.13 2.39
-7.49 -0.03 2.14
-7.35 -0.18 2.10
-7.32 -0.32 2.10
-7.38 -0.47 2.11
-8.32 -0.70 2.39
-8.30 -0.87 2.39
-8.28 -1.04 2.39
-8.26 -1.20 2.39
-8.23 -1.37 2.39
-8.20 -1.53 2.39
-8.17 -1.70 2.39
-8.13 -1.86 2.39
-8.09 -2.02 2.39
-8.04 -2.18 2.39
-8.00 -2.35 2.39
-7.95 -2.51 2.39
-7.89 -2.66 2.39
-7.84 -2.82 2.39
-7.78 -2.98 2.39
-7.71 -3.13 2.39
-7.65 -3.29 2.39
-7.58 -3.44 2.39
-7.51 -3.59 2.39
-7.43 -3.74 2.39
-7.36 -3.89 2.39
-7.27 -4.03 2.39
-7.19 -4.18 2.39
-7.10 -4.32 2.39
-7.02 -4.46 2.39
-6.92 -4.60 2.39
-6.83 -4.74 2.39
-6.73 -4.88 2.39
-6.63 -5.01 2.39
-6.53 -5.14 2.39
-6.42 -5.27 2.39
-6.32 -5.40 2.39
-6.21 -5.53 2.39
-6.09 -5.65 2.39
-5.98 -5.77 2.39
-5.95 -5.98 2.43
-5.95 -6.22 2.48
-5.86 -6.38 2.49
-5.73 -6.50 2.49
-5.60 -6.61 2.49
-5.47 -6.72 2.49
-5.33 -6.83 2.49
-5.19 -6.94 2.49
-5.05 -7.04 2.49
-4.91 -7.14 2.49
-4.76 -7.24 2.49
-4.62 -7.33 2.49
-4.47 -7.42 2.49
-4.32 -7.51 2.49
-4.17 -7.60 2.49
-4.01 -7.68 2.49
-3.86 -7.76 2.49
-3.70 -7.84 2.49
-3.54 -7.91 2.49
-3.39 -7.98 2.49
-3.22 -8.05 2.49
-3.06 -8.11 2.49
-2.90 -8.17 2.49
-2.73 -8.23 2.49
-2.57 -8.28 2.49
-2.40 -8.34 2.49
-2.23 -8.38 2.49
-2.07 -8.43 2.49
-1.90 -8.47 2.49
-1.73 -8.51 2.49
-1.56 -8.54 2.49
-1.38 -8.57 2.49
-1.21 -8.60 2.49
-1.04 -8.62 2.49
-0.86 -8.64 2.49
-0.69 -8.66 2.49
-0.52 -8.67 2.49
-0.34 -8.68 2.49
-0.17 -8.69 2.49
0.01 -8.01 2.49
0.17 -8.01 2.49
0.33 -8.00 2.49
0.49 -8.00 2.49
0.65 -7.99 2.49
0.81 -7.98 2.49
0.97 -7.96 2.49
1.13 -7.94 2.49
1.29 -7.92 2.49
1.45 -7.89 2.49
1.61 -7.86 2.49
1.77 -7.83 2.49
1.92 -7.80 2.49
2.08 -7.76 2.49
2.14 -7.40 2.39
2.30 -7.37 2.40
2.44 -7.31 2.39
2.59 -7.26 2.39
2.73 -7.21 2.39
2.88 -7.15 2.39
3.02 -7.10 2.39
3.16 -7.04 2.39
3.31 -6.97 2.39
3.45 -6.91 2.39
3.59 -6.84 2.39
3.72 -6.77 2.39
3.86 -6.69 2.39
3.99 -6.61 2.39
4.13 -6.54 2.39
4.26 -6.45 2.39
4.39 -6.37 2.39
4.52 -6.28 2.39
4.64 -6.19 2.39
4.77 -6.10 2.39
4.89 -6.00 2.39
5.01 -5.90 2.39
5.13 -5.80 2.39
5.25 -5.70 2.39
5.36 -5.60 2.39
5.48 -5.49 2.39
5.59 -5.38 2.39
5.70 -5.27 2.39
5.80 -5.16 2.39
5.87 -5.01 2.38
6.01 -4.92 2.39
6.11 -4.80 2.39
5.86 -4.06 2.19
5.86 -3.89 2.16
5.87 -3.73 2.14
5.90 -3.58 2.12
5.92 -3.43 2.10
5.92 -3.28 2.08
5.92 -3.13 2.05
5.93 -2.98 2.03
5.93 -2.83 2.01
5.93 -2.69 1.99
5.93 -2.54 1.98
5.93 -2.40 1.96
5.93 -2.27 1.95
5.93 -2.13 1.93
5.94 -2.00 1.92
5.94 -1.87 1.90
5.94 -1.74 1.89
5.94 -1.61 1.88
5.94 -1.48 1.87
5.94 -1.36 1.86
5.94 -1.23 1.85
5.88 -1.10 1.83
5.93 -0.98 1.83
5.95 -0.86 1.83
5.95 -0.74 1.83
5.95 -0.62 1.83
5.95 -0.50 1.82
5.95 -0.38 1.82
5.95 -0.26 1.82
5.96 -0.14 1.82
5.96 -0.02 1.82
5.96 0.10 1.82
5.96 0.22 1.82
5.96 0.34 1.82
5.96 0.46 1.82
5.96 0.58 1.82
5.96 0.70 1.83
5.97 0.82 1.83
5.97 0.94 1.84
5.97 1.06 1.84
5.97 1.19 1.85
5.97 1.31 1.86
5.97 1.44 1.87
5.97 1.57 1.88
5.97 1.70 1.89
5.98 1.83 1.90
5.98 1.96 1.91
5.98 2.09 1.92
5.98 2.23 1.94
5.98 2.37 1.95
5.98 2.51 1.97
5.98 2.65 1.99
5.99 2.80 2.00
5.92 2.91 2.00
5.99 3.10 2.05
5.99 3.25 2.07
5.99 3.41 2.09
5.99 3.57 2.12
5.96 3.72 2.13
5.94 3.87 2.15
5.94 4.04 2.18
6.14 4.95 2.39
6.04 5.07 2.39
5.94 5.19 2.39
5.84 5.31 2.39
5.73 5.42 2.39
5.62 5.54 2.39
5.51 5.65 2.39
5.39 5.76 2.39
5.28 5.87 2.39
5.16 5.97 2.39
5.04 6.07 2.39
4.92 6.17 2.39
4.79 6.27 2.39
4.66 6.37 2.39
4.54 6.46 2.39
4.41 6.55 2.39
4.27 6.63 2.39
4.14 6.72 2.39
4.00 6.80 2.39
3.87 6.88 2.39
3.73 6.95 2.39
3.59 7.03 2.39
3.45 7.10 2.39
3.30 7.17 2.39
3.16 7.23 2.39
3.01 7.29 2.39
2.87 7.35 2.39
2.72 7.40 2.39
2.57 7.46 2.39
2.42 7.51 2.39
2.27 7.55 2.39
2.21 7.92 2.49
2.05 7.96 2.49
1.89 8.00 2.49
1.72 8.04 2.49
1.56 8.07 2.49
1.40 8.10 2.49
1.24 8.12 2.49
1.07 8.15 2.49
0.91 8.16 2.49
0.75 8.18 2.49
0.58 8.19 2.49
0.42 8.20 2.49
0.25 8.21 2.49
0.09 8.21 2.49
-0.08 8.21 2.49
-0.24 8.20 2.49
-0.40 8.19 2.49
-0.57 8.18 2.49
-0.73 8.17 2.49
-0.90 8.15 2.49
-1.06 8.13 2.49
-1.22 8.10 2.49
-1.38 8.08 2.49
-1.54 8.04 2.49
-1.71 8.01 2.49
-1.87 7.97 2.49
-2.02 7.93 2.49
-2.18 7.89 2.49
-2.34 7.84 2.49
-2.50 7.79 2.49
-2.65 7.74 2.49
-2.80 7.68 2.49
-2.96 7.62 2.49
-3.11 7.56 2.49
-3.26 7.49 2.49
-3.41 7.42 2.49
-3.55 7.35 2.49
-3.70 7.27 2.49
-3.84 7.20 2.49
-3.99 7.12 2.49
-4.13 7.03 2.49
-4.27 6.95 2.49
-4.40 6.86 2.49
-4.54 6.77 2.49
-4.67 6.67 2.49
-4.80 6.57 2.49
-4.93 6.47 2.49
-5.06 6.37 2.49
-5.19 6.27 2.49
-5.31 6.16 2.49
-5.43 6.05 2.49
-5.55 5.94 2.49
-5.67 5.82 2.49
-5.78 5.71 2.49
-5.82 5.52 2.46
-5.83 5.31 2.42
-5.85 5.12 2.39
-5.95 5.00 2.39
-6.05 4.88 2.39
-6.15 4.76 2.39
-6.24 4.63 2.39
-6.33 4.50 2.39
-6.42 4.38 2.39
-6.50 4.24 2.39
-6.58 4.11 2.39
-6.66 3.98 2.39
-6.74 3.84 2.39
-6.81 3.70 2.39
-6.88 3.57 2.39
-6.95 3.43 2.39
-6.10 2.86 2.08
-6.21 2.76 2.10
-7.14 3.00 2.39
-7.19 2.85 2.39
-7.25 2.71 2.39
-7.30 2.56 2.39
-7.35 2.41 2.39
-7.39 2.27 2.39
-7.43 2.12 2.39
-7.47 1.97 2.39
-7.51 1.81 2.39
-7.54 1.66 2.39
-7.57 1.51 2.39
-7.60 1.36 2.39
-7.62 1.20 2.39
-7.64 1.05 2.39
-7.66 0.90 2.39
-7.67 0.74 2.39
-7.69 0.59 2.39
-7.69 0.43 2.39
-7.70 0.28 2.39
-7.70 0.12 2.39
-7.70 -0.03 2.39
-7.55 -0.18 2.34
-7.52 -0.33 2.34
-7.64 -0.49 2.38
-7.67 -0.65 2.39
-7.65 -0.80 2.39
-7.63 -0.95 2.39
-7.61 -1.11 2.39
-7.58 -1.26 2.39
-7.55 -1.41 2.39
-7.52 -1.56 2.39
-7.49 -1.71 2.39
-7.45 -1.86 2.39
-7.41 -2.01 2.39
-7.37 -2.16 2.39
-7.32 -2.31 2.39
-7.27 -2.45 2.39
-7.22 -2.60 2.39
-7.16 -2.74 2.39
-7.11 -2.89 2.39
-7.05 -3.03 2.39
-6.98 -3.17 2.39
-6.92 -3.31 2.39
-6.85 -3.45 2.39
-6.78 -3.58 2.39
-6.70 -3.72 2.39
-6.63 -3.85 2.39
-6.55 -3.98 2.39
-6.46 -4.11 2.39
-6.38 -4.24 2.39
-6.29 -4.37 2.39
-6.20 -4.49 2.39
-6.12 -4.63 2.39
-6.02 -4.74 2.39
-5.94 -4.88 2.40
-5.94 -5.07 2.44
-5.94 -5.29 2.48
-5.86 -5.43 2.49
-5.75 -5.55 2.49
-5.63 -5.66 2.49
-5.52 -5.77 2.49
-5.40 -5.88 2.49
-5.28 -5.99 2.49
-5.16 -6.09 2.49
-5.04 -6.20 2.49
-4.91 -6.30 2.49
-4.78 -6.39 2.49
-4.65 -6.49 2.49
-4.52 -6.58 2.49
-4.39 -6.67 2.49
-4.25 -6.76 2.49
-4.12 -6.84 2.49
-3.98 -6.92 2.49
-3.84 -7.00 2.49
-3.70 -7.08 2.49
-3.56 -7.15 2.49
-3.41 -7.22 2.49
-3.27 -7.29 2.49
-3.12 -7.35 2.49
-2.97 -7.42 2.49
-2.82 -7.47 2.49
-2.67 -7.53 2.49
-2.52 -7.58 2.49
-2.37 -7.63 2.49
-2.21 -7.68 2.49
-2.06 -7.72 2.49
-1.90 -7.76 2.49
-1.75 -7.80 2.49
-1.59 -7.84 2.49
-1.43 -7.87 2.49
-1.27 -7.90 2.49
-1.12 -7.92 2.49
-0.96 -7.94 2.49
-0.80 -7.96 2.49
-0.64 -7.98 2.49
-0.48 -7.99 2.49
-0.32 -8.00 2.49
-0.15 -8.01 2.49
0.01 -7.42 2.49
0.16 -7.42 2.49
0.30 -7.41 2.49
0.45 -7.41 2.49
0.60 -7.40 2.49
0.75 -7.38 2.49
0.90 -7.37 2.49
1.05 -7.35 2.49
1.20 -7.33 2.49
1.34 -7.31 2.49
1.49 -7.28 2.49
1.64 -7.25 2.49
1.78 -7.22 2.49
1.93 -7.18 2.49
2.07 -7.14 2.49
2.12 -6.81 2.39
2.26 -6.77 2.39
2.40 -6.72 2.39
2.53 -6.67 2.39
2.66 -6.62 2.39
2.80 -6.57 2.39
2.93 -6.51 2.39
3.06 -6.45 2.39
3.19 -6.39 2.39
3.32 -6.33 2.39
3.45 -6.26 2.39
3.57 -6.19 2.39
3.70 -6.12 2.39
3.82 -6.05 2.39
3.94 -5.97 2.39
4.06 -5.89 2.39
4.18 -5.81 2.39
4.30 -5.73 2.39
4.41 -5.64 2.39
4.53 -5.55 2.39
4.64 -5.46 2.39
4.75 -5.37 2.39
4.86 -5.28 2.39
4.96 -5.18 2.39
5.07 -5.08 2.39
5.17 -4.98 2.39
5.27 -4.88 2.39
5.37 -4.77 2.39
5.47 -4.66 2.39
5.56 -4.55 2.39
5.65 -4.44 2.39
5.74 -4.33 2.39
5.83 -4.21 2.39
5.91 -4.10 2.39
6.00 -3.98 2.39
6.08 -3.86 2.39
5.87 -3.10 2.20
5.87 -2.95 2.18
5.87 -2.80 2.16
5.88 -2.66 2.14
5.90 -2.53 2.13
5.93 -2.40 2.12
5.93 -2.27 2.10
5.93 -2.13 2.09
5.94 -2.00 2.07
5.94 -1.87 2.06
5.94 -1.74 2.05
5.94 -1.61 2.03
5.94 -1.48 2.02
5.94 -1.36 2.01
5.94 -1.23 2.01
5.88 -1.10 1.98
5.93 -0.98 1.98
5.95 -0.86 1.98
5.95 -0.74 1.98
5.95 -0.62 1.97
5.95 -0.50 1.97
5.95 -0.38 1.97
5.95 -0.26 1.96
5.96 -0.14 1.96
5.96 -0.02 1.96
5.96 0.10 1.96
5.96 0.22 1.96
5.96 0.34 1.97
5.96 0.46 1.97
5.96 0.58 1.97
5.96 0.70 1.98
5.97 0.82 1.98
5.97 0.94 1.99
5.97 1.07 1.99
5.97 1.19 2.00
5.97 1.31 2.01
5.97 1.44 2.02
5.97 1.57 2.03
5.97 1.70 2.04
5.98 1.83 2.05
5.98 1.96 2.07
5.98 2.09 2.08
5.98 2.23 2.10
5.98 2.37 2.11
5.96 2.50 2.12
5.95 2.64 2.13
5.93 2.77 2.15
5.92 2.91 2.16
5.93 3.07 2.19
6.18 3.86 2.39
6.11 3.98 2.39
6.03 4.10 2.39
5.94 4.22 2.39
5.86 4.34 2.39
5.77 4.46 2.39
5.68 4.57 2.39
5.59 4.69 2.39
5.49 4.80 2.39
5.40 4.91 2.39
5.30 5.01 2.39
5.20 5.12 2.39
5.09 5.22 2.39
4.99 5.32 2.39
4.88 5.42 2.39
4.77 5.52 2.39
4.66 5.62 2.39
4.54 5.71 2.39
4.43 5.80 2.39
4.31 5.89 2.39
4.19 5.97 2.39
4.07 6.05 2.39
3.95 6.13 2.39
3.83 6.21 2.39
3.70 6.29 2.39
3.57 6.36 2.39
3.45 6.43 2.39
3.32 6.50 2.39
3.19 6.56 2.39
3.05 6.62 2.39
2.92 6.68 2.39
2.78 6.74 2.39
2.65 6.79 2.39
2.51 6.84 2.39
2.37 6.89 2.39
2.25 6.98 2.40
2.19 7.28 2.49
2.04 7.32 2.49
1.89 7.36 2.49
1.74 7.40 2.49
1.59 7.43 2.49
1.45 7.46 2.49
1.30 7.49 2.49
1.14 7.51 2.49
0.99 7.53 2.49
0.84 7.55 2.49
0.69 7.56 2.49
0.54 7.57 2.49
0.39 7.58 2.49
0.23 7.59 2.49
0.08 7.59 2.49
-0.07 7.59 2.49
-0.22 7.58 2.49
-0.37 7.58 2.49
-0.53 7.57 2.49
-0.68 7.55 2.49
-0.83 7.54 2.49
-0.98 7.52 2.49
-1.13 7.49 2.49
-1.28 7.47 2.49
-1.43 7.44 2.49
-1.58 7.41 2.49
-1.72 7.37 2.49
-1.87 7.33 2.49
-2.02 7.29 2.49
-2.16 7.25 2.49
-2.31 7.20 2.49
-2.45 7.15 2.49
-2.59 7.10 2.49
-2.73 7.05 2.49
-2.87 6.99 2.49
-3.01 6.93 2.49
-3.15 6.86 2.49
-3.29 6.80 2.49
-3.42 6.73 2.49
-3.56 6.66 2.49
-3.69 6.58 2.49
-3.82 6.51 2.49
-3.95 6.43 2.49
-4.07 6.34 2.49
-4.20 6.26 2.49
-4.32 6.17 2.49
-4.44 6.08 2.49
-4.56 5.99 2.49
-4.68 5.90 2.49
-4.80 5.80 2.49
-4.91 5.70 2.49
-5.02 5.60 2.49
-5.13 5.50 2.49
-5.24 5.39 2.49
-5.35 5.28 2.49
-5.45 5.17 2.49
-5.55 5.06 2.49
-5.65 4.95 2.49
-5.75 4.83 2.49
-5.83 4.71 2.49
-5.83 4.52 2.45
-5.84 4.34 2.42
-5.86 4.17 2.39
-5.94 4.05 2.39
-6.03 3.94 2.40
-6.09 3.81 2.39
-6.16 3.68 2.39
-6.23 3.56 2.39
-6.30 3.43 2.39
-6.37 3.30 2.39
-6.43 3.17 2.39
-6.10 2.86 2.25
-6.20 2.76 2.26
-6.61 2.78 2.39
-6.66 2.64 2.39
-6.71 2.51 2.39
-6.76 2.37 2.39
-6.80 2.23 2.39
-6.84 2.10 2.39
-6.88 1.96 2.39
-6.92 1.82 2.39
-6.95 1.68 2.39
-6.98 1.54 2.39
-7.01 1.40 2.39
-7.03 1.26 2.39
-7.05 1.12 2.39
-7.07 0.97 2.39
-7.09 0.83 2.39
-7.10 0.69 2.39
-7.11 0.55 2.39
-7.12 0.40 2.39
-7.13 0.26 2.39
-7.13 0.12 2.39
-7.13 -0.03 2.39
-7.13 -0.17 2.39
-7.12 -0.31 2.39
-7.11 -0.46 2.39
-7.10 -0.60 2.39
-7.08 -0.74 2.39
-7.06 -0.88 2.39
-7.04 -1.03 2.39
-7.02 -1.17 2.39
-6.99 -1.31 2.39
-6.97 -1.45 2.39
-6.93 -1.59 2.39
-6.90 -1.72 2.39
-6.86 -1.86 2.39
-6.82 -2.00 2.39
-6.78 -2.14 2.39
-6.73 -2.27 2.39
-6.69 -2.41 2.39
-6.63 -2.54 2.39
-6.58 -2.67 2.39
-6.53 -2.80 2.39
-6.47 -2.93 2.39
-6.41 -3.06 2.39
-6.34 -3.19 2.39
-6.28 -3.32 2.39
-6.21 -3.44 2.39
-6.14 -3.57 2.39
-6.06 -3.69 2.39
-5.99 -3.81 2.39
-5.93 -3.94 2.40
-5.93 -4.11 2.43
-5.93 -4.29 2.47
-5.90 -4.46 2.49
-5.81 -4.58 2.49
-5.72 -4.69 2.49
-5.62 -4.81 2.49
-5.52 -4.92 2.49
-5.42 -5.03 2.49
-5.32 -5.14 2.49
-5.22 -5.24 2.49
-5.11 -5.35 2.49
-5.00 -5.45 2.49
-4.89 -5.55 2.49
-4.78 -5.64 2.49
-4.66 -5.74 2.49
-4.55 -5.83 2.49
-4.43 -5.92 2.49
-4.31 -6.01 2.49
-4.19 -6.09 2.49
-4.07 -6.18 2.49
-3.94 -6.26 2.49
-3.81 -6.34 2.49
-3.69 -6.41 2.49
-3.56 -6.48 2.49
-3.43 -6.55 2.49
-3.29 -6.62 2.49
-3.16 -6.69 2.49
-3.02 -6.75 2.49
-2.89 -6.81 2.49
-2.75 -6.87 2.49
-2.61 -6.92 2.49
-2.47 -6.97 2.49
-2.33 -7.02 2.49
-2.19 -7.07 2.49
-2.05 -7.11 2.49
-1.91 -7.15 2.49
-1.76 -7.19 2.49
-1.62 -7.23 2.49
-1.47 -7.26 2.49
-1.33 -7.29 2.49
-1.18 -7.31 2.49
-1.03 -7.34 2.49
-0.88 -7.36 2.49
-0.74 -7.37 2.49
-0.59 -7.39 2.49
-0.44 -7.40 2.49
-0.29 -7.41 2.49
-0.14 -7.41 2.49
0.01 -6.90 2.49
0.15 -6.90 2.49
0.28 -6.89 2.49
0.42 -6.89 2.49
0.56 -6.88 2.49
0.70 -6.87 2.49
0.84 -6.85 2.49
0.97 -6.84 2.49
1.11 -6.82 2.49
1.25 -6.80 2.49
1.39 -6.77 2.49
1.52 -6.74 2.49
1.66 -6.71 2.49
1.79 -6.68 2.49
1.93 -6.64 2.49
2.06 -6.60 2.49
2.11 -6.31 2.40
2.23 -6.25 2.39
2.35 -6.20 2.39
2.48 -6.16 2.39
2.60 -6.11 2.39
2.73 -6.06 2.39
2.85 -6.00 2.39
2.97 -5.94 2.39
3.09 -5.88 2.39
3.21 -5.82 2.39
3.32 -5.76 2.39
3.44 -5.69 2.39
3.55 -5.62 2.39
3.67 -5.55 2.39
3.78 -5.48 2.39
3.89 -5.40 2.39
4.00 -5.33 2.39
4.10 -5.25 2.39
4.21 -5.16 2.39
4.31 -5.08 2.39
4.42 -4.99 2.39
4.52 -4.90 2.39
4.62 -4.81 2.39
4.71 -4.72 2.39
4.81 -4.63 2.39
4.90 -4.53 2.39
4.99 -4.43 2.39
5.08 -4.33 2.39
5.17 -4.23 2.39
5.25 -4.13 2.39
5.34 -4.02 2.39
5.42 -3.92 2.39
5.50 -3.81 2.39
5.57 -3.70 2.39
5.65 -3.59 2.39
5.72 -3.47 2.39
5.79 -3.36 2.39
5.86 -3.24 2.39
5.93 -3.12 2.39
5.99 -3.01 2.39
6.05 -2.89 2.39
6.11 -2.76 2.39
5.92 -1.99 2.23
5.88 -1.85 2.19
5.88 -1.72 2.18
5.88 -1.59 2.17
5.88 -1.47 2.16
5.89 -1.34 2.15
5.89 -1.22 2.14
5.88 -1.10 2.13
5.91 -0.98 2.13
5.92 -0.86 2.13
5.93 -0.74 2.12
5.94 -0.62 2.12
5.94 -0.50 2.12
5.95 -0.38 2.12
5.95 -0.26 2.11
5.96 -0.14 2.11
5.96 -0.02 2.11
5.96 0.10 2.11
5.96 0.22 2.11
5.96 0.34 2.12
5.96 0.46 2.12
5.95 0.58 2.12
5.95 0.70 2.12
5.94 0.82 2.12
5.94 0.94 2.13
5.93 1.06 2.13
5.92 1.18 2.14
5.92 1.30 2.14
5.92 1.43 2.15
5.92 1.55 2.16
5.92 1.68 2.18
5.92 1.81 2.19
5.94 1.95 2.21
6.18 2.74 2.39
6.13 2.87 2.39
5.92 2.91 2.33
6.01 3.11 2.39
5.95 3.23 2.39
5.88 3.35 2.39
5.81 3.47 2.39
5.74 3.58 2.39
5.67 3.70 2.39
5.60 3.81 2.39
5.52 3.92 2.39
5.44 4.03 2.39
5.36 4.14 2.39
5.28 4.25 2.39
5.19 4.35 2.39
5.10 4.46 2.39
5.01 4.56 2.39
4.92 4.66 2.39
4.83 4.76 2.39
4.73 4.85 2.39
4.63 4.95 2.39
4.53 5.04 2.39
4.43 5.13 2.39
4.33 5.22 2.39
4.22 5.30 2.39
4.11 5.38 2.39
4.01 5.47 2.39
3.89 5.55 2.39
3.78 5.62 2.39
3.67 5.70 2.39
3.55 5.77 2.39
3.44 5.84 2.39
3.32 5.91 2.39
3.20 5.97 2.39
3.08 6.03 2.39
2.96 6.09 2.39
2.84 6.15 2.39
2.71 6.21 2.39
2.59 6.26 2.39
2.46 6.31 2.39
2.33 6.36 2.39
2.24 6.50 2.43
2.17 6.72 2.49
2.03 6.76 2.49
1.89 6.80 2.49
1.76 6.84 2.49
1.62 6.87 2.49
1.48 6.90 2.49
1.34 6.93 2.49
1.20 6.95 2.49
1.06 6.98 2.49
0.92 7.00 2.49
0.78 7.01 2.49
0.64 7.02 2.49
0.50 7.04 2.49
0.36 7.04 2.49
0.22 7.05 2.49
0.08 7.05 2.49
-0.06 7.05 2.49
-0.21 7.04 2.49
-0.35 7.04 2.49
-0.49 7.03 2.49
-0.63 7.02 2.49
-0.77 7.00 2.49
-0.91 6.98 2.49
-1.05 6.96 2.49
-1.19 6.94 2.49
-1.33 6.91 2.49
-1.46 6.88 2.49
-1.60 6.85 2.49
-1.74 6.81 2.49
-1.87 6.78 2.49
-2.01 6.74 2.49
-2.14 6.69 2.49
-2.28 6.65 2.49
-2.41 6.60 2.49
-2.54 6.55 2.49
-2.67 6.49 2.49
-2.80 6.44 2.49
-2.93 6.38 2.49
-3.05 6.32 2.49
-3.18 6.25 2.49
-3.30 6.19 2.49
-3.43 6.12 2.49
-3.55 6.05 2.49
-3.67 5.97 2.49
-3.78 5.90 2.49
-3.90 5.82 2.49
-4.02 5.74 2.49
-4.13 5.65 2.49
-4.24 5.57 2.49
-4.35 5.48 2.49
-4.46 5.39 2.49
-4.56 5.30 2.49
-4.67 5.20 2.49
-4.77 5.11 2.49
-4.87 5.01 2.49
-4.97 4.91 2.49
-5.06 4.81 2.49
-5.16 4.70 2.49
-5.25 4.60 2.49
-5.34 4.49 2.49
-5.43 4.38 2.49
-5.51 4.27 2.49
-5.60 4.16 2.49
-5.68 4.04 2.49
-5.76 3.93 2.49
-5.83 3.81 2.49
-5.84 3.65 2.47
-5.84 3.49 2.44
-5.85 3.34 2.41
-5.86 3.19 2.39
-5.92 3.07 2.39
-5.98 2.95 2.39
-6.04 2.83 2.39
-6.09 2.71 2.39
-6.14 2.58 2.39
-6.19 2.46 2.39
-6.24 2.33 2.39
-6.28 2.21 2.39
-6.32 2.08 2.39
-6.36 1.95 2.39
-6.40 1.82 2.39
-6.43 1.69 2.39
-6.46 1.56 2.39
-6.49 1.43 2.39
-6.52 1.30 2.39
-6.54 1.17 2.39
-6.56 1.04 2.39
-6.58 0.91 2.39
-6.59 0.77 2.39
-6.61 0.64 2.39
-6.62 0.51 2.39
-6.62 0.37 2.39
-6.63 0.24 2.39
-6.63 0.11 2.39
-6.63 -0.03 2.39
-6.63 -0.16 2.39
-6.62 -0.29 2.39
-6.61 -0.42 2.39
-6.60 -0.56 2.39
-6.59 -0.69 2.39
-6.57 -0.82 2.39
-6.55 -0.95 2.39
-6.53 -1.08 2.39
-6.51 -1.21 2.39
-6.48 -1.35 2.39
-6.45 -1.47 2.39
-6.42 -1.60 2.39
-6.38 -1.73 2.39
-6.35 -1.86 2.39
-6.31 -1.99 2.39
-6.26 -2.11 2.39
-6.22 -2.24 2.39
-6.17 -2.36 2.39
-6.12 -2.49 2.39
-6.07 -2.61 2.39
-6.02 -2.73 2.39
-5.96 -2.85 2.39
-5.92 -2.98 2.40
-5.92 -3.13 2.42
-5.92 -3.28 2.45
-5.92 -3.44 2.48
-5.88 -3.58 2.49
-5.81 -3.70 2.49
-5.73 -3.81 2.49
-5.65 -3.92 2.49
-5.57 -4.04 2.49
-5.49 -4.15 2.49
-5.41 -4.26 2.49
-5.32 -4.37 2.49
-5.23 -4.47 2.49
-5.14 -4.58 2.49
-5.05 -4.68 2.49
-4.95 -4.78 2.49
-4.85 -4.88 2.49
-4.75 -4.97 2.49
-4.65 -5.07 2.49
-4.55 -5.16 2.49
-4.45 -5.25 2.49
-4.34 -5.34 2.49
-4.23 -5.42 2.49
-4.12 -5.51 2.49
-4.01 -5.59 2.49
-3.90 -5.67 2.49
-3.78 -5.75 2.49
-3.67 -5.82 2.49
-3.55 -5.89 2.49
-3.43 -5.96 2.49
-3.31 -6.03 2.49
-3.19 -6.10 2.49
-3.06 -6.16 2.49
-2.94 -6.22 2.49
-2.81 -6.28 2.49
-2.69 -6.34 2.49
-2.56 -6.39 2.49
-2.43 -6.44 2.49
-2.30 -6.49 2.49
-2.17 -6.53 2.49
-2.04 -6.58 2.49
-1.91 -6.62 2.49
-1.77 -6.65 2.49
-1.64 -6.69 2.49
-1.50 -6.72 2.49
-1.37 -6.75 2.49
-1.23 -6.78 2.49
-1.10 -6.80 2.49
-0.96 -6.82 2.49
-0.82 -6.84 2.49
-0.69 -6.86 2.49
-0.55 -6.87 2.49
-0.41 -6.88 2.49
-0.27 -6.89 2.49
-0.13 -6.90 2.49
0.01 -6.44 2.49
0.14 -6.44 2.49
0.27 -6.44 2.49
0.39 -6.43 2.49
0.52 -6.42 2.49
0.65 -6.41 2.49
0.78 -6.40 2.49
0.91 -6.38 2.49
1.04 -6.36 2.49
1.17 -6.34 2.49
1.29 -6.32 2.49
1.42 -6.29 2.49
1.55 -6.27 2.49
1.67 -6.23 2.49
1.80 -6.20 2.49
1.92 -6.16 2.49
2.05 -6.13 2.49
2.11 -5.91 2.42
2.20 -5.79 2.39
2.32 -5.75 2.39
2.43 -5.70 2.39
2.54 -5.65 2.39
2.66 -5.60 2.39
2.77 -5.55 2.39
2.88 -5.49 2.39
2.99 -5.43 2.39
3.10 -5.38 2.39
3.21 -5.31 2.39
3.32 -5.25 2.39
3.42 -5.18 2.39
3.53 -5.11 2.39
3.63 -5.04 2.39
3.73 -4.97 2.39
3.83 -4.90 2.39
3.93 -4.82 2.39
4.03 -4.74 2.39
4.12 -4.66 2.39
4.22 -4.58 2.39
4.31 -4.49 2.39
4.40 -4.41 2.39
4.49 -4.32 2.39
4.57 -4.23 2.39
4.66 -4.14 2.39
4.74 -4.04 2.39
4.82 -3.95 2.39
4.90 -3.85 2.39
4.98 -3.75 2.39
5.06 -3.65 2.39
5.13 -3.55 2.39
5.20 -3.45 2.39
5.27 -3.35 2.39
5.34 -3.24 2.39
5.40 -3.13 2.39
5.47 -3.02 2.39
5.53 -2.91 2.39
5.59 -2.80 2.39
5.64 -2.69 2.39
5.70 -2.58 2.39
5.75 -2.46 2.39
5.80 -2.35 2.39
5.85 -2.23 2.39
5.89 -2.12 2.39
5.94 -2.00 2.39
5.98 -1.88 2.39
6.01 -1.76 2.39
6.05 -1.64 2.39
6.08 -1.52 2.39
6.11 -1.39 2.39
6.14 -1.27 2.39
5.88 -1.10 2.28
5.93 -0.98 2.29
6.18 1.23 2.39
6.15 1.36 2.39
6.12 1.48 2.39
6.09 1.60 2.39
6.06 1.72 2.39
6.03 1.84 2.39
5.99 1.97 2.39
5.95 2.09 2.39
5.91 2.20 2.39
5.86 2.32 2.39
5.82 2.44 2.39
5.77 2.56 2.39
5.72 2.67 2.39
5.66 2.79 2.39
5.61 2.90 2.39
5.55 3.01 2.39
5.49 3.12 2.39
5.42 3.23 2.39
5.36 3.34 2.39
5.29 3.45 2.39
5.22 3.55 2.39
5.15 3.66 2.39
5.07 3.76 2.39
5.00 3.86 2.39
4.92 3.96 2.39
4.84 4.06 2.39
4.76 4.16 2.39
4.67 4.25 2.39
4.59 4.34 2.39
4.50 4.43 2.39
4.41 4.52 2.39
4.32 4.61 2.39
4.23 4.70 2.39
4.13 4.78 2.39
4.03 4.86 2.39
3.94 4.94 2.39
3.84 5.02 2.39
3.73 5.10 2.39
3.63 5.17 2.39
3.53 5.24 2.39
