ply
format ascii 1.0
element vertex 2900
property float32 x
property float32 y
property float32 z
end_header
-14.60 -10.59 1.28
-14.59 -11.04 1.30
-14.58 -11.50 1.32
-14.54 -11.95 1.33
-14.46 -12.38 1.35
-13.10 -11.68 1.24
-14.49 -13.45 1.39
-14.54 -14.05 1.42
-14.53 -14.61 1.45
-13.11 -13.72 1.33
-14.60 -15.91 1.51
-14.59 -16.55 1.55
-14.49 -17.12 1.57
-17.59 -21.65 1.95
-16.87 -21.64 1.92
-16.17 -21.63 1.88
-15.47 -21.58 1.85
-14.84 -21.61 1.82
-14.21 -21.59 1.80
-13.59 -21.58 1.77
-12.98 -21.57 1.75
-12.38 -21.53 1.72
-11.82 -21.56 1.70
-11.24 -21.51 1.68
-10.71 -21.54 1.66
-10.17 -21.53 1.64
-9.64 -21.52 1.62
-9.13 -21.51 1.61
-10.37 -25.88 1.92
-10.28 -27.21 2.00
-11.73 -33.04 2.41
-11.07 -33.30 2.41
-6.89 -22.19 1.59
-6.44 -22.31 1.59
-9.01 -33.75 2.39
-8.33 -33.95 2.39
-7.66 -34.13 2.39
-6.97 -34.30 2.39
-6.29 -34.46 2.39
-5.60 -34.60 2.39
-5.09 -36.01 2.48
-4.39 -36.33 2.49
-3.66 -36.43 2.49
-2.93 -36.52 2.49
-2.20 -36.58 2.49
-1.47 -36.63 2.49
-0.73 -36.67 2.49
0.00 -27.52 2.49
0.56 -27.52 2.49
1.11 -27.51 2.49
1.66 -27.49 2.49
2.21 -27.45 2.49
2.76 -27.40 2.49
3.17 -26.21 2.39
3.70 -26.15 2.39
4.22 -26.07 2.39
4.75 -25.98 2.39
5.27 -25.88 2.39
5.78 -25.77 2.39
6.30 -25.65 2.39
6.51 -22.54 2.12
6.50 -20.93 1.98
6.47 -19.46 1.86
6.45 -18.17 1.75
6.43 -17.03 1.65
6.42 -16.00 1.56
6.38 -15.03 1.48
6.39 -14.25 1.42
6.37 -13.49 1.35
6.36 -12.79 1.30
6.35 -12.15 1.24
6.34 -11.56 1.20
6.33 -11.02 1.15
6.32 -10.51 1.11
6.32 -10.03 1.08
6.31 -9.59 1.04
6.30 -9.17 1.01
6.30 -8.78 0.98
6.29 -8.41 0.96
6.28 -8.06 0.93
6.28 -7.73 0.91
6.27 -7.41 0.89
6.22 -7.05 0.86
6.26 -6.83 0.85
6.26 -6.55 0.83
6.25 -6.29 0.81
6.25 -6.04 0.80
6.25 -5.80 0.78
6.24 -5.56 0.77
6.24 -5.34 0.75
6.23 -5.12 0.74
6.23 -4.91 0.73
6.23 -4.71 0.72
6.22 -4.52 0.71
6.22 -4.33 0.70
6.22 -4.14 0.69
6.22 -3.96 0.68
6.21 -3.79 0.67
6.21 -3.62 0.66
6.21 -3.45 0.66
6.20 -3.29 0.65
6.14 -3.09 0.64
6.20 -2.97 0.64
6.20 -2.82 0.63
6.19 -2.67 0.63
6.19 -2.52 0.62
6.19 -2.38 0.62
6.19 -2.24 0.61
6.18 -2.10 0.61
6.18 -1.96 0.61
6.18 -1.82 0.60
6.18 -1.69 0.60
6.18 -1.55 0.60
6.17 -1.42 0.59
6.17 -1.29 0.59
6.17 -1.16 0.59
6.17 -1.03 0.59
6.16 -0.91 0.59
6.16 -0.78 0.59
6.16 -0.65 0.58
6.16 -0.53 0.58
6.16 -0.41 0.58
6.15 -0.28 0.58
6.15 -0.16 0.58
6.15 -0.03 0.58
6.15 0.09 0.58
6.15 0.21 0.58
6.14 0.34 0.59
6.14 0.46 0.59
6.14 0.58 0.59
6.14 0.71 0.59
6.08 0.83 0.59
6.10 0.95 0.59
6.13 1.08 0.60
6.13 1.21 0.60
6.13 1.34 0.60
6.12 1.47 0.61
6.12 1.60 0.61
6.12 1.73 0.61
6.12 1.86 0.62
6.12 2.00 0.62
6.11 2.13 0.63
6.11 2.27 0.63
6.11 2.41 0.64
6.11 2.55 0.64
6.10 2.70 0.65
6.10 2.84 0.65
6.10 2.99 0.66
6.10 3.15 0.67
2.89 1.57 0.32
2.84 1.61 0.32
6.09 3.62 0.69
6.09 3.79 0.70
6.08 3.96 0.71
6.08 4.13 0.72
6.08 4.31 0.73
6.07 4.49 0.74
6.07 4.68 0.75
6.01 4.83 0.76
6.06 5.08 0.78
6.06 5.29 0.79
6.06 5.50 0.81
6.05 5.72 0.82
6.05 5.95 0.84
6.05 6.19 0.86
6.04 6.44 0.88
6.04 6.70 0.90
6.03 6.98 0.92
6.03 7.26 0.94
6.02 7.56 0.96
6.02 7.87 0.99
6.01 8.20 1.01
6.01 8.55 1.04
5.94 8.83 1.06
5.99 9.30 1.11
5.99 9.71 1.14
5.98 10.15 1.18
5.97 10.62 1.22
5.96 11.12 1.26
5.95 11.66 1.31
5.94 12.24 1.37
5.90 12.80 1.42
5.92 13.56 1.49
5.91 14.31 1.56
5.90 15.13 1.63
5.88 16.03 1.72
5.80 16.85 1.79
5.85 18.16 1.92
5.83 19.43 2.04
5.23 18.82 1.97
4.83 18.82 1.96
5.14 21.85 2.27
4.89 22.83 2.36
4.49 23.24 2.39
4.02 23.31 2.39
3.55 23.38 2.39
3.08 23.44 2.39
2.61 23.49 2.39
2.13 23.53 2.39
1.73 24.57 2.49
1.24 24.60 2.49
0.74 24.61 2.49
0.25 24.61 2.49
-0.24 24.61 2.49
-0.74 24.59 2.49
-1.23 24.57 2.49
-1.73 24.54 2.49
-2.22 24.49 2.49
-2.71 24.44 2.49
-3.20 24.38 2.49
-3.69 24.31 2.49
-4.17 24.23 2.49
-4.66 24.14 2.49
-5.14 24.04 2.49
-5.63 23.93 2.49
-6.09 23.74 2.49
-6.31 22.71 2.39
-6.77 22.58 2.39
-7.22 22.44 2.39
-7.67 22.30 2.39
-8.12 22.14 2.39
-8.56 21.98 2.39
-9.00 21.81 2.39
-9.44 21.63 2.39
-9.88 21.44 2.39
-10.38 21.38 2.41
-10.81 21.17 2.41
-10.64 19.85 2.28
-11.65 20.74 2.41
-12.07 20.50 2.41
-12.49 20.27 2.41
-12.89 20.01 2.41
-13.29 19.74 2.40
-13.68 19.47 2.40
-14.06 19.18 2.40
-14.44 18.89 2.40
-14.77 18.54 2.39
-15.06 18.14 2.38
-15.34 17.74 2.36
-15.61 17.34 2.35
-15.88 16.94 2.34
-16.14 16.54 2.33
-16.40 16.15 2.31
-16.66 15.75 2.30
-16.93 15.38 2.30
-17.19 15.00 2.29
-17.45 14.61 2.28
-17.70 14.23 2.28
-17.94 13.84 2.27
-18.17 13.45 2.26
-18.40 13.05 2.26
-9.33 6.34 1.13
-9.57 6.23 1.14
-9.94 6.19 1.17
-10.45 6.21 1.21
-10.87 6.17 1.24
-11.44 6.20 1.29
-11.93 6.15 1.33
-12.59 6.18 1.39
-13.23 6.17 1.45
-13.85 6.12 1.50
-14.68 6.14 1.58
-15.52 6.13 1.65
-16.45 6.11 1.74
-17.47 6.10 1.83
-18.60 6.08 1.93
-19.78 6.02 2.04
-21.33 6.03 2.18
-14.89 3.89 1.51
-14.88 3.57 1.51
-14.88 3.25 1.50
-14.96 2.96 1.50
-14.96 2.65 1.49
-14.95 2.34 1.48
-14.95 2.03 1.48
-14.94 1.72 1.47
-14.85 1.41 1.46
-14.84 1.11 1.45
-14.84 0.81 1.45
-14.83 0.51 1.44
-14.83 0.22 1.44
-14.76 -0.08 1.43
-14.73 -0.38 1.43
-14.71 -0.67 1.43
-14.70 -0.97 1.43
-14.70 -1.26 1.43
-14.73 -1.57 1.43
-14.73 -1.87 1.43
-13.31 -1.96 1.30
-14.78 -2.48 1.44
-14.78 -2.78 1.45
-14.77 -3.09 1.45
-14.86 -3.42 1.46
-14.85 -3.74 1.47
-14.85 -4.05 1.47
-14.84 -4.37 1.48
-14.83 -4.70 1.49
-14.74 -5.00 1.48
-14.74 -5.33 1.49
-14.73 -5.66 1.50
-16.11 -6.56 1.65
-16.07 -6.93 1.66
-17.37 -7.90 1.81
-16.45 -7.89 1.73
-15.61 -7.88 1.65
-14.83 -7.86 1.59
-14.64 -8.14 1.58
-14.63 -8.52 1.60
-14.71 -8.97 1.62
-14.71 -9.38 1.64
-14.70 -9.79 1.66
-14.69 -10.22 1.68
-14.60 -10.59 1.69
-14.59 -11.04 1.71
-14.58 -11.50 1.74
-14.54 -11.95 1.76
-14.46 -12.38 1.78
-13.10 -11.68 1.64
-14.49 -13.45 1.84
-14.54 -14.05 1.88
-14.53 -14.62 1.92
-13.10 -13.72 1.76
-14.60 -15.91 2.00
-14.50 -16.46 2.03
-14.49 -17.13 2.08
-15.68 -19.30 2.30
-15.37 -19.72 2.31
-15.06 -20.15 2.32
-14.75 -20.57 2.34
-14.41 -20.97 2.35
-14.06 -21.37 2.36
-13.58 -21.58 2.35
-12.98 -21.57 2.32
-12.37 -21.53 2.28
-11.82 -21.56 2.26
-11.24 -21.51 2.23
-10.71 -21.54 2.21
-10.17 -21.53 2.18
-9.64 -21.52 2.16
-9.12 -21.51 2.14
-9.79 -24.44 2.41
-9.24 -24.48 2.39
-8.76 -24.68 2.39
-8.27 -24.86 2.39
-6.89 -22.20 2.12
-6.44 -22.33 2.12
-6.77 -25.36 2.39
-6.26 -25.50 2.39
-5.75 -25.64 2.39
-5.27 -25.90 2.40
-4.92 -26.99 2.49
-4.38 -27.09 2.49
-3.84 -27.19 2.49
-3.30 -27.27 2.49
-2.75 -27.34 2.49
-2.20 -27.40 2.49
-1.65 -27.45 2.49
-1.10 -27.48 2.49
-0.55 -27.51 2.49
0.00 -22.00 2.49
0.44 -22.00 2.49
0.89 -21.99 2.49
1.33 -21.97 2.49
1.77 -21.94 2.49
2.21 -21.90 2.49
2.65 -21.86 2.49
2.96 -20.90 2.39
3.38 -20.83 2.39
3.79 -20.76 2.39
4.21 -20.68 2.39
4.62 -20.59 2.39
5.03 -20.50 2.39
5.44 -20.39 2.39
5.85 -20.28 2.39
6.26 -20.15 2.39
6.66 -20.02 2.39
6.39 -18.00 2.17
6.43 -17.03 2.06
6.42 -16.00 1.96
6.38 -15.03 1.85
6.39 -14.25 1.77
6.37 -13.49 1.69
6.36 -12.79 1.62
6.35 -12.15 1.56
6.34 -11.56 1.50
6.33 -11.02 1.44
6.32 -10.51 1.39
6.32 -10.03 1.35
6.31 -9.59 1.31
6.30 -9.17 1.27
6.30 -8.78 1.23
6.29 -8.41 1.20
6.28 -8.06 1.16
6.28 -7.73 1.13
6.27 -7.41 1.11
6.22 -7.05 1.07
6.26 -6.83 1.06
6.26 -6.55 1.03
6.25 -6.29 1.01
6.25 -6.04 0.99
6.25 -5.80 0.97
6.24 -5.56 0.96
6.24 -5.34 0.94
6.23 -5.12 0.92
6.23 -4.92 0.91
6.23 -4.71 0.90
6.22 -4.52 0.88
6.22 -4.33 0.87
6.22 -4.14 0.86
6.22 -3.96 0.85
6.21 -3.79 0.84
6.21 -3.62 0.83
6.21 -3.45 0.82
6.20 -3.29 0.81
6.13 -3.09 0.79
6.20 -2.97 0.79
6.20 -2.82 0.79
6.19 -2.67 0.78
6.19 -2.52 0.77
6.19 -2.38 0.77
6.19 -2.24 0.76
6.18 -2.10 0.76
6.18 -1.96 0.75
6.18 -1.82 0.75
6.18 -1.69 0.74
6.18 -1.55 0.74
6.17 -1.42 0.74
6.17 -1.29 0.74
6.17 -1.16 0.73
6.17 -1.03 0.73
6.16 -0.91 0.73
6.16 -0.78 0.73
6.16 -0.66 0.73
6.16 -0.53 0.72
6.16 -0.41 0.72
6.15 -0.28 0.72
6.15 -0.16 0.72
6.15 -0.03 0.72
6.15 0.09 0.72
6.15 0.21 0.72
6.14 0.34 0.73
6.14 0.46 0.73
6.14 0.58 0.73
6.14 0.71 0.73
6.08 0.82 0.73
6.09 0.95 0.73
6.13 1.08 0.74
6.13 1.21 0.74
6.13 1.34 0.75
6.12 1.47 0.75
6.12 1.60 0.75
6.12 1.73 0.76
6.12 1.86 0.76
6.12 2.00 0.77
6.11 2.13 0.77
6.11 2.27 0.78
6.11 2.41 0.79
6.11 2.55 0.79
6.10 2.70 0.80
6.10 2.84 0.81
6.10 2.99 0.82
6.10 3.14 0.82
2.89 1.57 0.40
2.84 1.61 0.39
6.09 3.62 0.85
6.09 3.79 0.86
6.08 3.96 0.88
6.08 4.13 0.89
6.08 4.31 0.90
6.07 4.49 0.91
6.07 4.68 0.93
6.01 4.83 0.93
6.06 5.08 0.96
6.06 5.28 0.98
6.06 5.50 0.99
6.05 5.72 1.01
6.05 5.95 1.03
6.05 6.19 1.05
6.04 6.44 1.08
6.04 6.70 1.10
6.03 6.97 1.13
6.03 7.26 1.15
6.02 7.56 1.18
6.02 7.87 1.21
6.01 8.20 1.25
6.01 8.54 1.28
5.94 8.82 1.30
5.99 9.30 1.36
5.99 9.71 1.40
5.98 10.15 1.45
5.97 10.62 1.50
5.96 11.12 1.55
5.95 11.66 1.61
5.94 12.24 1.68
5.90 12.80 1.74
5.92 13.56 1.82
5.91 14.31 1.91
5.90 15.13 2.00
5.25 14.31 1.88
4.96 14.41 1.88
5.14 15.96 2.07
5.14 17.15 2.21
5.18 18.63 2.39
4.80 18.72 2.39
4.43 18.81 2.39
4.05 18.89 2.39
3.66 18.96 2.39
3.28 19.02 2.39
2.90 19.08 2.39
2.51 19.13 2.39
2.13 19.17 2.39
1.82 20.03 2.49
1.42 20.06 2.49
1.01 20.08 2.49
0.61 20.09 2.49
0.20 20.09 2.49
-0.20 20.09 2.49
-0.60 20.08 2.49
-1.01 20.06 2.49
-1.41 20.03 2.49
-1.81 20.00 2.49
-2.21 19.96 2.49
-2.61 19.91 2.49
-3.01 19.85 2.49
-3.41 19.78 2.49
-3.80 19.71 2.49
-4.20 19.63 2.49
-4.59 19.54 2.49
-4.99 19.45 2.49
-5.38 19.34 2.49
-5.76 19.23 2.49
-6.00 18.66 2.44
-6.26 18.20 2.39
-6.63 18.08 2.39
-6.99 17.94 2.39
-7.35 17.80 2.39
-7.71 17.65 2.39
-8.06 17.50 2.39
-8.41 17.34 2.39
-8.76 17.17 2.39
-9.11 16.99 2.39
-9.45 16.81 2.39
-9.79 16.62 2.39
-10.00 16.23 2.36
-9.99 15.51 2.29
-10.28 15.27 2.28
-10.60 15.08 2.28
-11.50 15.69 2.41
-11.82 15.46 2.41
-12.13 15.22 2.41
-12.44 14.98 2.41
-12.73 14.73 2.41
-13.02 14.46 2.40
-13.30 14.19 2.40
-13.58 13.91 2.40
-13.85 13.63 2.40
-14.12 13.35 2.40
-14.38 13.06 2.39
-14.61 12.74 2.39
-14.81 12.40 2.38
-15.01 12.06 2.37
-15.20 11.72 2.36
-15.38 11.38 2.35
-15.56 11.03 2.34
-9.33 6.34 1.38
-9.57 6.23 1.40
-9.94 6.19 1.44
-10.45 6.21 1.49
-10.87 6.17 1.53
-11.44 6.20 1.59
-11.93 6.15 1.64
-12.59 6.18 1.71
-13.23 6.17 1.78
-13.86 6.12 1.85
-14.68 6.14 1.94
-15.53 6.13 2.03
-16.45 6.11 2.14
-17.47 6.10 2.25
-17.67 5.77 2.26
-17.78 5.41 2.26
-17.86 5.05 2.25
-14.89 3.89 1.87
-14.88 3.57 1.85
-14.88 3.25 1.84
-14.96 2.96 1.84
-14.96 2.65 1.84
-14.95 2.34 1.83
-14.95 2.03 1.82
-14.94 1.72 1.81
-14.85 1.41 1.80
-14.84 1.11 1.79
-14.84 0.81 1.79
-14.83 0.51 1.78
-14.83 0.21 1.78
-14.76 -0.08 1.77
-14.73 -0.38 1.76
-14.71 -0.67 1.76
-14.70 -0.97 1.76
-14.70 -1.27 1.76
-14.73 -1.57 1.77
-14.73 -1.87 1.77
-13.31 -1.96 1.60
-14.78 -2.48 1.78
-14.78 -2.79 1.79
-14.77 -3.09 1.79
-14.86 -3.42 1.81
-14.85 -3.74 1.82
-14.85 -4.05 1.82
-14.84 -4.38 1.83
-14.83 -4.70 1.84
-14.74 -5.00 1.84
-14.74 -5.33 1.85
-14.73 -5.66 1.86
-16.12 -6.57 2.05
-16.10 -6.94 2.06
-17.36 -7.90 2.24
-16.45 -7.89 2.14
-15.61 -7.87 2.05
-14.83 -7.86 1.97
-14.64 -8.14 1.96
-14.63 -8.53 1.98
-14.71 -8.97 2.02
-14.62 -9.32 2.03
-14.61 -9.74 2.05
-14.60 -10.16 2.08
-14.60 -10.60 2.10
-14.59 -11.04 2.13
-14.54 -11.48 2.16
-14.06 -11.56 2.12
-13.84 -11.85 2.12
-13.03 -11.62 2.03
-13.38 -12.42 2.12
-13.14 -12.70 2.12
-12.89 -12.97 2.12
-12.86 -13.47 2.15
-13.89 -15.15 2.38
-13.60 -15.44 2.38
-13.33 -15.76 2.38
-13.04 -16.06 2.39
-12.75 -16.36 2.39
-12.46 -16.67 2.40
-12.17 -16.98 2.40
-11.85 -17.26 2.41
-11.51 -17.51 2.41
-11.17 -17.75 2.41
-10.81 -17.98 2.41
-10.02 -17.45 2.31
-9.56 -17.44 2.28
-9.43 -18.05 2.33
-9.30 -18.71 2.39
-8.93 -18.90 2.39
-8.55 -19.09 2.39
-8.17 -19.27 2.39
-7.79 -19.44 2.39
-7.40 -19.60 2.39
-7.01 -19.76 2.39
-6.61 -19.90 2.39
-6.22 -20.04 2.39
-5.82 -20.17 2.39
-5.41 -20.29 2.39
-5.22 -21.28 2.49
-4.80 -21.39 2.49
-4.37 -21.49 2.49
-3.94 -21.59 2.49
-3.50 -21.67 2.49
-3.07 -21.74 2.49
-2.63 -21.80 2.49
-2.20 -21.86 2.49
-1.76 -21.91 2.49
-1.32 -21.94 2.49
-0.88 -21.97 2.49
-0.44 -21.99 2.49
0.00 -18.31 2.49
0.37 -18.30 2.49
0.74 -18.30 2.49
1.10 -18.28 2.49
1.47 -18.26 2.49
1.84 -18.22 2.49
2.20 -18.18 2.49
2.57 -18.14 2.49
2.81 -17.34 2.39
3.16 -17.28 2.39
3.50 -17.21 2.39
3.85 -17.14 2.39
4.19 -17.05 2.39
4.53 -16.97 2.39
4.87 -16.87 2.39
5.21 -16.77 2.39
5.54 -16.66 2.39
5.87 -16.54 2.39
6.20 -16.42 2.39
6.53 -16.29 2.39
6.38 -15.03 2.23
6.37 -14.21 2.12
6.37 -13.49 2.03
6.36 -12.79 1.95
6.35 -12.15 1.87
6.34 -11.56 1.80
6.33 -11.02 1.73
6.32 -10.51 1.67
6.32 -10.04 1.62
6.31 -9.59 1.57
6.30 -9.17 1.52
6.30 -8.78 1.48
6.29 -8.41 1.44
6.28 -8.06 1.40
6.28 -7.73 1.36
6.27 -7.41 1.33
6.22 -7.05 1.29
6.26 -6.83 1.27
6.26 -6.55 1.24
6.25 -6.29 1.22
6.25 -6.04 1.19
6.25 -5.80 1.17
6.24 -5.57 1.15
6.24 -5.34 1.13
6.23 -5.13 1.11
6.23 -4.92 1.09
6.23 -4.71 1.07
6.22 -4.52 1.06
6.22 -4.33 1.04
6.22 -4.14 1.03
6.22 -3.96 1.02
6.21 -3.79 1.00
6.21 -3.62 0.99
6.21 -3.45 0.98
6.20 -3.29 0.97
6.13 -3.10 0.95
6.20 -2.97 0.95
6.20 -2.82 0.94
6.19 -2.67 0.93
6.19 -2.52 0.93
6.19 -2.38 0.92
6.19 -2.24 0.91
6.18 -2.10 0.91
6.18 -1.96 0.90
6.18 -1.82 0.90
6.18 -1.69 0.89
6.18 -1.55 0.89
6.17 -1.42 0.88
6.17 -1.29 0.88
6.17 -1.16 0.88
6.17 -1.04 0.87
6.16 -0.91 0.87
6.16 -0.78 0.87
6.16 -0.66 0.87
6.16 -0.53 0.87
6.16 -0.41 0.87
6.15 -0.28 0.86
6.15 -0.16 0.86
6.15 -0.04 0.86
6.15 0.09 0.86
6.15 0.21 0.87
6.14 0.33 0.87
6.14 0.46 0.87
6.14 0.58 0.87
6.14 0.71 0.87
6.08 0.82 0.87
6.09 0.95 0.87
6.13 1.08 0.88
6.13 1.21 0.88
6.13 1.34 0.89
6.12 1.47 0.89
6.12 1.60 0.90
6.12 1.73 0.90
6.12 1.86 0.91
6.12 2.00 0.92
6.11 2.13 0.92
6.11 2.27 0.93
6.11 2.41 0.94
6.11 2.55 0.94
6.10 2.70 0.95
6.10 2.84 0.96
6.10 2.99 0.97
6.10 3.14 0.98
2.89 1.56 0.47
2.84 1.61 0.47
6.09 3.62 1.02
6.09 3.78 1.03
6.08 3.95 1.04
6.08 4.13 1.06
6.08 4.31 1.07
6.07 4.49 1.09
6.07 4.68 1.10
6.01 4.83 1.11
6.06 5.08 1.14
6.06 5.28 1.16
6.06 5.50 1.18
6.05 5.72 1.20
6.05 5.95 1.23
6.05 6.19 1.25
6.04 6.44 1.28
6.04 6.70 1.31
6.03 6.97 1.34
6.03 7.26 1.37
6.02 7.55 1.40
6.02 7.87 1.44
6.01 8.20 1.48
6.01 8.54 1.52
5.94 8.82 1.55
5.99 9.30 1.61
5.99 9.71 1.66
5.98 10.15 1.72
5.97 10.62 1.78
5.96 11.12 1.84
5.95 11.66 1.91
5.94 12.24 1.99
5.90 12.80 2.06
5.87 13.44 2.14
5.38 13.01 2.06
5.07 13.00 2.04
5.22 14.22 2.22
5.32 15.44 2.39
5.00 15.54 2.39
4.69 15.63 2.39
4.37 15.72 2.39
4.05 15.80 2.39
3.74 15.87 2.39
3.41 15.93 2.39
3.09 16.00 2.39
2.77 16.05 2.39
2.45 16.10 2.39
2.12 16.14 2.39
1.87 16.87 2.49
1.53 16.90 2.49
1.19 16.93 2.49
0.85 16.95 2.49
0.51 16.96 2.49
0.17 16.96 2.49
-0.17 16.96 2.49
-0.51 16.95 2.49
-0.85 16.93 2.49
-1.19 16.91 2.49
-1.53 16.88 2.49
-1.87 16.85 2.49
-2.20 16.80 2.49
-2.54 16.76 2.49
-2.88 16.70 2.49
-3.21 16.64 2.49
-3.55 16.57 2.49
-3.88 16.50 2.49
-4.21 16.42 2.49
-4.54 16.33 2.49
-4.87 16.24 2.49
-5.19 16.14 2.49
-5.51 16.03 2.49
-5.84 15.92 2.49
-5.95 15.27 2.41
-6.20 15.03 2.39
-6.51 14.90 2.39
-6.81 14.77 2.39
-7.10 14.63 2.39
-7.40 14.49 2.39
-7.69 14.34 2.39
-7.98 14.19 2.39
-8.26 14.03 2.39
-8.54 13.86 2.39
-8.82 13.69 2.39
-9.10 13.51 2.39
-9.37 13.33 2.39
-9.64 13.15 2.39
-9.90 12.95 2.39
-10.23 12.84 2.41
-10.49 12.64 2.41
-10.18 11.77 2.28
-10.43 11.58 2.28
-11.25 12.00 2.41
-11.49 11.77 2.41
-11.73 11.54 2.41
-11.96 11.31 2.41
-12.19 11.07 2.41
-12.42 10.83 2.41
-12.63 10.58 2.41
-12.84 10.32 2.40
-13.04 10.06 2.40
-13.24 9.79 2.40
-13.43 9.52 2.40
-9.33 6.34 1.64
-9.58 6.23 1.66
-9.95 6.19 1.70
-10.45 6.21 1.77
-10.87 6.17 1.82
-11.44 6.20 1.89
-11.93 6.15 1.95
-12.59 6.18 2.03
-13.24 6.17 2.12
-13.86 6.12 2.20
-14.68 6.13 2.30
-15.06 5.94 2.34
-15.14 5.62 2.34
-15.22 5.31 2.33
-15.29 4.99 2.32
-15.35 4.67 2.32
-15.45 4.36 2.32
-14.89 3.89 2.22
-14.88 3.57 2.20
-14.88 3.25 2.19
-14.87 2.94 2.18
-14.87 2.63 2.17
-14.86 2.32 2.16
-14.86 2.01 2.15
-14.87 1.71 2.15
-14.85 1.41 2.14
-14.84 1.11 2.13
-14.84 0.81 2.13
-14.83 0.51 2.12
-14.83 0.21 2.12
-14.76 -0.09 2.11
-14.73 -0.38 2.10
-14.71 -0.68 2.10
-14.70 -0.97 2.10
-14.70 -1.27 2.10
-14.73 -1.57 2.11
-14.73 -1.87 2.11
-13.31 -1.96 1.91
-14.78 -2.48 2.13
-14.78 -2.79 2.13
-14.77 -3.10 2.14
-14.77 -3.41 2.15
-14.76 -3.72 2.15
-14.76 -4.03 2.16
-14.75 -4.35 2.17
-14.75 -4.67 2.18
-14.74 -5.00 2.19
-14.74 -5.33 2.21
-14.73 -5.66 2.22
-15.44 -6.30 2.35
-15.33 -6.61 2.35
-15.23 -6.93 2.35
-15.12 -7.25 2.35
-15.00 -7.57 2.36
-14.82 -7.86 2.35
-14.64 -8.14 2.35
-14.61 -8.52 2.37
-14.47 -8.82 2.37
-14.32 -9.13 2.37
-14.16 -9.44 2.38
-14.00 -9.74 2.38
-13.84 -10.05 2.38
-13.67 -10.35 2.39
-13.50 -10.66 2.39
-13.31 -10.95 2.40
-13.11 -11.23 2.40
-12.90 -11.50 2.40
-12.53 -11.64 2.37
-12.29 -11.88 2.37
-12.08 -12.16 2.38
-11.87 -12.43 2.38
-11.65 -12.70 2.39
-11.42 -12.96 2.39
-11.16 -13.20 2.39
-10.91 -13.43 2.39
-10.64 -13.66 2.39
-10.44 -13.97 2.41
-10.17 -14.19 2.41
-9.88 -14.40 2.41
-9.60 -14.60 2.41
-9.25 -14.70 2.39
-8.96 -14.89 2.39
-8.66 -15.08 2.39
-8.36 -15.25 2.39
-8.06 -15.43 2.39
-7.75 -15.59 2.39
-7.44 -15.75 2.39
-7.12 -15.91 2.39
-6.81 -16.05 2.39
-6.49 -16.19 2.39
-6.16 -16.33 2.39
-5.84 -16.46 2.39
-5.51 -16.58 2.39
-5.40 -17.41 2.49
-5.05 -17.52 2.49
-4.70 -17.63 2.49
-4.35 -17.72 2.49
-3.99 -17.81 2.49
-3.64 -17.90 2.49
-3.28 -17.97 2.49
-2.92 -18.04 2.49
-2.56 -18.10 2.49
-2.19 -18.15 2.49
-1.83 -18.19 2.49
-1.46 -18.23 2.49
-1.10 -18.26 2.49
-0.73 -18.28 2.49
-0.36 -18.30 2.49
0.00 -15.66 2.49
0.32 -15.66 2.49
0.63 -15.65 2.49
0.94 -15.64 2.49
1.26 -15.62 2.49
1.57 -15.59 2.49
1.88 -15.56 2.49
2.20 -15.52 2.49
2.51 -15.47 2.49
2.70 -14.78 2.39
3.00 -14.72 2.39
3.29 -14.66 2.39
3.58 -14.59 2.39
3.88 -14.51 2.39
4.17 -14.43 2.39
4.45 -14.35 2.39
4.74 -14.25 2.39
5.02 -14.15 2.39
5.31 -14.05 2.39
5.59 -13.94 2.39
5.86 -13.82 2.39
6.14 -13.70 2.39
6.41 -13.57 2.39
6.29 -12.04 2.17
6.34 -11.57 2.10
6.33 -11.02 2.03
6.32 -10.51 1.96
6.32 -10.04 1.89
6.31 -9.59 1.83
6.30 -9.18 1.78
6.30 -8.78 1.73
6.29 -8.41 1.68
6.28 -8.06 1.63
6.28 -7.73 1.59
6.27 -7.41 1.55
6.22 -7.05 1.50
6.26 -6.83 1.48
6.26 -6.55 1.45
6.25 -6.29 1.42
6.25 -6.04 1.39
6.25 -5.80 1.37
6.24 -5.57 1.34
6.24 -5.34 1.32
6.23 -5.13 1.29
6.23 -4.92 1.27
6.23 -4.71 1.25
6.22 -4.52 1.24
6.22 -4.33 1.22
6.22 -4.14 1.20
6.22 -3.96 1.19
6.21 -3.79 1.17
6.21 -3.62 1.16
6.21 -3.45 1.14
6.20 -3.29 1.13
6.13 -3.10 1.11
6.20 -2.97 1.11
6.20 -2.82 1.10
6.19 -2.67 1.09
6.19 -2.52 1.08
6.19 -2.38 1.07
6.19 -2.24 1.06
6.18 -2.10 1.06
6.18 -1.96 1.05
6.18 -1.82 1.04
6.18 -1.69 1.04
6.18 -1.56 1.03
6.17 -1.42 1.03
6.17 -1.29 1.02
6.17 -1.16 1.02
6.17 -1.04 1.02
6.16 -0.91 1.01
6.16 -0.78 1.01
6.16 -0.66 1.01
6.16 -0.53 1.01
6.16 -0.41 1.01
6.15 -0.28 1.01
6.15 -0.16 1.01
6.15 -0.04 1.01
6.15 0.09 1.01
6.15 0.21 1.01
6.14 0.33 1.01
6.14 0.46 1.01
6.14 0.58 1.01
6.14 0.71 1.01
6.08 0.82 1.01
6.09 0.95 1.01
6.13 1.08 1.02
6.13 1.21 1.03
6.13 1.34 1.03
6.12 1.47 1.04
6.12 1.60 1.04
6.12 1.73 1.05
6.12 1.86 1.06
6.12 1.99 1.06
6.11 2.13 1.07
6.11 2.27 1.08
6.11 2.41 1.09
6.11 2.55 1.10
6.10 2.69 1.11
6.10 2.84 1.12
6.10 2.99 1.13
6.10 3.14 1.14
2.89 1.56 0.55
2.84 1.61 0.54
6.09 3.62 1.18
6.09 3.78 1.19
6.08 3.95 1.21
6.08 4.13 1.23
6.08 4.31 1.24
6.07 4.49 1.26
6.07 4.68 1.28
6.01 4.83 1.29
6.06 5.07 1.32
6.06 5.28 1.35
6.06 5.50 1.37
6.05 5.72 1.40
6.05 5.95 1.42
6.05 6.19 1.45
6.04 6.44 1.48
6.04 6.70 1.52
6.03 6.97 1.55
6.03 7.26 1.59
6.02 7.55 1.63
6.02 7.87 1.67
6.01 8.19 1.71
6.01 8.54 1.76
5.94 8.82 1.79
5.99 9.30 1.87
5.99 9.71 1.93
5.98 10.15 1.99
5.97 10.61 2.06
5.94 11.08 2.12
5.90 11.55 2.19
5.91 12.82 2.39
5.66 12.94 2.39
5.39 13.05 2.39
5.13 13.15 2.39
4.86 13.25 2.39
4.59 13.34 2.39
4.32 13.42 2.39
4.05 13.50 2.39
3.78 13.58 2.39
3.50 13.65 2.39
3.23 13.71 2.39
2.95 13.77 2.39
2.67 13.82 2.39
2.39 13.87 2.39
2.13 14.02 2.41
1.91 14.55 2.49
1.62 14.58 2.49
1.33 14.61 2.49
1.03 14.63 2.49
0.74 14.65 2.49
0.44 14.66 2.49
0.15 14.66 2.49
-0.14 14.66 2.49
-0.44 14.65 2.49
-0.73 14.64 2.49
-1.03 14.62 2.49
-1.32 14.59 2.49
-1.61 14.56 2.49
-1.91 14.53 2.49
-2.20 14.48 2.49
-2.49 14.44 2.49
-2.78 14.38 2.49
-3.06 14.32 2.49
-3.35 14.26 2.49
-3.64 14.19 2.49
-3.92 14.11 2.49
-4.21 14.03 2.49
-4.49 13.95 2.49
-4.77 13.86 2.49
-5.04 13.76 2.49
-5.32 13.66 2.49
-5.59 13.55 2.49
-5.87 13.43 2.49
-5.91 12.83 2.40
-6.14 12.65 2.39
-6.39 12.52 2.39
-6.64 12.39 2.39
-6.89 12.26 2.39
-7.14 12.12 2.39
-7.38 11.98 2.39
-7.62 11.83 2.39
-7.86 11.68 2.39
-8.10 11.52 2.39
-8.33 11.36 2.39
-8.56 11.19 2.39
-8.78 11.02 2.39
-9.01 10.85 2.39
-9.22 10.67 2.39
-9.44 10.48 2.39
-9.65 10.29 2.39
-9.86 10.10 2.39
-9.89 9.73 2.35
-9.88 9.34 2.30
-9.97 9.06 2.28
-10.47 9.13 2.35
-10.46 8.76 2.31
-10.51 8.45 2.28
-11.28 8.70 2.41
-11.46 8.48 2.41
-11.63 8.25 2.41
-9.33 6.34 1.90
-9.58 6.23 1.93
-9.95 6.19 1.97
-10.45 6.21 2.05
-10.87 6.17 2.11
-11.45 6.20 2.19
-11.94 6.15 2.26
-12.59 6.18 2.36
-12.95 6.03 2.40
-13.07 5.77 2.40
-13.18 5.51 2.40
-13.29 5.24 2.40
-13.39 4.97 2.40
-13.49 4.70 2.39
-13.59 4.43 2.39
-13.68 4.16 2.39
-13.77 3.89 2.39
-13.85 3.61 2.39
-13.93 3.34 2.39
-14.01 3.06 2.39
-14.07 2.78 2.39
-14.13 2.50 2.39
-14.18 2.21 2.39
-14.23 1.93 2.39
-14.28 1.64 2.39
-14.31 1.36 2.39
-14.34 1.07 2.39
-14.36 0.78 2.39
-14.38 0.49 2.39
-13.28 0.19 2.20
-13.55 -0.08 2.25
-13.55 -0.35 2.25
-13.55 -0.62 2.25
-13.54 -0.90 2.25
-13.53 -1.17 2.25
-13.51 -1.44 2.25
-13.49 -1.71 2.25
-13.24 -1.95 2.21
-14.31 -2.41 2.39
-14.28 -2.70 2.40
-14.25 -2.99 2.40
-14.20 -3.28 2.40
-14.15 -3.56 2.40
-14.08 -3.85 2.40
-14.02 -4.14 2.40
-13.94 -4.42 2.40
-13.86 -4.70 2.40
-13.77 -4.98 2.40
-13.68 -5.26 2.40
-13.58 -5.54 2.40
-13.47 -5.81 2.40
-13.36 -6.09 2.40
-13.24 -6.36 2.40
-13.12 -6.62 2.40
-13.00 -6.89 2.40
-12.87 -7.16 2.40
-12.74 -7.43 2.40
-12.59 -7.68 2.40
-12.44 -7.94 2.40
-12.30 -8.20 2.40
-12.15 -8.46 2.41
-11.99 -8.71 2.41
-11.82 -8.95 2.41
-11.65 -9.19 2.41
-11.47 -9.43 2.41
-11.28 -9.67 2.41
-11.09 -9.90 2.41
-10.90 -10.12 2.41
-10.70 -10.35 2.41
-10.50 -10.56 2.41
-10.29 -10.78 2.41
-10.07 -10.99 2.41
-9.86 -11.20 2.41
-9.64 -11.40 2.41
-9.35 -11.52 2.39
-9.12 -11.71 2.39
-8.89 -11.90 2.39
-8.65 -12.08 2.39
-8.41 -12.26 2.39
-8.17 -12.43 2.39
-7.92 -12.60 2.39
-7.67 -12.76 2.39
-7.42 -12.91 2.39
-7.16 -13.07 2.39
-6.90 -13.21 2.39
-6.64 -13.36 2.39
-6.37 -13.49 2.39
-6.10 -13.62 2.39
-5.83 -13.75 2.39
-5.55 -13.87 2.39
-5.45 -14.44 2.47
-5.21 -14.70 2.49
-4.92 -14.80 2.49
-4.62 -14.90 2.49
-4.32 -15.00 2.49
-4.02 -15.09 2.49
-3.72 -15.17 2.49
-3.42 -15.25 2.49
-3.11 -15.32 2.49
-2.80 -15.38 2.49
-2.50 -15.44 2.49
-2.19 -15.49 2.49
-1.88 -15.53 2.49
-1.56 -15.57 2.49
-1.25 -15.60 2.49
-0.94 -15.62 2.49
-0.63 -15.64 2.49
-0.31 -15.66 2.49
0.00 -13.67 2.49
0.28 -13.67 2.49
0.55 -13.66 2.49
0.83 -13.65 2.49
1.10 -13.63 2.49
1.37 -13.61 2.49
1.64 -13.58 2.49
1.92 -13.54 2.49
2.19 -13.50 2.49
2.46 -13.46 2.49
2.61 -12.85 2.39
2.87 -12.80 2.39
3.13 -12.74 2.39
3.38 -12.67 2.39
3.64 -12.60 2.39
3.89 -12.52 2.39
4.14 -12.44 2.39
4.39 -12.35 2.39
4.63 -12.26 2.39
4.88 -12.17 2.39
5.12 -12.06 2.39
5.36 -11.96 2.39
5.60 -11.85 2.39
5.83 -11.73 2.39
6.07 -11.61 2.39
6.30 -11.48 2.39
6.35 -11.04 2.33
6.26 -9.95 2.15
6.31 -9.59 2.10
6.30 -9.18 2.03
6.30 -8.78 1.98
6.29 -8.41 1.92
6.28 -8.06 1.87
6.28 -7.73 1.82
6.27 -7.42 1.78
6.21 -7.05 1.72
6.26 -6.83 1.70
6.26 -6.55 1.66
6.25 -6.29 1.63
6.25 -6.04 1.59
6.25 -5.80 1.56
6.24 -5.57 1.53
6.24 -5.34 1.51
6.23 -5.13 1.48
6.23 -4.92 1.46
6.23 -4.72 1.44
6.22 -4.52 1.41
6.22 -4.33 1.39
6.22 -4.14 1.37
6.22 -3.96 1.36
6.21 -3.79 1.34
6.21 -3.62 1.32
6.21 -3.45 1.31
6.20 -3.29 1.29
6.13 -3.10 1.27
6.20 -2.97 1.27
6.20 -2.82 1.26
6.19 -2.67 1.25
6.19 -2.53 1.24
6.19 -2.38 1.23
6.19 -2.24 1.22
6.18 -2.10 1.21
6.18 -1.96 1.20
6.18 -1.82 1.19
6.18 -1.69 1.19
6.18 -1.56 1.18
6.17 -1.42 1.18
6.17 -1.29 1.17
6.17 -1.16 1.17
6.17 -1.04 1.16
6.16 -0.91 1.16
6.16 -0.78 1.16
6.16 -0.66 1.15
6.16 -0.53 1.15
6.16 -0.41 1.15
6.15 -0.28 1.15
6.15 -0.16 1.15
6.15 -0.04 1.15
6.15 0.09 1.15
6.15 0.21 1.15
6.14 0.33 1.15
6.14 0.46 1.15
6.14 0.58 1.16
6.14 0.71 1.16
6.08 0.82 1.15
6.09 0.95 1.16
6.13 1.08 1.17
6.13 1.21 1.17
6.13 1.34 1.18
6.12 1.47 1.18
6.12 1.60 1.19
6.12 1.73 1.20
6.12 1.86 1.21
6.12 1.99 1.21
6.11 2.13 1.22
6.11 2.27 1.23
6.11 2.41 1.24
6.11 2.55 1.25
6.10 2.69 1.26
6.10 2.84 1.27
6.10 2.99 1.29
6.10 3.14 1.30
2.89 1.56 0.62
2.84 1.61 0.62
6.09 3.62 1.34
6.09 3.78 1.36
6.08 3.95 1.38
6.08 4.13 1.40
6.08 4.31 1.42
6.07 4.49 1.44
6.07 4.68 1.46
6.01 4.83 1.47
6.06 5.07 1.51
6.06 5.28 1.53
6.06 5.50 1.56
6.05 5.72 1.59
6.05 5.95 1.62
6.05 6.19 1.65
6.04 6.44 1.69
6.04 6.70 1.72
6.03 6.97 1.76
6.03 7.25 1.81
6.02 7.55 1.85
6.02 7.86 1.90
6.01 8.19 1.95
6.01 8.54 2.00
5.94 8.82 2.04
5.98 9.28 2.12
5.93 9.61 2.17
6.10 10.84 2.39
5.88 10.96 2.39
5.66 11.07 2.39
5.43 11.18 2.39
5.20 11.28 2.39
4.98 11.38 2.39
4.74 11.47 2.39
4.51 11.56 2.39
4.28 11.65 2.39
4.04 11.73 2.39
3.80 11.80 2.39
3.56 11.87 2.39
3.32 11.94 2.39
3.08 12.00 2.39
2.84 12.06 2.39
2.60 12.11 2.39
2.36 12.22 2.40
2.15 12.45 2.44
1.94 12.76 2.49
1.68 12.80 2.49
1.43 12.83 2.49
1.17 12.85 2.49
0.91 12.87 2.49
0.65 12.88 2.49
0.39 12.89 2.49
0.13 12.90 2.49
-0.13 12.89 2.49
-0.39 12.89 2.49
-0.64 12.88 2.49
-0.90 12.86 2.49
-1.16 12.84 2.49
-1.42 12.81 2.49
-1.68 12.78 2.49
-1.93 12.74 2.49
-2.19 12.70 2.49
-2.44 12.65 2.49
-2.70 12.60 2.49
-2.95 12.55 2.49
-3.20 12.48 2.49
-3.45 12.42 2.49
-3.70 12.35 2.49
-3.95 12.27 2.49
-4.19 12.19 2.49
-4.44 12.10 2.49
-4.68 12.01 2.49
-4.92 11.92 2.49
-5.16 11.82 2.49
-5.40 11.71 2.49
-5.63 11.60 2.49
-5.87 11.49 2.49
-5.88 10.97 2.41
-6.06 10.78 2.39
-6.28 10.66 2.39
-6.49 10.54 2.39
-6.71 10.41 2.39
-6.92 10.27 2.39
-7.12 10.13 2.39
-7.33 9.99 2.39
-7.53 9.84 2.39
-7.73 9.69 2.39
-7.92 9.54 2.39
-8.11 9.38 2.39
-8.30 9.22 2.39
-8.49 9.05 2.39
-8.67 8.88 2.39
-8.85 8.71 2.39
-9.03 8.53 2.39
-9.20 8.35 2.39
-9.37 8.17 2.39
-9.53 7.98 2.39
-9.70 7.79 2.39
-9.86 7.60 2.39
-9.85 7.28 2.35
-9.84 6.98 2.32
-9.33 6.34 2.17
-9.58 6.23 2.19
-9.95 6.19 2.25
-10.45 6.21 2.33
-10.88 6.17 2.40
-10.47 5.66 2.28
-11.18 5.76 2.41
-11.29 5.54 2.41
-11.41 5.31 2.41
-11.52 5.08 2.41
-11.62 4.85 2.41
-11.72 4.62 2.41
-11.82 4.39 2.41
-11.91 4.15 2.41
-12.00 3.91 2.41
-12.08 3.67 2.41
-12.16 3.43 2.41
-12.23 3.19 2.41
-12.30 2.94 2.41
-12.36 2.70 2.41
-12.42 2.45 2.41
-12.47 2.20 2.41
-12.52 1.95 2.41
-12.56 1.70 2.41
-12.59 1.45 2.41
-12.63 1.20 2.40
-12.65 0.94 2.40
-12.68 0.69 2.40
-12.69 0.43 2.40
-12.52 0.18 2.37
-12.53 -0.08 2.37
-12.53 -0.33 2.37
-12.53 -0.58 2.37
-12.52 -0.83 2.37
-12.51 -1.08 2.37
-12.50 -1.33 2.37
-12.48 -1.59 2.37
-12.45 -1.84 2.37
-12.61 -2.12 2.41
-12.57 -2.38 2.41
-12.53 -2.63 2.41
-12.48 -2.88 2.41
-12.43 -3.13 2.41
-12.37 -3.38 2.41
-12.31 -3.64 2.41
-12.25 -3.88 2.41
-12.17 -4.13 2.41
-12.10 -4.38 2.41
-12.01 -4.62 2.41
-11.92 -4.87 2.41
-11.83 -5.11 2.41
-11.73 -5.35 2.41
-11.63 -5.58 2.41
-11.52 -5.82 2.41
-11.41 -6.05 2.41
-11.29 -6.28 2.41
-11.17 -6.51 2.41
-11.04 -6.74 2.41
-10.33 -6.60 2.28
-10.21 -6.81 2.28
-10.20 -7.10 2.31
-10.19 -7.40 2.34
-10.15 -7.69 2.36
-9.65 -7.62 2.28
-9.60 -7.90 2.30
-9.59 -8.22 2.34
-9.59 -8.55 2.38
-9.47 -8.80 2.39
-9.29 -8.99 2.39
-9.12 -9.18 2.39
-8.94 -9.36 2.39
-8.75 -9.55 2.39
-8.56 -9.72 2.39
-8.37 -9.90 2.39
-8.17 -10.07 2.39
-7.97 -10.24 2.39
-7.77 -10.40 2.39
-7.56 -10.56 2.39
-7.35 -10.71 2.39
-7.14 -10.86 2.39
-6.92 -11.01 2.39
-6.70 -11.15 2.39
-6.48 -11.29 2.39
-6.26 -11.42 2.39
-6.03 -11.55 2.39
-5.80 -11.67 2.39
-5.56 -11.79 2.39
-5.48 -12.25 2.46
-5.31 -12.53 2.49
-5.06 -12.64 2.49
-4.81 -12.74 2.49
-4.55 -12.84 2.49
-4.29 -12.93 2.49
-4.04 -13.02 2.49
-3.77 -13.10 2.49
-3.51 -13.18 2.49
-3.25 -13.25 2.49
-2.98 -13.31 2.49
-2.72 -13.37 2.49
-2.45 -13.43 2.49
-2.18 -13.48 2.49
-1.91 -13.52 2.49
-1.64 -13.56 2.49
-1.36 -13.59 2.49
-1.09 -13.62 2.49
-0.82 -13.64 2.49
-0.55 -13.66 2.49
-0.27 -13.67 2.49
0.00 -12.12 2.49
0.25 -12.12 2.49
0.49 -12.11 2.49
0.73 -12.10 2.49
0.97 -12.08 2.49
1.22 -12.06 2.49
1.46 -12.04 2.49
1.70 -12.01 2.49
1.94 -11.97 2.49
2.18 -11.93 2.49
2.42 -11.88 2.49
2.56 -11.40 2.40
2.77 -11.29 2.39
3.00 -11.23 2.39
3.22 -11.17 2.39
3.45 -11.10 2.39
3.67 -11.03 2.39
3.89 -10.95 2.39
4.11 -10.87 2.39
4.32 -10.79 2.39
4.54 -10.70 2.39
4.75 -10.60 2.39
4.96 -10.50 2.39
5.17 -10.40 2.39
5.38 -10.29 2.39
5.58 -10.18 2.39
5.78 -10.06 2.39
5.98 -9.95 2.39
6.18 -9.82 2.39
6.37 -9.69 2.39
6.27 -8.76 2.22
6.23 -8.34 2.15
6.28 -8.06 2.11
6.28 -7.73 2.06
6.27 -7.42 2.01
6.21 -7.06 1.94
6.26 -6.83 1.91
6.26 -6.56 1.87
6.25 -6.29 1.83
6.25 -6.04 1.80
6.25 -5.80 1.76
6.24 -5.57 1.73
6.24 -5.34 1.70
6.23 -5.13 1.67
6.23 -4.92 1.64
6.23 -4.72 1.62
6.22 -4.52 1.59
6.22 -4.33 1.57
6.22 -4.15 1.55
6.22 -3.97 1.53
6.21 -3.79 1.51
6.21 -3.62 1.49
6.21 -3.45 1.48
6.20 -3.29 1.46
6.13 -3.10 1.43
6.20 -2.98 1.43
6.20 -2.82 1.42
6.19 -2.67 1.40
6.19 -2.53 1.39
6.19 -2.38 1.38
6.19 -2.24 1.37
6.18 -2.10 1.36
6.18 -1.96 1.35
6.18 -1.82 1.34
6.18 -1.69 1.34
6.18 -1.56 1.33
6.17 -1.42 1.32
6.17 -1.29 1.32
6.17 -1.17 1.31
6.17 -1.04 1.31
6.16 -0.91 1.31
6.16 -0.78 1.30
6.16 -0.66 1.30
6.16 -0.53 1.30
6.16 -0.41 1.29
6.15 -0.28 1.29
6.15 -0.16 1.29
6.15 -0.04 1.29
6.15 0.09 1.29
6.15 0.21 1.29
6.14 0.33 1.30
6.14 0.46 1.30
6.14 0.58 1.30
6.14 0.70 1.30
6.08 0.82 1.29
6.09 0.95 1.30
6.13 1.08 1.32
6.13 1.21 1.32
6.13 1.34 1.33
6.12 1.46 1.33
6.12 1.59 1.34
6.12 1.73 1.35
6.12 1.86 1.35
6.12 1.99 1.36
6.11 2.13 1.37
6.11 2.27 1.38
6.11 2.41 1.39
6.11 2.55 1.41
6.10 2.69 1.42
6.10 2.84 1.43
6.10 2.99 1.45
6.10 3.14 1.46
2.89 1.56 0.70
2.84 1.61 0.70
6.09 3.62 1.51
6.09 3.78 1.53
6.08 3.95 1.55
6.08 4.13 1.57
6.08 4.30 1.59
6.07 4.49 1.61
6.07 4.68 1.64
6.01 4.82 1.65
6.06 5.07 1.69
6.06 5.28 1.72
6.06 5.49 1.75
6.05 5.72 1.78
6.05 5.95 1.82
6.05 6.19 1.86
6.04 6.44 1.89
6.04 6.70 1.94
6.03 6.97 1.98
6.03 7.25 2.03
6.02 7.55 2.08
6.00 7.84 2.12
5.96 8.12 2.17
5.94 8.82 2.29
6.02 9.33 2.39
5.83 9.44 2.39
5.63 9.56 2.39
5.44 9.66 2.39
5.24 9.77 2.39
5.04 9.87 2.39
4.84 9.96 2.39
4.64 10.06 2.39
4.44 10.14 2.39
4.23 10.23 2.39
4.02 10.31 2.39
3.81 10.38 2.39
3.60 10.46 2.39
3.39 10.52 2.39
3.18 10.59 2.39
2.96 10.65 2.39
2.75 10.70 2.39
2.53 10.75 2.39
2.32 10.80 2.39
2.17 11.22 2.47
1.96 11.35 2.49
1.73 11.38 2.49
1.50 11.41 2.49
1.27 11.44 2.49
1.04 11.46 2.49
0.81 11.48 2.49
0.58 11.49 2.49
0.35 11.50 2.49
0.12 11.50 2.49
-0.11 11.50 2.49
-0.34 11.49 2.49
-0.57 11.48 2.49
-0.81 11.47 2.49
-1.04 11.45 2.49
-1.27 11.43 2.49
-1.49 11.40 2.49
-1.72 11.36 2.49
-1.95 11.33 2.49
-2.18 11.29 2.49
-2.40 11.24 2.49
-2.63 11.19 2.49
-2.85 11.13 2.49
-3.08 11.08 2.49
-3.30 11.01 2.49
-3.52 10.94 2.49
-3.74 10.87 2.49
-3.96 10.79 2.49
-4.17 10.71 2.49
-4.39 10.63 2.49
-4.60 10.54 2.49
-4.81 10.45 2.49
-5.02 10.35 2.49
-5.23 10.25 2.49
-5.44 10.14 2.49
-5.64 10.03 2.49
-5.84 9.92 2.49
-5.85 9.49 2.42
-5.98 9.28 2.39
-6.17 9.16 2.39
-6.35 9.03 2.39
-6.53 8.91 2.39
-6.71 8.78 2.39
-6.89 8.64 2.39
-7.06 8.50 2.39
-7.23 8.36 2.39
-7.40 8.22 2.39
-7.57 8.07 2.39
-7.73 7.92 2.39
-7.89 7.76 2.39
-8.05 7.60 2.39
-8.20 7.44 2.39
-8.35 7.28 2.39
-8.50 7.11 2.39
-8.64 6.94 2.39
-8.78 6.77 2.39
-8.92 6.59 2.39
-9.05 6.42 2.39
-9.18 6.24 2.39
-9.31 6.05 2.39
-9.43 5.87 2.39
-9.55 5.68 2.39
-9.67 5.49 2.39
-9.78 5.29 2.39
-9.81 5.06 2.37
-9.81 4.81 2.35
-9.80 4.56 2.32
-9.80 4.32 2.30
-9.81 4.10 2.28
-9.89 3.90 2.28
-10.33 3.83 2.36
-10.37 3.61 2.35
-10.37 3.38 2.34
-10.37 3.15 2.32
-10.36 2.92 2.30
-10.36 2.70 2.29
-10.37 2.48 2.28
-10.42 2.27 2.28
-10.47 2.06 2.28
-11.11 1.96 2.41
-11.15 1.74 2.41
-11.19 1.51 2.41
-11.22 1.29 2.41
-11.25 1.06 2.41
-11.28 0.84 2.41
-11.30 0.61 2.41
-11.31 0.38 2.41
-11.25 0.16 2.39
-11.26 -0.07 2.39
-11.26 -0.30 2.39
-11.26 -0.52 2.39
-11.25 -0.75 2.39
-11.24 -0.97 2.39
-11.23 -1.20 2.39
-11.21 -1.43 2.39
-11.18 -1.65 2.39
-11.22 -1.89 2.41
-11.19 -2.11 2.41
-11.15 -2.34 2.41
-11.10 -2.56 2.41
-11.06 -2.79 2.41
-11.00 -3.01 2.41
-10.95 -3.23 2.41
-10.89 -3.45 2.41
-10.82 -3.67 2.41
-10.75 -3.89 2.41
-10.68 -4.11 2.41
-10.60 -4.33 2.41
-9.96 -4.30 2.28
-10.23 -4.66 2.36
-9.79 -4.70 2.28
-9.69 -4.90 2.28
-9.64 -5.12 2.29
-9.64 -5.37 2.31
-9.63 -5.62 2.34
-9.63 -5.88 2.36
-9.63 -6.14 2.39
-9.51 -6.34 2.39
-9.38 -6.53 2.39
-9.26 -6.72 2.39
-9.12 -6.91 2.39
-8.99 -7.10 2.39
-8.85 -7.28 2.39
-8.70 -7.46 2.39
-8.56 -7.64 2.39
-8.40 -7.81 2.39
-8.25 -7.98 2.39
-8.09 -8.15 2.39
-7.93 -8.31 2.39
-7.77 -8.47 2.39
-7.60 -8.63 2.39
-7.43 -8.79 2.39
-7.25 -8.94 2.39
-7.07 -9.08 2.39
-6.89 -9.23 2.39
-6.71 -9.37 2.39
-6.52 -9.51 2.39
-6.33 -9.64 2.39
-6.14 -9.77 2.39
-5.95 -9.89 2.39
-5.75 -10.01 2.39
-5.55 -10.13 2.39
-5.51 -10.56 2.47
-5.36 -10.80 2.49
-5.15 -10.91 2.49
-4.93 -11.01 2.49
-4.71 -11.11 2.49
-4.49 -11.21 2.49
-4.26 -11.30 2.49
-4.04 -11.38 2.49
-3.81 -11.47 2.49
-3.58 -11.54 2.49
-3.35 -11.62 2.49
-3.11 -11.68 2.49
-2.88 -11.75 2.49
-2.64 -11.80 2.49
-2.41 -11.86 2.49
-2.17 -11.91 2.49
-1.93 -11.95 2.49
-1.69 -11.99 2.49
-1.45 -12.02 2.49
-1.21 -12.05 2.49
-0.97 -12.07 2.49
-0.73 -12.09 2.49
-0.48 -12.11 2.49
-0.24 -12.12 2.49
0.00 -10.87 2.49
0.22 -10.87 2.49
0.44 -10.87 2.49
0.66 -10.86 2.49
0.87 -10.84 2.49
1.09 -10.82 2.49
1.31 -10.80 2.49
1.52 -10.77 2.49
1.74 -10.74 2.49
1.96 -10.70 2.49
2.17 -10.66 2.49
2.38 -10.61 2.49
2.53 -10.31 2.43
2.69 -10.08 2.39
2.89 -10.02 2.39
3.09 -9.96 2.39
3.29 -9.89 2.39
3.49 -9.83 2.39
3.68 -9.75 2.39
3.88 -9.68 2.39
4.07 -9.60 2.39
4.26 -9.51 2.39
4.45 -9.42 2.39
4.64 -9.33 2.39
4.82 -9.23 2.39
5.01 -9.13 2.39
5.19 -9.03 2.39
5.37 -8.92 2.39
5.55 -8.81 2.39
5.72 -8.70 2.39
5.89 -8.58 2.39
6.06 -8.46 2.39
6.23 -8.33 2.39
6.39 -8.21 2.39
6.21 -7.05 2.16
6.24 -6.81 2.13
6.26 -6.56 2.09
6.25 -6.29 2.04
6.25 -6.04 2.00
6.25 -5.80 1.96
6.24 -5.57 1.93
6.24 -5.34 1.89
6.23 -5.13 1.86
6.23 -4.92 1.83
6.23 -4.72 1.80
6.22 -4.52 1.78
6.22 -4.33 1.75
6.22 -4.15 1.73
6.22 -3.97 1.70
6.21 -3.79 1.68
6.21 -3.62 1.66
6.21 -3.45 1.64
6.20 -3.29 1.63
6.13 -3.10 1.59
6.20 -2.98 1.59
6.20 -2.82 1.58
6.19 -2.67 1.56
6.19 -2.53 1.55
6.19 -2.38 1.54
6.19 -2.24 1.53
6.18 -2.10 1.52
6.18 -1.96 1.51
6.18 -1.83 1.50
6.18 -1.69 1.49
6.18 -1.56 1.48
6.17 -1.43 1.47
6.17 -1.30 1.47
6.17 -1.17 1.46
6.17 -1.04 1.46
6.16 -0.91 1.45
6.16 -0.78 1.45
6.16 -0.66 1.45
6.16 -0.53 1.44
6.16 -0.41 1.44
6.15 -0.29 1.44
6.15 -0.16 1.44
6.15 -0.04 1.44
6.15 0.08 1.44
6.15 0.21 1.44
6.14 0.33 1.44
6.14 0.46 1.44
6.14 0.58 1.45
6.14 0.70 1.45
6.08 0.82 1.44
6.09 0.95 1.45
6.13 1.08 1.46
6.13 1.21 1.47
6.13 1.33 1.47
6.12 1.46 1.48
6.12 1.59 1.49
6.12 1.73 1.50
6.12 1.86 1.51
6.12 1.99 1.52
6.11 2.13 1.53
6.11 2.27 1.54
6.11 2.41 1.55
6.11 2.55 1.56
6.10 2.69 1.58
6.10 2.84 1.59
6.10 2.99 1.61
6.10 3.14 1.62
2.89 1.56 0.78
2.84 1.61 0.77
6.09 3.62 1.68
6.09 3.78 1.70
6.08 3.95 1.72
6.08 4.12 1.74
6.08 4.30 1.77
6.07 4.49 1.79
6.07 4.68 1.82
6.01 4.82 1.83
6.06 5.07 1.88
6.06 5.28 1.91
6.06 5.49 1.95
6.05 5.72 1.98
6.05 5.95 2.02
6.05 6.19 2.06
6.04 6.44 2.10
6.00 6.65 2.14
5.98 6.90 2.18
6.09 7.95 2.39
5.93 8.07 2.39
5.76 8.19 2.39
5.59 8.30 2.39
5.42 8.40 2.39
5.25 8.51 2.39
5.08 8.61 2.39
4.90 8.71 2.39
4.72 8.80 2.39
4.55 8.89 2.39
4.36 8.98 2.39
4.18 9.06 2.39
4.00 9.14 2.39
3.81 9.22 2.39
3.63 9.29 2.39
3.44 9.36 2.39
3.25 9.42 2.39
3.06 9.48 2.39
2.86 9.54 2.39
2.67 9.59 2.39
2.48 9.64 2.39
2.28 9.69 2.39
2.18 10.15 2.49
1.97 10.19 2.49
1.77 10.23 2.49
1.56 10.26 2.49
1.35 10.29 2.49
1.15 10.31 2.49
0.94 10.33 2.49
0.73 10.35 2.49
0.52 10.36 2.49
0.32 10.36 2.49
0.11 10.37 2.49
-0.10 10.37 2.49
-0.31 10.36 2.49
-0.52 10.35 2.49
-0.73 10.34 2.49
-0.93 10.32 2.49
-1.14 10.30 2.49
-1.35 10.28 2.49
-1.55 10.25 2.49
-1.76 10.21 2.49
-1.96 10.17 2.49
-2.17 10.13 2.49
-2.37 10.09 2.49
-2.57 10.04 2.49
-2.78 9.98 2.49
-2.98 9.93 2.49
-3.17 9.87 2.49
-3.37 9.80 2.49
-3.57 9.73 2.49
-3.76 9.66 2.49
-3.96 9.58 2.49
-4.15 9.50 2.49
-4.34 9.42 2.49
-4.53 9.33 2.49
-4.72 9.24 2.49
-4.90 9.14 2.49
-5.09 9.04 2.49
-5.27 8.94 2.49
-5.45 8.83 2.49
-5.62 8.72 2.49
-5.80 8.61 2.49
-5.83 8.29 2.44
-5.89 8.03 2.39
-6.05 7.91 2.39
-6.21 7.79 2.39
-6.37 7.66 2.39
-6.52 7.54 2.39
-6.67 7.40 2.39
-6.82 7.27 2.39
-6.97 7.13 2.39
-7.11 6.99 2.39
-7.25 6.85 2.39
-7.39 6.71 2.39
-7.53 6.56 2.39
-7.66 6.41 2.39
-7.79 6.26 2.39
-7.91 6.10 2.39
-8.04 5.94 2.39
-8.16 5.78 2.39
-8.28 5.62 2.39
-8.39 5.45 2.39
-8.50 5.28 2.39
-8.61 5.11 2.39
-8.71 4.94 2.39
-8.81 4.77 2.39
-8.91 4.59 2.39
-9.00 4.41 2.39
-9.09 4.23 2.39
-9.18 4.05 2.39
-9.26 3.87 2.39
-9.34 3.68 2.39
-9.42 3.49 2.39
-9.49 3.31 2.39
-9.56 3.12 2.39
-9.62 2.92 2.39
-9.69 2.73 2.39
-9.74 2.54 2.39
-9.77 2.34 2.38
-9.76 2.13 2.37
-9.76 1.92 2.36
-9.76 1.72 2.35
-9.75 1.52 2.34
-9.75 1.32 2.33
-9.75 1.12 2.32
-9.83 0.93 2.34
-10.15 0.75 2.41
-10.17 0.55 2.41
-10.18 0.35 2.41
-10.15 0.14 2.40
-10.16 -0.06 2.40
-10.16 -0.27 2.40
-10.15 -0.47 2.40
-10.15 -0.68 2.40
-10.14 -0.88 2.40
-10.12 -1.08 2.40
-10.10 -1.29 2.40
-10.08 -1.49 2.40
-10.06 -1.69 2.40
-10.06 -1.90 2.41
-10.03 -2.11 2.41
-9.99 -2.31 2.41
-9.94 -2.51 2.41
-9.90 -2.71 2.41
-9.84 -2.91 2.41
-9.79 -3.11 2.41
-9.73 -3.30 2.41
-9.60 -3.48 2.39
-9.53 -3.67 2.39
-9.46 -3.86 2.39
-9.39 -4.06 2.39
-9.31 -4.24 2.39
-9.23 -4.43 2.39
-9.14 -4.62 2.39
-9.05 -4.80 2.39
-8.96 -4.99 2.39
-8.86 -5.17 2.39
-8.76 -5.35 2.39
-8.65 -5.52 2.39
-8.54 -5.70 2.39
-8.43 -5.87 2.39
-8.31 -6.04 2.39
-8.20 -6.21 2.39
-8.07 -6.38 2.39
-7.95 -6.54 2.39
-7.82 -6.70 2.39
-7.68 -6.86 2.39
-7.55 -7.02 2.39
-7.41 -7.17 2.39
-7.27 -7.32 2.39
-7.12 -7.47 2.39
-6.97 -7.61 2.39
-6.82 -7.75 2.39
-6.67 -7.89 2.39
-6.51 -8.03 2.39
-6.35 -8.16 2.39
-6.19 -8.29 2.39
-6.02 -8.41 2.39
-5.86 -8.53 2.39
-5.69 -8.65 2.39
-5.55 -8.83 2.41
-5.54 -9.21 2.48
-5.38 -9.38 2.49
-5.19 -9.49 2.49
-5.00 -9.59 2.49
-4.81 -9.69 2.49
-4.62 -9.79 2.49
-4.42 -9.88 2.49
-4.23 -9.97 2.49
-4.03 -10.06 2.49
-3.82 -10.14 2.49
-3.62 -10.22 2.49
-3.42 -10.29 2.49
-3.21 -10.36 2.49
-3.00 -10.42 2.49
-2.79 -10.48 2.49
-2.58 -10.54 2.49
-2.37 -10.59 2.49
-2.16 -10.64 2.49
-1.95 -10.68 2.49
-1.73 -10.72 2.49
-1.52 -10.76 2.49
-1.30 -10.79 2.49
-1.08 -10.81 2.49
-0.87 -10.83 2.49
-0.65 -10.85 2.49
-0.43 -10.86 2.49
-0.22 -10.87 2.49
0.00 -9.85 2.49
0.20 -9.85 2.49
0.40 -9.84 2.49
0.59 -9.83 2.49
0.79 -9.82 2.49
0.99 -9.80 2.49
1.19 -9.78 2.49
1.38 -9.76 2.49
1.58 -9.73 2.49
1.77 -9.69 2.49
1.97 -9.66 2.49
2.16 -9.62 2.49
2.35 -9.57 2.49
2.52 -9.42 2.47
2.62 -9.08 2.39
2.80 -9.02 2.39
2.98 -8.96 2.39
3.16 -8.90 2.39
3.34 -8.84 2.39
3.51 -8.77 2.39
3.69 -8.69 2.39
3.86 -8.62 2.39
4.03 -8.54 2.39
4.20 -8.45 2.39
4.37 -8.37 2.39
4.54 -8.28 2.39
4.70 -8.18 2.39
4.86 -8.08 2.39
5.02 -7.98 2.39
5.18 -7.88 2.39
5.34 -7.77 2.39
5.49 -7.66 2.39
5.64 -7.55 2.39
5.79 -7.43 2.39
5.94 -7.32 2.39
6.08 -7.19 2.39
6.22 -7.07 2.39
6.36 -6.94 2.39
6.19 -5.99 2.19
6.19 -5.75 2.15
6.23 -5.55 2.12
6.24 -5.35 2.09
6.23 -5.13 2.05
6.23 -4.92 2.02
6.23 -4.72 1.99
6.22 -4.52 1.96
6.22 -4.33 1.93
6.22 -4.15 1.90
6.22 -3.97 1.88
6.21 -3.79 1.86
6.21 -3.62 1.83
6.21 -3.46 1.81
6.20 -3.29 1.79
6.13 -3.10 1.75
6.20 -2.98 1.76
6.20 -2.82 1.74
6.19 -2.67 1.72
6.19 -2.53 1.71
6.19 -2.38 1.70
6.19 -2.24 1.68
6.18 -2.10 1.67
6.18 -1.96 1.66
6.18 -1.83 1.65
6.18 -1.69 1.64
6.18 -1.56 1.63
6.17 -1.43 1.63
6.17 -1.30 1.62
6.17 -1.17 1.61
6.17 -1.04 1.61
6.16 -0.91 1.60
6.16 -0.79 1.60
6.16 -0.66 1.59
6.16 -0.53 1.59
6.16 -0.41 1.59
6.15 -0.29 1.59
6.15 -0.16 1.59
6.15 -0.04 1.58
6.15 0.08 1.59
6.15 0.21 1.59
6.14 0.33 1.59
6.14 0.45 1.59
6.14 0.58 1.59
6.14 0.70 1.60
6.08 0.82 1.59
6.08 0.95 1.59
6.13 1.08 1.61
6.13 1.21 1.62
6.13 1.33 1.62
6.12 1.46 1.63
6.12 1.59 1.64
6.12 1.72 1.65
6.12 1.86 1.66
6.12 1.99 1.67
6.11 2.13 1.68
6.11 2.27 1.69
6.11 2.40 1.71
6.11 2.55 1.72
6.10 2.69 1.74
6.10 2.84 1.75
6.10 2.99 1.77
6.10 3.14 1.79
2.89 1.56 0.86
2.84 1.61 0.85
6.09 3.61 1.85
6.09 3.78 1.87
6.08 3.95 1.89
6.08 4.12 1.92
6.08 4.30 1.95
6.07 4.49 1.97
6.07 4.67 2.00
6.01 4.82 2.02
6.06 5.07 2.07
6.06 5.28 2.10
6.03 5.47 2.13
6.00 5.66 2.16
6.01 5.90 2.21
6.24 6.65 2.39
6.11 6.77 2.39
5.97 6.89 2.39
5.82 7.00 2.39
5.68 7.12 2.39
5.53 7.23 2.39
5.39 7.34 2.39
5.24 7.44 2.39
5.08 7.54 2.39
4.93 7.64 2.39
4.77 7.73 2.39
4.62 7.83 2.39
4.46 7.92 2.39
4.30 8.00 2.39
4.13 8.08 2.39
3.97 8.16 2.39
3.80 8.24 2.39
3.64 8.31 2.39
3.47 8.38 2.39
3.30 8.45 2.39
3.13 8.51 2.39
2.95 8.57 2.39
2.78 8.62 2.39
2.61 8.68 2.39
2.43 8.72 2.39
2.25 8.77 2.39
2.17 9.19 2.49
1.98 9.23 2.49
1.79 9.27 2.49
1.61 9.30 2.49
1.42 9.33 2.49
1.23 9.36 2.49
1.04 9.38 2.49
0.85 9.39 2.49
0.67 9.41 2.49
0.48 9.42 2.49
0.29 9.43 2.49
0.10 9.43 2.49
-0.09 9.43 2.49
-0.28 9.42 2.49
-0.47 9.42 2.49
-0.66 9.40 2.49
-0.85 9.39 2.49
-1.04 9.37 2.49
-1.23 9.35 2.49
-1.41 9.32 2.49
-1.60 9.29 2.49
-1.79 9.25 2.49
-1.97 9.22 2.49
-2.16 9.17 2.49
-2.34 9.13 2.49
-2.52 9.08 2.49
-2.71 9.03 2.49
-2.89 8.97 2.49
-3.07 8.91 2.49
-3.25 8.85 2.49
-3.42 8.78 2.49
-3.60 8.71 2.49
-3.77 8.64 2.49
-3.95 8.56 2.49
-4.12 8.48 2.49
-4.29 8.40 2.49
-4.46 8.31 2.49
-4.62 8.22 2.49
-4.79 8.13 2.49
-4.95 8.03 2.49
-5.11 7.93 2.49
-5.27 7.83 2.49
-5.43 7.72 2.49
-5.59 7.61 2.49
-5.74 7.50 2.49
-5.81 7.29 2.46
-5.81 7.00 2.40
-5.93 6.85 2.39
-6.07 6.73 2.39
-6.20 6.61 2.39
-6.34 6.49 2.39
-6.47 6.36 2.39
-6.59 6.23 2.39
-6.72 6.10 2.39
-6.84 5.96 2.39
-6.96 5.83 2.39
-7.08 5.69 2.39
-7.20 5.54 2.39
-7.31 5.40 2.39
-7.42 5.25 2.39
-7.52 5.10 2.39
-7.63 4.95 2.39
-7.73 4.80 2.39
-7.82 4.65 2.39
-7.92 4.49 2.39
-8.01 4.33 2.39
-8.10 4.17 2.39
-8.18 4.01 2.39
-8.26 3.85 2.39
-8.34 3.68 2.39
-8.42 3.51 2.39
-8.49 3.34 2.39
-8.56 3.17 2.39
-8.62 3.00 2.39
-8.69 2.83 2.39
-8.74 2.66 2.39
-8.80 2.48 2.39
-8.85 2.30 2.39
-8.90 2.13 2.39
-8.94 1.95 2.39
-8.99 1.77 2.39
-9.02 1.59 2.39
-9.06 1.41 2.39
-9.09 1.23 2.39
-9.11 1.04 2.39
-9.14 0.86 2.39
-9.16 0.68 2.39
-9.17 0.49 2.39
-9.18 0.31 2.39
-9.19 0.13 2.39
-9.20 -0.06 2.39
-9.20 -0.24 2.39
-9.19 -0.43 2.39
-9.19 -0.61 2.39
-9.18 -0.80 2.39
-9.16 -0.98 2.39
-9.15 -1.17 2.39
-9.13 -1.35 2.39
-9.10 -1.53 2.39
-9.07 -1.72 2.39
-9.04 -1.90 2.39
-9.00 -2.08 2.39
-8.96 -2.26 2.39
-8.92 -2.44 2.39
-8.87 -2.62 2.39
-8.82 -2.80 2.39
-8.77 -2.98 2.39
-8.71 -3.16 2.39
-8.65 -3.33 2.39
-8.59 -3.51 2.39
-8.52 -3.68 2.39
-8.45 -3.85 2.39
-8.37 -4.02 2.39
-8.29 -4.19 2.39
-8.21 -4.36 2.39
-8.12 -4.53 2.39
-8.03 -4.69 2.39
-7.94 -4.85 2.39
-7.85 -5.01 2.39
-7.75 -5.17 2.39
-7.65 -5.33 2.39
-7.54 -5.48 2.39
-7.43 -5.63 2.39
-7.32 -5.78 2.39
-7.21 -5.93 2.39
-7.09 -6.08 2.39
-6.97 -6.22 2.39
-6.84 -6.36 2.39
-6.72 -6.50 2.39
-6.59 -6.64 2.39
-6.46 -6.77 2.39
-6.32 -6.90 2.39
-6.18 -7.03 2.39
-6.04 -7.15 2.39
-5.90 -7.28 2.39
-5.76 -7.40 2.39
-5.61 -7.51 2.39
-5.56 -7.77 2.44
-5.54 -8.07 2.49
-5.37 -8.18 2.49
-5.21 -8.29 2.49
-5.05 -8.40 2.49
-4.88 -8.50 2.49
-4.71 -8.60 2.49
-4.54 -8.69 2.49
-4.36 -8.78 2.49
-4.19 -8.87 2.49
-4.01 -8.96 2.49
-3.83 -9.04 2.49
-3.65 -9.11 2.49
-3.46 -9.19 2.49
-3.28 -9.26 2.49
-3.10 -9.32 2.49
-2.91 -9.39 2.49
-2.72 -9.45 2.49
-2.53 -9.50 2.49
-2.34 -9.55 2.49
-2.15 -9.60 2.49
-1.96 -9.64 2.49
-1.76 -9.68 2.49
-1.57 -9.71 2.49
-1.37 -9.75 2.49
-1.18 -9.77 2.49
-0.98 -9.80 2.49
-0.79 -9.81 2.49
-0.59 -9.83 2.49
-0.39 -9.84 2.49
-0.19 -9.85 2.49
0.00 -8.99 2.49
0.18 -8.99 2.49
0.36 -8.99 2.49
0.54 -8.98 2.49
0.72 -8.97 2.49
0.90 -8.95 2.49
1.08 -8.93 2.49
1.26 -8.91 2.49
1.44 -8.88 2.49
1.62 -8.85 2.49
1.79 -8.82 2.49
1.97 -8.78 2.49
2.15 -8.74 2.49
2.32 -8.69 2.49
2.49 -8.64 2.49
2.56 -8.24 2.39
2.72 -8.18 2.39
2.88 -8.13 2.39
3.05 -8.07 2.39
3.21 -8.00 2.39
3.37 -7.94 2.39
3.53 -7.87 2.39
3.68 -7.79 2.39
3.84 -7.72 2.39
3.99 -7.64 2.39
4.14 -7.56 2.39
4.29 -7.47 2.39
4.44 -7.38 2.39
4.59 -7.29 2.39
4.73 -7.20 2.39
4.87 -7.10 2.39
5.01 -7.00 2.39
5.15 -6.90 2.39
5.29 -6.79 2.39
5.42 -6.68 2.39
5.55 -6.57 2.39
5.68 -6.46 2.39
5.81 -6.34 2.39
5.94 -6.22 2.39
6.06 -6.10 2.39
6.18 -5.97 2.39
6.29 -5.85 2.39
6.41 -5.72 2.39
6.17 -4.88 2.19
6.17 -4.68 2.16
6.19 -4.50 2.13
6.22 -4.33 2.11
6.22 -4.15 2.09
6.22 -3.97 2.06
6.21 -3.79 2.03
6.21 -3.62 2.01
6.21 -3.46 1.98
6.20 -3.29 1.96
6.13 -3.10 1.92
6.20 -2.98 1.92
6.20 -2.83 1.90
6.19 -2.68 1.89
6.19 -2.53 1.87
6.19 -2.38 1.86
6.19 -2.24 1.84
6.18 -2.10 1.83
6.18 -1.96 1.82
6.18 -1.83 1.81
6.18 -1.69 1.80
6.18 -1.56 1.79
6.17 -1.43 1.78
6.17 -1.30 1.77
6.17 -1.17 1.76
6.17 -1.04 1.76
6.16 -0.91 1.75
6.16 -0.79 1.75
6.16 -0.66 1.74
6.16 -0.54 1.74
6.16 -0.41 1.74
6.15 -0.29 1.74
6.15 -0.16 1.73
6.15 -0.04 1.73
6.15 0.08 1.73
6.15 0.21 1.73
6.14 0.33 1.74
6.14 0.45 1.74
6.14 0.58 1.74
6.14 0.70 1.75
6.08 0.82 1.73
6.08 0.94 1.74
6.13 1.08 1.76
6.13 1.21 1.77
6.13 1.33 1.78
6.12 1.46 1.78
6.12 1.59 1.79
6.12 1.72 1.80
6.12 1.86 1.81
6.12 1.99 1.82
6.11 2.13 1.84
6.11 2.26 1.85
6.11 2.40 1.87
6.11 2.55 1.88
6.10 2.69 1.90
6.10 2.84 1.91
6.10 2.99 1.93
6.10 3.14 1.95
2.89 1.56 0.94
2.84 1.61 0.93
6.09 3.61 2.02
6.09 3.78 2.04
6.08 3.95 2.07
6.08 4.12 2.10
6.06 4.29 2.12
6.03 4.45 2.14
6.01 4.63 2.17
6.01 4.82 2.20
6.19 5.61 2.39
6.08 5.74 2.39
5.96 5.85 2.39
5.84 5.97 2.39
5.72 6.09 2.39
5.59 6.20 2.39
5.46 6.31 2.39
5.33 6.41 2.39
5.20 6.52 2.39
5.07 6.62 2.39
4.93 6.72 2.39
4.79 6.81 2.39
4.66 6.90 2.39
4.51 6.99 2.39
4.37 7.08 2.39
4.23 7.17 2.39
4.08 7.25 2.39
3.93 7.33 2.39
3.79 7.40 2.39
3.63 7.47 2.39
3.48 7.54 2.39
3.33 7.61 2.39
3.18 7.67 2.39
3.02 7.74 2.39
2.86 7.79 2.39
2.71 7.85 2.39
2.55 7.90 2.39
2.39 7.95 2.39
2.23 8.02 2.40
2.15 8.38 2.49
1.98 8.42 2.49
1.81 8.46 2.49
1.64 8.49 2.49
1.47 8.52 2.49
1.30 8.55 2.49
1.13 8.57 2.49
0.96 8.59 2.49
0.78 8.61 2.49
0.61 8.62 2.49
0.44 8.63 2.49
0.26 8.63 2.49
0.09 8.64 2.49
-0.08 8.64 2.49
-0.26 8.63 2.49
-0.43 8.63 2.49
-0.60 8.61 2.49
-0.78 8.60 2.49
-0.95 8.58 2.49
-1.12 8.56 2.49
-1.29 8.54 2.49
-1.47 8.51 2.49
-1.64 8.48 2.49
-1.81 8.44 2.49
-1.98 8.40 2.49
-2.14 8.36 2.49
-2.31 8.32 2.49
-2.48 8.27 2.49
-2.64 8.22 2.49
-2.81 8.17 2.49
-2.97 8.11 2.49
-3.14 8.05 2.49
-3.30 7.98 2.49
-3.46 7.92 2.49
-3.62 7.84 2.49
-3.77 7.77 2.49
-3.93 7.69 2.49
-4.08 7.62 2.49
-4.24 7.53 2.49
-4.39 7.45 2.49
-4.54 7.36 2.49
-4.68 7.27 2.49
-4.83 7.17 2.49
-4.97 7.07 2.49
-5.12 6.97 2.49
-5.26 6.87 2.49
-5.39 6.77 2.49
-5.53 6.66 2.49
-5.66 6.55 2.49
-5.80 6.43 2.49
-5.79 6.17 2.44
-5.80 5.94 2.39
-5.92 5.82 2.39
-6.04 5.70 2.39
-6.15 5.58 2.39
-6.27 5.46 2.39
-6.38 5.33 2.39
-6.48 5.21 2.39
-6.59 5.08 2.39
-6.69 4.94 2.39
-6.79 4.81 2.39
-6.89 4.67 2.39
-6.98 4.54 2.39
-7.08 4.40 2.39
-7.16 4.25 2.39
-7.25 4.11 2.39
-7.33 3.97 2.39
-7.41 3.82 2.39
-7.49 3.67 2.39
-7.57 3.52 2.39
-7.64 3.37 2.39
-7.71 3.21 2.39
-7.77 3.06 2.39
-7.84 2.90 2.39
-7.90 2.75 2.39
-7.95 2.59 2.39
-8.00 2.43 2.39
-8.05 2.27 2.39
-8.10 2.11 2.39
-8.15 1.95 2.39
-8.19 1.78 2.39
-8.22 1.62 2.39
-8.26 1.45 2.39
-8.29 1.29 2.39
-8.32 1.12 2.39
-8.34 0.95 2.39
-8.36 0.79 2.39
-8.38 0.62 2.39
-8.39 0.45 2.39
-8.40 0.28 2.39
-8.41 0.11 2.39
-8.41 -0.05 2.39
-8.41 -0.22 2.39
-8.41 -0.39 2.39
-8.41 -0.56 2.39
-8.40 -0.73 2.39
-8.38 -0.90 2.39
-8.37 -1.07 2.39
-8.35 -1.24 2.39
-8.32 -1.40 2.39
-8.30 -1.57 2.39
-8.27 -1.74 2.39
-8.23 -1.91 2.39
-8.20 -2.07 2.39
-8.16 -2.24 2.39
-8.12 -2.40 2.39
-8.07 -2.56 2.39
-8.02 -2.73 2.39
-7.97 -2.89 2.39
-7.91 -3.05 2.39
-7.85 -3.21 2.39
-7.79 -3.37 2.39
-7.72 -3.52 2.39
-7.65 -3.68 2.39
-7.58 -3.83 2.39
-7.50 -3.99 2.39
-7.43 -4.14 2.39
-7.34 -4.29 2.39
-7.26 -4.44 2.39
-7.17 -4.58 2.39
-7.08 -4.73 2.39
-6.99 -4.87 2.39
-6.89 -5.01 2.39
-6.79 -5.15 2.39
-6.69 -5.29 2.39
-6.58 -5.42 2.39
-6.48 -5.56 2.39
-6.37 -5.69 2.39
-6.25 -5.82 2.39
-6.14 -5.94 2.39
-6.02 -6.07 2.39
-5.90 -6.19 2.39
-5.78 -6.31 2.39
-5.65 -6.42 2.39
-5.58 -6.61 2.42
-5.57 -6.87 2.47
-5.49 -7.05 2.49
-5.34 -7.16 2.49
-5.20 -7.27 2.49
-5.06 -7.37 2.49
-4.91 -7.48 2.49
-4.76 -7.57 2.49
-4.61 -7.67 2.49
-4.45 -7.76 2.49
-4.30 -7.85 2.49
-4.14 -7.94 2.49
-3.98 -8.02 2.49
-3.82 -8.10 2.49
-3.66 -8.18 2.49
-3.50 -8.25 2.49
-3.33 -8.33 2.49
-3.16 -8.39 2.49
-3.00 -8.46 2.49
-2.83 -8.52 2.49
-2.66 -8.57 2.49
-2.48 -8.63 2.49
-2.31 -8.68 2.49
-2.14 -8.72 2.49
-1.96 -8.76 2.49
-1.79 -8.80 2.49
-1.61 -8.84 2.49
-1.43 -8.87 2.49
-1.25 -8.90 2.49
-1.08 -8.92 2.49
-0.90 -8.94 2.49
-0.72 -8.96 2.49
-0.54 -8.98 2.49
-0.36 -8.99 2.49
-0.18 -8.99 2.49
0.00 -8.27 2.49
0.17 -8.27 2.49
0.33 -8.26 2.49
0.50 -8.25 2.49
0.66 -8.24 2.49
0.83 -8.23 2.49
0.99 -8.21 2.49
1.16 -8.19 2.49
1.32 -8.16 2.49
1.49 -8.14 2.49
1.65 -8.10 2.49
1.81 -8.07 2.49
1.97 -8.03 2.49
2.13 -7.99 2.49
2.29 -7.95 2.49
2.45 -7.90 2.49
2.50 -7.52 2.39
2.65 -7.47 2.39
2.80 -7.41 2.39
2.95 -7.36 2.39
3.09 -7.30 2.39
3.24 -7.23 2.39
3.38 -7.16 2.39
3.53 -7.09 2.39
3.67 -7.02 2.39
3.81 -6.95 2.39
3.94 -6.87 2.39
4.08 -6.79 2.39
4.22 -6.70 2.39
4.35 -6.62 2.39
4.48 -6.53 2.39
4.61 -6.43 2.39
4.74 -6.34 2.39
4.86 -6.24 2.39
4.98 -6.14 2.39
5.11 -6.04 2.39
5.22 -5.94 2.39
5.34 -5.83 2.39
5.46 -5.72 2.39
5.57 -5.61 2.39
5.68 -5.49 2.39
5.79 -5.38 2.39
5.89 -5.26 2.39
5.99 -5.14 2.39
6.09 -5.02 2.39
6.19 -4.89 2.39
6.29 -4.76 2.39
6.38 -4.64 2.39
6.16 -3.76 2.19
6.15 -3.59 2.16
6.16 -3.43 2.14
6.18 -3.28 2.13
6.13 -3.10 2.09
6.20 -2.98 2.09
