ply
format ascii 1.0
element vertex 2986
property float32 x
property float32 y
property float32 z
end_header
-5.73 7.19 2.39
-5.88 7.08 2.39
-6.02 6.96 2.39
-6.16 6.84 2.39
-6.30 6.71 2.39
-6.43 6.59 2.39
-6.56 6.46 2.39
-6.69 6.32 2.39
-6.82 6.19 2.39
-6.94 6.05 2.39
-7.06 5.91 2.39
-7.18 5.77 2.39
-7.30 5.63 2.39
-7.41 5.48 2.39
-7.52 5.33 2.39
-7.63 5.18 2.39
-7.73 5.03 2.39
-7.83 4.87 2.39
-7.93 4.72 2.39
-8.03 4.56 2.39
-8.12 4.39 2.39
-8.20 4.23 2.39
-8.29 4.07 2.39
-8.37 3.90 2.39
-8.45 3.73 2.39
-8.52 3.56 2.39
-8.60 3.39 2.39
-8.66 3.22 2.39
-8.73 3.04 2.39
-8.79 2.87 2.39
-8.85 2.69 2.39
-8.90 2.52 2.39
-8.95 2.34 2.39
-9.00 2.16 2.39
-9.04 1.98 2.39
-9.08 1.79 2.39
-9.12 1.61 2.39
-9.15 1.43 2.39
-9.18 1.25 2.39
-9.20 1.06 2.39
-9.22 0.88 2.39
-9.24 0.69 2.39
-9.25 0.51 2.39
-9.26 0.32 2.39
-9.27 0.13 2.39
-9.27 -0.05 2.39
-9.27 -0.24 2.39
-9.27 -0.42 2.39
-9.26 -0.61 2.39
-9.25 -0.80 2.39
-9.23 -0.98 2.39
-9.21 -1.17 2.39
-9.19 -1.35 2.39
-9.16 -1.54 2.39
-9.13 -1.72 2.39
-9.09 -1.90 2.39
-9.05 -2.08 2.39
-9.01 -2.27 2.39
-8.96 -2.45 2.39
-8.92 -2.63 2.39
-8.86 -2.81 2.39
-8.81 -2.98 2.39
-8.74 -3.16 2.39
-8.68 -3.33 2.39
-8.61 -3.51 2.39
-8.54 -3.68 2.39
-8.47 -3.85 2.39
-8.39 -4.02 2.39
-8.31 -4.19 2.39
-8.22 -4.36 2.39
-8.14 -4.52 2.39
-8.04 -4.68 2.39
-7.95 -4.84 2.39
-7.85 -5.00 2.39
-7.75 -5.16 2.39
-6.11 -4.25 1.91
-7.54 -5.47 2.39
-7.43 -5.62 2.39
-7.31 -5.77 2.39
-7.20 -5.91 2.39
-7.08 -6.06 2.39
-6.96 -6.20 2.39
-6.83 -6.34 2.39
-6.70 -6.47 2.39
-6.57 -6.61 2.39
-6.44 -6.74 2.39
-6.30 -6.87 2.39
-6.16 -6.99 2.39
-6.02 -7.11 2.39
-5.89 -7.25 2.40
-5.88 -7.54 2.45
-5.82 -7.79 2.49
-5.67 -7.90 2.49
-5.51 -8.01 2.49
-5.35 -8.12 2.49
-5.18 -8.23 2.49
-5.02 -8.33 2.49
-4.85 -8.43 2.49
-4.68 -8.53 2.49
-4.51 -8.62 2.49
-4.33 -8.71 2.49
-4.16 -8.79 2.49
-3.98 -8.87 2.49
-3.80 -8.95 2.49
-3.62 -9.03 2.49
-3.44 -9.10 2.49
-3.26 -9.17 2.49
-3.07 -9.23 2.49
-2.89 -9.29 2.49
-2.70 -9.34 2.49
-2.51 -9.40 2.49
-2.32 -9.44 2.49
-2.13 -9.49 2.49
-1.94 -9.53 2.49
-1.75 -9.56 2.49
-1.56 -9.60 2.49
-1.36 -9.63 2.49
-1.17 -9.65 2.49
-0.98 -9.67 2.49
-0.78 -9.69 2.49
-0.59 -9.70 2.49
-0.39 -9.71 2.49
-0.20 -9.72 2.49
-0.00 -8.88 2.49
0.18 -8.88 2.49
0.35 -8.87 2.49
0.53 -8.86 2.49
0.71 -8.85 2.49
0.89 -8.83 2.49
1.06 -8.81 2.49
1.24 -8.79 2.49
1.42 -8.76 2.49
1.59 -8.73 2.49
1.77 -8.70 2.49
1.94 -8.66 2.49
2.11 -8.62 2.49
2.19 -8.22 2.39
2.37 -8.21 2.40
2.52 -8.12 2.39
2.68 -8.07 2.39
2.84 -8.01 2.39
3.00 -7.95 2.39
3.16 -7.89 2.39
3.32 -7.82 2.39
3.47 -7.75 2.39
3.63 -7.68 2.39
3.78 -7.61 2.39
3.93 -7.53 2.39
4.08 -7.45 2.39
4.23 -7.36 2.39
4.37 -7.27 2.39
4.52 -7.18 2.39
4.66 -7.09 2.39
4.80 -6.99 2.39
4.94 -6.90 2.39
5.08 -6.79 2.39
5.21 -6.69 2.39
5.34 -6.58 2.39
5.47 -6.47 2.39
5.60 -6.36 2.39
5.73 -6.25 2.39
5.85 -6.13 2.39
5.97 -6.01 2.39
6.09 -5.89 2.39
6.21 -5.76 2.39
5.96 -5.11 2.22
5.93 -4.88 2.17
5.95 -4.69 2.14
5.98 -4.53 2.12
6.00 -4.36 2.10
6.00 -4.18 2.07
5.95 -3.96 2.02
5.98 -3.82 2.01
6.01 -3.67 1.99
6.01 -3.50 1.97
6.01 -3.34 1.95
6.02 -3.19 1.93
6.02 -3.04 1.91
6.02 -2.89 1.89
6.02 -2.74 1.87
6.02 -2.60 1.86
6.03 -2.46 1.84
6.03 -2.32 1.83
6.03 -2.18 1.82
6.03 -2.05 1.80
6.03 -1.91 1.79
6.04 -1.78 1.78
6.04 -1.65 1.77
6.04 -1.52 1.77
6.04 -1.39 1.76
6.04 -1.27 1.75
6.04 -1.14 1.75
6.05 -1.01 1.74
6.05 -0.89 1.74
6.05 -0.77 1.73
6.05 -0.64 1.73
6.05 -0.52 1.73
6.06 -0.40 1.72
6.06 -0.28 1.72
6.06 -0.16 1.72
6.06 -0.03 1.72
5.99 0.09 1.70
6.06 0.21 1.72
6.07 0.33 1.73
6.07 0.45 1.73
6.07 0.58 1.73
6.07 0.70 1.74
6.07 0.82 1.74
6.07 0.95 1.75
6.08 1.07 1.76
6.08 1.20 1.76
6.08 1.33 1.77
6.08 1.46 1.78
6.08 1.59 1.79
6.08 1.72 1.80
6.09 1.85 1.81
6.09 1.99 1.82
6.09 2.13 1.84
6.09 2.26 1.85
6.09 2.41 1.87
6.10 2.55 1.88
6.10 2.70 1.90
6.10 2.84 1.92
6.10 3.00 1.94
6.11 3.15 1.96
6.11 3.31 1.98
6.11 3.47 2.00
6.11 3.64 2.03
6.11 3.81 2.05
6.12 3.98 2.08
6.05 4.11 2.09
6.09 4.32 2.13
6.07 4.49 2.15
6.07 4.68 2.19
6.31 5.51 2.39
6.20 5.63 2.39
6.09 5.76 2.39
5.97 5.88 2.39
5.85 6.00 2.39
5.73 6.11 2.39
5.60 6.22 2.39
5.48 6.34 2.39
5.35 6.44 2.39
5.22 6.55 2.39
5.08 6.65 2.39
4.95 6.75 2.39
4.81 6.85 2.39
4.67 6.95 2.39
4.53 7.04 2.39
4.39 7.13 2.39
4.25 7.21 2.39
4.10 7.30 2.39
3.95 7.38 2.39
3.80 7.46 2.39
3.65 7.53 2.39
3.50 7.60 2.39
3.35 7.67 2.39
3.19 7.74 2.39
3.04 7.80 2.39
2.88 7.86 2.39
2.72 7.92 2.39
2.56 7.97 2.39
2.40 8.02 2.39
2.34 8.42 2.49
2.17 8.46 2.49
2.00 8.50 2.49
1.83 8.54 2.49
1.65 8.58 2.49
1.48 8.61 2.49
1.31 8.64 2.49
1.14 8.66 2.49
0.96 8.68 2.49
0.79 8.70 2.49
0.61 8.72 2.49
0.44 8.73 2.49
0.26 8.74 2.49
0.09 8.74 2.49
-0.09 8.74 2.49
-0.27 8.74 2.49
-0.44 8.73 2.49
-0.62 8.72 2.49
-0.79 8.71 2.49
-0.97 8.69 2.49
-1.14 8.67 2.49
-1.31 8.65 2.49
-1.49 8.62 2.49
-1.66 8.59 2.49
-1.83 8.55 2.49
-2.01 8.52 2.49
-2.18 8.48 2.49
-2.35 8.43 2.49
-2.52 8.38 2.49
-2.68 8.33 2.49
-2.85 8.28 2.49
-3.02 8.22 2.49
-3.18 8.16 2.49
-3.35 8.09 2.49
-3.51 8.03 2.49
-3.67 7.96 2.49
-3.83 7.88 2.49
-3.99 7.80 2.49
-4.14 7.72 2.49
-4.30 7.64 2.49
-4.45 7.55 2.49
-4.60 7.46 2.49
-4.75 7.37 2.49
-4.90 7.27 2.49
-5.05 7.18 2.49
-5.19 7.07 2.49
-5.33 6.97 2.49
-5.47 6.86 2.49
-5.61 6.75 2.49
-5.68 6.57 2.47
-5.69 6.32 2.42
-5.76 6.14 2.39
-5.89 6.03 2.39
-6.00 5.91 2.39
-6.12 5.79 2.39
-6.24 5.66 2.39
-6.35 5.54 2.39
-6.46 5.41 2.39
-6.57 5.28 2.39
-6.68 5.15 2.39
-6.78 5.01 2.39
-6.88 4.88 2.39
-6.98 4.74 2.39
-7.07 4.60 2.39
-7.16 4.46 2.39
-7.25 4.31 2.39
-7.34 4.17 2.39
-7.42 4.02 2.39
-7.50 3.87 2.39
-7.58 3.72 2.39
-7.66 3.57 2.39
-7.73 3.41 2.39
-7.80 3.26 2.39
-7.86 3.10 2.39
-7.92 2.94 2.39
-7.98 2.78 2.39
-8.04 2.62 2.39
-8.09 2.46 2.39
-8.14 2.30 2.39
-8.19 2.14 2.39
-8.23 1.97 2.39
-8.27 1.81 2.39
-8.30 1.64 2.39
-8.34 1.47 2.39
-8.37 1.31 2.39
-8.39 1.14 2.39
-8.41 0.97 2.39
-8.43 0.80 2.39
-8.45 0.63 2.39
-8.46 0.46 2.39
-8.47 0.29 2.39
-8.48 0.12 2.39
-8.48 -0.05 2.39
-8.48 -0.22 2.39
-8.47 -0.39 2.39
-8.46 -0.56 2.39
-8.45 -0.73 2.39
-8.44 -0.90 2.39
-8.42 -1.07 2.39
-8.40 -1.24 2.39
-8.37 -1.40 2.39
-8.34 -1.57 2.39
-8.31 -1.74 2.39
-8.28 -1.91 2.39
-8.24 -2.07 2.39
-8.20 -2.24 2.39
-8.15 -2.40 2.39
-8.10 -2.56 2.39
-8.05 -2.73 2.39
-7.99 -2.89 2.39
-7.94 -3.05 2.39
-7.87 -3.21 2.39
-7.81 -3.37 2.39
-7.74 -3.52 2.39
-7.67 -3.68 2.39
-7.59 -3.83 2.39
-7.52 -3.98 2.39
-7.44 -4.13 2.39
-7.35 -4.28 2.39
-7.27 -4.43 2.39
-7.18 -4.57 2.39
-7.08 -4.72 2.39
-6.11 -4.25 2.09
-6.89 -5.00 2.39
-6.79 -5.14 2.39
-6.69 -5.27 2.39
-6.58 -5.41 2.39
-6.47 -5.54 2.39
-6.36 -5.67 2.39
-6.24 -5.79 2.39
-6.13 -5.92 2.39
-6.01 -6.04 2.39
-5.88 -6.16 2.39
-5.87 -6.39 2.44
-5.87 -6.66 2.49
-5.74 -6.78 2.49
-5.60 -6.90 2.49
-5.47 -7.01 2.49
-5.32 -7.12 2.49
-5.18 -7.22 2.49
-5.03 -7.33 2.49
-4.89 -7.43 2.49
-4.74 -7.52 2.49
-4.58 -7.62 2.49
-4.43 -7.71 2.49
-4.28 -7.79 2.49
-4.12 -7.88 2.49
-3.96 -7.96 2.49
-3.80 -8.04 2.49
-3.64 -8.11 2.49
-3.47 -8.18 2.49
-3.31 -8.25 2.49
-3.14 -8.32 2.49
-2.98 -8.38 2.49
-2.81 -8.43 2.49
-2.64 -8.49 2.49
-2.47 -8.54 2.49
-2.29 -8.59 2.49
-2.12 -8.63 2.49
-1.95 -8.67 2.49
-1.77 -8.71 2.49
-1.60 -8.74 2.49
-1.42 -8.77 2.49
-1.25 -8.80 2.49
-1.07 -8.82 2.49
-0.89 -8.84 2.49
-0.71 -8.86 2.49
-0.54 -8.87 2.49
-0.36 -8.88 2.49
-0.18 -8.88 2.49
-0.00 -8.17 2.49
0.16 -8.17 2.49
0.33 -8.16 2.49
0.49 -8.15 2.49
0.65 -8.14 2.49
0.82 -8.13 2.49
0.98 -8.11 2.49
1.14 -8.09 2.49
1.30 -8.06 2.49
1.46 -8.03 2.49
1.62 -8.00 2.49
1.78 -7.97 2.49
1.94 -7.93 2.49
2.10 -7.89 2.49
2.17 -7.54 2.40
2.32 -7.47 2.39
2.47 -7.42 2.39
2.61 -7.37 2.39
2.76 -7.32 2.39
2.91 -7.26 2.39
3.05 -7.20 2.39
3.19 -7.13 2.39
3.34 -7.07 2.39
3.48 -7.00 2.39
3.62 -6.93 2.39
3.75 -6.85 2.39
3.89 -6.77 2.39
4.02 -6.69 2.39
4.16 -6.61 2.39
4.29 -6.52 2.39
4.42 -6.44 2.39
4.55 -6.35 2.39
4.67 -6.25 2.39
4.80 -6.16 2.39
4.92 -6.06 2.39
5.04 -5.96 2.39
5.15 -5.85 2.39
5.27 -5.75 2.39
5.38 -5.64 2.39
5.50 -5.53 2.39
5.60 -5.42 2.39
5.71 -5.30 2.39
5.82 -5.19 2.39
5.92 -5.07 2.39
6.02 -4.95 2.39
6.11 -4.83 2.39
6.21 -4.70 2.39
5.95 -3.97 2.20
5.95 -3.80 2.17
5.96 -3.63 2.14
5.98 -3.49 2.13
6.01 -3.34 2.12
6.02 -3.19 2.09
6.02 -3.04 2.07
6.02 -2.89 2.05
6.02 -2.74 2.04
6.02 -2.60 2.02
6.03 -2.46 2.00
6.03 -2.32 1.99
6.03 -2.18 1.97
6.03 -2.05 1.96
6.03 -1.91 1.95
6.04 -1.78 1.94
6.04 -1.65 1.93
6.04 -1.52 1.92
6.04 -1.39 1.91
6.04 -1.27 1.90
6.04 -1.14 1.90
6.05 -1.01 1.89
6.05 -0.89 1.88
6.05 -0.77 1.88
6.05 -0.64 1.88
6.05 -0.52 1.87
6.06 -0.40 1.87
6.06 -0.28 1.87
6.06 -0.16 1.87
6.06 -0.03 1.87
5.99 0.09 1.85
6.06 0.21 1.87
6.07 0.33 1.88
6.07 0.45 1.88
6.07 0.58 1.88
6.07 0.70 1.89
6.07 0.82 1.89
6.07 0.95 1.90
6.08 1.07 1.91
6.08 1.20 1.91
6.08 1.33 1.92
6.08 1.46 1.93
6.08 1.59 1.94
6.08 1.72 1.96
6.09 1.85 1.97
6.09 1.99 1.98
6.09 2.13 2.00
6.09 2.26 2.01
6.09 2.41 2.03
6.10 2.55 2.04
6.10 2.69 2.06
6.10 2.84 2.08
6.10 3.00 2.10
6.09 3.14 2.12
6.07 3.29 2.14
6.05 3.44 2.16
6.05 3.60 2.18
6.10 3.80 2.23
6.05 4.11 2.26
6.30 4.47 2.39
6.20 4.59 2.39
6.11 4.71 2.39
6.01 4.84 2.39
5.92 4.95 2.39
5.81 5.07 2.39
5.71 5.19 2.39
5.60 5.30 2.39
5.50 5.41 2.39
5.39 5.52 2.39
5.27 5.63 2.39
5.16 5.73 2.39
5.04 5.83 2.39
4.93 5.93 2.39
4.80 6.03 2.39
4.68 6.13 2.39
4.56 6.22 2.39
4.43 6.31 2.39
4.30 6.40 2.39
4.18 6.48 2.39
4.04 6.56 2.39
3.91 6.64 2.39
3.78 6.72 2.39
3.64 6.80 2.39
3.50 6.87 2.39
3.37 6.94 2.39
3.23 7.00 2.39
3.08 7.07 2.39
2.94 7.13 2.39
2.80 7.18 2.39
2.65 7.24 2.39
2.51 7.29 2.39
2.38 7.41 2.41
2.31 7.71 2.49
2.15 7.75 2.49
2.00 7.79 2.49
1.84 7.83 2.49
1.68 7.87 2.49
1.52 7.90 2.49
1.36 7.93 2.49
1.21 7.95 2.49
1.05 7.98 2.49
0.88 8.00 2.49
0.72 8.01 2.49
0.56 8.03 2.49
0.40 8.04 2.49
0.24 8.04 2.49
0.08 8.05 2.49
-0.08 8.05 2.49
-0.24 8.05 2.49
-0.41 8.04 2.49
-0.57 8.03 2.49
-0.73 8.02 2.49
-0.89 8.00 2.49
-1.05 7.98 2.49
-1.21 7.96 2.49
-1.37 7.94 2.49
-1.53 7.91 2.49
-1.69 7.88 2.49
-1.85 7.84 2.49
-2.00 7.80 2.49
-2.16 7.76 2.49
-2.32 7.72 2.49
-2.47 7.67 2.49
-2.63 7.62 2.49
-2.78 7.57 2.49
-2.93 7.51 2.49
-3.08 7.45 2.49
-3.23 7.39 2.49
-3.38 7.32 2.49
-3.53 7.26 2.49
-3.67 7.19 2.49
-3.81 7.11 2.49
-3.96 7.03 2.49
-4.10 6.95 2.49
-4.24 6.87 2.49
-4.38 6.79 2.49
-4.51 6.70 2.49
-4.65 6.61 2.49
-4.78 6.51 2.49
-4.91 6.42 2.49
-5.04 6.32 2.49
-5.16 6.22 2.49
-5.29 6.11 2.49
-5.41 6.01 2.49
-5.53 5.90 2.49
-5.65 5.79 2.49
-5.70 5.61 2.47
-5.71 5.39 2.42
-5.74 5.21 2.39
-5.85 5.10 2.39
-5.95 4.98 2.39
-6.05 4.86 2.39
-6.15 4.74 2.39
-6.24 4.61 2.39
-6.33 4.49 2.39
-6.42 4.36 2.39
-6.51 4.23 2.39
-6.60 4.10 2.39
-6.68 3.97 2.39
-6.76 3.83 2.39
-6.83 3.70 2.39
-6.91 3.56 2.39
-6.98 3.42 2.39
-7.05 3.28 2.39
-7.11 3.14 2.39
-7.18 3.00 2.39
-7.24 2.85 2.39
-7.29 2.71 2.39
-7.35 2.56 2.39
-7.40 2.41 2.39
-7.45 2.27 2.39
-7.49 2.12 2.39
-7.53 1.97 2.39
-7.57 1.81 2.39
-7.61 1.66 2.39
-7.64 1.51 2.39
-7.67 1.36 2.39
-7.70 1.20 2.39
-7.72 1.05 2.39
-7.74 0.89 2.39
-7.76 0.74 2.39
-7.78 0.58 2.39
-7.79 0.43 2.39
-7.79 0.27 2.39
-7.80 0.11 2.39
-7.80 -0.04 2.39
-7.80 -0.20 2.39
-7.80 -0.36 2.39
-7.79 -0.51 2.39
-7.78 -0.67 2.39
-7.76 -0.83 2.39
-7.75 -0.98 2.39
-7.73 -1.14 2.39
-7.70 -1.29 2.39
-7.68 -1.45 2.39
-7.65 -1.60 2.39
-7.61 -1.75 2.39
-7.58 -1.91 2.39
-7.54 -2.06 2.39
-7.50 -2.21 2.39
-7.45 -2.36 2.39
-7.41 -2.51 2.39
-7.35 -2.66 2.39
-7.30 -2.81 2.39
-7.24 -2.95 2.39
-7.18 -3.10 2.39
-7.12 -3.24 2.39
-7.06 -3.38 2.39
-6.99 -3.52 2.39
-6.92 -3.66 2.39
-6.84 -3.80 2.39
-6.76 -3.94 2.39
-6.68 -4.07 2.39
-6.60 -4.21 2.39
-6.52 -4.34 2.39
-6.11 -4.25 2.27
-6.34 -4.60 2.39
-6.25 -4.73 2.39
-6.15 -4.85 2.39
-6.05 -4.97 2.39
-5.95 -5.09 2.39
-5.86 -5.22 2.40
-5.85 -5.43 2.44
-5.86 -5.66 2.49
-5.76 -5.79 2.49
-5.65 -5.91 2.49
-5.53 -6.02 2.49
-5.41 -6.13 2.49
-5.28 -6.24 2.49
-5.16 -6.34 2.49
-5.03 -6.45 2.49
-4.90 -6.55 2.49
-4.76 -6.64 2.49
-4.63 -6.74 2.49
-4.49 -6.83 2.49
-4.36 -6.92 2.49
-4.22 -7.00 2.49
-4.08 -7.09 2.49
-3.93 -7.17 2.49
-3.79 -7.25 2.49
-3.64 -7.32 2.49
-3.49 -7.39 2.49
-3.35 -7.46 2.49
-3.20 -7.53 2.49
-3.04 -7.59 2.49
-2.89 -7.65 2.49
-2.74 -7.70 2.49
-2.58 -7.76 2.49
-2.43 -7.81 2.49
-2.27 -7.86 2.49
-2.11 -7.90 2.49
-1.95 -7.94 2.49
-1.79 -7.98 2.49
-1.63 -8.01 2.49
-1.47 -8.04 2.49
-1.31 -8.07 2.49
-1.15 -8.09 2.49
-0.98 -8.11 2.49
-0.82 -8.13 2.49
-0.66 -8.15 2.49
-0.49 -8.16 2.49
-0.33 -8.17 2.49
-0.17 -8.17 2.49
-0.00 -7.56 2.49
0.15 -7.55 2.49
0.30 -7.55 2.49
0.45 -7.54 2.49
0.60 -7.53 2.49
0.75 -7.52 2.49
0.90 -7.50 2.49
1.05 -7.48 2.49
1.20 -7.46 2.49
1.35 -7.43 2.49
1.50 -7.40 2.49
1.65 -7.37 2.49
1.80 -7.33 2.49
1.94 -7.29 2.49
2.09 -7.25 2.49
2.17 -7.02 2.43
2.28 -6.87 2.39
2.42 -6.82 2.39
2.55 -6.77 2.39
2.69 -6.71 2.39
2.82 -6.66 2.39
2.95 -6.60 2.39
3.09 -6.54 2.39
3.22 -6.47 2.39
3.34 -6.41 2.39
3.47 -6.34 2.39
3.60 -6.27 2.39
3.72 -6.19 2.39
3.85 -6.11 2.39
3.97 -6.04 2.39
4.09 -5.95 2.39
4.20 -5.87 2.39
4.32 -5.78 2.39
4.43 -5.69 2.39
4.55 -5.60 2.39
4.66 -5.51 2.39
4.77 -5.42 2.39
4.88 -5.32 2.39
4.98 -5.22 2.39
5.08 -5.12 2.39
5.18 -5.01 2.39
5.28 -4.91 2.39
5.38 -4.80 2.39
5.47 -4.69 2.39
5.57 -4.58 2.39
5.66 -4.46 2.39
5.74 -4.35 2.39
5.83 -4.23 2.39
5.91 -4.11 2.39
5.99 -3.99 2.39
5.99 -3.82 2.36
6.15 -3.75 2.39
6.22 -3.62 2.39
5.97 -2.86 2.20
5.97 -2.72 2.18
5.97 -2.57 2.16
5.97 -2.44 2.14
5.99 -2.30 2.13
6.01 -2.17 2.13
6.03 -2.05 2.12
6.03 -1.91 2.11
6.04 -1.78 2.09
6.04 -1.65 2.08
6.04 -1.52 2.07
6.04 -1.39 2.06
6.04 -1.27 2.06
6.04 -1.14 2.05
6.05 -1.02 2.04
6.05 -0.89 2.04
6.05 -0.77 2.03
6.05 -0.64 2.03
6.05 -0.52 2.03
6.06 -0.40 2.02
6.06 -0.28 2.02
6.06 -0.16 2.02
6.06 -0.03 2.02
5.99 0.09 2.00
6.06 0.21 2.02
6.07 0.33 2.03
6.07 0.45 2.03
6.07 0.58 2.03
6.07 0.70 2.04
6.07 0.82 2.05
6.07 0.95 2.05
6.08 1.07 2.06
6.08 1.20 2.07
6.08 1.33 2.08
6.08 1.46 2.09
6.08 1.59 2.10
6.08 1.72 2.11
6.07 1.85 2.12
6.06 1.98 2.13
6.04 2.11 2.14
6.04 2.24 2.15
6.04 2.38 2.17
6.04 2.52 2.19
6.08 2.69 2.22
6.29 3.40 2.39
6.22 3.53 2.39
6.14 3.65 2.39
6.07 3.78 2.39
5.99 3.90 2.39
5.91 4.02 2.39
5.83 4.13 2.39
5.74 4.25 2.39
5.66 4.36 2.39
5.57 4.48 2.39
5.48 4.59 2.39
5.38 4.70 2.39
5.29 4.80 2.39
5.19 4.91 2.39
5.09 5.01 2.39
4.99 5.11 2.39
4.88 5.21 2.39
4.78 5.31 2.39
4.67 5.40 2.39
4.56 5.49 2.39
4.45 5.58 2.39
4.34 5.67 2.39
4.22 5.76 2.39
4.10 5.84 2.39
3.99 5.92 2.39
3.87 6.00 2.39
3.74 6.08 2.39
3.62 6.15 2.39
3.50 6.22 2.39
3.37 6.29 2.39
3.24 6.36 2.39
3.12 6.42 2.39
2.99 6.48 2.39
2.85 6.54 2.39
2.72 6.60 2.39
2.59 6.65 2.39
2.46 6.70 2.39
2.37 6.88 2.44
2.28 7.09 2.49
2.14 7.13 2.49
1.99 7.18 2.49
1.85 7.21 2.49
1.70 7.25 2.49
1.56 7.28 2.49
1.41 7.31 2.49
1.26 7.34 2.49
1.12 7.36 2.49
0.97 7.39 2.49
0.82 7.40 2.49
0.67 7.42 2.49
0.52 7.43 2.49
0.37 7.44 2.49
0.22 7.45 2.49
0.07 7.45 2.49
-0.08 7.45 2.49
-0.23 7.45 2.49
-0.38 7.44 2.49
-0.53 7.43 2.49
-0.68 7.42 2.49
-0.82 7.41 2.49
-0.97 7.39 2.49
-1.12 7.37 2.49
-1.27 7.35 2.49
-1.42 7.32 2.49
-1.56 7.29 2.49
-1.71 7.26 2.49
-1.86 7.22 2.49
-2.00 7.19 2.49
-2.14 7.15 2.49
-2.29 7.10 2.49
-2.43 7.06 2.49
-2.57 7.01 2.49
-2.71 6.95 2.49
-2.85 6.90 2.49
-2.99 6.84 2.49
-3.13 6.78 2.49
-3.26 6.72 2.49
-3.40 6.65 2.49
-3.53 6.58 2.49
-3.66 6.51 2.49
-3.79 6.44 2.49
-3.92 6.36 2.49
-4.05 6.28 2.49
-4.18 6.20 2.49
-4.30 6.11 2.49
-4.42 6.03 2.49
-4.54 5.94 2.49
-4.66 5.85 2.49
-4.78 5.75 2.49
-4.89 5.66 2.49
-5.01 5.56 2.49
-5.12 5.46 2.49
-5.23 5.35 2.49
-5.34 5.25 2.49
-5.44 5.14 2.49
-5.54 5.03 2.49
-5.64 4.92 2.49
-5.71 4.78 2.48
-5.71 4.59 2.44
-5.72 4.41 2.41
-5.78 4.27 2.39
-5.86 4.15 2.39
-5.94 4.04 2.39
-6.02 3.92 2.39
-6.10 3.79 2.39
-6.18 3.67 2.39
-6.25 3.55 2.39
-6.32 3.42 2.39
-6.39 3.30 2.39
-6.46 3.17 2.39
-6.52 3.04 2.39
-6.58 2.91 2.39
-6.64 2.77 2.39
-6.70 2.64 2.39
-6.75 2.51 2.39
-6.80 2.37 2.39
-6.85 2.23 2.39
-6.89 2.10 2.39
-6.93 1.96 2.39
-6.97 1.82 2.39
-7.01 1.68 2.39
-7.04 1.54 2.39
-7.07 1.40 2.39
-7.10 1.25 2.39
-7.12 1.11 2.39
-7.14 0.97 2.39
-7.16 0.83 2.39
-7.18 0.68 2.39
-7.19 0.54 2.39
-7.20 0.39 2.39
-7.21 0.25 2.39
-7.22 0.10 2.39
-7.22 -0.04 2.39
-7.22 -0.19 2.39
-7.21 -0.33 2.39
-7.20 -0.48 2.39
-7.19 -0.62 2.39
-7.18 -0.76 2.39
-7.17 -0.91 2.39
-7.15 -1.05 2.39
-7.13 -1.20 2.39
-7.10 -1.34 2.39
-7.07 -1.48 2.39
-7.04 -1.62 2.39
-7.01 -1.76 2.39
-6.97 -1.90 2.39
-6.94 -2.04 2.39
-6.89 -2.18 2.39
-6.85 -2.32 2.39
-6.80 -2.46 2.39
-6.75 -2.59 2.39
-6.70 -2.73 2.39
-6.64 -2.86 2.39
-6.59 -3.00 2.39
-6.53 -3.13 2.39
-6.46 -3.26 2.39
-6.40 -3.39 2.39
-6.33 -3.52 2.39
-6.26 -3.64 2.39
-6.18 -3.77 2.39
-6.11 -3.89 2.39
-6.03 -4.01 2.39
-5.95 -4.13 2.39
-5.86 -4.25 2.39
-5.84 -4.42 2.42
-5.84 -4.61 2.46
-5.84 -4.80 2.49
-5.74 -4.91 2.49
-5.64 -5.03 2.49
-5.54 -5.14 2.49
-5.44 -5.25 2.49
-5.33 -5.36 2.49
-5.22 -5.47 2.49
-5.11 -5.57 2.49
-5.00 -5.67 2.49
-4.88 -5.77 2.49
-4.77 -5.87 2.49
-4.65 -5.96 2.49
-4.53 -6.05 2.49
-4.41 -6.14 2.49
-4.28 -6.23 2.49
-4.16 -6.32 2.49
-4.03 -6.40 2.49
-3.90 -6.48 2.49
-3.77 -6.56 2.49
-3.64 -6.63 2.49
-3.50 -6.70 2.49
-3.37 -6.77 2.49
-3.23 -6.84 2.49
-3.09 -6.90 2.49
-2.96 -6.96 2.49
-2.82 -7.02 2.49
-2.67 -7.07 2.49
-2.53 -7.13 2.49
-2.39 -7.18 2.49
-2.24 -7.22 2.49
-2.10 -7.26 2.49
-1.95 -7.31 2.49
-1.80 -7.34 2.49
-1.66 -7.38 2.49
-1.51 -7.41 2.49
-1.36 -7.44 2.49
-1.21 -7.46 2.49
-1.06 -7.49 2.49
-0.91 -7.50 2.49
-0.76 -7.52 2.49
-0.61 -7.53 2.49
-0.46 -7.54 2.49
-0.31 -7.55 2.49
-0.15 -7.56 2.49
-0.00 -7.02 2.49
0.14 -7.02 2.49
0.28 -7.02 2.49
0.42 -7.01 2.49
0.56 -7.00 2.49
0.70 -6.98 2.49
0.84 -6.97 2.49
0.98 -6.95 2.49
1.12 -6.93 2.49
1.26 -6.90 2.49
1.40 -6.88 2.49
1.53 -6.85 2.49
1.67 -6.81 2.49
1.81 -6.78 2.49
1.94 -6.74 2.49
2.08 -6.70 2.49
2.18 -6.56 2.46
2.25 -6.34 2.39
2.39 -6.33 2.41
2.50 -6.24 2.39
2.62 -6.19 2.39
2.75 -6.13 2.39
2.87 -6.07 2.39
2.99 -6.02 2.39
3.11 -5.95 2.39
3.23 -5.89 2.39
3.34 -5.82 2.39
3.46 -5.75 2.39
3.57 -5.68 2.39
3.69 -5.61 2.39
3.80 -5.53 2.39
3.91 -5.46 2.39
4.01 -5.37 2.39
4.12 -5.29 2.39
4.23 -5.21 2.39
4.33 -5.12 2.39
4.43 -5.03 2.39
4.53 -4.94 2.39
4.63 -4.85 2.39
4.72 -4.76 2.39
4.82 -4.66 2.39
4.91 -4.56 2.39
5.00 -4.46 2.39
5.09 -4.36 2.39
5.17 -4.26 2.39
5.26 -4.15 2.39
5.34 -4.04 2.39
5.42 -3.93 2.39
5.49 -3.82 2.39
5.57 -3.71 2.39
5.64 -3.60 2.39
5.71 -3.49 2.39
5.78 -3.37 2.39
5.85 -3.25 2.39
5.91 -3.13 2.39
5.97 -3.01 2.39
6.03 -2.89 2.39
6.08 -2.77 2.39
6.14 -2.65 2.39
6.19 -2.52 2.39
6.24 -2.40 2.39
6.03 -1.52 2.23
5.99 -1.38 2.20
5.99 -1.25 2.19
5.99 -1.13 2.18
5.99 -1.01 2.18
5.99 -0.88 2.17
5.99 -0.76 2.17
6.00 -0.64 2.16
6.00 -0.52 2.16
6.00 -0.40 2.16
6.00 -0.28 2.15
6.00 -0.16 2.15
6.00 -0.03 2.15
5.99 0.09 2.15
6.01 0.21 2.16
6.01 0.33 2.16
6.01 0.45 2.16
6.01 0.57 2.17
6.01 0.69 2.17
6.02 0.82 2.18
6.02 0.94 2.19
6.02 1.06 2.20
6.04 1.19 2.21
39.04 8.53 14.35
38.82 9.30 14.34
38.69 10.10 14.36
38.73 10.94 14.46
38.78 11.80 14.57
39.20 12.80 14.82
6.28 2.19 2.39
6.24 2.32 2.39
6.19 2.44 2.39
6.14 2.56 2.39
6.08 2.69 2.39
6.03 2.81 2.39
5.97 2.93 2.39
5.91 3.05 2.39
5.84 3.17 2.39
5.78 3.28 2.39
5.71 3.40 2.39
5.64 3.51 2.39
5.57 3.62 2.39
5.50 3.73 2.39
5.42 3.84 2.39
5.34 3.95 2.39
5.26 4.06 2.39
5.18 4.16 2.39
5.09 4.26 2.39
5.01 4.37 2.39
4.92 4.47 2.39
4.83 4.56 2.39
4.73 4.66 2.39
4.64 4.75 2.39
4.54 4.84 2.39
4.44 4.93 2.39
4.34 5.02 2.39
4.24 5.11 2.39
4.14 5.19 2.39
4.03 5.27 2.39
3.92 5.35 2.39
3.82 5.43 2.39
3.71 5.51 2.39
3.59 5.58 2.39
3.48 5.65 2.39
3.37 5.72 2.39
3.25 5.79 2.39
3.13 5.85 2.39
3.02 5.91 2.39
2.90 5.97 2.39
2.78 6.03 2.39
2.65 6.08 2.39
2.53 6.14 2.39
2.41 6.19 2.39
2.36 6.44 2.47
2.25 6.55 2.49
2.12 6.59 2.49
1.99 6.63 2.49
1.85 6.67 2.49
1.72 6.71 2.49
1.58 6.74 2.49
1.45 6.77 2.49
1.31 6.80 2.49
1.17 6.83 2.49
1.04 6.85 2.49
0.90 6.87 2.49
0.76 6.88 2.49
0.62 6.90 2.49
0.48 6.91 2.49
0.35 6.92 2.49
0.21 6.93 2.49
0.07 6.93 2.49
-0.07 6.93 2.49
-0.21 6.93 2.49
-0.35 6.92 2.49
-0.49 6.91 2.49
-0.63 6.90 2.49
-0.77 6.89 2.49
-0.91 6.87 2.49
-1.04 6.85 2.49
-1.18 6.83 2.49
-1.32 6.81 2.49
-1.45 6.78 2.49
-1.59 6.75 2.49
-1.73 6.72 2.49
-1.86 6.68 2.49
-1.99 6.64 2.49
-2.13 6.60 2.49
-2.26 6.56 2.49
-2.39 6.51 2.49
-2.52 6.47 2.49
-2.65 6.41 2.49
-2.78 6.36 2.49
-2.91 6.30 2.49
-3.03 6.24 2.49
-3.16 6.18 2.49
-3.28 6.12 2.49
-3.41 6.05 2.49
-3.53 5.98 2.49
-3.65 5.91 2.49
-3.77 5.84 2.49
-3.88 5.76 2.49
-4.00 5.68 2.49
-4.11 5.60 2.49
-4.22 5.52 2.49
-4.33 5.44 2.49
-4.44 5.35 2.49
-4.55 5.26 2.49
-4.66 5.17 2.49
-4.76 5.07 2.49
-4.86 4.98 2.49
-4.96 4.88 2.49
-5.06 4.78 2.49
-5.15 4.68 2.49
-5.25 4.57 2.49
-5.34 4.47 2.49
-5.43 4.36 2.49
-5.52 4.25 2.49
-5.60 4.14 2.49
-5.68 4.03 2.49
-5.72 3.88 2.48
-5.72 3.72 2.44
-5.73 3.56 2.42
-5.74 3.41 2.39
-5.81 3.30 2.39
-5.88 3.18 2.39
-5.94 3.06 2.39
-6.00 2.94 2.39
-6.06 2.82 2.39
-6.12 2.70 2.39
-6.17 2.58 2.39
-6.22 2.45 2.39
-6.27 2.33 2.39
-6.32 2.20 2.39
-6.36 2.08 2.39
-6.40 1.95 2.39
-6.44 1.82 2.39
-6.48 1.69 2.39
-6.51 1.56 2.39
-6.54 1.43 2.39
-6.57 1.30 2.39
-6.60 1.17 2.39
-6.62 1.03 2.39
-6.64 0.90 2.39
-6.66 0.77 2.39
-6.67 0.63 2.39
-6.69 0.50 2.39
-6.69 0.36 2.39
-6.70 0.23 2.39
-6.71 0.10 2.39
-6.71 -0.04 2.39
-6.71 -0.17 2.39
-6.70 -0.31 2.39
-6.70 -0.44 2.39
-6.69 -0.58 2.39
-6.67 -0.71 2.39
-6.66 -0.84 2.39
-6.64 -0.98 2.39
-6.62 -1.11 2.39
-6.60 -1.24 2.39
-6.57 -1.38 2.39
-6.55 -1.51 2.39
-6.51 -1.64 2.39
-6.48 -1.77 2.39
-6.44 -1.90 2.39
-6.41 -2.03 2.39
-6.36 -2.16 2.39
-6.32 -2.28 2.39
-6.27 -2.41 2.39
-6.23 -2.54 2.39
-6.17 -2.66 2.39
-6.12 -2.79 2.39
-6.06 -2.91 2.39
-6.01 -3.03 2.39
-5.94 -3.15 2.39
-5.88 -3.27 2.39
-5.83 -3.40 2.40
-5.83 -3.55 2.43
-5.83 -3.72 2.46
-5.83 -3.88 2.49
-5.76 -4.01 2.49
-5.68 -4.12 2.49
-5.60 -4.24 2.49
-5.51 -4.35 2.49
-5.42 -4.46 2.49
-5.33 -4.57 2.49
-5.24 -4.67 2.49
-5.15 -4.78 2.49
-5.05 -4.88 2.49
-4.95 -4.98 2.49
-4.85 -5.08 2.49
-4.75 -5.18 2.49
-4.64 -5.27 2.49
-4.54 -5.36 2.49
-4.43 -5.45 2.49
-4.32 -5.54 2.49
-4.21 -5.63 2.49
-4.09 -5.71 2.49
-3.98 -5.79 2.49
-3.86 -5.87 2.49
-3.74 -5.95 2.49
-3.62 -6.02 2.49
-3.50 -6.09 2.49
-3.38 -6.16 2.49
-3.26 -6.23 2.49
-3.13 -6.29 2.49
-3.00 -6.35 2.49
-2.88 -6.41 2.49
-2.75 -6.47 2.49
-2.62 -6.52 2.49
-2.48 -6.57 2.49
-2.35 -6.62 2.49
-2.22 -6.67 2.49
-2.08 -6.71 2.49
-1.95 -6.75 2.49
-1.81 -6.79 2.49
-1.68 -6.82 2.49
-1.54 -6.85 2.49
-1.40 -6.88 2.49
-1.26 -6.91 2.49
-1.12 -6.93 2.49
-0.99 -6.95 2.49
-0.85 -6.97 2.49
-0.71 -6.99 2.49
-0.57 -7.00 2.49
-0.42 -7.01 2.49
-0.28 -7.02 2.49
-0.14 -7.02 2.49
-0.00 -6.55 2.49
0.13 -6.55 2.49
0.26 -6.54 2.49
0.39 -6.54 2.49
0.52 -6.53 2.49
0.65 -6.52 2.49
0.78 -6.50 2.49
0.91 -6.48 2.49
1.04 -6.46 2.49
1.17 -6.44 2.49
1.30 -6.41 2.49
1.43 -6.39 2.49
1.56 -6.36 2.49
1.68 -6.32 2.49
1.81 -6.29 2.49
1.94 -6.25 2.49
2.06 -6.21 2.49
2.18 -6.16 2.49
2.21 -5.87 2.39
2.33 -5.82 2.39
2.45 -5.77 2.39
2.56 -5.72 2.39
2.67 -5.67 2.39
2.79 -5.61 2.39
2.90 -5.55 2.39
3.01 -5.49 2.39
3.12 -5.43 2.39
3.23 -5.37 2.39
3.33 -5.30 2.39
3.44 -5.23 2.39
3.54 -5.16 2.39
3.65 -5.09 2.39
3.75 -5.02 2.39
3.85 -4.94 2.39
3.94 -4.86 2.39
4.04 -4.78 2.39
4.13 -4.70 2.39
4.23 -4.61 2.39
4.32 -4.53 2.39
4.41 -4.44 2.39
4.50 -4.35 2.39
4.58 -4.26 2.39
4.66 -4.16 2.39
4.75 -4.07 2.39
4.83 -3.97 2.39
4.90 -3.87 2.39
4.98 -3.77 2.39
5.05 -3.67 2.39
5.13 -3.57 2.39
5.20 -3.46 2.39
5.26 -3.36 2.39
5.33 -3.25 2.39
5.39 -3.14 2.39
5.45 -3.04 2.39
5.51 -2.92 2.39
5.57 -2.81 2.39
5.63 -2.70 2.39
5.68 -2.59 2.39
5.73 -2.47 2.39
5.78 -2.36 2.39
5.82 -2.24 2.39
5.86 -2.12 2.39
5.90 -2.00 2.39
5.94 -1.88 2.39
5.98 -1.76 2.39
6.01 -1.64 2.39
6.04 -1.52 2.39
6.07 -1.40 2.39
6.10 -1.28 2.39
6.12 -1.16 2.39
6.14 -1.03 2.39
6.16 -0.91 2.39
6.18 -0.78 2.39
6.19 -0.66 2.39
6.20 -0.54 2.39
6.21 -0.41 2.39
6.22 -0.29 2.39
6.22 -0.16 2.39
6.22 -0.04 2.39
5.99 0.09 2.30
6.22 0.21 2.39
6.21 0.34 2.39
6.20 0.46 2.39
6.19 0.59 2.39
6.18 0.71 2.39
6.16 0.84 2.39
6.14 0.96 2.39
6.12 1.08 2.39
6.10 1.20 2.39
6.07 1.33 2.39
6.04 1.45 2.39
6.01 1.57 2.39
5.98 1.69 2.39
5.94 1.81 2.39
5.90 1.93 2.39
5.86 2.04 2.39
5.82 2.16 2.39
5.77 2.28 2.39
5.73 2.39 2.39
5.68 2.51 2.39
5.63 2.62 2.39
5.57 2.73 2.39
5.51 2.84 2.39
5.46 2.95 2.39
5.40 3.06 2.39
5.33 3.17 2.39
5.27 3.28 2.39
5.20 3.38 2.39
5.13 3.49 2.39
5.06 3.59 2.39
4.99 3.69 2.39
4.91 3.79 2.39
4.83 3.88 2.39
4.75 3.98 2.39
4.67 4.08 2.39
4.59 4.17 2.39
4.50 4.26 2.39
4.42 4.35 2.39
4.33 4.44 2.39
4.24 4.52 2.39
4.15 4.61 2.39
4.05 4.69 2.39
3.96 4.77 2.39
3.86 4.85 2.39
3.76 4.92 2.39
3.66 5.00 2.39
3.56 5.07 2.39
3.46 5.14 2.39
3.36 5.21 2.39
3.25 5.28 2.39
3.14 5.34 2.39
3.04 5.40 2.39
2.93 5.46 2.39
2.82 5.52 2.39
2.70 5.57 2.39
2.59 5.63 2.39
2.48 5.68 2.39
2.36 5.73 2.39
2.35 6.02 2.49
2.22 6.07 2.49
2.10 6.11 2.49
1.98 6.15 2.49
1.85 6.19 2.49
1.73 6.23 2.49
1.60 6.26 2.49
1.48 6.29 2.49
1.35 6.32 2.49
1.22 6.35 2.49
1.10 6.37 2.49
0.97 6.39 2.49
0.84 6.41 2.49
0.71 6.43 2.49
0.58 6.44 2.49
0.45 6.45 2.49
0.32 6.46 2.49
0.19 6.46 2.49
0.06 6.47 2.49
-0.07 6.47 2.49
-0.20 6.47 2.49
-0.33 6.46 2.49
-0.46 6.45 2.49
-0.59 6.44 2.49
-0.72 6.43 2.49
-0.84 6.42 2.49
-0.97 6.40 2.49
-1.10 6.38 2.49
-1.23 6.35 2.49
-1.36 6.33 2.49
-1.48 6.30 2.49
-1.61 6.27 2.49
-1.74 6.24 2.49
-1.86 6.20 2.49
-1.99 6.16 2.49
-2.11 6.12 2.49
-2.23 6.08 2.49
-2.35 6.03 2.49
-2.48 5.99 2.49
-2.60 5.94 2.49
-2.71 5.88 2.49
-2.83 5.83 2.49
-2.95 5.77 2.49
-3.06 5.71 2.49
-3.18 5.65 2.49
-3.29 5.58 2.49
-3.40 5.52 2.49
-3.51 5.45 2.49
-3.62 5.38 2.49
-3.73 5.31 2.49
-3.84 5.23 2.49
-3.94 5.15 2.49
-4.05 5.07 2.49
-4.15 4.99 2.49
-4.25 4.91 2.49
-4.35 4.82 2.49
-4.44 4.73 2.49
-4.54 4.64 2.49
-4.63 4.55 2.49
-4.72 4.46 2.49
-4.81 4.36 2.49
-4.90 4.27 2.49
-4.98 4.17 2.49
-5.07 4.07 2.49
-5.15 3.97 2.49
-5.23 3.86 2.49
-5.30 3.76 2.49
-5.38 3.65 2.49
-5.45 3.54 2.49
-5.52 3.43 2.49
-5.59 3.32 2.49
-5.66 3.21 2.49
-5.72 3.10 2.49
-5.74 2.96 2.47
-5.74 2.81 2.45
-5.74 2.67 2.43
-5.75 2.54 2.41
-5.76 2.41 2.39
-5.81 2.29 2.39
-5.85 2.17 2.39
-5.90 2.05 2.39
-5.94 1.94 2.39
-5.98 1.82 2.39
-6.01 1.70 2.39
-6.05 1.58 2.39
-6.08 1.45 2.39
-6.11 1.33 2.39
-6.13 1.21 2.39
-6.16 1.09 2.39
-6.18 0.96 2.39
-6.20 0.84 2.39
-6.21 0.71 2.39
-6.23 0.59 2.39
-6.24 0.47 2.39
-6.25 0.34 2.39
-6.25 0.21 2.39
-6.26 0.09 2.39
-6.26 -0.04 2.39
-6.26 -0.16 2.39
-6.25 -0.29 2.39
-6.25 -0.41 2.39
-6.24 -0.54 2.39
-6.23 -0.66 2.39
-6.21 -0.79 2.39
-6.20 -0.91 2.39
-6.18 -1.04 2.39
-6.16 -1.16 2.39
-6.13 -1.28 2.39
-6.11 -1.41 2.39
-6.08 -1.53 2.39
-6.05 -1.65 2.39
-6.01 -1.77 2.39
-6.00 -1.90 2.40
-5.94 -2.01 2.39
-5.90 -2.13 2.39
-5.85 -2.25 2.39
-5.82 -2.37 2.40
-5.82 -2.51 2.42
-5.82 -2.65 2.44
-5.82 -2.79 2.46
-5.82 -2.94 2.48
-5.78 -3.06 2.49
-5.72 -3.18 2.49
-5.66 -3.29 2.49
-5.59 -3.41 2.49
-5.52 -3.52 2.49
-5.45 -3.63 2.49
-5.38 -3.74 2.49
-5.30 -3.85 2.49
-5.22 -3.95 2.49
-5.14 -4.06 2.49
-5.06 -4.16 2.49
-4.98 -4.26 2.49
-4.89 -4.36 2.49
-4.80 -4.46 2.49
-4.71 -4.55 2.49
-4.62 -4.65 2.49
-4.53 -4.74 2.49
-4.43 -4.83 2.49
-4.33 -4.92 2.49
-4.23 -5.00 2.49
-4.13 -5.09 2.49
-4.03 -5.17 2.49
-3.93 -5.25 2.49
-3.82 -5.33 2.49
-3.71 -5.40 2.49
-3.60 -5.47 2.49
-3.49 -5.55 2.49
-3.38 -5.62 2.49
-3.27 -5.68 2.49
-3.15 -5.75 2.49
-3.04 -5.81 2.49
-2.92 -5.87 2.49
-2.80 -5.93 2.49
-2.68 -5.98 2.49
-2.56 -6.03 2.49
-2.44 -6.08 2.49
-2.32 -6.13 2.49
-2.19 -6.18 2.49
-2.07 -6.22 2.49
-1.94 -6.26 2.49
-1.82 -6.30 2.49
-1.69 -6.33 2.49
-1.56 -6.36 2.49
-1.44 -6.39 2.49
-1.31 -6.42 2.49
-1.18 -6.45 2.49
-1.05 -6.47 2.49
-0.92 -6.49 2.49
-0.79 -6.50 2.49
-0.66 -6.52 2.49
-0.53 -6.53 2.49
-0.40 -6.54 2.49
-0.27 -6.55 2.49
-0.13 -6.55 2.49
-0.00 -6.13 2.49
0.12 -6.13 2.49
0.24 -6.13 2.49
0.37 -6.12 2.49
0.49 -6.11 2.49
0.61 -6.10 2.49
0.73 -6.08 2.49
0.86 -6.07 2.49
0.98 -6.05 2.49
1.10 -6.03 2.49
1.22 -6.00 2.49
1.34 -5.98 2.49
1.46 -5.95 2.49
1.58 -5.92 2.49
1.70 -5.89 2.49
1.81 -5.85 2.49
1.93 -5.81 2.49
2.05 -5.77 2.49
2.16 -5.73 2.49
2.20 -5.50 2.41
2.29 -5.40 2.39
2.41 -5.37 2.40
2.50 -5.31 2.39
2.61 -5.25 2.39
2.71 -5.20 2.39
2.82 -5.14 2.39
2.92 -5.09 2.39
3.02 -5.03 2.39
3.12 -4.96 2.39
3.22 -4.90 2.39
3.32 -4.83 2.39
3.41 -4.77 2.39
3.51 -4.70 2.39
3.60 -4.62 2.39
3.69 -4.55 2.39
3.78 -4.47 2.39
3.87 -4.40 2.39
3.96 -4.32 2.39
4.04 -4.24 2.39
4.13 -4.15 2.39
4.21 -4.07 2.39
4.29 -3.98 2.39
4.37 -3.90 2.39
4.44 -3.81 2.39
4.52 -3.72 2.39
4.59 -3.63 2.39
4.66 -3.53 2.39
4.73 -3.44 2.39
4.80 -3.34 2.39
4.87 -3.24 2.39
4.93 -3.15 2.39
4.99 -3.05 2.39
5.05 -2.94 2.39
5.11 -2.84 2.39
5.16 -2.74 2.39
5.22 -2.63 2.39
5.27 -2.53 2.39
5.32 -2.42 2.39
5.36 -2.31 2.39
5.41 -2.21 2.39
5.45 -2.10 2.39
5.49 -1.99 2.39
5.53 -1.88 2.39
5.56 -1.76 2.39
5.60 -1.65 2.39
5.63 -1.54 2.39
5.66 -1.43 2.39
5.68 -1.31 2.39
5.71 -1.20 2.39
5.73 -1.08 2.39
5.75 -0.97 2.39
5.77 -0.85 2.39
5.78 -0.73 2.39
5.80 -0.62 2.39
5.81 -0.50 2.39
5.82 -0.39 2.39
5.82 -0.27 2.39
5.82 -0.15 2.39
5.83 -0.03 2.39
5.82 0.08 2.39
5.82 0.20 2.39
5.82 0.32 2.39
5.81 0.43 2.39
5.80 0.55 2.39
5.78 0.67 2.39
5.77 0.78 2.39
5.75 0.90 2.39
5.73 1.01 2.39
5.71 1.13 2.39
5.68 1.24 2.39
5.66 1.36 2.39
5.63 1.47 2.39
5.60 1.58 2.39
5.56 1.69 2.39
5.53 1.80 2.39
5.49 1.91 2.39
5.45 2.02 2.39
5.41 2.13 2.39
5.36 2.24 2.39
5.32 2.35 2.39
5.27 2.45 2.39
5.22 2.56 2.39
5.17 2.66 2.39
5.11 2.77 2.39
5.05 2.87 2.39
4.99 2.97 2.39
4.93 3.07 2.39
4.87 3.17 2.39
4.81 3.26 2.39
4.74 3.36 2.39
4.67 3.45 2.39
4.60 3.55 2.39
4.53 3.64 2.39
4.45 3.73 2.39
4.38 3.82 2.39
4.30 3.90 2.39
4.22 3.99 2.39
4.14 4.07 2.39
4.05 4.16 2.39
3.97 4.24 2.39
3.88 4.31 2.39
3.80 4.39 2.39
3.71 4.47 2.39
3.62 4.54 2.39
3.52 4.61 2.39
3.43 4.68 2.39
3.34 4.75 2.39
3.24 4.82 2.39
3.14 4.88 2.39
3.04 4.94 2.39
2.94 5.00 2.39
2.84 5.06 2.39
2.74 5.12 2.39
2.64 5.17 2.39
2.55 5.26 2.41
2.43 5.27 2.39
2.35 5.39 2.42
2.31 5.60 2.49
2.20 5.64 2.49
2.08 5.68 2.49
1.97 5.73 2.49
1.85 5.76 2.49
1.74 5.80 2.49
1.62 5.83 2.49
1.50 5.87 2.49
1.38 5.89 2.49
1.27 5.92 2.49
1.15 5.95 2.49
1.03 5.97 2.49
0.91 5.99 2.49
0.79 6.00 2.49
0.67 6.02 2.49
0.54 6.03 2.49
0.42 6.04 2.49
0.30 6.05 2.49
0.18 6.05 2.49
0.06 6.06 2.49
-0.06 6.06 2.49
-0.18 6.06 2.49
-0.31 6.05 2.49
-0.43 6.04 2.49
-0.55 6.03 2.49
-0.67 6.02 2.49
-0.79 6.01 2.49
-0.91 5.99 2.49
-1.03 5.97 2.49
-1.15 5.95 2.49
-1.27 5.93 2.49
-1.39 5.90 2.49
-1.51 5.87 2.49
-1.63 5.84 2.49
-1.74 5.81 2.49
-1.86 5.77 2.49
-1.98 5.73 2.49
-2.09 5.69 2.49
-2.21 5.65 2.49
-2.32 5.61 2.49
-2.43 5.56 2.49
-2.54 5.51 2.49
-2.65 5.46 2.49
-2.76 5.40 2.49
-2.87 5.35 2.49
-2.98 5.29 2.49
-3.08 5.23 2.49
-3.19 5.17 2.49
-3.29 5.10 2.49
-3.39 5.04 2.49
-3.50 4.97 2.49
-3.59 4.90 2.49
-3.69 4.82 2.49
-3.79 4.75 2.49
-3.88 4.67 2.49
-3.98 4.60 2.49
-4.07 4.52 2.49
-4.16 4.43 2.49
-4.25 4.35 2.49
-4.34 4.26 2.49
-4.42 4.18 2.49
-4.50 4.09 2.49
-4.59 4.00 2.49
-4.67 3.90 2.49
-4.74 3.81 2.49
-4.82 3.71 2.49
-4.89 3.62 2.49
-4.97 3.52 2.49
-5.04 3.42 2.49
-5.11 3.32 2.49
-5.17 3.21 2.49
-5.24 3.11 2.49
-5.30 3.01 2.49
-5.36 2.90 2.49
-5.42 2.79 2.49
-5.47 2.68 2.49
-5.53 2.57 2.49
-5.58 2.46 2.49
-5.63 2.35 2.49
-5.67 2.24 2.49
-5.72 2.12 2.49
-5.75 2.00 2.49
-5.75 1.88 2.47
-5.75 1.75 2.46
-5.75 1.62 2.44
-5.76 1.50 2.43
-5.76 1.38 2.42
-5.77 1.26 2.41
-5.77 1.14 2.40
-5.77 1.02 2.40
-5.78 0.90 2.39
-5.80 0.79 2.39
-5.82 0.67 2.39
-5.83 0.55 2.39
-5.84 0.44 2.39
-5.85 0.32 2.39
-5.85 0.20 2.39
-5.86 0.08 2.39
-5.86 -0.03 2.39
-5.86 -0.15 2.39
-5.85 -0.27 2.39
-5.85 -0.39 2.39
-5.84 -0.50 2.39
-5.83 -0.62 2.39
-5.82 -0.74 2.39
-5.80 -0.85 2.39
-5.80 -0.97 2.40
-5.80 -1.09 2.41
-5.80 -1.22 2.42
-5.80 -1.34 2.43
-5.80 -1.46 2.44
-5.80 -1.58 2.45
-5.80 -1.71 2.46
-5.80 -1.84 2.48
-5.80 -1.97 2.49
-5.76 -2.08 2.49
-5.72 -2.20 2.49
-5.67 -2.31 2.49
-5.62 -2.43 2.49
-5.57 -2.54 2.49
-5.52 -2.65 2.49
-5.47 -2.76 2.49
-5.41 -2.87 2.49
-5.36 -2.98 2.49
-5.29 -3.08 2.49
-5.23 -3.19 2.49
-5.17 -3.29 2.49
-5.10 -3.40 2.49
-5.03 -3.50 2.49
-4.96 -3.60 2.49
-4.89 -3.70 2.49
-4.81 -3.80 2.49
-4.74 -3.89 2.49
-4.66 -3.99 2.49
-4.58 -4.08 2.49
-4.49 -4.17 2.49
-4.41 -4.26 2.49
-4.32 -4.35 2.49
-4.24 -4.43 2.49
-4.15 -4.52 2.49
-4.06 -4.60 2.49
-3.96 -4.68 2.49
-3.87 -4.76 2.49
-3.77 -4.84 2.49
-3.67 -4.91 2.49
-3.57 -4.98 2.49
-3.47 -5.06 2.49
-3.37 -5.12 2.49
-3.27 -5.19 2.49
-3.16 -5.26 2.49
-3.06 -5.32 2.49
-2.95 -5.38 2.49
-2.84 -5.44 2.49
-2.73 -5.49 2.49
-2.62 -5.55 2.49
-2.51 -5.60 2.49
-2.40 -5.65 2.49
-2.28 -5.69 2.49
-2.17 -5.74 2.49
-2.05 -5.78 2.49
-1.94 -5.82 2.49
-1.82 -5.86 2.49
-1.70 -5.89 2.49
-1.58 -5.93 2.49
-1.46 -5.96 2.49
-1.34 -5.98 2.49
-1.22 -6.01 2.49
-1.10 -6.03 2.49
-0.98 -6.05 2.49
-0.86 -6.07 2.49
-0.74 -6.09 2.49
-0.62 -6.10 2.49
-0.49 -6.11 2.49
-0.37 -6.12 2.49
-0.25 -6.13 2.49
-0.13 -6.13 2.49
-0.00 -5.76 2.49
0.11 -5.75 2.49
0.23 -5.75 2.49
0.34 -5.75 2.49
0.46 -5.74 2.49
0.57 -5.73 2.49
0.69 -5.71 2.49
0.80 -5.70 2.49
0.92 -5.68 2.49
1.03 -5.66 2.49
1.14 -5.64 2.49
1.26 -5.61 2.49
1.37 -5.59 2.49
1.48 -5.56 2.49
1.59 -5.53 2.49
1.70 -5.49 2.49
1.81 -5.46 2.49
1.92 -5.42 2.49
2.03 -5.38 2.49
2.14 -5.34 2.49
2.20 -5.19 2.44
2.25 -5.03 2.39
2.35 -4.98 2.39
2.45 -4.93 2.39
2.55 -4.88 2.39
2.65 -4.83 2.39
2.74 -4.78 2.39
2.84 -4.72 2.39
2.93 -4.66 2.39
3.02 -4.60 2.39
3.11 -4.54 2.39
3.20 -4.47 2.39
3.29 -4.41 2.39
3.38 -4.34 2.39
3.47 -4.27 2.39
3.55 -4.20 2.39
3.63 -4.13 2.39
3.72 -4.05 2.39
3.80 -3.98 2.39
3.87 -3.90 2.39
3.95 -3.82 2.39
4.03 -3.74 2.39
4.10 -3.66 2.39
4.17 -3.58 2.39
4.24 -3.49 2.39
4.31 -3.41 2.39
4.38 -3.32 2.39
4.44 -3.23 2.39
4.51 -3.14 2.39
4.57 -3.05 2.39
4.63 -2.95 2.39
4.69 -2.86 2.39
4.74 -2.77 2.39
4.80 -2.67 2.39
4.85 -2.57 2.39
4.90 -2.47 2.39
4.95 -2.37 2.39
4.99 -2.27 2.39
5.04 -2.17 2.39
5.08 -2.07 2.39
5.12 -1.97 2.39
5.16 -1.87 2.39
5.19 -1.76 2.39
5.23 -1.66 2.39
5.26 -1.55 2.39
5.29 -1.45 2.39
5.31 -1.34 2.39
5.34 -1.23 2.39
5.36 -1.12 2.39
5.38 -1.02 2.39
5.40 -0.91 2.39
5.42 -0.80 2.39
5.43 -0.69 2.39
5.44 -0.58 2.39
5.45 -0.47 2.39
5.46 -0.36 2.39
5.47 -0.25 2.39
5.47 -0.14 2.39
5.47 -0.03 2.39
5.47 0.08 2.39
5.47 0.19 2.39
5.46 0.30 2.39
5.45 0.41 2.39
5.44 0.52 2.39
5.43 0.63 2.39
5.42 0.73 2.39
5.40 0.84 2.39
5.38 0.95 2.39
5.36 1.06 2.39
5.34 1.17 2.39
5.31 1.27 2.39
5.29 1.38 2.39
5.26 1.48 2.39
5.23 1.59 2.39
5.19 1.69 2.39
5.16 1.80 2.39
5.12 1.90 2.39
5.08 2.00 2.39
5.04 2.11 2.39
4.99 2.21 2.39
4.95 2.31 2.39
4.90 2.40 2.39
4.85 2.50 2.39
4.80 2.60 2.39
4.75 2.69 2.39
4.69 2.79 2.39
4.63 2.88 2.39
4.57 2.97 2.39
4.51 3.07 2.39
4.45 3.16 2.39
4.39 3.24 2.39
4.32 3.33 2.39
4.25 3.42 2.39
4.18 3.50 2.39
4.11 3.59 2.39
4.04 3.67 2.39
3.96 3.75 2.39
3.89 3.83 2.39
3.81 3.90 2.39
3.73 3.98 2.39
3.65 4.05 2.39
3.57 4.13 2.39
3.48 4.20 2.39
3.40 4.26 2.39
3.31 4.33 2.39
3.22 4.40 2.39
3.13 4.46 2.39
3.04 4.52 2.39
2.95 4.58 2.39
2.86 4.64 2.39
2.77 4.70 2.39
2.67 4.75 2.39
2.57 4.81 2.39
2.48 4.86 2.39
2.38 4.90 2.39
2.34 5.08 2.45
2.27 5.21 2.49
2.17 5.26 2.49
2.06 5.30 2.49
1.96 5.34 2.49
1.85 5.38 2.49
1.74 5.41 2.49
1.63 5.45 2.49
1.52 5.48 2.49
1.41 5.51 2.49
1.30 5.54 2.49
1.19 5.56 2.49
1.08 5.59 2.49
0.96 5.61 2.49
0.85 5.62 2.49
0.74 5.64 2.49
0.63 5.65 2.49
0.51 5.67 2.49
0.40 5.68 2.49
0.28 5.68 2.49
0.17 5.69 2.49
0.05 5.69 2.49
-0.06 5.69 2.49
-0.17 5.69 2.49
-0.29 5.68 2.49
-0.40 5.68 2.49
-0.52 5.67 2.49
-0.63 5.66 2.49
-0.74 5.64 2.49
-0.86 5.63 2.49
-0.97 5.61 2.49
-1.08 5.59 2.49
-1.19 5.57 2.49
-1.31 5.54 2.49
-1.42 5.52 2.49
-1.53 5.49 2.49
-1.64 5.46 2.49
-1.75 5.42 2.49
-1.86 5.39 2.49
-1.96 5.35 2.49
-2.07 5.31 2.49
-2.18 5.27 2.49
-2.28 5.22 2.49
-2.39 5.18 2.49
-2.49 5.13 2.49
-2.59 5.08 2.49
-2.70 5.02 2.49
-2.80 4.97 2.49
-2.90 4.91 2.49
-3.00 4.85 2.49
-3.09 4.79 2.49
-3.19 4.73 2.49
-3.28 4.67 2.49
-3.38 4.60 2.49
-3.47 4.53 2.49
-3.56 4.46 2.49
-3.65 4.39 2.49
-3.74 4.32 2.49
-3.82 4.24 2.49
-3.91 4.16 2.49
-3.99 4.08 2.49
-4.07 4.00 2.49
-4.15 3.92 2.49
-4.23 3.84 2.49
-4.31 3.75 2.49
-4.38 3.67 2.49
-4.46 3.58 2.49
-4.53 3.49 2.49
-4.60 3.40 2.49
-4.67 3.30 2.49
-4.73 3.21 2.49
-4.80 3.12 2.49
-4.86 3.02 2.49
-4.92 2.92 2.49
-4.98 2.82 2.49
-5.03 2.72 2.49
-5.09 2.62 2.49
-5.14 2.52 2.49
-5.19 2.41 2.49
-5.24 2.31 2.49
-5.28 2.21 2.49
-5.33 2.10 2.49
-5.37 1.99 2.49
-5.41 1.88 2.49
-5.45 1.78 2.49
-5.48 1.67 2.49
-5.51 1.56 2.49
-5.54 1.45 2.49
-5.57 1.33 2.49
-5.60 1.22 2.49
-5.62 1.11 2.49
-5.65 1.00 2.49
-5.66 0.88 2.49
-5.68 0.77 2.49
-5.70 0.66 2.49
-5.71 0.54 2.49
-5.72 0.43 2.49
-5.73 0.31 2.49
-5.73 0.20 2.49
-5.74 0.08 2.49
-5.74 -0.03 2.49
-5.74 -0.15 2.49
-5.73 -0.26 2.49
-5.73 -0.38 2.49
-5.72 -0.49 2.49
-5.71 -0.61 2.49
-5.70 -0.72 2.49
-5.68 -0.84 2.49
-5.66 -0.95 2.49
-5.64 -1.07 2.49
-5.62 -1.18 2.49
-5.60 -1.29 2.49
-5.57 -1.40 2.49
-5.54 -1.51 2.49
-5.51 -1.63 2.49
-5.48 -1.74 2.49
-5.44 -1.85 2.49
-5.41 -1.96 2.49
-5.37 -2.06 2.49
-5.32 -2.17 2.49
-5.28 -2.28 2.49
-5.23 -2.38 2.49
-5.19 -2.49 2.49
-5.14 -2.59 2.49
-5.08 -2.69 2.49
-5.03 -2.80 2.49
-4.97 -2.90 2.49
-4.91 -3.00 2.49
-4.85 -3.09 2.49
-4.79 -3.19 2.49
-4.72 -3.29 2.49
-4.66 -3.38 2.49
-4.59 -3.47 2.49
-4.52 -3.56 2.49
-4.45 -3.65 2.49
-4.37 -3.74 2.49
-4.30 -3.83 2.49
-4.22 -3.92 2.49
-4.14 -4.00 2.49
-4.06 -4.08 2.49
-3.98 -4.16 2.49
-3.89 -4.24 2.49
-3.81 -4.32 2.49
-3.72 -4.40 2.49
-3.63 -4.47 2.49
-3.54 -4.54 2.49
-3.45 -4.61 2.49
-3.36 -4.68 2.49
-3.26 -4.75 2.49
-3.17 -4.81 2.49
-3.07 -4.87 2.49
-2.97 -4.93 2.49
-2.87 -4.99 2.49
-2.77 -5.05 2.49
-2.67 -5.10 2.49
-2.57 -5.16 2.49
-2.46 -5.21 2.49
-2.36 -5.26 2.49
-2.25 -5.30 2.49
-2.14 -5.35 2.49
-2.04 -5.39 2.49
-1.93 -5.43 2.49
-1.82 -5.46 2.49
-1.71 -5.50 2.49
-1.60 -5.53 2.49
-1.49 -5.56 2.49
-1.38 -5.59 2.49
-1.26 -5.62 2.49
-1.15 -5.64 2.49
-1.04 -5.66 2.49
-0.92 -5.68 2.49
-0.81 -5.70 2.49
-0.69 -5.72 2.49
-0.58 -5.73 2.49
-0.46 -5.74 2.49
-0.35 -5.75 2.49
-0.23 -5.75 2.49
-0.12 -5.76 2.49
-0.00 -5.42 2.49
0.11 -5.42 2.49
0.21 -5.41 2.49
0.32 -5.41 2.49
0.43 -5.40 2.49
0.54 -5.39 2.49
0.65 -5.38 2.49
0.76 -5.36 2.49
0.86 -5.35 2.49
0.97 -5.33 2.49
1.08 -5.31 2.49
1.18 -5.28 2.49
1.29 -5.26 2.49
1.39 -5.23 2.49
1.50 -5.20 2.49
1.60 -5.17 2.49
1.70 -5.14 2.49
1.81 -5.10 2.49
1.91 -5.06 2.49
2.01 -5.02 2.49
2.11 -4.98 2.49
2.20 -4.92 2.48
2.22 -4.70 2.39
2.31 -4.64 2.39
2.41 -4.63 2.41
2.49 -4.55 2.39
2.58 -4.50 2.39
2.67 -4.44 2.39
2.76 -4.39 2.39
2.85 -4.33 2.39
2.93 -4.27 2.39
3.02 -4.21 2.39
3.10 -4.15 2.39
3.18 -4.09 2.39
3.26 -4.02 2.39
3.34 -3.96 2.39
3.42 -3.89 2.39
3.50 -3.82 2.39
3.57 -3.75 2.39
3.65 -3.67 2.39
3.72 -3.60 2.39
3.79 -3.52 2.39
3.86 -3.45 2.39
3.93 -3.37 2.39
3.99 -3.29 2.39
4.06 -3.21 2.39
4.12 -3.12 2.39
4.18 -3.04 2.39
4.24 -2.96 2.39
4.30 -2.87 2.39
4.36 -2.78 2.39
4.41 -2.69 2.39
4.46 -2.60 2.39
4.52 -2.51 2.39
4.56 -2.42 2.39
4.61 -2.33 2.39
4.66 -2.24 2.39
4.70 -2.14 2.39
4.74 -2.05 2.39
4.78 -1.95 2.39
4.82 -1.85 2.39
4.85 -1.76 2.39
4.89 -1.66 2.39
4.92 -1.56 2.39
4.95 -1.46 2.39
4.98 -1.36 2.39
5.00 -1.26 2.39
5.03 -1.16 2.39
5.05 -1.06 2.39
5.07 -0.96 2.39
5.09 -0.86 2.39
5.10 -0.75 2.39
5.11 -0.65 2.39
5.13 -0.55 2.39
5.14 -0.44 2.39
5.14 -0.34 2.39
5.15 -0.24 2.39
5.15 -0.13 2.39
5.15 -0.03 2.39
5.15 0.07 2.39
5.15 0.18 2.39
5.14 0.28 2.39
5.14 0.38 2.39
5.13 0.49 2.39
5.12 0.59 2.39
5.10 0.69 2.39
5.09 0.79 2.39
5.07 0.90 2.39
5.05 1.00 2.39
5.03 1.10 2.39
5.00 1.20 2.39
4.98 1.30 2.39
4.95 1.40 2.39
4.92 1.50 2.39
4.89 1.60 2.39
4.86 1.69 2.39
4.82 1.79 2.39
4.78 1.89 2.39
4.74 1.98 2.39
4.70 2.08 2.39
4.66 2.17 2.39
4.62 2.26 2.39
4.57 2.36 2.39
4.52 2.45 2.39
4.47 2.54 2.39
4.42 2.63 2.39
4.36 2.71 2.39
4.31 2.80 2.39
4.25 2.89 2.39
4.19 2.97 2.39
4.13 3.06 2.39
4.07 3.14 2.39
4.00 3.22 2.39
3.94 3.30 2.39
3.87 3.38 2.39
3.80 3.45 2.39
3.73 3.53 2.39
3.66 3.60 2.39
3.59 3.68 2.39
3.51 3.75 2.39
3.44 3.82 2.39
3.36 3.88 2.39
3.28 3.95 2.39
3.20 4.02 2.39
3.12 4.08 2.39
3.04 4.14 2.39
2.95 4.20 2.39
2.87 4.26 2.39
2.78 4.32 2.39
2.69 4.37 2.39
2.60 4.42 2.39
2.52 4.48 2.39
2.42 4.53 2.39
2.34 4.59 2.40
2.34 4.82 2.49
2.24 4.86 2.49
2.14 4.91 2.49
2.04 4.95 2.49
1.94 4.99 2.49
1.84 5.03 2.49
1.74 5.07 2.49
1.64 5.10 2.49
1.54 5.13 2.49
1.43 5.16 2.49
1.33 5.19 2.49
1.22 5.21 2.49
1.12 5.24 2.49
1.01 5.26 2.49
0.91 5.28 2.49
0.80 5.30 2.49
0.70 5.31 2.49
0.59 5.33 2.49
0.48 5.34 2.49
0.37 5.34 2.49
0.27 5.35 2.49
0.16 5.36 2.49
0.05 5.36 2.49
-0.06 5.36 2.49
-0.16 5.36 2.49
-0.27 5.35 2.49
-0.38 5.35 2.49
-0.49 5.34 2.49
-0.59 5.33 2.49
-0.70 5.32 2.49
-0.81 5.30 2.49
-0.91 5.28 2.49
-1.02 5.26 2.49
-1.13 5.24 2.49
-1.23 5.22 2.49
-1.34 5.19 2.49
-1.44 5.17 2.49
-1.54 5.14 2.49
-1.65 5.11 2.49
-1.75 5.07 2.49
-1.85 5.04 2.49
-1.95 5.00 2.49
-2.05 4.96 2.49
-2.15 4.92 2.49
-2.25 4.87 2.49
-2.35 4.83 2.49
-2.44 4.78 2.49
-2.54 4.73 2.49
-2.63 4.68 2.49
-2.73 4.63 2.49
-2.82 4.57 2.49
-2.91 4.51 2.49
-3.00 4.45 2.49
-3.09 4.39 2.49
-3.18 4.33 2.49
-3.27 4.27 2.49
-3.35 4.20 2.49
-3.44 4.13 2.49
-3.52 4.06 2.49
-3.60 3.99 2.49
-3.68 3.92 2.49
-3.76 3.85 2.49
-3.83 3.77 2.49
-3.91 3.69 2.49
-3.98 3.61 2.49
-4.06 3.53 2.49
-4.13 3.45 2.49
-4.20 3.37 2.49
-4.26 3.28 2.49
-4.33 3.20 2.49
-4.39 3.11 2.49
-4.45 3.02 2.49
-4.52 2.93 2.49
-4.57 2.84 2.49
-4.63 2.75 2.49
-4.69 2.66 2.49
-4.74 2.56 2.49
-4.79 2.47 2.49
-4.84 2.37 2.49
-4.89 2.27 2.49
-4.93 2.18 2.49
-4.97 2.08 2.49
-5.02 1.98 2.49
-5.05 1.88 2.49
-5.09 1.77 2.49
-5.13 1.67 2.49
-5.16 1.57 2.49
-5.19 1.46 2.49
-5.22 1.36 2.49
-5.25 1.26 2.49
-5.27 1.15 2.49
-5.29 1.04 2.49
-5.31 0.94 2.49
-5.33 0.83 2.49
-5.35 0.72 2.49
-5.36 0.62 2.49
-5.38 0.51 2.49
-5.39 0.40 2.49
-5.39 0.29 2.49
-5.40 0.18 2.49
-5.40 0.08 2.49
-5.40 -0.03 2.49
-5.40 -0.14 2.49
-5.40 -0.25 2.49
-5.39 -0.36 2.49
-5.38 -0.47 2.49
-5.38 -0.57 2.49
-5.36 -0.68 2.49
-5.35 -0.79 2.49
-5.33 -0.90 2.49
-5.31 -1.00 2.49
-5.29 -1.11 2.49
-5.27 -1.22 2.49
-5.25 -1.32 2.49
-5.22 -1.43 2.49
-5.19 -1.53 2.49
-5.16 -1.63 2.49
-5.12 -1.74 2.49
-5.09 -1.84 2.49
-5.05 -1.94 2.49
-5.01 -2.04 2.49
-4.97 -2.14 2.49
-4.93 -2.24 2.49
-4.88 -2.34 2.49
-4.83 -2.44 2.49
-4.78 -2.54 2.49
-4.73 -2.63 2.49
-4.68 -2.73 2.49
-4.62 -2.82 2.49
-4.57 -2.91 2.49
-4.51 -3.00 2.49
-4.45 -3.09 2.49
-4.38 -3.18 2.49
-4.32 -3.27 2.49
-4.25 -3.36 2.49
-4.19 -3.44 2.49
-4.12 -3.52 2.49
-4.04 -3.61 2.49
-3.97 -3.69 2.49
-3.90 -3.77 2.49
-3.82 -3.84 2.49
-3.74 -3.92 2.49
-3.66 -3.99 2.49
-3.58 -4.07 2.49
-3.50 -4.14 2.49
-3.42 -4.21 2.49
-3.33 -4.27 2.49
-3.25 -4.34 2.49
-3.16 -4.41 2.49
-3.07 -4.47 2.49
-2.98 -4.53 2.49
-2.89 -4.59 2.49
-2.80 -4.64 2.49
-2.70 -4.70 2.49
-2.61 -4.75 2.49
-2.51 -4.80 2.49
-2.42 -4.85 2.49
-2.32 -4.90 2.49
-2.22 -4.95 2.49
-2.12 -4.99 2.49
-2.02 -5.03 2.49
-1.92 -5.07 2.49
-1.81 -5.11 2.49
-1.71 -5.14 2.49
-1.61 -5.18 2.49
-1.50 -5.21 2.49
-1.40 -5.24 2.49
-1.29 -5.26 2.49
-1.19 -5.29 2.49
-1.08 -5.31 2.49
-0.98 -5.33 2.49
-0.87 -5.35 2.49
-0.76 -5.37 2.49
-0.65 -5.38 2.49
-0.54 -5.39 2.49
-0.44 -5.40 2.49
-0.33 -5.41 2.49
-0.22 -5.41 2.49
-0.11 -5.42 2.49
-0.00 -5.11 2.49
0.10 -5.11 2.49
0.20 -5.11 2.49
0.30 -5.10 2.49
0.41 -5.09 2.49
0.51 -5.09 2.49
0.61 -5.07 2.49
0.71 -5.06 2.49
0.81 -5.04 2.49
0.91 -5.03 2.49
1.02 -5.01 2.49
1.12 -4.99 2.49
1.22 -4.96 2.49
1.31 -4.94 2.49
1.41 -4.91 2.49
1.51 -4.88 2.49
1.61 -4.85 2.49
1.71 -4.81 2.49
1.80 -4.78 2.49
1.90 -4.74 2.49
1.99 -4.70 2.49
2.08 -4.66 2.49
2.18 -4.62 2.49
2.21 -4.45 2.43
2.26 -4.34 2.39
2.35 -4.29 2.39
2.43 -4.24 2.39
2.52 -4.19 2.39
2.60 -4.14 2.39
2.68 -4.09 2.39
2.77 -4.03 2.39
2.85 -3.97 2.39
2.92 -3.92 2.39
3.00 -3.86 2.39
3.08 -3.80 2.39
3.15 -3.73 2.39
3.23 -3.67 2.39
3.30 -3.60 2.39
3.37 -3.53 2.39
3.44 -3.47 2.39
3.51 -3.40 2.39
3.58 -3.32 2.39
3.64 -3.25 2.39
3.71 -3.18 2.39
3.77 -3.10 2.39
3.83 -3.03 2.39
3.89 -2.95 2.39
3.95 -2.87 2.39
4.00 -2.79 2.39
4.06 -2.71 2.39
4.11 -2.63 2.39
4.16 -2.54 2.39
4.21 -2.46 2.39
4.26 -2.37 2.39
4.31 -2.29 2.39
4.35 -2.20 2.39
4.39 -2.11 2.39
4.44 -2.02 2.39
4.47 -1.93 2.39
4.51 -1.84 2.39
4.55 -1.75 2.39
4.58 -1.66 2.39
4.61 -1.57 2.39
4.64 -1.47 2.39
4.67 -1.38 2.39
4.70 -1.29 2.39
4.72 -1.19 2.39
4.74 -1.10 2.39
4.76 -1.00 2.39
4.78 -0.90 2.39
4.80 -0.81 2.39
4.81 -0.71 2.39
4.83 -0.61 2.39
4.84 -0.52 2.39
4.85 -0.42 2.39
4.85 -0.32 2.39
4.86 -0.22 2.39
4.86 -0.13 2.39
4.86 -0.03 2.39
4.86 0.07 2.39
4.86 0.17 2.39
4.85 0.26 2.39
4.85 0.36 2.39
4.84 0.46 2.39
4.83 0.55 2.39
4.82 0.65 2.39
4.80 0.75 2.39
4.78 0.84 2.39
4.77 0.94 2.39
4.75 1.04 2.39
4.72 1.13 2.39
4.70 1.23 2.39
4.67 1.32 2.39
4.65 1.41 2.39
4.62 1.51 2.39
4.58 1.60 2.39
4.55 1.69 2.39
4.52 1.78 2.39
4.48 1.87 2.39
4.44 1.96 2.39
4.40 2.05 2.39
4.36 2.14 2.39
4.31 2.22 2.39
4.27 2.31 2.39
4.22 2.39 2.39
4.17 2.48 2.39
4.12 2.56 2.39
4.07 2.64 2.39
4.01 2.72 2.39
3.96 2.80 2.39
3.90 2.88 2.39
3.84 2.96 2.39
3.78 3.04 2.39
3.72 3.11 2.39
3.65 3.19 2.39
3.59 3.26 2.39
3.52 3.33 2.39
3.45 3.40 2.39
3.39 3.47 2.39
3.32 3.54 2.39
3.24 3.60 2.39
3.17 3.67 2.39
3.10 3.73 2.39
3.02 3.79 2.39
2.94 3.85 2.39
2.87 3.91 2.39
2.79 3.97 2.39
2.71 4.02 2.39
2.62 4.07 2.39
2.54 4.13 2.39
2.46 4.18 2.39
2.37 4.22 2.39
2.33 4.35 2.44
2.30 4.50 2.49
2.21 4.55 2.49
2.11 4.59 2.49
2.02 4.63 2.49
1.93 4.67 2.49
1.83 4.71 2.49
1.74 4.75 2.49
1.64 4.78 2.49
1.55 4.81 2.49
1.45 4.84 2.49
1.35 4.87 2.49
1.25 4.90 2.49
1.16 4.92 2.49
1.06 4.94 2.49
0.96 4.96 2.49
0.86 4.98 2.49
0.76 5.00 2.49
0.66 5.01 2.49
0.56 5.03 2.49
0.45 5.04 2.49
0.35 5.04 2.49
0.25 5.05 2.49
0.15 5.06 2.49
0.05 5.06 2.49
-0.05 5.06 2.49
-0.15 5.06 2.49
-0.26 5.05 2.49
-0.36 5.05 2.49
-0.46 5.04 2.49
-0.56 5.03 2.49
-0.66 5.02 2.49
-0.76 5.00 2.49
-0.86 4.99 2.49
-0.96 4.97 2.49
-1.06 4.95 2.49
-1.16 4.93 2.49
-1.26 4.90 2.49
-1.36 4.88 2.49
-1.46 4.85 2.49
-1.55 4.82 2.49
-1.65 4.79 2.49
-1.75 4.75 2.49
-1.84 4.72 2.49
-1.94 4.68 2.49
-2.03 4.64 2.49
-2.12 4.60 2.49
-2.22 4.56 2.49
-2.31 4.51 2.49
-2.40 4.46 2.49
-2.49 4.42 2.49
-2.57 4.37 2.49
-2.66 4.31 2.49
-2.75 4.26 2.49
-2.83 4.20 2.49
-2.92 4.15 2.49
-3.00 4.09 2.49
-3.08 4.03 2.49
-3.16 3.96 2.49
-3.24 3.90 2.49
-3.32 3.83 2.49
-3.40 3.77 2.49
-3.47 3.70 2.49
-3.55 3.63 2.49
-3.62 3.56 2.49
-3.69 3.48 2.49
-3.76 3.41 2.49
-3.83 3.33 2.49
-3.89 3.26 2.49
-3.96 3.18 2.49
-4.02 3.10 2.49
-4.09 3.02 2.49
-4.15 2.94 2.49
-4.20 2.85 2.49
-4.26 2.77 2.49
-4.32 2.68 2.49
-4.37 2.59 2.49
-4.42 2.51 2.49
-4.47 2.42 2.49
-4.52 2.33 2.49
-4.57 2.24 2.49
-4.61 2.15 2.49
-4.65 2.05 2.49
-4.69 1.96 2.49
-4.73 1.86 2.49
-4.77 1.77 2.49
-4.80 1.67 2.49
-4.84 1.58 2.49
-4.87 1.48 2.49
-4.90 1.38 2.49
-4.93 1.28 2.49
-4.95 1.18 2.49
-4.97 1.08 2.49
-5.00 0.98 2.49
-5.02 0.88 2.49
-5.03 0.78 2.49
-5.05 0.68 2.49
-5.06 0.58 2.49
-5.07 0.48 2.49
-5.08 0.38 2.49
-5.09 0.28 2.49
-5.09 0.17 2.49
-5.10 0.07 2.49
-5.10 -0.03 2.49
-5.10 -0.13 2.49
-5.09 -0.24 2.49
-5.09 -0.34 2.49
-5.08 -0.44 2.49
-5.07 -0.54 2.49
-5.06 -0.64 2.49
-5.05 -0.74 2.49
-5.03 -0.85 2.49
-5.01 -0.95 2.49
-4.99 -1.05 2.49
-4.97 -1.15 2.49
-4.95 -1.25 2.49
-4.92 -1.35 2.49
-4.90 -1.44 2.49
-4.87 -1.54 2.49
-4.84 -1.64 2.49
-4.80 -1.74 2.49
-4.77 -1.83 2.49
-4.73 -1.93 2.49
-4.69 -2.02 2.49
-4.65 -2.12 2.49
-4.61 -2.21 2.49
-4.56 -2.30 2.49
-4.51 -2.39 2.49
-4.47 -2.48 2.49
-4.41 -2.57 2.49
-4.36 -2.66 2.49
-4.31 -2.75 2.49
-4.25 -2.83 2.49
-4.20 -2.92 2.49
-4.14 -3.00 2.49
-4.08 -3.08 2.49
-4.01 -3.17 2.49
-3.95 -3.25 2.49
-3.88 -3.32 2.49
-3.82 -3.40 2.49
-3.75 -3.48 2.49
-3.68 -3.55 2.49
-3.61 -3.63 2.49
-3.53 -3.70 2.49
-3.46 -3.77 2.49
-3.38 -3.84 2.49
-3.30 -3.90 2.49
-3.22 -3.97 2.49
-3.14 -4.03 2.49
-3.06 -4.10 2.49
-2.98 -4.16 2.49
-2.90 -4.22 2.49
-2.81 -4.27 2.49
-2.73 -4.33 2.49
-2.64 -4.38 2.49
-2.55 -4.43 2.49
-2.46 -4.48 2.49
-2.37 -4.53 2.49
-2.28 -4.58 2.49
-2.19 -4.62 2.49
-2.09 -4.67 2.49
-2.00 -4.71 2.49
-1.90 -4.75 2.49
-1.81 -4.78 2.49
-1.71 -4.82 2.49
-1.62 -4.85 2.49
-1.52 -4.88 2.49
-1.42 -4.91 2.49
-1.32 -4.94 2.49
-1.22 -4.97 2.49
-1.12 -4.99 2.49
-1.02 -5.01 2.49
-0.92 -5.03 2.49
-0.82 -5.05 2.49
-0.72 -5.06 2.49
-0.62 -5.08 2.49
-0.51 -5.09 2.49
-0.41 -5.10 2.49
-0.31 -5.10 2.49
-0.21 -5.11 2.49
-0.10 -5.11 2.49
-0.00 -4.83 2.49
0.09 -4.83 2.49
0.19 -4.83 2.49
0.29 -4.82 2.49
0.38 -4.82 2.49
0.48 -4.81 2.49
0.58 -4.80 2.49
0.67 -4.78 2.49
0.77 -4.77 2.49
0.86 -4.75 2.49
0.96 -4.73 2.49
1.05 -4.71 2.49
1.15 -4.69 2.49
1.24 -4.67 2.49
1.34 -4.64 2.49
1.43 -4.61 2.49
1.52 -4.58 2.49
1.61 -4.55 2.49
1.70 -4.52 2.49
1.79 -4.48 2.49
1.88 -4.44 2.49
1.97 -4.41 2.49
2.06 -4.36 2.49
2.15 -4.32 2.49
2.21 -4.24 2.47
2.22 -4.06 2.39
2.30 -4.01 2.39
2.38 -3.96 2.39
2.46 -3.91 2.39
2.54 -3.86 2.39
2.61 -3.81 2.39
2.69 -3.76 2.39
2.76 -3.70 2.39
2.84 -3.65 2.39
2.91 -3.59 2.39
2.98 -3.53 2.39
3.05 -3.47 2.39
3.12 -3.41 2.39
3.19 -3.34 2.39
3.25 -3.28 2.39
3.32 -3.21 2.39
3.38 -3.14 2.39
3.44 -3.07 2.39
3.50 -3.00 2.39
3.56 -2.93 2.39
3.62 -2.86 2.39
3.68 -2.79 2.39
3.73 -2.71 2.39
3.79 -2.64 2.39
3.84 -2.56 2.39
3.89 -2.48 2.39
3.94 -2.40 2.39
3.98 -2.32 2.39
4.03 -2.24 2.39
4.07 -2.16 2.39
4.11 -2.08 2.39
4.15 -2.00 2.39
4.19 -1.91 2.39
4.23 -1.83 2.39
4.27 -1.74 2.39
4.30 -1.66 2.39
4.33 -1.57 2.39
4.36 -1.48 2.39
