ply
format ascii 1.0
element vertex 2993
property float32 x
property float32 y
property float32 z
end_header
6.03 1.58 1.61
6.03 1.71 1.62
6.03 1.84 1.63
6.03 1.97 1.64
6.03 2.11 1.65
6.03 2.25 1.66
6.03 2.38 1.67
6.03 2.53 1.69
6.03 2.67 1.70
6.03 2.81 1.72
6.03 2.96 1.73
6.02 3.11 1.75
6.02 3.27 1.77
6.02 3.43 1.79
6.02 3.59 1.81
6.02 3.75 1.83
6.02 3.92 1.86
6.02 4.10 1.88
6.02 4.28 1.91
6.02 4.46 1.93
6.02 4.65 1.96
6.02 4.85 1.99
6.02 5.05 2.03
6.02 5.26 2.06
5.39 4.91 1.88
5.30 5.01 1.88
5.19 5.12 1.88
5.09 5.22 1.88
5.00 5.34 1.89
4.98 5.54 1.92
4.98 5.76 1.96
4.98 6.00 2.01
5.77 7.25 2.39
5.63 7.37 2.39
5.48 7.48 2.39
5.33 7.59 2.39
5.18 7.70 2.39
5.02 7.80 2.39
4.86 7.90 2.39
4.70 7.99 2.39
4.54 8.09 2.39
4.38 8.18 2.39
4.21 8.26 2.39
4.05 8.35 2.39
3.88 8.43 2.39
3.71 8.50 2.39
3.54 8.58 2.39
3.37 8.65 2.39
3.19 8.71 2.39
3.02 8.78 2.39
2.84 8.84 2.39
2.66 8.89 2.39
2.48 8.94 2.39
2.30 8.99 2.39
2.21 9.43 2.49
2.03 9.47 2.49
1.83 9.51 2.49
1.64 9.54 2.49
1.45 9.57 2.49
1.26 9.60 2.49
1.07 9.62 2.49
0.87 9.64 2.49
0.68 9.66 2.49
0.49 9.67 2.49
0.29 9.68 2.49
0.10 9.68 2.49
-0.10 9.68 2.49
-0.29 9.68 2.49
-0.49 9.67 2.49
-0.68 9.66 2.49
-0.87 9.64 2.49
-1.07 9.62 2.49
-1.26 9.60 2.49
-1.45 9.57 2.49
-1.64 9.54 2.49
-1.83 9.51 2.49
-2.03 9.47 2.49
-2.21 9.43 2.49
-2.40 9.38 2.49
-2.59 9.33 2.49
-2.78 9.27 2.49
-2.96 9.22 2.49
-3.15 9.15 2.49
-3.33 9.09 2.49
-3.51 9.02 2.49
-3.69 8.95 2.49
-3.87 8.87 2.49
-4.05 8.79 2.49
-4.22 8.71 2.49
-4.40 8.62 2.49
-4.57 8.53 2.49
-4.74 8.44 2.49
-4.91 8.34 2.49
-5.07 8.24 2.49
-5.24 8.14 2.49
-5.40 8.03 2.49
-5.56 7.92 2.49
-5.72 7.80 2.49
-5.82 7.63 2.47
-5.83 7.32 2.41
-5.92 7.14 2.39
-6.06 7.02 2.39
-6.20 6.89 2.39
-6.34 6.77 2.39
-6.47 6.64 2.39
-6.60 6.51 2.39
-6.73 6.37 2.39
-6.86 6.23 2.39
-6.98 6.09 2.39
-7.10 5.95 2.39
-7.22 5.81 2.39
-3.50 2.70 1.14
-3.48 2.58 1.12
-3.50 2.49 1.11
-3.54 2.41 1.11
-3.60 2.35 1.11
-3.68 2.30 1.12
-3.80 2.27 1.14
-7.76 4.41 2.30
-7.83 4.25 2.30
-7.89 4.08 2.29
-7.95 3.91 2.29
-7.99 3.73 2.28
-8.06 3.57 2.28
-8.13 3.41 2.28
-8.23 3.26 2.29
-8.30 3.09 2.29
-8.61 3.01 2.36
-8.79 2.88 2.39
-8.84 2.70 2.39
-8.89 2.52 2.39
-8.94 2.34 2.39
-8.99 2.16 2.39
-9.03 1.98 2.39
-9.06 1.80 2.39
-9.10 1.62 2.39
-9.13 1.43 2.39
-9.15 1.25 2.39
-9.18 1.07 2.39
-9.19 0.88 2.39
-9.21 0.70 2.39
-9.22 0.51 2.39
-9.23 0.33 2.39
-9.23 0.14 2.39
-9.23 -0.04 2.39
-9.23 -0.23 2.39
-9.22 -0.41 2.39
-9.21 -0.60 2.39
-9.19 -0.78 2.39
-9.18 -0.97 2.39
-9.15 -1.15 2.39
-9.13 -1.33 2.39
-9.10 -1.52 2.39
-9.06 -1.70 2.39
-9.03 -1.88 2.39
-8.99 -2.06 2.39
-8.94 -2.24 2.39
-8.89 -2.42 2.39
-8.84 -2.60 2.39
-8.79 -2.77 2.39
-8.73 -2.95 2.39
-8.67 -3.12 2.39
-8.60 -3.30 2.39
-8.53 -3.47 2.39
-8.46 -3.64 2.39
-8.39 -3.81 2.39
-8.31 -3.98 2.39
-8.22 -4.14 2.39
-8.14 -4.30 2.39
-8.05 -4.47 2.39
-7.96 -4.63 2.39
-7.86 -4.79 2.39
-7.76 -4.94 2.39
-7.66 -5.10 2.39
-7.56 -5.25 2.39
-7.45 -5.40 2.39
-7.34 -5.55 2.39
-7.23 -5.69 2.39
-7.11 -5.84 2.39
-6.99 -5.98 2.39
-6.87 -6.12 2.39
-6.74 -6.25 2.39
-6.62 -6.39 2.39
-6.49 -6.52 2.39
-6.35 -6.64 2.39
-6.22 -6.77 2.39
-6.07 -6.88 2.39
-5.94 -7.01 2.39
-5.80 -7.13 2.39
-5.78 -7.41 2.45
-5.74 -7.67 2.49
-5.59 -7.79 2.49
-5.43 -7.90 2.49
-5.27 -8.01 2.49
-5.11 -8.11 2.49
-4.95 -8.21 2.49
-4.78 -8.31 2.49
-4.61 -8.40 2.49
-4.44 -8.49 2.49
-4.27 -8.58 2.49
-4.10 -8.66 2.49
-3.92 -8.74 2.49
-3.75 -8.82 2.49
-3.57 -8.89 2.49
-3.39 -8.96 2.49
-3.21 -9.03 2.49
-3.02 -9.09 2.49
-2.84 -9.15 2.49
-2.66 -9.20 2.49
-2.47 -9.25 2.49
-2.29 -9.30 2.49
-2.10 -9.34 2.49
-1.91 -9.38 2.49
-1.72 -9.42 2.49
-1.53 -9.45 2.49
-0.61 -4.30 1.13
-0.52 -4.30 1.13
-0.43 -4.30 1.13
-0.35 -4.30 1.12
-0.26 -4.30 1.12
-0.17 -4.30 1.12
-0.09 -4.30 1.12
0.00 -4.31 1.23
0.09 -4.31 1.23
0.17 -4.31 1.23
0.26 -4.31 1.23
0.35 -4.31 1.23
0.43 -4.31 1.23
0.52 -4.31 1.23
0.61 -4.31 1.24
0.70 -4.31 1.24
0.79 -4.31 1.25
0.88 -4.31 1.25
0.97 -4.31 1.26
1.06 -4.31 1.26
2.25 -8.43 2.48
2.33 -8.07 2.39
2.49 -8.02 2.39
2.65 -7.97 2.39
2.81 -7.92 2.39
2.97 -7.86 2.39
3.13 -7.80 2.39
3.28 -7.73 2.39
3.44 -7.67 2.39
3.59 -7.60 2.39
3.75 -7.52 2.39
3.90 -7.45 2.39
4.04 -7.37 2.39
4.19 -7.29 2.39
4.34 -7.20 2.39
4.48 -7.11 2.39
4.62 -7.02 2.39
4.76 -6.93 2.39
4.90 -6.83 2.39
2.49 -3.33 1.18
5.17 -6.63 2.39
5.31 -6.52 2.39
5.44 -6.42 2.39
5.56 -6.31 2.39
5.69 -6.19 2.39
5.81 -6.08 2.39
5.94 -5.96 2.39
6.05 -5.84 2.39
6.17 -5.72 2.39
6.00 -4.92 2.20
5.99 -4.72 2.16
6.00 -4.54 2.14
6.04 -4.38 2.12
6.04 -4.20 2.09
6.04 -4.02 2.06
6.04 -3.85 2.03
6.04 -3.68 2.01
6.04 -3.51 1.98
6.04 -3.35 1.96
6.04 -3.19 1.94
6.04 -3.04 1.92
6.04 -2.89 1.90
6.04 -2.74 1.88
5.97 -2.57 1.84
6.04 -2.45 1.85
6.04 -2.31 1.83
6.04 -2.18 1.82
6.04 -2.04 1.81
6.04 -1.91 1.80
6.04 -1.77 1.78
6.04 -1.64 1.77
6.04 -1.51 1.76
6.04 -1.38 1.76
6.04 -1.26 1.75
6.04 -1.13 1.74
6.04 -1.01 1.73
6.04 -0.88 1.73
6.04 -0.76 1.72
6.03 -0.64 1.72
6.03 -0.51 1.72
6.03 -0.39 1.71
6.03 -0.27 1.71
6.03 -0.15 1.71
6.03 -0.03 1.71
6.03 0.09 1.71
6.03 0.21 1.71
6.03 0.34 1.71
6.03 0.46 1.71
6.03 0.58 1.71
6.03 0.70 1.72
6.03 0.82 1.72
6.03 0.95 1.73
6.03 1.07 1.73
6.03 1.20 1.74
6.03 1.32 1.75
5.96 1.43 1.73
6.03 1.58 1.76
6.03 1.71 1.77
6.03 1.84 1.78
6.03 1.97 1.79
6.03 2.11 1.80
6.03 2.25 1.82
6.03 2.38 1.83
6.03 2.53 1.85
6.03 2.67 1.86
6.03 2.81 1.88
6.03 2.96 1.90
6.02 3.11 1.92
6.02 3.27 1.94
6.02 3.43 1.96
6.02 3.59 1.98
6.02 3.75 2.00
6.02 3.92 2.03
6.02 4.10 2.06
6.02 4.28 2.08
6.02 4.46 2.11
5.98 4.62 2.13
5.96 4.80 2.16
5.96 5.00 2.20
5.31 4.83 2.03
5.10 4.83 1.98
4.98 4.91 1.97
4.98 5.11 2.01
4.99 5.32 2.06
5.67 6.30 2.39
5.23 6.05 2.25
5.06 6.10 2.24
5.28 6.63 2.39
5.15 6.74 2.39
5.01 6.84 2.39
4.87 6.94 2.39
4.73 7.04 2.39
4.59 7.13 2.39
4.45 7.22 2.39
4.30 7.31 2.39
4.15 7.39 2.39
4.00 7.48 2.39
3.85 7.56 2.39
3.70 7.63 2.39
3.55 7.71 2.39
3.39 7.78 2.39
3.24 7.84 2.39
3.08 7.91 2.39
2.92 7.97 2.39
2.76 8.02 2.39
2.60 8.08 2.39
2.43 8.13 2.39
2.27 8.18 2.39
2.20 8.57 2.49
2.02 8.62 2.49
1.85 8.66 2.49
1.68 8.69 2.49
1.50 8.72 2.49
1.33 8.75 2.49
1.15 8.78 2.49
0.98 8.80 2.49
0.80 8.82 2.49
0.62 8.83 2.49
0.44 8.84 2.49
0.27 8.85 2.49
0.09 8.85 2.49
-0.09 8.85 2.49
-0.27 8.85 2.49
-0.44 8.84 2.49
-0.62 8.83 2.49
-0.80 8.82 2.49
-0.98 8.80 2.49
-1.15 8.78 2.49
-1.33 8.75 2.49
-1.50 8.72 2.49
-1.68 8.69 2.49
-1.85 8.66 2.49
-2.02 8.62 2.49
-2.20 8.57 2.49
-2.37 8.53 2.49
-2.54 8.48 2.49
-2.71 8.43 2.49
-2.88 8.37 2.49
-3.04 8.31 2.49
-3.21 8.25 2.49
-3.38 8.18 2.49
-3.54 8.11 2.49
-3.70 8.04 2.49
-3.86 7.96 2.49
-4.02 7.88 2.49
-4.18 7.80 2.49
-4.33 7.71 2.49
-4.49 7.63 2.49
-4.64 7.53 2.49
-4.79 7.44 2.49
-4.94 7.34 2.49
-5.08 7.24 2.49
-5.23 7.14 2.49
-5.37 7.03 2.49
-5.51 6.92 2.49
-5.64 6.81 2.49
-5.78 6.69 2.49
-5.82 6.47 2.45
-5.83 6.22 2.41
-5.92 6.07 2.39
-6.04 5.95 2.39
-6.15 5.83 2.39
-6.27 5.70 2.39
-6.38 5.57 2.39
-6.49 5.44 2.39
-6.60 5.31 2.39
-3.50 2.70 1.25
-3.48 2.58 1.22
-3.50 2.49 1.21
-3.54 2.41 1.21
-3.60 2.35 1.21
-3.68 2.30 1.23
-3.80 2.27 1.25
-7.18 4.09 2.33
-7.26 3.94 2.33
-7.33 3.79 2.33
-7.39 3.63 2.33
-7.45 3.48 2.32
-7.50 3.32 2.32
-7.53 3.15 2.31
-7.60 3.01 2.31
-7.58 2.82 2.29
-7.64 2.67 2.29
-7.70 2.52 2.29
-7.74 2.36 2.29
-7.94 2.25 2.33
-8.12 2.13 2.37
-8.19 1.97 2.38
-8.23 1.81 2.38
-8.29 1.65 2.39
-8.32 1.48 2.39
-8.35 1.31 2.39
-8.37 1.14 2.39
-8.39 0.98 2.39
-8.41 0.81 2.39
-8.42 0.64 2.39
-8.43 0.47 2.39
-8.44 0.30 2.39
-8.44 0.13 2.39
-8.44 -0.04 2.39
-8.44 -0.21 2.39
-8.43 -0.38 2.39
-8.42 -0.55 2.39
-8.41 -0.72 2.39
-8.39 -0.88 2.39
-8.37 -1.05 2.39
-8.35 -1.22 2.39
-8.32 -1.39 2.39
-8.29 -1.55 2.39
-8.26 -1.72 2.39
-8.22 -1.89 2.39
-8.18 -2.05 2.39
-8.14 -2.21 2.39
-8.09 -2.38 2.39
-8.04 -2.54 2.39
-7.99 -2.70 2.39
-7.93 -2.86 2.39
-7.87 -3.02 2.39
-7.81 -3.17 2.39
-7.74 -3.33 2.39
-7.67 -3.48 2.39
-7.60 -3.64 2.39
-7.52 -3.79 2.39
-7.45 -3.94 2.39
-7.36 -4.09 2.39
-7.28 -4.23 2.39
-7.19 -4.38 2.39
-7.10 -4.52 2.39
-7.01 -4.66 2.39
-6.91 -4.80 2.39
-6.82 -4.94 2.39
-6.72 -5.07 2.39
-6.61 -5.21 2.39
-6.51 -5.34 2.39
-6.40 -5.47 2.39
-6.28 -5.59 2.39
-6.17 -5.72 2.39
-6.05 -5.84 2.39
-5.94 -5.96 2.39
-5.81 -6.08 2.39
-5.79 -6.30 2.43
-5.79 -6.56 2.49
-5.67 -6.69 2.49
-5.53 -6.81 2.49
-5.40 -6.92 2.49
-5.26 -7.02 2.49
-5.11 -7.13 2.49
-4.97 -7.23 2.49
-4.82 -7.32 2.49
-4.67 -7.42 2.49
-4.52 -7.51 2.49
-4.37 -7.60 2.49
-4.22 -7.69 2.49
-4.06 -7.77 2.49
-3.91 -7.85 2.49
-3.75 -7.92 2.49
-3.59 -8.00 2.49
-3.43 -8.07 2.49
-3.26 -8.14 2.49
-3.10 -8.20 2.49
-2.93 -8.26 2.49
-2.77 -8.32 2.49
-2.60 -8.37 2.49
-2.43 -8.42 2.49
-2.26 -8.47 2.49
-2.09 -8.51 2.49
-1.92 -8.55 2.49
-1.75 -8.59 2.49
-1.58 -8.62 2.49
-1.40 -8.65 2.49
-0.61 -4.30 1.24
-0.52 -4.30 1.23
-0.43 -4.30 1.23
-0.35 -4.30 1.23
-0.26 -4.30 1.23
-0.17 -4.30 1.23
-0.09 -4.31 1.23
0.00 -4.31 1.33
0.09 -4.31 1.33
0.17 -4.31 1.33
0.26 -4.31 1.33
0.35 -4.31 1.34
0.43 -4.31 1.34
0.52 -4.31 1.34
0.61 -4.31 1.34
0.70 -4.31 1.35
0.79 -4.31 1.35
0.88 -4.31 1.36
0.97 -4.31 1.37
1.06 -4.31 1.37
2.08 -7.80 2.49
2.24 -7.75 2.49
2.30 -7.39 2.39
2.44 -7.34 2.39
2.59 -7.29 2.39
2.74 -7.24 2.39
2.88 -7.18 2.39
3.02 -7.12 2.39
3.17 -7.06 2.39
3.31 -6.99 2.39
3.45 -6.93 2.39
3.59 -6.86 2.39
3.72 -6.78 2.39
3.86 -6.71 2.39
3.99 -6.63 2.39
4.12 -6.55 2.39
4.26 -6.46 2.39
4.38 -6.38 2.39
4.51 -6.29 2.39
2.49 -3.33 1.28
4.76 -6.10 2.39
4.88 -6.01 2.39
5.00 -5.91 2.39
5.12 -5.81 2.39
5.24 -5.70 2.39
5.35 -5.60 2.39
5.46 -5.49 2.39
5.57 -5.38 2.39
5.68 -5.27 2.39
5.79 -5.15 2.39
5.89 -5.03 2.39
5.99 -4.91 2.39
6.09 -4.79 2.39
6.18 -4.67 2.39
5.99 -3.81 2.19
5.99 -3.64 2.16
6.00 -3.49 2.14
6.02 -3.34 2.12
6.04 -3.19 2.11
6.04 -3.04 2.08
6.04 -2.89 2.06
6.04 -2.74 2.04
5.97 -2.57 2.00
6.04 -2.45 2.01
6.04 -2.31 1.99
6.04 -2.18 1.98
6.04 -2.04 1.96
6.04 -1.91 1.95
6.04 -1.77 1.94
6.04 -1.64 1.93
6.04 -1.51 1.92
6.04 -1.38 1.91
6.04 -1.26 1.90
6.04 -1.13 1.89
6.04 -1.01 1.88
6.04 -0.88 1.88
6.04 -0.76 1.87
6.03 -0.64 1.87
6.03 -0.51 1.86
6.03 -0.39 1.86
6.03 -0.27 1.86
6.03 -0.15 1.86
6.03 -0.03 1.86
6.03 0.09 1.86
6.03 0.21 1.86
6.03 0.34 1.86
6.03 0.46 1.86
6.03 0.58 1.86
6.03 0.70 1.87
6.03 0.82 1.87
6.03 0.95 1.88
6.03 1.07 1.88
6.03 1.20 1.89
6.03 1.32 1.90
5.96 1.44 1.88
6.03 1.58 1.91
6.03 1.71 1.92
6.03 1.84 1.94
6.03 1.97 1.95
6.03 2.11 1.96
6.03 2.25 1.97
6.03 2.38 1.99
6.03 2.53 2.01
6.03 2.67 2.02
6.03 2.81 2.04
6.03 2.96 2.06
5.44 2.81 1.88
5.39 2.92 1.88
5.33 3.03 1.88
5.27 3.14 1.88
5.20 3.24 1.88
5.14 3.35 1.88
5.07 3.45 1.88
6.17 4.76 2.39
6.07 4.89 2.39
5.97 5.01 2.39
5.87 5.13 2.39
5.77 5.25 2.39
5.36 5.07 2.26
5.14 5.07 2.21
5.44 5.58 2.39
5.33 5.69 2.39
5.21 5.80 2.39
5.10 5.90 2.39
4.98 6.00 2.39
4.86 6.10 2.39
4.73 6.20 2.39
4.61 6.29 2.39
4.48 6.39 2.39
4.35 6.47 2.39
4.22 6.56 2.39
4.09 6.64 2.39
3.96 6.73 2.39
3.82 6.80 2.39
3.68 6.88 2.39
3.55 6.95 2.39
3.41 7.02 2.39
3.26 7.09 2.39
3.12 7.15 2.39
2.98 7.22 2.39
2.83 7.27 2.39
2.69 7.33 2.39
2.54 7.38 2.39
2.39 7.43 2.39
2.24 7.48 2.39
2.18 7.85 2.49
2.02 7.89 2.49
1.86 7.93 2.49
1.70 7.96 2.49
1.54 8.00 2.49
1.38 8.03 2.49
1.22 8.05 2.49
1.06 8.08 2.49
0.90 8.10 2.49
0.73 8.11 2.49
0.57 8.13 2.49
0.41 8.14 2.49
0.25 8.14 2.49
0.08 8.15 2.49
-0.08 8.15 2.49
-0.25 8.14 2.49
-0.41 8.14 2.49
-0.57 8.13 2.49
-0.73 8.11 2.49
-0.90 8.10 2.49
-1.06 8.08 2.49
-1.22 8.05 2.49
-1.38 8.03 2.49
-1.54 8.00 2.49
-1.70 7.96 2.49
-1.86 7.93 2.49
-2.02 7.89 2.49
-2.18 7.85 2.49
-2.34 7.80 2.49
-2.49 7.75 2.49
-2.65 7.70 2.49
-2.80 7.65 2.49
-2.95 7.59 2.49
-3.11 7.53 2.49
-3.26 7.46 2.49
-3.40 7.40 2.49
-3.55 7.33 2.49
-3.70 7.25 2.49
-3.84 7.18 2.49
-3.99 7.10 2.49
-4.13 7.02 2.49
-4.27 6.93 2.49
-4.41 6.84 2.49
-4.54 6.75 2.49
-4.68 6.66 2.49
-4.81 6.57 2.49
-4.94 6.47 2.49
-5.07 6.37 2.49
-5.19 6.26 2.49
-5.32 6.16 2.49
-5.44 6.05 2.49
-5.56 5.94 2.49
-5.68 5.83 2.49
-5.79 5.71 2.49
-5.82 5.51 2.46
-5.82 5.30 2.41
-5.87 5.13 2.39
-5.97 5.01 2.39
-6.07 4.89 2.39
-3.50 2.70 1.36
-3.48 2.58 1.33
-3.50 2.49 1.32
-3.54 2.41 1.31
-3.60 2.35 1.32
-3.68 2.30 1.33
-3.80 2.27 1.36
-6.77 3.85 2.39
-6.80 3.69 2.37
-6.85 3.54 2.37
-6.90 3.39 2.36
-6.94 3.24 2.35
-6.97 3.09 2.34
-7.00 2.93 2.33
-7.01 2.77 2.31
-7.06 2.63 2.31
-7.14 2.50 2.32
-7.18 2.35 2.32
-7.28 2.23 2.34
-7.41 2.10 2.37
-7.44 1.95 2.36
-7.50 1.80 2.37
-7.56 1.66 2.38
-7.63 1.52 2.39
-7.66 1.36 2.39
-7.68 1.21 2.39
-7.70 1.05 2.39
-7.72 0.90 2.39
-7.74 0.74 2.39
-7.75 0.59 2.39
-7.76 0.43 2.39
-7.77 0.28 2.39
-7.77 0.12 2.39
-7.77 -0.04 2.39
-7.77 -0.19 2.39
-7.76 -0.35 2.39
-7.75 -0.50 2.39
-7.74 -0.66 2.39
-7.72 -0.81 2.39
-7.71 -0.97 2.39
-7.68 -1.12 2.39
-7.66 -1.28 2.39
-7.63 -1.43 2.39
-7.60 -1.58 2.39
-7.57 -1.74 2.39
-7.53 -1.89 2.39
-7.49 -2.04 2.39
-7.45 -2.19 2.39
-7.40 -2.34 2.39
-7.35 -2.48 2.39
-7.30 -2.63 2.39
-7.24 -2.78 2.39
-7.19 -2.92 2.39
-7.13 -3.06 2.39
-7.06 -3.21 2.39
-7.00 -3.35 2.39
-6.93 -3.49 2.39
-6.85 -3.62 2.39
-6.78 -3.76 2.39
-6.70 -3.90 2.39
-6.62 -4.03 2.39
-6.54 -4.16 2.39
-6.45 -4.29 2.39
-6.37 -4.42 2.39
-6.28 -4.55 2.39
-6.18 -4.67 2.39
-6.09 -4.79 2.39
-5.99 -4.91 2.39
-5.89 -5.03 2.39
-5.80 -5.16 2.40
-5.79 -5.37 2.44
-5.79 -5.59 2.48
-5.70 -5.73 2.49
-5.58 -5.84 2.49
-5.46 -5.95 2.49
-5.34 -6.06 2.49
-5.22 -6.16 2.49
-5.10 -6.27 2.49
-4.97 -6.37 2.49
-4.84 -6.46 2.49
-4.71 -6.56 2.49
-4.58 -6.65 2.49
-4.44 -6.74 2.49
-4.30 -6.83 2.49
-4.17 -6.91 2.49
-4.03 -7.00 2.49
-3.88 -7.08 2.49
-3.74 -7.15 2.49
-3.60 -7.23 2.49
-3.45 -7.30 2.49
-3.30 -7.36 2.49
-3.15 -7.43 2.49
-3.01 -7.49 2.49
-2.85 -7.55 2.49
-2.70 -7.60 2.49
-2.55 -7.66 2.49
-2.39 -7.71 2.49
-2.24 -7.75 2.49
-2.08 -7.80 2.49
-1.93 -7.84 2.49
-1.77 -7.87 2.49
-1.61 -7.91 2.49
-1.45 -7.94 2.49
-1.29 -7.96 2.49
-0.61 -4.30 1.34
-0.52 -4.30 1.34
-0.43 -4.30 1.34
-0.35 -4.30 1.33
-0.26 -4.30 1.33
-0.17 -4.31 1.33
-0.09 -4.31 1.33
0.00 -4.31 1.44
0.09 -4.31 1.44
0.17 -4.31 1.44
0.26 -4.31 1.44
0.35 -4.31 1.44
0.43 -4.31 1.45
0.52 -4.31 1.45
0.61 -4.31 1.45
0.70 -4.31 1.46
0.79 -4.31 1.46
0.88 -4.31 1.47
0.97 -4.31 1.48
1.06 -4.31 1.48
1.93 -7.22 2.49
2.07 -7.18 2.49
2.22 -7.13 2.49
2.27 -6.82 2.40
2.40 -6.75 2.39
2.53 -6.70 2.39
2.67 -6.65 2.39
2.80 -6.59 2.39
2.93 -6.53 2.39
3.06 -6.47 2.39
3.19 -6.41 2.39
3.32 -6.35 2.39
3.45 -6.28 2.39
3.57 -6.21 2.39
3.70 -6.14 2.39
3.82 -6.06 2.39
3.94 -5.98 2.39
4.06 -5.90 2.39
4.18 -5.82 2.39
2.49 -3.33 1.39
4.41 -5.65 2.39
4.52 -5.56 2.39
4.63 -5.47 2.39
4.74 -5.37 2.39
4.85 -5.28 2.39
4.95 -5.18 2.39
5.06 -5.08 2.39
5.16 -4.98 2.39
5.26 -4.87 2.39
5.35 -4.77 2.39
5.45 -4.66 2.39
5.54 -4.55 2.39
5.63 -4.44 2.39
5.72 -4.32 2.39
5.81 -4.21 2.39
5.89 -4.09 2.39
5.97 -3.97 2.39
6.05 -3.85 2.39
6.13 -3.73 2.39
6.20 -3.61 2.39
5.98 -2.72 2.19
5.97 -2.57 2.16
5.98 -2.43 2.15
5.99 -2.30 2.14
6.01 -2.17 2.13
6.03 -2.04 2.12
6.04 -1.91 2.11
6.04 -1.77 2.09
6.04 -1.64 2.08
6.04 -1.51 2.07
6.04 -1.38 2.06
6.04 -1.26 2.05
6.04 -1.13 2.04
6.04 -1.01 2.04
6.04 -0.88 2.03
6.04 -0.76 2.02
6.03 -0.64 2.02
6.03 -0.51 2.01
6.03 -0.39 2.01
6.03 -0.27 2.01
6.03 -0.15 2.01
6.03 -0.03 2.01
6.03 0.09 2.01
6.03 0.21 2.01
6.03 0.34 2.01
6.03 0.46 2.01
6.03 0.58 2.01
6.03 0.70 2.02
6.03 0.82 2.02
6.03 0.95 2.03
6.03 1.07 2.03
6.03 1.20 2.04
6.03 1.32 2.05
5.96 1.44 2.04
6.03 1.58 2.07
6.03 1.71 2.08
6.03 1.84 2.09
6.03 1.97 2.11
5.43 1.90 1.91
5.31 1.98 1.88
5.27 2.09 1.88
5.23 2.19 1.88
5.18 2.30 1.88
5.14 2.40 1.88
5.09 2.50 1.88
5.04 2.60 1.88
5.00 2.71 1.89
4.99 2.84 1.90
4.98 2.97 1.92
4.98 3.11 1.95
4.98 3.25 1.97
4.98 3.39 2.00
5.88 4.18 2.39
5.79 4.29 2.39
5.71 4.41 2.39
5.62 4.52 2.39
5.53 4.63 2.39
5.43 4.74 2.39
5.34 4.85 2.39
5.24 4.96 2.39
5.14 5.06 2.39
5.03 5.17 2.39
4.93 5.27 2.39
4.82 5.36 2.39
4.72 5.46 2.39
4.61 5.55 2.39
4.49 5.65 2.39
4.38 5.74 2.39
4.26 5.82 2.39
4.15 5.91 2.39
4.03 5.99 2.39
3.91 6.07 2.39
3.78 6.15 2.39
3.66 6.22 2.39
3.53 6.29 2.39
3.41 6.36 2.39
3.28 6.43 2.39
3.15 6.50 2.39
3.02 6.56 2.39
2.89 6.62 2.39
2.75 6.67 2.39
2.62 6.73 2.39
2.48 6.78 2.39
2.35 6.83 2.39
2.23 6.94 2.41
2.16 7.22 2.49
2.02 7.26 2.49
1.87 7.30 2.49
1.72 7.33 2.49
1.58 7.37 2.49
1.43 7.40 2.49
1.28 7.43 2.49
1.13 7.45 2.49
0.98 7.47 2.49
0.83 7.49 2.49
0.68 7.50 2.49
0.53 7.52 2.49
0.38 7.53 2.49
0.23 7.53 2.49
0.08 7.53 2.49
-0.08 7.53 2.49
-0.23 7.53 2.49
-0.38 7.53 2.49
-0.53 7.52 2.49
-0.68 7.50 2.49
-0.83 7.49 2.49
-0.98 7.47 2.49
-1.13 7.45 2.49
-1.28 7.43 2.49
-1.43 7.40 2.49
-1.58 7.37 2.49
-1.72 7.33 2.49
-1.87 7.30 2.49
-2.02 7.26 2.49
-2.16 7.22 2.49
-2.31 7.17 2.49
-2.45 7.12 2.49
-2.59 7.07 2.49
-2.73 7.02 2.49
-2.87 6.96 2.49
-3.01 6.90 2.49
-3.15 6.84 2.49
-3.29 6.78 2.49
-3.42 6.71 2.49
-3.55 6.64 2.49
-3.69 6.57 2.49
-3.82 6.49 2.49
-3.95 6.41 2.49
-4.07 6.33 2.49
-4.20 6.25 2.49
-4.33 6.16 2.49
-4.45 6.07 2.49
-4.57 5.98 2.49
-4.69 5.89 2.49
-4.80 5.79 2.49
-4.92 5.70 2.49
-5.03 5.60 2.49
-5.14 5.49 2.49
-5.25 5.39 2.49
-5.36 5.28 2.49
-5.46 5.17 2.49
-5.57 5.06 2.49
-5.67 4.95 2.49
-5.76 4.83 2.49
-5.82 4.68 2.48
-3.50 2.70 1.46
-3.48 2.58 1.44
-3.50 2.49 1.42
-3.54 2.41 1.42
-3.60 2.35 1.43
-3.68 2.30 1.44
-3.80 2.27 1.47
-6.26 3.56 2.39
-6.33 3.44 2.39
-6.40 3.31 2.39
-6.47 3.18 2.39
-6.52 3.05 2.39
-6.59 2.92 2.39
-6.63 2.78 2.38
-6.68 2.64 2.38
-6.73 2.51 2.38
-6.76 2.37 2.38
-6.81 2.23 2.38
-6.86 2.10 2.38
-6.93 1.97 2.39
-6.96 1.83 2.39
-7.00 1.69 2.39
-7.03 1.54 2.39
-7.06 1.40 2.39
-7.08 1.26 2.39
-7.11 1.12 2.39
-7.13 0.98 2.39
-7.15 0.83 2.39
-7.16 0.69 2.39
-7.17 0.54 2.39
-7.18 0.40 2.39
-7.19 0.26 2.39
-7.19 0.11 2.39
-7.19 -0.03 2.39
-7.19 -0.18 2.39
-7.18 -0.32 2.39
-7.17 -0.47 2.39
-7.16 -0.61 2.39
-7.15 -0.75 2.39
-7.13 -0.90 2.39
-7.11 -1.04 2.39
-7.09 -1.18 2.39
-7.06 -1.32 2.39
-7.03 -1.46 2.39
-7.00 -1.61 2.39
-6.97 -1.75 2.39
-6.93 -1.88 2.39
-6.89 -2.02 2.39
-6.85 -2.16 2.39
-6.80 -2.30 2.39
-6.75 -2.43 2.39
-6.70 -2.57 2.39
-6.65 -2.70 2.39
-6.59 -2.84 2.39
-6.54 -2.97 2.39
-6.47 -3.10 2.39
-6.41 -3.23 2.39
-6.34 -3.35 2.39
-6.27 -3.48 2.39
-6.20 -3.61 2.39
-6.13 -3.73 2.39
-6.05 -3.85 2.39
-5.99 -3.98 2.40
-5.89 -4.09 2.39
-5.81 -4.21 2.39
-5.80 -4.38 2.42
-5.79 -4.56 2.46
-5.78 -4.74 2.49
-5.68 -4.86 2.49
-5.59 -4.97 2.49
-5.48 -5.08 2.49
-5.38 -5.19 2.49
-5.28 -5.30 2.49
-5.17 -5.40 2.49
-5.06 -5.51 2.49
-4.95 -5.61 2.49
-4.83 -5.70 2.49
-4.72 -5.80 2.49
-4.60 -5.89 2.49
-4.48 -5.98 2.49
-4.36 -6.07 2.49
-4.23 -6.16 2.49
-4.11 -6.24 2.49
-3.98 -6.32 2.49
-3.86 -6.40 2.49
-3.73 -6.48 2.49
-3.60 -6.55 2.49
-3.46 -6.62 2.49
-3.33 -6.69 2.49
-3.19 -6.75 2.49
-3.06 -6.82 2.49
-2.92 -6.88 2.49
-2.78 -6.93 2.49
-2.64 -6.99 2.49
-2.50 -7.04 2.49
-2.36 -7.09 2.49
-2.22 -7.13 2.49
-2.07 -7.18 2.49
-1.93 -7.22 2.49
-1.78 -7.25 2.49
-1.64 -7.29 2.49
-1.49 -7.32 2.49
-1.34 -7.35 2.49
-1.19 -7.37 2.49
-0.61 -4.30 1.45
-0.52 -4.30 1.45
-0.43 -4.30 1.44
-0.35 -4.30 1.44
-0.26 -4.31 1.44
-0.17 -4.31 1.44
-0.09 -4.31 1.44
0.00 -4.31 1.55
0.09 -4.31 1.55
0.17 -4.31 1.55
0.26 -4.31 1.55
0.35 -4.31 1.55
0.43 -4.31 1.56
0.52 -4.31 1.56
0.61 -4.31 1.56
0.70 -4.31 1.57
0.79 -4.31 1.57
0.88 -4.31 1.58
0.97 -4.31 1.59
1.06 -4.31 1.59
1.79 -6.71 2.49
1.93 -6.67 2.49
2.06 -6.63 2.49
2.19 -6.59 2.49
2.26 -6.37 2.43
2.35 -6.23 2.39
2.48 -6.18 2.39
2.60 -6.13 2.39
2.73 -6.07 2.39
2.85 -6.02 2.39
2.97 -5.96 2.39
3.09 -5.90 2.39
3.20 -5.84 2.39
3.32 -5.77 2.39
3.44 -5.70 2.39
3.55 -5.63 2.39
3.66 -5.56 2.39
3.77 -5.49 2.39
3.88 -5.41 2.39
2.49 -3.33 1.49
4.10 -5.25 2.39
4.20 -5.17 2.39
4.31 -5.08 2.39
4.41 -5.00 2.39
4.51 -4.91 2.39
4.61 -4.82 2.39
4.70 -4.72 2.39
4.80 -4.63 2.39
4.89 -4.53 2.39
4.98 -4.43 2.39
5.07 -4.33 2.39
5.15 -4.23 2.39
5.24 -4.12 2.39
5.32 -4.02 2.39
5.40 -3.91 2.39
5.48 -3.80 2.39
5.55 -3.69 2.39
5.63 -3.58 2.39
5.70 -3.47 2.39
5.77 -3.35 2.39
5.83 -3.24 2.39
5.90 -3.12 2.39
5.96 -3.00 2.39
6.02 -2.88 2.39
6.08 -2.76 2.39
5.97 -2.57 2.33
6.18 -2.51 2.39
6.23 -2.39 2.39
6.02 -1.51 2.22
5.98 -1.37 2.20
5.98 -1.25 2.19
5.98 -1.12 2.18
5.98 -1.00 2.17
5.98 -0.87 2.16
5.98 -0.75 2.16
5.98 -0.63 2.15
5.98 -0.51 2.15
5.98 -0.39 2.14
5.98 -0.27 2.14
5.98 -0.15 2.14
5.98 -0.03 2.14
5.98 0.09 2.14
5.98 0.21 2.14
5.98 0.33 2.14
5.98 0.45 2.14
5.98 0.57 2.15
5.98 0.70 2.15
5.97 0.82 2.16
5.97 0.94 2.16
5.97 1.06 2.17
5.97 1.19 2.18
5.97 1.31 2.18
5.96 1.44 2.19
6.00 1.57 2.22
5.10 1.90 1.94
4.99 1.97 1.92
4.99 2.09 1.93
4.99 2.21 1.95
4.99 2.33 1.96
4.99 2.45 1.98
4.99 2.58 2.00
4.99 2.71 2.02
4.99 2.84 2.05
5.24 3.12 2.17
5.07 3.16 2.13
5.61 3.66 2.39
5.54 3.77 2.39
5.46 3.88 2.39
5.38 3.99 2.39
5.30 4.10 2.39
5.22 4.20 2.39
5.13 4.31 2.39
5.05 4.41 2.39
4.96 4.51 2.39
4.87 4.61 2.39
4.77 4.71 2.39
4.68 4.80 2.39
4.58 4.89 2.39
4.48 4.99 2.39
4.38 5.07 2.39
4.28 5.16 2.39
4.18 5.25 2.39
4.07 5.33 2.39
3.96 5.41 2.39
3.85 5.49 2.39
3.74 5.57 2.39
3.63 5.64 2.39
3.52 5.71 2.39
3.40 5.78 2.39
3.28 5.85 2.39
3.17 5.91 2.39
3.05 5.98 2.39
2.93 6.04 2.39
2.81 6.09 2.39
2.68 6.15 2.39
2.56 6.20 2.39
2.44 6.26 2.39
2.31 6.30 2.39
2.23 6.47 2.44
2.14 6.66 2.49
2.01 6.71 2.49
1.87 6.75 2.49
1.74 6.78 2.49
1.60 6.82 2.49
1.46 6.85 2.49
1.33 6.87 2.49
1.19 6.90 2.49
1.05 6.92 2.49
0.91 6.94 2.49
0.77 6.96 2.49
0.63 6.97 2.49
0.49 6.98 2.49
0.35 6.99 2.49
0.21 7.00 2.49
0.07 7.00 2.49
-0.07 7.00 2.49
-0.21 7.00 2.49
-0.35 6.99 2.49
-0.49 6.98 2.49
-0.63 6.97 2.49
-0.77 6.96 2.49
-0.91 6.94 2.49
-1.05 6.92 2.49
-1.19 6.90 2.49
-1.33 6.87 2.49
-1.46 6.85 2.49
-1.60 6.82 2.49
-1.74 6.78 2.49
-1.87 6.75 2.49
-2.01 6.71 2.49
-2.14 6.66 2.49
-2.28 6.62 2.49
-2.41 6.57 2.49
-2.54 6.52 2.49
-2.67 6.47 2.49
-2.80 6.42 2.49
-2.93 6.36 2.49
-3.05 6.30 2.49
-3.18 6.24 2.49
-3.30 6.17 2.49
-3.43 6.10 2.49
-3.55 6.03 2.49
-3.67 5.96 2.49
-3.79 5.88 2.49
-3.90 5.81 2.49
-4.02 5.73 2.49
-4.13 5.64 2.49
-4.25 5.56 2.49
-4.36 5.47 2.49
-4.46 5.38 2.49
-4.57 5.29 2.49
-4.68 5.20 2.49
-4.78 5.11 2.49
-4.88 5.01 2.49
-4.98 4.91 2.49
-5.08 4.81 2.49
-5.17 4.70 2.49
-5.27 4.60 2.49
-5.36 4.49 2.49
-5.45 4.38 2.49
-3.50 2.70 1.58
-3.48 2.58 1.55
-3.50 2.49 1.53
-3.54 2.41 1.53
-3.60 2.35 1.53
-3.68 2.30 1.55
-3.80 2.27 1.58
-5.82 3.31 2.39
-5.89 3.19 2.39
-5.95 3.08 2.39
-6.01 2.96 2.39
-6.07 2.83 2.39
-6.12 2.71 2.39
-6.17 2.59 2.39
-6.22 2.46 2.39
-6.27 2.34 2.39
-6.32 2.21 2.39
-6.36 2.08 2.39
-6.40 1.96 2.39
-6.44 1.83 2.39
-6.47 1.70 2.39
-6.50 1.57 2.39
-6.53 1.44 2.39
-6.56 1.30 2.39
-6.59 1.17 2.39
-6.61 1.04 2.39
-6.63 0.91 2.39
-6.64 0.77 2.39
-6.66 0.64 2.39
-6.67 0.51 2.39
-6.68 0.37 2.39
-6.68 0.24 2.39
-6.68 0.10 2.39
-6.68 -0.03 2.39
-6.68 -0.16 2.39
-6.68 -0.30 2.39
-6.67 -0.43 2.39
-6.66 -0.57 2.39
-6.64 -0.70 2.39
-6.63 -0.83 2.39
-6.61 -0.97 2.39
-6.59 -1.10 2.39
-6.56 -1.23 2.39
-6.54 -1.36 2.39
-6.51 -1.49 2.39
-6.48 -1.62 2.39
-6.44 -1.75 2.39
-6.41 -1.88 2.39
-6.37 -2.01 2.39
-6.32 -2.14 2.39
-6.28 -2.26 2.39
-6.23 -2.39 2.39
-6.18 -2.51 2.39
-6.13 -2.64 2.39
-6.08 -2.76 2.39
-6.02 -2.88 2.39
-5.96 -3.00 2.39
-5.90 -3.12 2.39
-5.83 -3.24 2.39
-5.80 -3.37 2.41
-5.80 -3.53 2.43
-5.79 -3.69 2.46
-5.79 -3.85 2.49
-5.71 -3.97 2.49
-5.63 -4.08 2.49
-5.55 -4.19 2.49
-5.46 -4.30 2.49
-5.38 -4.41 2.49
-5.29 -4.52 2.49
-5.19 -4.62 2.49
-5.10 -4.73 2.49
-5.00 -4.83 2.49
-4.90 -4.93 2.49
-4.80 -5.02 2.49
-4.70 -5.12 2.49
-4.60 -5.21 2.49
-4.49 -5.30 2.49
-4.38 -5.39 2.49
-4.28 -5.48 2.49
-4.16 -5.56 2.49
-4.05 -5.64 2.49
-3.94 -5.72 2.49
-3.82 -5.80 2.49
-3.70 -5.88 2.49
-3.58 -5.95 2.49
-3.46 -6.02 2.49
-3.34 -6.09 2.49
-3.22 -6.15 2.49
-3.10 -6.22 2.49
-2.97 -6.28 2.49
-2.84 -6.34 2.49
-2.72 -6.39 2.49
-2.59 -6.45 2.49
-2.46 -6.50 2.49
-2.33 -6.54 2.49
-2.19 -6.59 2.49
-2.06 -6.63 2.49
-1.93 -6.67 2.49
-1.79 -6.71 2.49
-1.66 -6.74 2.49
-1.52 -6.77 2.49
-1.39 -6.80 2.49
-1.25 -6.83 2.49
-0.83 -5.09 1.85
-0.61 -4.30 1.56
-0.52 -4.30 1.56
-0.43 -4.31 1.55
-0.35 -4.31 1.55
-0.26 -4.31 1.55
-0.17 -4.31 1.55
-0.09 -4.31 1.55
0.00 -4.31 1.66
0.09 -4.31 1.66
0.17 -4.31 1.66
0.26 -4.31 1.66
0.35 -4.31 1.66
0.43 -4.31 1.67
0.52 -4.31 1.67
0.61 -4.31 1.67
0.70 -4.31 1.68
0.79 -4.31 1.69
0.88 -4.31 1.69
0.97 -4.31 1.70
1.06 -4.31 1.71
1.36 -5.08 2.02
1.80 -6.23 2.49
1.92 -6.19 2.49
2.05 -6.15 2.49
2.17 -6.11 2.49
2.26 -5.97 2.46
2.31 -5.77 2.39
2.43 -5.72 2.39
2.54 -5.67 2.39
2.66 -5.62 2.39
2.77 -5.56 2.39
2.88 -5.51 2.39
2.99 -5.45 2.39
3.10 -5.39 2.39
3.21 -5.32 2.39
3.31 -5.26 2.39
3.42 -5.19 2.39
3.52 -5.12 2.39
3.63 -5.05 2.39
2.49 -3.33 1.60
3.83 -4.90 2.39
3.92 -4.82 2.39
4.02 -4.74 2.39
4.11 -4.66 2.39
4.21 -4.58 2.39
4.30 -4.49 2.39
4.39 -4.41 2.39
4.48 -4.32 2.39
4.56 -4.23 2.39
4.65 -4.14 2.39
4.73 -4.04 2.39
4.81 -3.95 2.39
4.89 -3.85 2.39
4.96 -3.75 2.39
5.04 -3.65 2.39
5.11 -3.55 2.39
5.18 -3.45 2.39
5.25 -3.34 2.39
5.32 -3.23 2.39
5.38 -3.13 2.39
5.44 -3.02 2.39
5.50 -2.91 2.39
5.56 -2.80 2.39
5.62 -2.69 2.39
5.67 -2.57 2.39
5.72 -2.46 2.39
5.77 -2.34 2.39
5.82 -2.23 2.39
5.86 -2.11 2.39
5.90 -1.99 2.39
5.94 -1.87 2.39
5.98 -1.75 2.39
6.01 -1.63 2.39
6.04 -1.51 2.39
6.07 -1.39 2.39
6.10 -1.27 2.39
6.13 -1.15 2.39
6.15 -1.02 2.39
6.17 -0.90 2.39
6.19 -0.78 2.39
6.20 -0.65 2.39
6.21 -0.53 2.39
6.22 -0.40 2.39
6.23 -0.28 2.39
6.23 -0.15 2.39
6.24 -0.03 2.39
6.24 0.10 2.39
6.23 0.22 2.39
6.23 0.35 2.39
6.22 0.47 2.39
6.21 0.60 2.39
6.20 0.72 2.39
6.18 0.85 2.39
6.17 0.97 2.39
6.14 1.09 2.39
6.12 1.22 2.39
6.10 1.34 2.39
5.96 1.44 2.35
6.04 1.58 2.39
6.01 1.70 2.39
5.97 1.83 2.39
5.93 1.94 2.39
5.89 2.06 2.39
5.85 2.18 2.39
4.99 1.98 2.05
5.11 2.14 2.12
5.07 2.25 2.12
5.66 2.64 2.39
5.61 2.76 2.39
5.55 2.87 2.39
5.49 2.98 2.39
5.43 3.09 2.39
5.24 3.12 2.33
5.07 3.16 2.28
5.24 3.41 2.39
5.17 3.52 2.39
5.10 3.62 2.39
5.02 3.72 2.39
4.95 3.82 2.39
4.87 3.92 2.39
4.79 4.02 2.39
4.71 4.11 2.39
4.63 4.21 2.39
4.54 4.30 2.39
4.45 4.39 2.39
4.37 4.48 2.39
4.28 4.57 2.39
4.18 4.65 2.39
4.09 4.74 2.39
3.99 4.82 2.39
3.90 4.90 2.39
3.80 4.97 2.39
3.70 5.05 2.39
3.59 5.12 2.39
3.49 5.19 2.39
3.39 5.26 2.39
3.28 5.33 2.39
3.17 5.39 2.39
3.06 5.46 2.39
2.95 5.52 2.39
2.84 5.58 2.39
2.73 5.63 2.39
2.62 5.69 2.39
2.50 5.74 2.39
2.39 5.79 2.39
2.27 5.83 2.39
2.23 6.08 2.47
2.12 6.18 2.49
2.00 6.22 2.49
1.87 6.26 2.49
1.75 6.29 2.49
1.62 6.33 2.49
1.49 6.36 2.49
1.37 6.39 2.49
1.24 6.41 2.49
1.11 6.44 2.49
0.98 6.46 2.49
0.85 6.48 2.49
0.72 6.49 2.49
0.59 6.51 2.49
0.46 6.52 2.49
0.33 6.52 2.49
0.20 6.53 2.49
0.07 6.53 2.49
-0.07 6.53 2.49
-0.20 6.53 2.49
-0.33 6.52 2.49
-0.46 6.52 2.49
-0.59 6.51 2.49
-0.72 6.49 2.49
-0.85 6.48 2.49
-0.98 6.46 2.49
-1.11 6.44 2.49
-1.24 6.41 2.49
-1.37 6.39 2.49
-1.49 6.36 2.49
-1.62 6.33 2.49
-1.75 6.29 2.49
-1.87 6.26 2.49
-2.00 6.22 2.49
-2.12 6.18 2.49
-2.25 6.13 2.49
-2.37 6.09 2.49
-2.49 6.04 2.49
-2.61 5.99 2.49
-2.73 5.93 2.49
-2.85 5.88 2.49
-2.97 5.82 2.49
-3.08 5.76 2.49
-3.20 5.69 2.49
-3.31 5.63 2.49
-3.42 5.56 2.49
-3.53 5.49 2.49
-3.64 5.42 2.49
-3.75 5.34 2.49
-3.86 5.27 2.49
-3.96 5.19 2.49
-4.06 5.11 2.49
-4.17 5.02 2.49
-4.27 4.94 2.49
-4.36 4.85 2.49
-4.46 4.76 2.49
-4.55 4.67 2.49
-4.65 4.58 2.49
-4.74 4.49 2.49
-4.83 4.39 2.49
-4.91 4.29 2.49
-5.00 4.19 2.49
-5.08 4.09 2.49
-3.50 2.70 1.69
-3.48 2.58 1.66
-3.50 2.49 1.64
-3.54 2.41 1.64
-3.60 2.35 1.64
-3.68 2.30 1.66
-3.80 2.27 1.69
-5.67 3.22 2.49
-5.73 3.11 2.49
-5.79 2.99 2.49
-5.81 2.86 2.48
-5.81 2.72 2.45
-5.81 2.57 2.43
-5.82 2.44 2.41
-5.82 2.30 2.40
-5.85 2.18 2.39
-5.89 2.06 2.39
-5.93 1.94 2.39
-5.97 1.83 2.39
-6.01 1.70 2.39
-6.04 1.58 2.39
-6.07 1.46 2.39
-6.10 1.34 2.39
-6.12 1.22 2.39
-6.14 1.09 2.39
-6.17 0.97 2.39
-6.18 0.85 2.39
-6.20 0.72 2.39
-6.21 0.60 2.39
-6.22 0.47 2.39
-6.23 0.35 2.39
-6.23 0.22 2.39
-6.24 0.10 2.39
-6.24 -0.03 2.39
-6.23 -0.15 2.39
-6.23 -0.28 2.39
-6.22 -0.40 2.39
-6.21 -0.53 2.39
-6.20 -0.65 2.39
-6.19 -0.78 2.39
-6.17 -0.90 2.39
-6.15 -1.02 2.39
-6.13 -1.15 2.39
-6.10 -1.27 2.39
-6.07 -1.39 2.39
-6.04 -1.51 2.39
-6.01 -1.63 2.39
-5.99 -1.76 2.40
-5.94 -1.87 2.39
-5.90 -1.99 2.39
-5.86 -2.11 2.39
-5.82 -2.23 2.39
-5.81 -2.36 2.41
-5.80 -2.49 2.42
-5.80 -2.63 2.44
-5.80 -2.77 2.47
-5.80 -2.92 2.49
-5.74 -3.04 2.49
-5.68 -3.15 2.49
-5.61 -3.26 2.49
-5.55 -3.37 2.49
-5.48 -3.48 2.49
-5.41 -3.59 2.49
-5.33 -3.70 2.49
-5.26 -3.81 2.49
-5.18 -3.91 2.49
-5.10 -4.02 2.49
-5.02 -4.12 2.49
-4.93 -4.22 2.49
-4.85 -4.31 2.49
-4.76 -4.41 2.49
-4.67 -4.50 2.49
-4.58 -4.60 2.49
-4.48 -4.69 2.49
-4.39 -4.78 2.49
-4.29 -4.86 2.49
-4.19 -4.95 2.49
-4.09 -5.03 2.49
-3.99 -5.11 2.49
-3.89 -5.19 2.49
-3.78 -5.27 2.49
-3.67 -5.34 2.49
-3.57 -5.42 2.49
-3.46 -5.49 2.49
-3.35 -5.55 2.49
-3.23 -5.62 2.49
-3.12 -5.68 2.49
-3.01 -5.74 2.49
-2.89 -5.80 2.49
-2.77 -5.86 2.49
-2.65 -5.91 2.49
-2.53 -5.97 2.49
-2.41 -6.02 2.49
-2.29 -6.06 2.49
-2.17 -6.11 2.49
-2.05 -6.15 2.49
-1.92 -6.19 2.49
-1.80 -6.23 2.49
-1.67 -6.26 2.49
-1.55 -6.29 2.49
-1.42 -6.32 2.49
-1.29 -6.35 2.49
-0.93 -5.08 1.99
-0.80 -4.96 1.93
-0.61 -4.30 1.67
-0.52 -4.31 1.67
-0.43 -4.31 1.67
-0.35 -4.31 1.66
-0.26 -4.31 1.66
-0.17 -4.31 1.66
-0.09 -4.31 1.66
0.00 -4.31 1.77
0.09 -4.31 1.77
0.17 -4.31 1.77
0.26 -4.31 1.77
0.35 -4.31 1.78
0.43 -4.31 1.78
0.52 -4.31 1.78
0.61 -4.31 1.79
0.70 -4.31 1.79
0.81 -4.41 1.84
0.90 -4.41 1.85
0.99 -4.41 1.86
1.08 -4.41 1.87
1.33 -4.99 2.12
1.68 -5.83 2.49
1.80 -5.80 2.49
1.92 -5.76 2.49
2.03 -5.72 2.49
2.15 -5.68 2.49
2.26 -5.62 2.49
2.28 -5.36 2.39
2.38 -5.31 2.39
2.49 -5.26 2.39
2.59 -5.21 2.39
2.70 -5.16 2.39
2.80 -5.10 2.39
2.90 -5.04 2.39
3.00 -4.99 2.39
3.10 -4.92 2.39
3.20 -4.86 2.39
3.30 -4.80 2.39
3.40 -4.73 2.39
2.49 -3.33 1.71
3.58 -4.59 2.39
3.67 -4.52 2.39
3.76 -4.44 2.39
3.85 -4.37 2.39
3.94 -4.29 2.39
4.03 -4.21 2.39
4.11 -4.13 2.39
4.19 -4.04 2.39
4.27 -3.96 2.39
4.35 -3.87 2.39
4.43 -3.78 2.39
4.50 -3.70 2.39
4.58 -3.60 2.39
4.65 -3.51 2.39
4.72 -3.42 2.39
4.79 -3.32 2.39
4.85 -3.23 2.39
4.92 -3.13 2.39
4.98 -3.03 2.39
5.04 -2.93 2.39
5.10 -2.83 2.39
5.15 -2.72 2.39
5.21 -2.62 2.39
5.26 -2.52 2.39
5.31 -2.41 2.39
5.36 -2.30 2.39
5.40 -2.20 2.39
5.45 -2.09 2.39
5.49 -1.98 2.39
5.53 -1.87 2.39
5.56 -1.76 2.39
5.60 -1.64 2.39
5.63 -1.53 2.39
5.66 -1.42 2.39
5.69 -1.30 2.39
5.71 -1.19 2.39
5.74 -1.07 2.39
5.76 -0.96 2.39
5.78 -0.84 2.39
5.79 -0.73 2.39
5.81 -0.61 2.39
5.82 -0.49 2.39
5.83 -0.38 2.39
5.83 -0.26 2.39
5.84 -0.14 2.39
5.84 -0.03 2.39
5.84 0.09 2.39
5.84 0.21 2.39
5.83 0.33 2.39
5.82 0.44 2.39
5.82 0.56 2.39
5.80 0.68 2.39
5.79 0.79 2.39
5.77 0.91 2.39
5.75 1.02 2.39
5.73 1.14 2.39
5.71 1.25 2.39
5.68 1.37 2.39
5.65 1.48 2.39
5.62 1.60 2.39
5.59 1.71 2.39
5.56 1.82 2.39
5.52 1.93 2.39
5.48 2.04 2.39
5.44 2.15 2.39
5.10 2.14 2.26
5.07 2.25 2.27
5.30 2.48 2.39
5.25 2.58 2.39
5.20 2.69 2.39
5.14 2.79 2.39
5.09 2.89 2.39
5.03 3.00 2.39
4.97 3.10 2.39
4.90 3.20 2.39
4.84 3.29 2.39
4.77 3.39 2.39
4.70 3.49 2.39
4.63 3.58 2.39
4.56 3.67 2.39
4.49 3.76 2.39
4.41 3.85 2.39
4.33 3.94 2.39
4.25 4.03 2.39
4.17 4.11 2.39
4.09 4.19 2.39
4.00 4.28 2.39
3.92 4.36 2.39
3.83 4.43 2.39
3.74 4.51 2.39
3.65 4.58 2.39
3.55 4.66 2.39
3.46 4.73 2.39
3.37 4.80 2.39
3.27 4.86 2.39
3.17 4.93 2.39
3.07 4.99 2.39
2.97 5.05 2.39
2.87 5.11 2.39
2.77 5.17 2.39
2.66 5.22 2.39
2.56 5.27 2.39
2.45 5.32 2.39
2.34 5.37 2.39
2.24 5.43 2.39
2.22 5.70 2.49
2.10 5.74 2.49
1.99 5.78 2.49
1.87 5.82 2.49
1.75 5.86 2.49
1.64 5.89 2.49
1.52 5.92 2.49
1.40 5.95 2.49
1.28 5.98 2.49
1.16 6.00 2.49
1.04 6.03 2.49
0.92 6.05 2.49
0.80 6.06 2.49
0.67 6.08 2.49
0.55 6.09 2.49
0.43 6.10 2.49
0.31 6.11 2.49
0.18 6.11 2.49
0.06 6.12 2.49
-0.06 6.12 2.49
-0.18 6.11 2.49
-0.31 6.11 2.49
-0.43 6.10 2.49
-0.55 6.09 2.49
-0.67 6.08 2.49
-0.80 6.06 2.49
-0.92 6.05 2.49
-1.04 6.03 2.49
-1.16 6.00 2.49
-1.28 5.98 2.49
-1.40 5.95 2.49
-1.52 5.92 2.49
-1.64 5.89 2.49
-1.75 5.86 2.49
-1.87 5.82 2.49
-1.99 5.78 2.49
-2.10 5.74 2.49
-2.22 5.70 2.49
-2.33 5.65 2.49
-2.44 5.60 2.49
-2.56 5.55 2.49
-2.67 5.50 2.49
-2.78 5.45 2.49
-2.89 5.39 2.49
-2.99 5.33 2.49
-3.10 5.27 2.49
-3.20 5.21 2.49
-3.31 5.14 2.49
-3.41 5.07 2.49
-3.51 5.00 2.49
-3.61 4.93 2.49
-3.71 4.86 2.49
-3.80 4.78 2.49
-3.90 4.70 2.49
-3.99 4.62 2.49
-4.08 4.54 2.49
-4.17 4.46 2.49
-4.26 4.38 2.49
-4.35 4.29 2.49
-4.43 4.20 2.49
-4.52 4.11 2.49
-4.60 4.02 2.49
-4.68 3.92 2.49
-4.76 3.83 2.49
-3.50 2.70 1.80
-3.48 2.58 1.77
-3.50 2.49 1.76
-3.54 2.41 1.75
-3.60 2.35 1.76
-3.68 2.30 1.77
-3.80 2.27 1.81
-5.30 3.02 2.49
-5.36 2.91 2.49
-5.42 2.80 2.49
-5.48 2.69 2.49
-5.53 2.58 2.49
-5.58 2.47 2.49
-5.63 2.36 2.49
-5.67 2.25 2.49
-5.72 2.13 2.49
-5.76 2.02 2.49
-5.80 1.90 2.49
-5.81 1.78 2.48
-5.81 1.65 2.47
-5.81 1.52 2.46
-5.81 1.40 2.44
-5.81 1.28 2.43
-5.81 1.16 2.42
-5.81 1.03 2.41
-5.81 0.92 2.41
-5.82 0.80 2.40
-5.82 0.68 2.40
-5.82 0.56 2.39
-5.82 0.44 2.39
-5.83 0.33 2.39
-5.84 0.21 2.39
-5.84 0.09 2.39
-5.84 -0.03 2.39
-5.84 -0.14 2.39
-5.83 -0.26 2.39
-5.83 -0.38 2.39
-5.82 -0.49 2.39
-5.81 -0.61 2.39
-5.81 -0.73 2.40
-5.81 -0.85 2.40
-5.81 -0.97 2.41
-5.81 -1.09 2.42
-5.80 -1.21 2.43
-5.80 -1.33 2.44
-5.80 -1.45 2.45
-5.80 -1.58 2.46
-5.80 -1.70 2.48
-5.80 -1.83 2.49
-5.76 -1.95 2.49
-5.72 -2.06 2.49
-5.68 -2.18 2.49
-5.64 -2.29 2.49
-5.59 -2.40 2.49
-5.54 -2.51 2.49
-5.49 -2.62 2.49
-5.43 -2.73 2.49
-5.38 -2.84 2.49
-5.32 -2.95 2.49
-5.26 -3.06 2.49
-5.19 -3.16 2.49
-5.13 -3.26 2.49
-5.06 -3.37 2.49
-4.99 -3.47 2.49
-4.92 -3.57 2.49
-4.85 -3.66 2.49
-4.77 -3.76 2.49
-4.70 -3.85 2.49
-4.62 -3.95 2.49
-4.54 -4.04 2.49
-4.46 -4.13 2.49
-4.37 -4.22 2.49
-4.29 -4.30 2.49
-4.20 -4.39 2.49
-4.11 -4.47 2.49
-4.02 -4.55 2.49
-3.93 -4.63 2.49
-3.83 -4.71 2.49
-3.74 -4.79 2.49
-3.64 -4.86 2.49
-3.54 -4.93 2.49
-3.44 -5.00 2.49
-3.34 -5.07 2.49
-3.24 -5.14 2.49
-3.13 -5.20 2.49
-3.03 -5.26 2.49
-2.92 -5.32 2.49
-2.81 -5.38 2.49
-2.71 -5.43 2.49
-2.60 -5.49 2.49
-2.49 -5.54 2.49
-2.37 -5.59 2.49
-2.26 -5.63 2.49
-2.15 -5.68 2.49
-2.03 -5.72 2.49
-1.92 -5.76 2.49
-1.80 -5.80 2.49
-1.68 -5.83 2.49
-1.57 -5.86 2.49
-1.45 -5.89 2.49
-1.33 -5.92 2.49
-1.21 -5.95 2.49
-0.91 -4.99 2.09
-0.79 -4.90 2.04
-0.61 -4.31 1.79
-0.52 -4.31 1.78
-0.43 -4.31 1.78
-0.35 -4.31 1.78
-0.26 -4.31 1.77
-0.17 -4.31 1.77
-0.09 -4.31 1.77
0.00 -4.41 1.93
0.09 -4.41 1.93
0.18 -4.41 1.93
0.27 -4.41 1.93
0.36 -4.41 1.94
0.44 -4.41 1.94
0.53 -4.41 1.94
0.62 -4.41 1.95
0.72 -4.41 1.95
0.81 -4.41 1.96
0.90 -4.41 1.97
0.99 -4.41 1.98
1.08 -4.41 1.99
1.47 -5.51 2.49
1.58 -5.48 2.49
1.69 -5.44 2.49
1.80 -5.41 2.49
1.91 -5.37 2.49
2.02 -5.33 2.49
2.12 -5.29 2.49
2.23 -5.25 2.49
2.26 -5.04 2.42
2.34 -4.94 2.39
2.44 -4.89 2.39
2.53 -4.84 2.39
2.63 -4.79 2.39
2.73 -4.74 2.39
2.82 -4.68 2.39
2.92 -4.63 2.39
3.01 -4.57 2.39
3.10 -4.50 2.39
3.19 -4.44 2.39
2.49 -3.33 1.82
3.36 -4.31 2.39
3.45 -4.24 2.39
3.54 -4.17 2.39
3.62 -4.10 2.39
3.70 -4.03 2.39
3.78 -3.95 2.39
3.86 -3.88 2.39
3.94 -3.80 2.39
4.01 -3.72 2.39
4.09 -3.64 2.39
4.16 -3.55 2.39
4.23 -3.47 2.39
4.30 -3.39 2.39
4.37 -3.30 2.39
4.43 -3.21 2.39
4.50 -3.12 2.39
4.56 -3.03 2.39
4.62 -2.94 2.39
4.68 -2.84 2.39
4.73 -2.75 2.39
4.79 -2.66 2.39
4.84 -2.56 2.39
4.89 -2.46 2.39
4.94 -2.36 2.39
4.99 -2.26 2.39
5.03 -2.16 2.39
5.07 -2.06 2.39
5.11 -1.96 2.39
5.15 -1.86 2.39
5.19 -1.75 2.39
5.22 -1.65 2.39
5.26 -1.54 2.39
5.29 -1.44 2.39
5.32 -1.33 2.39
5.34 -1.22 2.39
5.37 -1.12 2.39
5.39 -1.01 2.39
5.41 -0.90 2.39
5.42 -0.79 2.39
5.44 -0.68 2.39
5.45 -0.57 2.39
5.46 -0.46 2.39
5.47 -0.35 2.39
5.48 -0.24 2.39
5.48 -0.13 2.39
5.48 -0.02 2.39
5.48 0.09 2.39
5.48 0.20 2.39
5.48 0.31 2.39
5.47 0.42 2.39
5.46 0.53 2.39
5.45 0.64 2.39
5.44 0.74 2.39
5.42 0.85 2.39
5.40 0.96 2.39
5.38 1.07 2.39
5.36 1.18 2.39
5.34 1.29 2.39
5.31 1.39 2.39
5.28 1.50 2.39
5.25 1.60 2.39
5.22 1.71 2.39
5.18 1.81 2.39
5.15 1.92 2.39
5.11 2.02 2.39
5.07 2.12 2.39
5.02 2.22 2.39
4.98 2.33 2.39
4.93 2.43 2.39
4.88 2.52 2.39
4.83 2.62 2.39
4.78 2.72 2.39
4.72 2.81 2.39
4.66 2.91 2.39
4.60 3.00 2.39
4.54 3.09 2.39
4.48 3.18 2.39
4.42 3.27 2.39
4.35 3.36 2.39
4.28 3.45 2.39
4.21 3.53 2.39
4.14 3.62 2.39
4.07 3.70 2.39
3.99 3.78 2.39
3.92 3.86 2.39
3.84 3.94 2.39
3.76 4.01 2.39
3.68 4.09 2.39
3.59 4.16 2.39
3.51 4.23 2.39
3.42 4.30 2.39
3.34 4.37 2.39
3.25 4.44 2.39
3.16 4.50 2.39
3.07 4.57 2.39
2.98 4.63 2.39
2.88 4.69 2.39
2.79 4.74 2.39
2.69 4.80 2.39
2.60 4.85 2.39
2.50 4.90 2.39
2.40 4.95 2.39
2.30 5.00 2.39
2.23 5.12 2.43
2.19 5.31 2.49
2.08 5.35 2.49
1.97 5.39 2.49
1.87 5.43 2.49
1.76 5.47 2.49
1.65 5.50 2.49
1.54 5.53 2.49
1.42 5.56 2.49
1.31 5.59 2.49
1.20 5.61 2.49
1.09 5.64 2.49
0.97 5.66 2.49
0.86 5.68 2.49
0.75 5.69 2.49
0.63 5.71 2.49
0.52 5.72 2.49
0.40 5.73 2.49
0.29 5.74 2.49
0.17 5.74 2.49
0.06 5.74 2.49
-0.06 5.74 2.49
-0.17 5.74 2.49
-0.29 5.74 2.49
-0.40 5.73 2.49
-0.52 5.72 2.49
-0.63 5.71 2.49
-0.75 5.69 2.49
-0.86 5.68 2.49
-0.97 5.66 2.49
-1.09 5.64 2.49
-1.20 5.61 2.49
-1.31 5.59 2.49
-1.42 5.56 2.49
-1.54 5.53 2.49
-1.65 5.50 2.49
-1.76 5.47 2.49
-1.87 5.43 2.49
-1.97 5.39 2.49
-2.08 5.35 2.49
-2.19 5.31 2.49
-2.29 5.26 2.49
-2.40 5.21 2.49
-2.50 5.17 2.49
-2.61 5.11 2.49
-2.71 5.06 2.49
-2.81 5.00 2.49
-2.91 4.95 2.49
-3.01 4.89 2.49
-3.11 4.83 2.49
-3.20 4.76 2.49
-3.30 4.70 2.49
-3.39 4.63 2.49
-3.48 4.56 2.49
-3.57 4.49 2.49
-3.66 4.42 2.49
-3.75 4.34 2.49
-3.84 4.27 2.49
-3.92 4.19 2.49
-4.00 4.11 2.49
-4.08 4.03 2.49
-4.16 3.94 2.49
-4.24 3.86 2.49
-4.32 3.77 2.49
-4.39 3.69 2.49
-4.47 3.60 2.49
-3.50 2.70 1.92
-3.48 2.58 1.89
-3.50 2.49 1.87
-3.54 2.41 1.86
-3.60 2.35 1.87
-3.68 2.30 1.89
-3.80 2.27 1.93
-4.98 2.83 2.49
-5.04 2.73 2.49
-5.09 2.63 2.49
-5.14 2.53 2.49
-5.19 2.43 2.49
-5.24 2.32 2.49
-5.28 2.22 2.49
-5.33 2.11 2.49
-5.37 2.00 2.49
-5.41 1.89 2.49
-5.44 1.78 2.49
-5.48 1.67 2.49
-5.51 1.56 2.49
-5.54 1.45 2.49
-5.57 1.34 2.49
-5.59 1.23 2.49
-5.62 1.12 2.49
-5.64 1.00 2.49
-5.65 0.89 2.49
-5.67 0.78 2.49
-5.68 0.66 2.49
-5.70 0.55 2.49
-5.71 0.43 2.49
-5.71 0.32 2.49
-5.72 0.20 2.49
-5.72 0.09 2.49
-5.72 -0.03 2.49
-5.72 -0.14 2.49
-5.71 -0.25 2.49
-5.71 -0.37 2.49
-5.70 -0.48 2.49
-5.69 -0.60 2.49
-5.67 -0.71 2.49
-5.66 -0.83 2.49
-5.64 -0.94 2.49
-5.62 -1.05 2.49
-5.60 -1.16 2.49
-5.57 -1.28 2.49
-5.54 -1.39 2.49
-5.52 -1.50 2.49
-5.48 -1.61 2.49
-5.45 -1.72 2.49
-5.41 -1.83 2.49
-5.38 -1.94 2.49
-5.34 -2.04 2.49
-5.29 -2.15 2.49
-5.25 -2.26 2.49
-5.20 -2.36 2.49
-5.15 -2.46 2.49
-5.10 -2.57 2.49
-5.05 -2.67 2.49
-4.99 -2.77 2.49
-4.94 -2.87 2.49
-4.88 -2.97 2.49
-4.82 -3.06 2.49
-4.75 -3.16 2.49
-4.69 -3.26 2.49
-4.62 -3.35 2.49
-4.55 -3.44 2.49
-4.48 -3.53 2.49
-4.41 -3.62 2.49
-4.34 -3.71 2.49
-4.26 -3.79 2.49
-4.19 -3.88 2.49
-4.11 -3.96 2.49
-4.03 -4.04 2.49
-3.94 -4.12 2.49
-3.86 -4.20 2.49
-3.77 -4.28 2.49
-3.69 -4.35 2.49
-3.60 -4.43 2.49
-3.51 -4.50 2.49
-3.42 -4.57 2.49
-3.33 -4.63 2.49
-3.23 -4.70 2.49
-3.14 -4.76 2.49
-3.04 -4.82 2.49
-2.94 -4.88 2.49
-2.84 -4.94 2.49
-2.74 -5.00 2.49
-2.64 -5.05 2.49
-2.54 -5.10 2.49
-2.44 -5.15 2.49
-2.33 -5.20 2.49
-2.23 -5.25 2.49
-2.12 -5.29 2.49
-2.02 -5.33 2.49
-1.91 -5.37 2.49
-1.80 -5.41 2.49
-1.69 -5.44 2.49
-1.58 -5.48 2.49
-1.47 -5.51 2.49
-1.36 -5.54 2.49
-1.25 -5.56 2.49
-1.14 -5.59 2.49
-0.92 -5.02 2.23
-0.79 -4.88 2.16
-0.62 -4.41 1.95
-0.53 -4.41 1.94
-0.44 -4.41 1.94
-0.35 -4.41 1.93
-0.27 -4.41 1.93
-0.18 -4.41 1.93
-0.09 -4.41 1.93
0.00 -4.41 2.05
0.09 -4.41 2.05
0.18 -4.41 2.05
0.27 -4.41 2.05
0.36 -4.41 2.06
0.44 -4.41 2.06
0.53 -4.41 2.06
0.62 -4.41 2.07
0.72 -4.41 2.08
0.81 -4.41 2.08
0.90 -4.41 2.09
0.99 -4.41 2.10
1.09 -4.41 2.11
1.39 -5.19 2.49
1.49 -5.16 2.49
1.59 -5.13 2.49
1.70 -5.09 2.49
1.80 -5.06 2.49
1.90 -5.02 2.49
2.00 -4.98 2.49
2.10 -4.94 2.49
2.20 -4.90 2.49
2.25 -4.77 2.45
2.29 -4.61 2.39
2.39 -4.56 2.39
2.48 -4.51 2.39
2.57 -4.46 2.39
2.66 -4.41 2.39
2.75 -4.36 2.39
2.83 -4.30 2.39
2.92 -4.24 2.39
3.00 -4.18 2.39
2.49 -3.33 1.93
3.17 -4.06 2.39
3.25 -3.99 2.39
3.33 -3.93 2.39
3.41 -3.86 2.39
3.48 -3.79 2.39
3.56 -3.72 2.39
3.63 -3.65 2.39
3.71 -3.58 2.39
3.78 -3.50 2.39
3.85 -3.42 2.39
3.92 -3.35 2.39
3.98 -3.27 2.39
4.05 -3.19 2.39
4.11 -3.11 2.39
4.17 -3.02 2.39
4.23 -2.94 2.39
4.29 -2.85 2.39
4.35 -2.77 2.39
4.40 -2.68 2.39
4.46 -2.59 2.39
4.51 -2.50 2.39
4.56 -2.41 2.39
4.61 -2.32 2.39
4.65 -2.22 2.39
4.70 -2.13 2.39
4.74 -2.04 2.39
4.78 -1.94 2.39
4.82 -1.84 2.39
4.85 -1.75 2.39
4.89 -1.65 2.39
4.92 -1.55 2.39
4.95 -1.45 2.39
4.98 -1.35 2.39
5.00 -1.25 2.39
5.03 -1.15 2.39
5.05 -1.05 2.39
5.07 -0.95 2.39
5.09 -0.85 2.39
5.11 -0.75 2.39
5.12 -0.64 2.39
5.13 -0.54 2.39
5.14 -0.44 2.39
5.15 -0.33 2.39
5.16 -0.23 2.39
5.16 -0.13 2.39
5.16 -0.02 2.39
5.16 0.08 2.39
5.16 0.18 2.39
5.16 0.29 2.39
5.15 0.39 2.39
5.14 0.49 2.39
5.13 0.60 2.39
5.12 0.70 2.39
5.10 0.80 2.39
5.09 0.91 2.39
5.07 1.01 2.39
5.05 1.11 2.39
5.02 1.21 2.39
5.00 1.31 2.39
4.97 1.41 2.39
4.94 1.51 2.39
4.91 1.61 2.39
4.88 1.71 2.39
4.84 1.81 2.39
4.81 1.90 2.39
4.77 2.00 2.39
4.73 2.09 2.39
4.69 2.19 2.39
4.64 2.28 2.39
4.59 2.38 2.39
4.55 2.47 2.39
4.50 2.56 2.39
4.44 2.65 2.39
4.39 2.74 2.39
4.33 2.83 2.39
4.28 2.91 2.39
4.22 3.00 2.39
4.16 3.08 2.39
4.09 3.16 2.39
4.03 3.25 2.39
3.96 3.33 2.39
3.90 3.41 2.39
3.83 3.48 2.39
3.76 3.56 2.39
3.69 3.63 2.39
3.61 3.71 2.39
3.54 3.78 2.39
3.46 3.85 2.39
3.38 3.92 2.39
3.30 3.99 2.39
3.22 4.05 2.39
3.14 4.12 2.39
3.06 4.18 2.39
2.97 4.24 2.39
2.89 4.30 2.39
2.80 4.36 2.39
2.71 4.41 2.39
2.63 4.46 2.39
2.54 4.52 2.39
2.44 4.57 2.39
2.35 4.61 2.39
2.26 4.66 2.39
2.23 4.84 2.46
2.16 4.95 2.49
2.06 5.00 2.49
1.96 5.04 2.49
1.86 5.07 2.49
1.76 5.11 2.49
1.65 5.15 2.49
1.55 5.18 2.49
1.45 5.21 2.49
1.34 5.24 2.49
1.24 5.26 2.49
1.13 5.29 2.49
1.02 5.31 2.49
0.92 5.33 2.49
0.81 5.34 2.49
0.70 5.36 2.49
0.60 5.37 2.49
0.49 5.38 2.49
0.38 5.39 2.49
0.27 5.40 2.49
0.16 5.40 2.49
0.05 5.41 2.49
-0.05 5.41 2.49
-0.16 5.40 2.49
-0.27 5.40 2.49
-0.38 5.39 2.49
-0.49 5.38 2.49
-0.60 5.37 2.49
-0.70 5.36 2.49
-0.81 5.34 2.49
-0.92 5.33 2.49
-1.02 5.31 2.49
-1.13 5.29 2.49
-1.24 5.26 2.49
-1.34 5.24 2.49
-1.45 5.21 2.49
-1.55 5.18 2.49
-1.65 5.15 2.49
-1.76 5.11 2.49
-1.86 5.07 2.49
-1.96 5.04 2.49
-2.06 5.00 2.49
-2.16 4.95 2.49
-2.26 4.91 2.49
-2.36 4.86 2.49
-2.45 4.81 2.49
-2.55 4.76 2.49
-2.65 4.71 2.49
-2.74 4.66 2.49
-2.83 4.60 2.49
-2.92 4.54 2.49
-3.01 4.48 2.49
-3.10 4.42 2.49
-3.19 4.36 2.49
-3.28 4.29 2.49
-3.36 4.23 2.49
-3.45 4.16 2.49
-3.53 4.09 2.49
-3.61 4.02 2.49
-3.69 3.94 2.49
-3.77 3.87 2.49
-3.85 3.79 2.49
-3.92 3.71 2.49
-3.99 3.63 2.49
-4.07 3.55 2.49
-4.14 3.47 2.49
-4.20 3.39 2.49
-3.50 2.70 2.04
-3.48 2.58 2.00
-3.50 2.49 1.99
-3.54 2.41 1.98
-3.60 2.35 1.99
-3.68 2.30 2.00
-3.80 2.27 2.04
-4.69 2.67 2.49
-4.74 2.57 2.49
-4.79 2.48 2.49
-4.84 2.38 2.49
-4.89 2.28 2.49
-4.93 2.19 2.49
-4.97 2.09 2.49
-5.01 1.99 2.49
-5.05 1.88 2.49
-5.09 1.78 2.49
-5.12 1.68 2.49
-5.16 1.58 2.49
-5.19 1.47 2.49
-5.21 1.37 2.49
-5.24 1.26 2.49
-5.26 1.16 2.49
-5.29 1.05 2.49
-5.31 0.95 2.49
-5.32 0.84 2.49
-5.34 0.73 2.49
-5.35 0.62 2.49
-5.36 0.52 2.49
-5.37 0.41 2.49
-5.38 0.30 2.49
-5.38 0.19 2.49
-5.39 0.08 2.49
-5.39 -0.02 2.49
-5.38 -0.13 2.49
-5.38 -0.24 2.49
-5.37 -0.35 2.49
-5.37 -0.46 2.49
-5.35 -0.56 2.49
-5.34 -0.67 2.49
-5.33 -0.78 2.49
-5.31 -0.88 2.49
-5.29 -0.99 2.49
-5.27 -1.10 2.49
-5.25 -1.20 2.49
-5.22 -1.31 2.49
-5.19 -1.41 2.49
-5.16 -1.52 2.49
-5.13 -1.62 2.49
-5.10 -1.72 2.49
-5.06 -1.82 2.49
-5.02 -1.92 2.49
-4.98 -2.02 2.49
-4.94 -2.12 2.49
-4.90 -2.22 2.49
-4.85 -2.32 2.49
-4.80 -2.42 2.49
-4.75 -2.51 2.49
-4.70 -2.61 2.49
-4.65 -2.70 2.49
-4.59 -2.79 2.49
-4.54 -2.89 2.49
-4.48 -2.98 2.49
-4.42 -3.07 2.49
-4.35 -3.15 2.49
-4.29 -3.24 2.49
-4.22 -3.32 2.49
-4.15 -3.41 2.49
-4.09 -3.49 2.49
-4.01 -3.57 2.49
-3.94 -3.65 2.49
-3.87 -3.73 2.49
-3.79 -3.81 2.49
-3.71 -3.88 2.49
-3.64 -3.96 2.49
-3.55 -4.03 2.49
-3.47 -4.10 2.49
-3.39 -4.17 2.49
-3.31 -4.23 2.49
-3.22 -4.30 2.49
-3.13 -4.36 2.49
-3.04 -4.42 2.49
-2.95 -4.48 2.49
-2.86 -4.54 2.49
-2.77 -4.60 2.49
-2.68 -4.65 2.49
-2.58 -4.71 2.49
-2.49 -4.76 2.49
-2.39 -4.81 2.49
-2.30 -4.85 2.49
-2.20 -4.90 2.49
-2.10 -4.94 2.49
-2.00 -4.98 2.49
-1.90 -5.02 2.49
-1.80 -5.06 2.49
-1.70 -5.09 2.49
-1.59 -5.13 2.49
-1.49 -5.16 2.49
-1.39 -5.19 2.49
-1.28 -5.21 2.49
-1.18 -5.24 2.49
-1.07 -5.26 2.49
-0.97 -5.28 2.49
-0.80 -4.96 2.33
-0.62 -4.41 2.07
-0.53 -4.41 2.06
-0.44 -4.41 2.06
-0.35 -4.41 2.05
-0.27 -4.41 2.05
-0.18 -4.41 2.05
-0.09 -4.41 2.05
0.00 -4.41 2.17
0.09 -4.41 2.17
0.18 -4.41 2.17
0.27 -4.41 2.17
0.36 -4.41 2.18
0.44 -4.41 2.18
0.53 -4.41 2.19
0.62 -4.41 2.19
0.72 -4.41 2.20
0.81 -4.41 2.21
0.90 -4.41 2.22
0.99 -4.41 2.23
1.09 -4.41 2.24
1.31 -4.89 2.49
1.41 -4.87 2.49
1.50 -4.84 2.49
1.60 -4.81 2.49
1.70 -4.77 2.49
1.79 -4.74 2.49
1.89 -4.70 2.49
1.98 -4.66 2.49
2.07 -4.62 2.49
2.17 -4.58 2.49
2.25 -4.53 2.49
2.26 -4.32 2.40
2.34 -4.26 2.39
2.42 -4.21 2.39
2.51 -4.16 2.39
2.59 -4.11 2.39
2.67 -4.06 2.39
2.75 -4.00 2.39
2.83 -3.95 2.39
2.49 -3.33 2.04
2.99 -3.83 2.39
3.07 -3.77 2.39
3.14 -3.71 2.39
3.22 -3.64 2.39
3.29 -3.58 2.39
3.36 -3.51 2.39
3.43 -3.44 2.39
3.50 -3.37 2.39
3.57 -3.30 2.39
3.63 -3.23 2.39
3.70 -3.16 2.39
3.76 -3.08 2.39
3.82 -3.01 2.39
3.88 -2.93 2.39
3.94 -2.85 2.39
4.00 -2.77 2.39
4.05 -2.69 2.39
4.10 -2.61 2.39
4.16 -2.53 2.39
4.21 -2.44 2.39
4.25 -2.36 2.39
4.30 -2.27 2.39
4.35 -2.19 2.39
4.39 -2.10 2.39
4.43 -2.01 2.39
4.47 -1.92 2.39
4.51 -1.83 2.39
4.54 -1.74 2.39
4.58 -1.65 2.39
4.61 -1.56 2.39
4.64 -1.46 2.39
4.67 -1.37 2.39
4.70 -1.28 2.39
4.72 -1.18 2.39
4.75 -1.09 2.39
4.77 -0.99 2.39
4.79 -0.90 2.39
4.80 -0.80 2.39
4.82 -0.70 2.39
4.83 -0.61 2.39
4.84 -0.51 2.39
4.85 -0.41 2.39
4.86 -0.31 2.39
4.87 -0.22 2.39
4.87 -0.12 2.39
4.87 -0.02 2.39
4.87 0.08 2.39
4.87 0.17 2.39
4.87 0.27 2.39
4.86 0.37 2.39
4.85 0.47 2.39
4.84 0.56 2.39
4.83 0.66 2.39
4.82 0.76 2.39
4.80 0.86 2.39
4.78 0.95 2.39
4.76 1.05 2.39
4.74 1.14 2.39
4.72 1.24 2.39
4.69 1.33 2.39
4.66 1.43 2.39
4.64 1.52 2.39
4.60 1.61 2.39
4.57 1.70 2.39
4.54 1.80 2.39
4.50 1.89 2.39
4.46 1.98 2.39
4.42 2.07 2.39
4.38 2.15 2.39
4.33 2.24 2.39
4.29 2.33 2.39
4.24 2.41 2.39
4.19 2.50 2.39
4.14 2.58 2.39
4.09 2.67 2.39
4.04 2.75 2.39
3.98 2.83 2.39
3.92 2.91 2.39
3.86 2.99 2.39
3.80 3.06 2.39
3.74 3.14 2.39
3.68 3.21 2.39
3.61 3.29 2.39
3.55 3.36 2.39
3.48 3.43 2.39
3.41 3.50 2.39
3.34 3.57 2.39
3.27 3.63 2.39
3.19 3.70 2.39
3.12 3.76 2.39
3.04 3.82 2.39
2.96 3.88 2.39
2.89 3.94 2.39
2.81 4.00 2.39
2.73 4.06 2.39
2.64 4.11 2.39
2.56 4.16 2.39
2.48 4.21 2.39
2.39 4.26 2.39
2.31 4.31 2.39
2.24 4.39 2.41
2.22 4.59 2.49
2.13 4.63 2.49
2.04 4.67 2.49
1.94 4.71 2.49
1.85 4.75 2.49
1.75 4.79 2.49
1.66 4.82 2.49
1.56 4.86 2.49
1.46 4.89 2.49
1.36 4.91 2.49
1.27 4.94 2.49
1.17 4.96 2.49
1.07 4.99 2.49
0.97 5.01 2.49
0.87 5.03 2.49
0.76 5.04 2.49
0.66 5.06 2.49
0.56 5.07 2.49
0.46 5.08 2.49
0.36 5.09 2.49
0.26 5.09 2.49
0.15 5.10 2.49
0.05 5.10 2.49
-0.05 5.10 2.49
-0.15 5.10 2.49
-0.26 5.09 2.49
-0.36 5.09 2.49
-0.46 5.08 2.49
-0.56 5.07 2.49
-0.66 5.06 2.49
-0.76 5.04 2.49
-0.87 5.03 2.49
-0.97 5.01 2.49
-1.07 4.99 2.49
-1.17 4.96 2.49
-1.27 4.94 2.49
-1.36 4.91 2.49
-1.46 4.89 2.49
-1.56 4.86 2.49
-1.66 4.82 2.49
-1.75 4.79 2.49
-1.85 4.75 2.49
-1.94 4.71 2.49
-2.04 4.67 2.49
-2.13 4.63 2.49
-2.22 4.59 2.49
-2.32 4.54 2.49
-2.41 4.49 2.49
-2.50 4.45 2.49
-2.58 4.39 2.49
-2.67 4.34 2.49
-2.76 4.29 2.49
-2.84 4.23 2.49
-2.93 4.17 2.49
-3.01 4.11 2.49
-3.09 4.05 2.49
-3.17 3.99 2.49
-3.25 3.92 2.49
-3.33 3.86 2.49
-3.41 3.79 2.49
-3.48 3.72 2.49
-3.56 3.65 2.49
-3.63 3.58 2.49
-3.70 3.50 2.49
-3.77 3.43 2.49
-3.84 3.35 2.49
-3.90 3.27 2.49
-3.97 3.20 2.49
-3.50 2.70 2.16
-3.48 2.58 2.12
-3.50 2.49 2.10
-3.54 2.41 2.10
-3.60 2.35 2.10
-3.68 2.30 2.12
-3.80 2.27 2.17
-4.42 2.52 2.49
-4.47 2.43 2.49
-4.52 2.34 2.49
-4.57 2.25 2.49
-4.61 2.16 2.49
-4.65 2.06 2.49
-4.69 1.97 2.49
-4.73 1.87 2.49
-4.77 1.78 2.49
-4.80 1.68 2.49
-4.84 1.59 2.49
-4.87 1.49 2.49
-4.89 1.39 2.49
-4.92 1.29 2.49
-4.95 1.19 2.49
-4.97 1.09 2.49
-4.99 0.99 2.49
-5.01 0.89 2.49
-5.02 0.79 2.49
-5.04 0.69 2.49
-5.05 0.59 2.49
-5.06 0.49 2.49
-5.07 0.39 2.49
-5.08 0.28 2.49
-5.08 0.18 2.49
-5.08 0.08 2.49
-5.08 -0.02 2.49
-5.08 -0.12 2.49
-5.08 -0.23 2.49
-5.07 -0.33 2.49
-5.06 -0.43 2.49
-5.05 -0.53 2.49
-5.04 -0.63 2.49
-5.03 -0.73 2.49
-5.01 -0.83 2.49
-4.99 -0.93 2.49
-4.97 -1.03 2.49
-4.95 -1.13 2.49
-4.93 -1.23 2.49
-4.90 -1.33 2.49
-4.87 -1.43 2.49
-4.84 -1.53 2.49
-4.81 -1.62 2.49
-4.78 -1.72 2.49
-4.74 -1.82 2.49
-4.70 -1.91 2.49
-4.66 -2.00 2.49
-4.62 -2.10 2.49
-4.58 -2.19 2.49
-4.53 -2.28 2.49
-4.49 -2.37 2.49
-4.44 -2.46 2.49
-4.39 -2.55 2.49
-4.33 -2.64 2.49
-4.28 -2.72 2.49
-4.23 -2.81 2.49
-4.17 -2.89 2.49
-4.11 -2.98 2.49
-4.05 -3.06 2.49
-3.99 -3.14 2.49
-3.92 -3.22 2.49
-3.86 -3.29 2.49
-3.79 -3.37 2.49
-3.72 -3.45 2.49
-3.65 -3.52 2.49
-3.58 -3.59 2.49
-3.51 -3.66 2.49
-3.43 -3.73 2.49
-3.35 -3.80 2.49
-3.28 -3.87 2.49
-3.20 -3.93 2.49
-3.12 -4.00 2.49
-3.04 -4.06 2.49
-2.96 -4.12 2.49
-2.87 -4.18 2.49
-2.79 -4.23 2.49
-2.70 -4.29 2.49
-2.62 -4.34 2.49
-2.53 -4.39 2.49
